3.335756659507751465e-01 -2.367360442876815796e-01 1.845625601708889008e-02
3.935255706310272217e-01 -1.022259071469306946e-01 -1.450708694756031036e-02
3.648076951503753662e-01 -1.075146570801734924e-01 -1.052756458520889282e-01
2.691074609756469727e-01 -1.922773867845535278e-01 6.359802931547164917e-02
4.813184440135955811e-01 -2.164930701255798340e-01 -9.152030199766159058e-02
3.641417622566223145e-01 -2.353245913982391357e-01 1.706020981073379517e-01
3.612734377384185791e-01 -2.410008609294891357e-01 -1.090742368251085281e-02
3.296681046485900879e-01 -2.127841264009475708e-01 -2.009205520153045654e-01
3.026733398437500000e-01 -2.251868844032287598e-01 4.601194988936185837e-03
3.544197976589202881e-01 -2.211355417966842651e-01 2.514732182025909424e-01
3.824488520622253418e-01 -1.418138444423675537e-01 2.883089184761047363e-01
3.308175802230834961e-01 -1.343438625335693359e-01 -2.243101447820663452e-01
4.445280134677886963e-01 -1.190433129668235779e-01 1.628195047378540039e-01
4.844276905059814453e-01 -2.074259370565414429e-01 -1.489532589912414551e-01
3.153229653835296631e-01 -2.298190593719482422e-01 9.128898382186889648e-02
3.029779195785522461e-01 -1.404009163379669189e-01 -1.653767824172973633e-01
2.830968499183654785e-01 -2.100847959518432617e-01 -3.248786181211471558e-02
3.896009624004364014e-01 -2.181098759174346924e-01 -2.329570949077606201e-01
4.333781003952026367e-01 -1.060668826103210449e-01 5.296175926923751831e-02
3.774680197238922119e-01 -2.342456281185150146e-01 -1.292867064476013184e-01
3.993156552314758301e-01 -1.062489598989486694e-01 8.837191015481948853e-02
3.130948543548583984e-01 -2.302473783493041992e-01 4.174795374274253845e-02
3.903813362121582031e-01 -1.248235702514648438e-01 -2.624361515045166016e-01
3.874047398567199707e-01 -1.236480921506881714e-01 2.207791507244110107e-01
4.440899789333343506e-01 -1.216388642787933350e-01 1.795366406440734863e-01
2.966416478157043457e-01 -2.051570266485214233e-01 -1.440814584493637085e-01
5.087097883224487305e-01 -1.999736428260803223e-01 4.256227985024452209e-02
3.890060484409332275e-01 -2.373050749301910400e-01 1.594419330358505249e-01
2.892833948135375977e-01 -1.508001685142517090e-01 1.538217663764953613e-01
4.238942265510559082e-01 -2.389461100101470947e-01 -2.176824025809764862e-02
4.727462232112884521e-01 -1.327362358570098877e-01 1.794491708278656006e-01
3.047572076320648193e-01 -2.198327779769897461e-01 1.511088013648986816e-01
2.832975685596466064e-01 -2.028567045927047729e-01 -9.103431552648544312e-02
4.193353652954101562e-01 -2.351636886596679688e-01 1.507788449525833130e-01
3.320557177066802979e-01 -1.139095574617385864e-01 -5.189008265733718872e-02
5.000132918357849121e-01 -2.052843570709228516e-01 8.581992983818054199e-02
2.707427442073822021e-01 -1.911337375640869141e-01 -4.824823141098022461e-02
3.897186219692230225e-01 -2.414334565401077271e-01 -3.539971262216567993e-02
2.678380608558654785e-01 -1.736903339624404907e-01 -4.820758476853370667e-02
4.324489533901214600e-01 -2.351865619421005249e-01 -6.930134445428848267e-02
4.922864735126495361e-01 -1.464473009109497070e-01 -2.124950885772705078e-01
5.094960927963256836e-01 -2.002911567687988281e-01 4.097777418792247772e-04
4.824370741844177246e-01 -1.982018649578094482e-01 -1.990727335214614868e-01
3.862740695476531982e-01 -1.116527691483497620e-01 1.410935074090957642e-01
4.157924950122833252e-01 -2.301089912652969360e-01 -1.530089974403381348e-01
2.823155820369720459e-01 -2.098247408866882324e-01 8.478647470474243164e-02
4.507342875003814697e-01 -1.124107241630554199e-01 -1.533697396516799927e-01
3.803705275058746338e-01 -1.357246041297912598e-01 2.688817679882049561e-01
2.812688946723937988e-01 -1.575659364461898804e-01 1.394347697496414185e-01
3.918519318103790283e-01 -1.147621273994445801e-01 1.682990193367004395e-01
2.871511280536651611e-01 -1.755217164754867554e-01 -1.713959723711013794e-01
4.959048628807067871e-01 -1.435152292251586914e-01 1.510389447212219238e-01
4.870046079158782959e-01 -1.194077134132385254e-01 -2.022627927362918854e-02
4.504819512367248535e-01 -1.181695759296417236e-01 1.461595296859741211e-01
3.241350054740905762e-01 -1.169145405292510986e-01 2.493497915565967560e-02
3.789927959442138672e-01 -1.131317913532257080e-01 -1.911367326974868774e-01
4.420319795608520508e-01 -1.051228418946266174e-01 -1.811970770359039307e-02
2.911442220211029053e-01 -1.394573003053665161e-01 9.392940998077392578e-02
3.621898889541625977e-01 -2.378595769405364990e-01 1.402987837791442871e-01
4.552807509899139404e-01 -2.319856882095336914e-01 3.604330122470855713e-02
3.453913033008575439e-01 -1.677128225564956665e-01 -3.022169172763824463e-01
4.592561423778533936e-01 -1.093307882547378540e-01 4.691354930400848389e-03
3.843739628791809082e-01 -1.204261332750320435e-01 2.022963464260101318e-01
2.919875979423522949e-01 -1.563520282506942749e-01 -1.732378751039505005e-01
4.687924385070800781e-01 -1.149145960807800293e-01 -1.194460913538932800e-01
4.800572991371154785e-01 -1.941027343273162842e-01 2.228136360645294189e-01
3.340820372104644775e-01 -2.369408309459686279e-01 4.245609417557716370e-02
3.847957551479339600e-01 -1.070684418082237244e-01 -1.397386044263839722e-01
4.478453397750854492e-01 -2.277727127075195312e-01 -1.152172386646270752e-01
4.218385219573974609e-01 -1.188068091869354248e-01 -2.342237979173660278e-01
3.197916448116302490e-01 -2.226349115371704102e-01 -1.240062937140464783e-01
4.943232834339141846e-01 -1.749854683876037598e-01 2.034969925880432129e-01
3.190356194972991943e-01 -1.185554042458534241e-01 3.922518808394670486e-03
3.279791474342346191e-01 -2.222833633422851562e-01 -1.483673900365829468e-01
4.775673151016235352e-01 -1.724029332399368286e-01 -2.632524669170379639e-01
5.037572383880615234e-01 -1.315179467201232910e-01 2.240150608122348785e-02
3.214765787124633789e-01 -1.174183487892150879e-01 -1.342145819216966629e-02
3.514126539230346680e-01 -1.083597019314765930e-01 -5.625334009528160095e-02
3.402556478977203369e-01 -1.213863790035247803e-01 1.531852334737777710e-01
2.657264471054077148e-01 -1.818786412477493286e-01 3.984067589044570923e-02
4.223382472991943359e-01 -1.069359555840492249e-01 8.549822121858596802e-02
2.894730567932128906e-01 -1.861059814691543579e-01 2.079659700393676758e-01
4.568831920623779297e-01 -1.372434347867965698e-01 -2.680678963661193848e-01
3.905200660228729248e-01 -2.330960333347320557e-01 1.970338523387908936e-01
3.941497206687927246e-01 -2.307547628879547119e-01 -1.602685153484344482e-01
3.281439542770385742e-01 -2.282628715038299561e-01 -1.030083373188972473e-01
2.693042457103729248e-01 -1.765475869178771973e-01 -6.610384583473205566e-02
3.385625183582305908e-01 -2.334543913602828979e-01 -7.895042747259140015e-02
3.695337772369384766e-01 -1.078317239880561829e-01 -1.232891753315925598e-01
4.751006960868835449e-01 -2.237300276756286621e-01 -2.128998376429080963e-02
4.614928960800170898e-01 -1.097911223769187927e-01 -6.030467152595520020e-02
3.481661677360534668e-01 -1.214909851551055908e-01 1.704144626855850220e-01
3.369017243385314941e-01 -1.133502423763275146e-01 -8.131179958581924438e-02
4.620273709297180176e-01 -2.246677279472351074e-01 1.310514509677886963e-01
5.055737495422363281e-01 -1.346741169691085815e-01 -9.525559842586517334e-02
2.781421542167663574e-01 -1.800323128700256348e-01 -1.274164319038391113e-01
4.249067306518554688e-01 -1.028423085808753967e-01 -2.586973644793033600e-02
3.121787905693054199e-01 -2.144672572612762451e-01 -1.519268304109573364e-01
2.704619765281677246e-01 -1.900054514408111572e-01 9.466859698295593262e-02
3.757522106170654297e-01 -1.566565036773681641e-01 3.182714283466339111e-01
3.382085859775543213e-01 -2.376036942005157471e-01 6.539232283830642700e-02
3.679305911064147949e-01 -1.142429113388061523e-01 1.462885141372680664e-01
4.442943930625915527e-01 -2.311719208955764771e-01 -8.761406689882278442e-02
3.174788653850555420e-01 -2.259226739406585693e-01 -8.827624469995498657e-02
3.470422327518463135e-01 -2.321022599935531616e-01 -1.135208159685134888e-01
3.958247900009155273e-01 -1.752713769674301147e-01 3.366726040840148926e-01
3.966361582279205322e-01 -1.020623296499252319e-01 -3.319017589092254639e-02
4.639942646026611328e-01 -2.126234769821166992e-01 -1.833377331495285034e-01
4.852804839611053467e-01 -1.185415387153625488e-01 -3.978013247251510620e-02
4.329267442226409912e-01 -1.256442964076995850e-01 -2.577648162841796875e-01
4.900078177452087402e-01 -1.227424293756484985e-01 -9.037340432405471802e-02
3.831987082958221436e-01 -2.251146137714385986e-01 -1.965610086917877197e-01
2.989208400249481201e-01 -1.528925001621246338e-01 1.990939974784851074e-01
2.956442832946777344e-01 -1.633970439434051514e-01 -1.974756568670272827e-01
4.278913140296936035e-01 -2.299974560737609863e-01 -1.383990496397018433e-01
4.595674574375152588e-01 -2.107761502265930176e-01 2.245689928531646729e-01
4.105114340782165527e-01 -2.102525681257247925e-01 -2.607032954692840576e-01
4.546868205070495605e-01 -1.148578748106956482e-01 1.094530969858169556e-01
3.168113529682159424e-01 -1.484186053276062012e-01 2.336074262857437134e-01
4.961501955986022949e-01 -2.075058519840240479e-01 -8.592535555362701416e-02
3.192793428897857666e-01 -2.103246152400970459e-01 -1.895369440317153931e-01
4.982346594333648682e-01 -1.432219743728637695e-01 -1.831026673316955566e-01
4.249526560306549072e-01 -1.372582316398620605e-01 -2.980737388134002686e-01
4.467776715755462646e-01 -1.699706763029098511e-01 3.011877834796905518e-01
3.356844186782836914e-01 -1.624714136123657227e-01 2.954102456569671631e-01
4.118513762950897217e-01 -2.185228317975997925e-01 -2.260896861553192139e-01
3.047160506248474121e-01 -1.257120966911315918e-01 1.224710047245025635e-02
3.423830270767211914e-01 -1.145762354135513306e-01 -1.270679682493209839e-01
3.336177170276641846e-01 -1.290194690227508545e-01 -2.078947722911834717e-01
3.416019678115844727e-01 -1.142783015966415405e-01 8.674932271242141724e-02
4.719175696372985840e-01 -1.136240959167480469e-01 1.341175567358732224e-02
2.958704233169555664e-01 -2.078018486499786377e-01 -1.288842409849166870e-01
3.353115618228912354e-01 -1.124646067619323730e-01 -3.354841098189353943e-02
3.588560521602630615e-01 -1.192425936460494995e-01 -2.053781151771545410e-01
4.256269037723541260e-01 -2.392442822456359863e-01 4.865826293826103210e-02
4.452411830425262451e-01 -1.072123721241950989e-01 3.658637031912803650e-02
3.963228166103363037e-01 -1.072069182991981506e-01 -1.509914845228195190e-01
4.653716981410980225e-01 -2.266884893178939819e-01 8.475502580404281616e-02
3.041812181472778320e-01 -2.038304060697555542e-01 2.235166728496551514e-01
3.283203840255737305e-01 -1.181091517210006714e-01 -1.080310866236686707e-01
4.687076807022094727e-01 -1.871611773967742920e-01 -2.607782781124114990e-01
4.345882534980773926e-01 -1.040361374616622925e-01 -4.953262582421302795e-02
4.907791614532470703e-01 -1.342683136463165283e-01 1.296815425157546997e-01
4.129034578800201416e-01 -1.021518036723136902e-01 -4.418604075908660889e-02
4.297692477703094482e-01 -1.366946399211883545e-01 2.604813575744628906e-01
3.094993233680725098e-01 -1.579170972108840942e-01 -2.318613827228546143e-01
2.771182656288146973e-01 -1.525865793228149414e-01 -7.067919522523880005e-02
4.933985769748687744e-01 -2.124517112970352173e-01 6.246022507548332214e-02
3.643642067909240723e-01 -1.103195995092391968e-01 -1.429057568311691284e-01
4.972488880157470703e-01 -1.880231201648712158e-01 1.785827875137329102e-01
3.254550695419311523e-01 -2.128790915012359619e-01 2.441729903221130371e-01
4.544679224491119385e-01 -1.130544245243072510e-01 9.167335182428359985e-02
3.959931433200836182e-01 -2.342015802860260010e-01 -1.312906146049499512e-01
3.483139276504516602e-01 -2.382922917604446411e-01 1.027252301573753357e-01
4.743618071079254150e-01 -1.156112179160118103e-01 -9.777975082397460938e-02
3.228933811187744141e-01 -2.300413548946380615e-01 1.313239783048629761e-01
2.966151833534240723e-01 -1.942555904388427734e-01 -1.795343905687332153e-01
4.594329297542572021e-01 -1.328685432672500610e-01 -2.516355514526367188e-01
4.483048915863037109e-01 -1.805327385663986206e-01 -3.006896078586578369e-01
3.097182810306549072e-01 -1.287501603364944458e-01 -1.230845153331756592e-01
4.338254332542419434e-01 -2.362780570983886719e-01 9.226222336292266846e-02
4.832025468349456787e-01 -1.179132908582687378e-01 4.138419171795248985e-04
3.798812925815582275e-01 -2.358209341764450073e-01 1.746691465377807617e-01
4.741554558277130127e-01 -1.775087863206863403e-01 2.563890814781188965e-01
4.481065273284912109e-01 -1.364278942346572876e-01 2.396486550569534302e-01
3.718760907649993896e-01 -2.375016212463378906e-01 1.541767865419387817e-01
3.512275815010070801e-01 -1.422152519226074219e-01 -2.817923426628112793e-01
3.651561737060546875e-01 -1.888212710618972778e-01 3.288798332214355469e-01
4.047786891460418701e-01 -2.413209974765777588e-01 7.796823233366012573e-02
3.683600723743438721e-01 -1.244699209928512573e-01 2.142473459243774414e-01
3.821871876716613770e-01 -1.439044326543807983e-01 -3.113534450531005859e-01
4.138054251670837402e-01 -2.370249330997467041e-01 -8.544385433197021484e-02
3.578060269355773926e-01 -2.231187820434570312e-01 -1.918542087078094482e-01
2.993968725204467773e-01 -1.360870003700256348e-01 1.177091225981712341e-01
3.767717480659484863e-01 -2.389854788780212402e-01 -7.575637847185134888e-02
3.290794491767883301e-01 -1.902428716421127319e-01 2.949507534503936768e-01
2.871051430702209473e-01 -1.573392748832702637e-01 1.680719405412673950e-01
3.684847652912139893e-01 -2.404709309339523315e-01 -4.188998043537139893e-02
4.708392024040222168e-01 -2.233126759529113770e-01 9.967619925737380981e-02
2.739444673061370850e-01 -1.596169471740722656e-01 9.541666507720947266e-02
4.666948318481445312e-01 -2.279104292392730713e-01 1.359190605580806732e-02
3.493967652320861816e-01 -2.400091588497161865e-01 4.899504408240318298e-02
3.498574495315551758e-01 -1.863013505935668945e-01 -2.957884371280670166e-01
5.125947594642639160e-01 -1.847140789031982422e-01 -1.174720227718353271e-01
4.525520801544189453e-01 -1.259749233722686768e-01 -2.368249148130416870e-01
5.234541893005371094e-01 -1.741023361682891846e-01 -2.568875439465045929e-02
3.041631281375885010e-01 -2.256309241056442261e-01 7.253815978765487671e-02
3.859687745571136475e-01 -1.869542449712753296e-01 -3.176737725734710693e-01
3.976259529590606689e-01 -1.040228456258773804e-01 -1.061253249645233154e-01
3.660979270935058594e-01 -2.268499135971069336e-01 -1.774811744689941406e-01
4.247147738933563232e-01 -2.029567062854766846e-01 2.991513311862945557e-01
3.404124081134796143e-01 -2.118134498596191406e-01 2.703143656253814697e-01
3.535020351409912109e-01 -1.291238963603973389e-01 -2.456517219543457031e-01
3.491026759147644043e-01 -1.086923405528068542e-01 5.255397409200668335e-03
4.738990068435668945e-01 -1.253438144922256470e-01 1.363956779241561890e-01
2.779556512832641602e-01 -1.476671546697616577e-01 3.865857794880867004e-02
4.507655799388885498e-01 -1.068010553717613220e-01 -3.995740041136741638e-02
4.378830790519714355e-01 -1.531668454408645630e-01 2.930447161197662354e-01
3.575294613838195801e-01 -1.215501129627227783e-01 1.856752634048461914e-01
4.874610900878906250e-01 -1.635324805974960327e-01 2.201849818229675293e-01
3.872535824775695801e-01 -1.095472872257232666e-01 -1.688753068447113037e-01
4.936977624893188477e-01 -1.266859918832778931e-01 5.650401860475540161e-02
3.522312045097351074e-01 -1.329631656408309937e-01 2.374658584594726562e-01
5.130428671836853027e-01 -1.950884908437728882e-01 -3.811310976743698120e-02
3.807363510131835938e-01 -2.402511686086654663e-01 -5.812941864132881165e-02
5.037948489189147949e-01 -1.931527853012084961e-01 -1.356675624847412109e-01
4.735801517963409424e-01 -1.308230161666870117e-01 -2.160251587629318237e-01
5.223095417022705078e-01 -1.680166721343994141e-01 -7.037715613842010498e-02
3.499027490615844727e-01 -2.253672182559967041e-01 2.264084666967391968e-01
5.182739496231079102e-01 -1.813149899244308472e-01 6.738986074924468994e-02
5.112496614456176758e-01 -1.623629182577133179e-01 -1.581776887178421021e-01
3.836267292499542236e-01 -1.897005736827850342e-01 3.332638144493103027e-01
5.200593471527099609e-01 -1.745103448629379272e-01 -8.719620108604431152e-02
2.745935916900634766e-01 -1.675514578819274902e-01 -1.032957062125205994e-01
3.850893676280975342e-01 -2.120850980281829834e-01 -2.565840184688568115e-01
3.017846047878265381e-01 -1.293422281742095947e-01 -7.381518930196762085e-02
4.349862635135650635e-01 -1.144895702600479126e-01 -1.975991725921630859e-01
3.526617884635925293e-01 -2.001600861549377441e-01 -2.729201316833496094e-01
4.423120617866516113e-01 -1.092178001999855042e-01 -1.379320174455642700e-01
2.989414334297180176e-01 -2.216493785381317139e-01 9.595720469951629639e-02
4.031157195568084717e-01 -1.346019208431243896e-01 -2.966984510421752930e-01
3.627919256687164307e-01 -2.186626642942428589e-01 2.676346302032470703e-01
3.466212451457977295e-01 -2.393001616001129150e-01 4.671220201998949051e-03
4.743003249168395996e-01 -2.231764495372772217e-01 -4.534029588103294373e-02
5.152993202209472656e-01 -1.732047051191329956e-01 1.081112474203109741e-01
3.776203989982604980e-01 -2.175193578004837036e-01 2.775060832500457764e-01
4.932251870632171631e-01 -2.024114280939102173e-01 1.484695523977279663e-01
2.856599688529968262e-01 -1.476957201957702637e-01 1.181309372186660767e-01
4.225327074527740479e-01 -1.783483475446701050e-01 -3.232568204402923584e-01
3.669783473014831543e-01 -1.795451343059539795e-01 -3.173997700214385986e-01
4.146286845207214355e-01 -1.061410158872604370e-01 -1.381957232952117920e-01
3.280770480632781982e-01 -2.326683402061462402e-01 -5.077559128403663635e-02
4.853381514549255371e-01 -1.257244646549224854e-01 -1.503405123949050903e-01
4.865201413631439209e-01 -2.179320305585861206e-01 3.786994516849517822e-02
4.844446182250976562e-01 -1.279343962669372559e-01 -1.688609719276428223e-01
4.643479287624359131e-01 -1.992355287075042725e-01 -2.382989078760147095e-01
4.288729727268218994e-01 -2.381596565246582031e-01 7.032593339681625366e-02
4.067866206169128418e-01 -1.046521291136741638e-01 -1.194248497486114502e-01
3.800925910472869873e-01 -1.703229695558547974e-01 3.341891765594482422e-01
4.573479890823364258e-01 -1.657078117132186890e-01 -2.993866801261901855e-01
2.835271358489990234e-01 -1.757758110761642456e-01 1.860183924436569214e-01
4.554192423820495605e-01 -1.354398578405380249e-01 2.253201901912689209e-01
4.466068744659423828e-01 -1.067414805293083191e-01 1.801536232233047485e-02
5.062549710273742676e-01 -2.033931910991668701e-01 -1.489306986331939697e-02
3.053087592124938965e-01 -1.416331976652145386e-01 1.763468533754348755e-01
3.126688301563262939e-01 -1.224738955497741699e-01 -6.230047717690467834e-02
3.899860978126525879e-01 -1.538511812686920166e-01 -3.272116482257843018e-01
3.504369556903839111e-01 -1.261575967073440552e-01 2.026369273662567139e-01
4.616873264312744141e-01 -2.145945727825164795e-01 2.025673836469650269e-01
4.917166829109191895e-01 -1.255221962928771973e-01 -1.134142354130744934e-01
3.781467080116271973e-01 -2.426539957523345947e-01 1.272728014737367630e-02
4.789399802684783936e-01 -1.556871831417083740e-01 -2.598536610603332520e-01
3.650110363960266113e-01 -1.993063390254974365e-01 -2.852472364902496338e-01
4.138566255569458008e-01 -1.044317856431007385e-01 5.598973110318183899e-02
3.036171197891235352e-01 -1.278861463069915771e-01 5.478956550359725952e-02
5.189371705055236816e-01 -1.872112005949020386e-01 -2.737670205533504486e-03
4.495824873447418213e-01 -2.332895249128341675e-01 -1.860785298049449921e-02
4.732121527194976807e-01 -1.399796307086944580e-01 -2.464711964130401611e-01
3.349983990192413330e-01 -2.324737608432769775e-01 1.461367607116699219e-01
4.834746122360229492e-01 -1.183535605669021606e-01 -7.076564431190490723e-02
4.221566021442413330e-01 -2.374794781208038330e-01 1.133173406124114990e-01
4.387482702732086182e-01 -1.049548089504241943e-01 -6.669330596923828125e-02
2.996503710746765137e-01 -1.286960393190383911e-01 -2.427064813673496246e-02
3.786329925060272217e-01 -2.051369547843933105e-01 -2.772452831268310547e-01
4.578920304775238037e-01 -1.243293434381484985e-01 -2.204685211181640625e-01
3.702987134456634521e-01 -2.127829641103744507e-01 -2.482572644948959351e-01
3.140209317207336426e-01 -1.891200244426727295e-01 2.706051468849182129e-01
4.237680733203887939e-01 -1.971466690301895142e-01 -2.923662662506103516e-01
3.051581978797912598e-01 -2.052643299102783203e-01 -1.723075211048126221e-01
3.883610665798187256e-01 -1.508732736110687256e-01 3.107123672962188721e-01
3.954777121543884277e-01 -1.178805604577064514e-01 1.899884790182113647e-01
2.724914252758026123e-01 -1.877846270799636841e-01 -7.731089740991592407e-02
5.018360018730163574e-01 -1.989720314741134644e-01 -1.153227090835571289e-01
4.247731864452362061e-01 -2.132934033870697021e-01 -2.403992414474487305e-01
3.794058859348297119e-01 -2.257051318883895874e-01 2.432103455066680908e-01
2.743360400199890137e-01 -1.748241782188415527e-01 1.379373818635940552e-01
3.056303858757019043e-01 -1.254384517669677734e-01 -3.944423794746398926e-02
4.007333517074584961e-01 -1.457436531782150269e-01 -3.191700875759124756e-01
4.610697329044342041e-01 -2.206793725490570068e-01 1.686001420021057129e-01
3.446100056171417236e-01 -1.374918222427368164e-01 -2.605586349964141846e-01
2.677249014377593994e-01 -1.650108098983764648e-01 3.819232434034347534e-02
4.094724953174591064e-01 -1.946316212415695190e-01 -3.042199611663818359e-01
4.914548993110656738e-01 -1.978856325149536133e-01 -1.704472303390502930e-01
2.689739763736724854e-01 -1.695544272661209106e-01 8.394961804151535034e-02
5.108652710914611816e-01 -1.375459432601928711e-01 -6.063945218920707703e-02
2.990194261074066162e-01 -2.155636847019195557e-01 -9.571126848459243774e-02
3.824684023857116699e-01 -2.221999168395996094e-01 -2.122106701135635376e-01
2.905140221118927002e-01 -1.411624103784561157e-01 -1.045786365866661072e-01
3.464423418045043945e-01 -2.054881006479263306e-01 -2.517532408237457275e-01
3.726167380809783936e-01 -1.040835604071617126e-01 -1.417569071054458618e-02
4.266259670257568359e-01 -1.590375155210494995e-01 3.115279674530029297e-01
5.198577046394348145e-01 -1.639467775821685791e-01 6.936780363321304321e-02
3.393344283103942871e-01 -2.296229600906372070e-01 1.828154623508453369e-01
2.919202446937561035e-01 -1.778868436813354492e-01 -1.880838125944137573e-01
4.069869518280029297e-01 -2.219104468822479248e-01 2.537589669227600098e-01
4.754089713096618652e-01 -2.240559160709381104e-01 2.592808008193969727e-02
4.142520725727081299e-01 -1.442918330430984497e-01 2.916915714740753174e-01
3.651305437088012695e-01 -1.454198360443115234e-01 2.900625765323638916e-01
3.314923942089080811e-01 -1.164689511060714722e-01 7.276367396116256714e-02
3.669686615467071533e-01 -1.089767590165138245e-01 8.933863043785095215e-02
3.306974172592163086e-01 -1.475502401590347290e-01 2.576332986354827881e-01
3.433586359024047852e-01 -2.153311520814895630e-01 -2.123130261898040771e-01
3.848630487918853760e-01 -1.043625771999359131e-01 4.605995118618011475e-02
3.633981943130493164e-01 -1.083933487534523010e-01 7.218129932880401611e-02
3.972252309322357178e-01 -2.086279839277267456e-01 3.025605678558349609e-01
5.182308554649353027e-01 -1.514650732278823853e-01 -8.575659990310668945e-02
4.559118747711181641e-01 -2.267454415559768677e-01 -9.929528087377548218e-02
2.722825109958648682e-01 -1.662382781505584717e-01 -8.273120969533920288e-02
4.125652313232421875e-01 -1.024128198623657227e-01 -6.204341724514961243e-02
3.690125048160552979e-01 -2.306485772132873535e-01 -1.536866873502731323e-01
4.261011779308319092e-01 -1.082629263401031494e-01 -1.537283807992935181e-01
4.627907574176788330e-01 -1.886154264211654663e-01 2.708796262741088867e-01
4.353682100772857666e-01 -2.323457896709442139e-01 1.445823311805725098e-01
3.122553527355194092e-01 -2.257214039564132690e-01 -6.681773066520690918e-02
4.316382706165313721e-01 -2.224706709384918213e-01 -1.873728036880493164e-01
4.358865022659301758e-01 -2.363114953041076660e-01 -3.232732787728309631e-02
3.353469967842102051e-01 -1.558885276317596436e-01 -2.817644774913787842e-01
3.290496170520782471e-01 -2.185531854629516602e-01 -1.724887192249298096e-01
2.800765633583068848e-01 -1.445565968751907349e-01 1.799142919480800629e-02
5.116011500358581543e-01 -1.374319940805435181e-01 -2.876562252640724182e-02
4.441408514976501465e-01 -2.317952215671539307e-01 1.222792938351631165e-01
5.009485483169555664e-01 -1.347272098064422607e-01 -1.315685063600540161e-01
2.752292752265930176e-01 -1.528612524271011353e-01 -4.949994385242462158e-02
3.348655998706817627e-01 -1.343478262424468994e-01 2.175064235925674438e-01
4.586426317691802979e-01 -1.184587329626083374e-01 1.301168948411941528e-01
5.036675333976745605e-01 -1.682698726654052734e-01 1.691109091043472290e-01
4.973348379135131836e-01 -1.336487680673599243e-01 9.510070830583572388e-02
3.973986208438873291e-01 -2.405735552310943604e-01 1.088583171367645264e-01
4.084482789039611816e-01 -2.280304729938507080e-01 2.211042791604995728e-01
2.909116148948669434e-01 -2.137737274169921875e-01 -6.307352334260940552e-02
4.642887711524963379e-01 -2.279696911573410034e-01 -3.123535029590129852e-02
4.227976202964782715e-01 -1.894340664148330688e-01 3.204313218593597412e-01
3.755891323089599609e-01 -2.426862120628356934e-01 3.740455582737922668e-02
2.994583249092102051e-01 -2.191496938467025757e-01 1.294945925474166870e-01
4.386644661426544189e-01 -2.240031659603118896e-01 -1.668109595775604248e-01
3.503973484039306641e-01 -1.383380591869354248e-01 2.558730542659759521e-01
4.031603336334228516e-01 -1.733387857675552368e-01 -3.320612013339996338e-01
3.680080771446228027e-01 -1.331095844507217407e-01 2.528792321681976318e-01
2.827216982841491699e-01 -2.120744436979293823e-01 4.460337758064270020e-02
4.760242104530334473e-01 -1.282992660999298096e-01 -1.983203589916229248e-01
4.277934134006500244e-01 -2.387181222438812256e-01 -4.420822486281394958e-03
2.966316640377044678e-01 -1.379417330026626587e-01 -1.212296560406684875e-01
4.911541938781738281e-01 -2.144515812397003174e-01 -3.557268902659416199e-02
4.173019528388977051e-01 -1.605528295040130615e-01 -3.303920030593872070e-01
4.123069047927856445e-01 -1.092402786016464233e-01 1.200102195143699646e-01
4.850043356418609619e-01 -2.169327139854431152e-01 8.073405176401138306e-02
4.890537858009338379e-01 -1.259004473686218262e-01 7.834031432867050171e-02
3.335309326648712158e-01 -1.191501244902610779e-01 -1.423551589250564575e-01
3.966624736785888672e-01 -2.389283180236816406e-01 1.358853429555892944e-01
3.280431032180786133e-01 -1.326102763414382935e-01 1.952615976333618164e-01
4.945816993713378906e-01 -2.127738445997238159e-01 -1.762611977756023407e-02
3.470233380794525146e-01 -1.519309133291244507e-01 2.900731563568115234e-01
2.772891521453857422e-01 -1.725711524486541748e-01 1.532746255397796631e-01
3.266734480857849121e-01 -1.205483376979827881e-01 -1.283192038536071777e-01
4.600354731082916260e-01 -1.519860923290252686e-01 -2.894639074802398682e-01
4.855076372623443604e-01 -1.436615586280822754e-01 1.865115910768508911e-01
3.978842198848724365e-01 -2.424488663673400879e-01 4.760475456714630127e-02
4.709911942481994629e-01 -1.270768195390701294e-01 1.553559750318527222e-01
4.623755216598510742e-01 -1.338254660367965698e-01 2.068901956081390381e-01
4.291713237762451172e-01 -2.175426483154296875e-01 -2.171469032764434814e-01
3.141104578971862793e-01 -1.261195540428161621e-01 1.044688075780868530e-01
3.814126253128051758e-01 -2.415104508399963379e-01 9.684796631336212158e-02
5.102601647377014160e-01 -1.470018625259399414e-01 -1.352269798517227173e-01
5.218667387962341309e-01 -1.548849046230316162e-01 4.270077217370271683e-03
4.662428498268127441e-01 -2.173826694488525391e-01 -1.476004570722579956e-01
4.377225935459136963e-01 -2.244673222303390503e-01 2.030409872531890869e-01
3.678292632102966309e-01 -2.299135327339172363e-01 2.153411507606506348e-01
3.717826008796691895e-01 -1.118796244263648987e-01 1.299198716878890991e-01
3.931781947612762451e-01 -2.425389140844345093e-01 5.503058899194002151e-03
4.095142781734466553e-01 -2.247250527143478394e-01 2.385469377040863037e-01
2.882739305496215820e-01 -1.384170949459075928e-01 5.386662855744361877e-02
3.960653841495513916e-01 -1.139900162816047668e-01 -2.088151574134826660e-01
2.723286449909210205e-01 -2.000142782926559448e-01 4.311145097017288208e-02
3.703299462795257568e-01 -2.421934604644775391e-01 5.988864228129386902e-02
4.310990273952484131e-01 -1.043720617890357971e-01 2.161583863198757172e-02
4.767037034034729004e-01 -2.136434912681579590e-01 1.586566269397735596e-01
3.209910988807678223e-01 -2.170826941728591919e-01 2.183197140693664551e-01
3.578907847404479980e-01 -1.137817054986953735e-01 -1.633859276771545410e-01
3.444826900959014893e-01 -1.166836097836494446e-01 -1.555105000734329224e-01
4.392973184585571289e-01 -2.043415009975433350e-01 -2.592058181762695312e-01
4.019093513488769531e-01 -1.051137447357177734e-01 7.219661027193069458e-02
3.419473469257354736e-01 -1.103988513350486755e-01 -8.555401116609573364e-03
4.003688395023345947e-01 -1.100487262010574341e-01 -1.803054660558700562e-01
5.012240409851074219e-01 -1.725898981094360352e-01 -1.982130110263824463e-01
5.072300434112548828e-01 -1.387779712677001953e-01 6.675239652395248413e-02
3.679838180541992188e-01 -1.047743782401084900e-01 -3.636754304170608521e-02
4.683321416378021240e-01 -1.138134971261024475e-01 4.490757733583450317e-02
4.733161330223083496e-01 -2.159596532583236694e-01 -1.337752342224121094e-01
3.729006052017211914e-01 -2.177768498659133911e-01 -2.294684201478958130e-01
3.132902383804321289e-01 -1.590864211320877075e-01 2.522942423820495605e-01
3.427872657775878906e-01 -1.153323054313659668e-01 1.040394082665443420e-01
4.354731142520904541e-01 -2.064710557460784912e-01 2.795175611972808838e-01
4.494226872920989990e-01 -2.310431003570556641e-01 -6.915206462144851685e-02
4.208164513111114502e-01 -1.151309609413146973e-01 -2.137037366628646851e-01
2.715242505073547363e-01 -1.564533561468124390e-01 -1.732643134891986847e-02
5.231305360794067383e-01 -1.582254618406295776e-01 -1.269075926393270493e-02
3.961237072944641113e-01 -2.388235926628112793e-01 -7.913424074649810791e-02
4.399957656860351562e-01 -1.974800676107406616e-01 -2.782507836818695068e-01
2.795122563838958740e-01 -2.088742554187774658e-01 9.387261234223842621e-03
3.493695259094238281e-01 -1.599506735801696777e-01 3.068673610687255859e-01
5.091456770896911621e-01 -1.350826323032379150e-01 -8.172726258635520935e-03
3.621963262557983398e-01 -1.297346055507659912e-01 -2.592314779758453369e-01
2.979984283447265625e-01 -1.309635341167449951e-01 -5.846200883388519287e-02
3.907255530357360840e-01 -2.368469685316085815e-01 -1.056800559163093567e-01
4.140880703926086426e-01 -2.342103868722915649e-01 -1.180718615651130676e-01
2.855432629585266113e-01 -2.092268466949462891e-01 1.210475489497184753e-01
3.534986972808837891e-01 -2.406952977180480957e-01 3.037636913359165192e-02
4.473681747913360596e-01 -2.325626611709594727e-01 -5.285524204373359680e-02
4.913597404956817627e-01 -1.225817650556564331e-01 1.352996751666069031e-02
5.050125718116760254e-01 -1.439425200223922729e-01 -1.545043736696243286e-01
2.843995690345764160e-01 -2.126063108444213867e-01 -1.143530942499637604e-02
3.078516125679016113e-01 -1.949274539947509766e-01 2.510343790054321289e-01
4.089701771736145020e-01 -2.316916584968566895e-01 1.961238980293273926e-01
5.083456039428710938e-01 -1.378065943717956543e-01 4.844344034790992737e-02
3.615139424800872803e-01 -2.365360856056213379e-01 -9.130176901817321777e-02
3.022485375404357910e-01 -1.587107777595520020e-01 2.245137989521026611e-01
3.202541172504425049e-01 -1.408939361572265625e-01 2.150706052780151367e-01
2.800891101360321045e-01 -1.814850121736526489e-01 1.715725064277648926e-01
3.120401501655578613e-01 -2.297157049179077148e-01 1.687127910554409027e-02
4.868941307067871094e-01 -7.598884701728820801e-01 3.239083886146545410e-01
4.790635704994201660e-01 -6.090412735939025879e-01 3.243212401866912842e-01
4.697486758232116699e-01 -6.829487085342407227e-01 3.130934238433837891e-01
4.776596426963806152e-01 -7.725837230682373047e-01 3.237825632095336914e-01
4.871485233306884766e-01 -7.227629423141479492e-01 3.242032825946807861e-01
4.764701426029205322e-01 -7.382391095161437988e-01 3.126218020915985107e-01
4.839289188385009766e-01 -6.440886259078979492e-01 3.218764662742614746e-01
4.795755743980407715e-01 -6.691158413887023926e-01 3.129524588584899902e-01
4.803140759468078613e-01 -6.444760560989379883e-01 3.268115818500518799e-01
4.656822085380554199e-01 -6.235884428024291992e-01 3.175702989101409912e-01
4.815361499786376953e-01 -6.275411248207092285e-01 3.178690671920776367e-01
4.862762093544006348e-01 -7.253076434135437012e-01 3.166400194168090820e-01
4.746649265289306641e-01 -7.691987752914428711e-01 3.209282159805297852e-01
4.748048186302185059e-01 -5.911936759948730469e-01 3.243932127952575684e-01
4.763471782207489014e-01 -7.709922790527343750e-01 3.153326809406280518e-01
4.710966944694519043e-01 -7.023472785949707031e-01 3.129434883594512939e-01
4.733180999755859375e-01 -7.483131885528564453e-01 3.147721290588378906e-01
4.680897593498229980e-01 -5.899143218994140625e-01 3.164060711860656738e-01
4.740681350231170654e-01 -7.647848725318908691e-01 3.167378306388854980e-01
4.705417156219482422e-01 -7.200875282287597656e-01 3.227083683013916016e-01
4.681023061275482178e-01 -7.048316001892089844e-01 3.187085986137390137e-01
4.662080705165863037e-01 -6.624078154563903809e-01 3.196340501308441162e-01
4.840357005596160889e-01 -6.833752989768981934e-01 3.155982494354248047e-01
4.663622081279754639e-01 -6.592776775360107422e-01 3.206245899200439453e-01
4.880636334419250488e-01 -7.485561966896057129e-01 3.210611641407012939e-01
4.766038954257965088e-01 -7.526612281799316406e-01 3.252306580543518066e-01
4.746691882610321045e-01 -6.480760574340820312e-01 3.275154232978820801e-01
4.865853488445281982e-01 -6.854894161224365234e-01 3.206103742122650146e-01
4.819412827491760254e-01 -7.657350301742553711e-01 3.143361210823059082e-01
4.761177897453308105e-01 -7.278857827186584473e-01 3.122527301311492920e-01
4.659364223480224609e-01 -6.562945246696472168e-01 3.188185989856719971e-01
4.871113002300262451e-01 -7.454109191894531250e-01 3.242252767086029053e-01
4.735598266124725342e-01 -7.496204972267150879e-01 3.230471014976501465e-01
4.788315892219543457e-01 -7.047793269157409668e-01 3.120833635330200195e-01
4.851646423339843750e-01 -7.463432550430297852e-01 3.154499828815460205e-01
4.790061712265014648e-01 -6.255071759223937988e-01 3.261676132678985596e-01
4.775351583957672119e-01 -7.037293910980224609e-01 3.278638720512390137e-01
4.813056290149688721e-01 -6.663237214088439941e-01 3.140869438648223877e-01
4.803633093833923340e-01 -6.116657257080078125e-01 3.229260742664337158e-01
4.746693074703216553e-01 -6.288941502571105957e-01 3.270371556282043457e-01
4.698728322982788086e-01 -7.256646156311035156e-01 3.166233897209167480e-01
4.779773354530334473e-01 -7.888944149017333984e-01 3.206091821193695068e-01
4.824288785457611084e-01 -6.303653120994567871e-01 3.230749666690826416e-01
4.827424585819244385e-01 -7.100924849510192871e-01 3.274935185909271240e-01
4.711417257785797119e-01 -6.724104881286621094e-01 3.260156810283660889e-01
4.739553630352020264e-01 -5.884144306182861328e-01 3.242197334766387939e-01
4.694272279739379883e-01 -6.475031971931457520e-01 3.251737356185913086e-01
4.854953885078430176e-01 -6.808382272720336914e-01 3.178506493568420410e-01
4.804630279541015625e-01 -7.541002035140991211e-01 3.134063780307769775e-01
4.812531471252441406e-01 -6.475757956504821777e-01 3.152260184288024902e-01
4.876129925251007080e-01 -7.115172147750854492e-01 3.207968473434448242e-01
4.670946896076202393e-01 -6.849437952041625977e-01 3.195819854736328125e-01
4.741443395614624023e-01 -6.410427689552307129e-01 3.123532235622406006e-01
4.693883657455444336e-01 -6.676356792449951172e-01 3.247791230678558350e-01
4.846957623958587646e-01 -7.014995217323303223e-01 3.154741823673248291e-01
4.790128767490386963e-01 -6.490374803543090820e-01 3.274689614772796631e-01
4.872385561466217041e-01 -7.739831209182739258e-01 3.199008107185363770e-01
4.782404899597167969e-01 -7.826369404792785645e-01 3.226459920406341553e-01
4.750757813453674316e-01 -7.651935815811157227e-01 3.225014507770538330e-01
4.796292781829833984e-01 -7.473338842391967773e-01 3.266561925411224365e-01
4.757762849330902100e-01 -6.018313765525817871e-01 3.253236711025238037e-01
4.832755029201507568e-01 -6.361426711082458496e-01 3.212830722332000732e-01
4.854679405689239502e-01 -7.362132668495178223e-01 3.156350851058959961e-01
4.721596539020538330e-01 -7.189401984214782715e-01 3.246691226959228516e-01
4.663842618465423584e-01 -6.306529641151428223e-01 3.217612802982330322e-01
4.753813147544860840e-01 -6.617801189422607422e-01 3.119083344936370850e-01
4.769896864891052246e-01 -7.858901619911193848e-01 3.190693557262420654e-01
4.781959950923919678e-01 -6.023973822593688965e-01 3.240795433521270752e-01
4.732636213302612305e-01 -7.330945730209350586e-01 3.245237171649932861e-01
4.854089319705963135e-01 -7.917105555534362793e-01 3.193565011024475098e-01
4.817582964897155762e-01 -6.411543488502502441e-01 3.163403868675231934e-01
4.876546561717987061e-01 -7.242210507392883301e-01 3.193873465061187744e-01
4.735735654830932617e-01 -6.448569893836975098e-01 3.121888339519500732e-01
4.758951067924499512e-01 -7.469485402107238770e-01 3.252939879894256592e-01
4.847159385681152344e-01 -6.620329022407531738e-01 3.239674270153045654e-01
4.819003641605377197e-01 -6.264557242393493652e-01 3.233895897865295410e-01
4.733515679836273193e-01 -6.714354157447814941e-01 3.271822631359100342e-01
4.799660444259643555e-01 -7.915183305740356445e-01 3.169663846492767334e-01
4.825277924537658691e-01 -6.384431123733520508e-01 3.244490921497344971e-01
4.713990688323974609e-01 -6.232185363769531250e-01 3.260551691055297852e-01
4.762378931045532227e-01 -7.294957041740417480e-01 3.265968263149261475e-01
4.845745563507080078e-01 -7.205559015274047852e-01 3.149078786373138428e-01
4.664023220539093018e-01 -6.203767061233520508e-01 3.159029185771942139e-01
4.840992093086242676e-01 -6.690129041671752930e-01 3.166712820529937744e-01
4.826813936233520508e-01 -7.891743183135986328e-01 3.233269155025482178e-01
4.760889410972595215e-01 -7.176474332809448242e-01 3.270757496356964111e-01
4.799326956272125244e-01 -7.504923939704895020e-01 3.131642043590545654e-01
4.737605750560760498e-01 -7.186490297317504883e-01 3.124104142189025879e-01
4.696526229381561279e-01 -6.691907048225402832e-01 3.128551840782165527e-01
4.822710454463958740e-01 -7.239388823509216309e-01 3.133649230003356934e-01
4.768760502338409424e-01 -6.575410366058349609e-01 3.123237490653991699e-01
4.719044864177703857e-01 -6.846277117729187012e-01 3.120908141136169434e-01
4.786798357963562012e-01 -5.968005061149597168e-01 3.213845491409301758e-01
4.737870097160339355e-01 -7.367704510688781738e-01 3.133755624294281006e-01
4.710482656955718994e-01 -6.632731556892395020e-01 3.122215867042541504e-01
4.675504565238952637e-01 -6.798948645591735840e-01 3.217050731182098389e-01
4.762708246707916260e-01 -6.997411251068115234e-01 3.116943240165710449e-01
4.815284311771392822e-01 -7.512867450714111328e-01 3.266097009181976318e-01
4.869358539581298828e-01 -7.796840071678161621e-01 3.202877938747406006e-01
4.783459007740020752e-01 -7.778908014297485352e-01 3.235036134719848633e-01
4.751112461090087891e-01 -6.926742196083068848e-01 3.116407096385955811e-01
4.731258451938629150e-01 -6.675835847854614258e-01 3.271278738975524902e-01
4.659503698348999023e-01 -6.100904941558837891e-01 3.175597786903381348e-01
4.744403958320617676e-01 -6.144541501998901367e-01 3.263790905475616455e-01
4.777405261993408203e-01 -7.432392239570617676e-01 3.264036476612091064e-01
4.766160845756530762e-01 -6.575295329093933105e-01 3.278871476650238037e-01
4.870637357234954834e-01 -7.160874009132385254e-01 3.241510391235351562e-01
4.824193716049194336e-01 -7.176244854927062988e-01 3.275271654129028320e-01
4.821651875972747803e-01 -6.979949474334716797e-01 3.135471343994140625e-01
4.767554104328155518e-01 -7.626507282257080078e-01 3.243643343448638916e-01
4.812914431095123291e-01 -7.577409148216247559e-01 3.137522935867309570e-01
4.866462051868438721e-01 -7.283896207809448242e-01 3.171041011810302734e-01
4.699936509132385254e-01 -7.295438051223754883e-01 3.174612224102020264e-01
4.839152097702026367e-01 -7.708401083946228027e-01 3.154734671115875244e-01
4.844025075435638428e-01 -7.217559814453125000e-01 3.267655670642852783e-01
4.807255566120147705e-01 -7.094583511352539062e-01 3.126822113990783691e-01
4.850340485572814941e-01 -6.893685460090637207e-01 3.257713019847869873e-01
4.869261384010314941e-01 -7.314203977584838867e-01 3.246445059776306152e-01
4.693966805934906006e-01 -5.920057892799377441e-01 3.234976232051849365e-01
4.707445800304412842e-01 -6.996966600418090820e-01 3.130491971969604492e-01
4.866335391998291016e-01 -7.420790195465087891e-01 3.248865306377410889e-01
4.785939157009124756e-01 -6.124527454376220703e-01 3.251651525497436523e-01
4.713688194751739502e-01 -7.415948510169982910e-01 3.165388405323028564e-01
4.837836325168609619e-01 -6.565120220184326172e-01 3.248795866966247559e-01
4.824756979942321777e-01 -6.740868091583251953e-01 3.146032392978668213e-01
4.690533578395843506e-01 -6.557543873786926270e-01 3.130933344364166260e-01
4.734950661659240723e-01 -5.753909349441528320e-01 3.216682374477386475e-01
4.800811409950256348e-01 -7.235875725746154785e-01 3.276497125625610352e-01
4.837065935134887695e-01 -7.528383731842041016e-01 3.145652413368225098e-01
4.757722616195678711e-01 -7.202692031860351562e-01 3.268451392650604248e-01
4.755425453186035156e-01 -6.106089949607849121e-01 3.144562244415283203e-01
4.682433903217315674e-01 -6.365764737129211426e-01 3.137141466140747070e-01
4.853931069374084473e-01 -6.650806665420532227e-01 3.224369585514068604e-01
4.658438563346862793e-01 -6.508516073226928711e-01 3.177036345005035400e-01
4.746410548686981201e-01 -7.717224955558776855e-01 3.197175562381744385e-01
4.701204001903533936e-01 -6.182773113250732422e-01 3.253036141395568848e-01
4.849257767200469971e-01 -6.896363496780395508e-01 3.162909746170043945e-01
4.736404716968536377e-01 -5.956105589866638184e-01 3.151781260967254639e-01
4.851693809032440186e-01 -7.243286967277526855e-01 3.263057768344879150e-01
4.730307459831237793e-01 -7.104277014732360840e-01 3.258629739284515381e-01
4.717169404029846191e-01 -7.309860587120056152e-01 3.230852186679840088e-01
4.831759035587310791e-01 -7.155270576477050781e-01 3.139138221740722656e-01
4.761053919792175293e-01 -6.272824406623840332e-01 3.134626150131225586e-01
4.665267169475555420e-01 -6.659389138221740723e-01 3.204827308654785156e-01
4.681251049041748047e-01 -6.220585107803344727e-01 3.141530454158782959e-01
4.779859781265258789e-01 -6.463082432746887207e-01 3.275637924671173096e-01
4.819651842117309570e-01 -7.589055299758911133e-01 3.261816203594207764e-01
4.807323515415191650e-01 -6.937518715858459473e-01 3.279768228530883789e-01
4.720529615879058838e-01 -7.518609166145324707e-01 3.186073601245880127e-01
4.830008447170257568e-01 -7.850040197372436523e-01 3.238925933837890625e-01
4.811080992221832275e-01 -6.213105320930480957e-01 3.238081932067871094e-01
4.730574488639831543e-01 -6.603553295135498047e-01 3.118678331375122070e-01
4.841129183769226074e-01 -7.070699334144592285e-01 3.147572875022888184e-01
4.764697551727294922e-01 -6.466082334518432617e-01 3.126045465469360352e-01
4.776825010776519775e-01 -7.490549087524414062e-01 3.260105550289154053e-01
4.690530300140380859e-01 -7.177317142486572266e-01 3.194297552108764648e-01
4.686857759952545166e-01 -7.075455784797668457e-01 3.161434531211853027e-01
4.762685298919677734e-01 -7.821146845817565918e-01 3.187490999698638916e-01
4.879252016544342041e-01 -7.579980492591857910e-01 3.209999799728393555e-01
4.766978323459625244e-01 -7.157715559005737305e-01 3.119056522846221924e-01
4.674940407276153564e-01 -6.009203195571899414e-01 3.157826960086822510e-01
4.702706933021545410e-01 -7.165197730064392090e-01 3.227075934410095215e-01
4.673418402671813965e-01 -6.886903047561645508e-01 3.198962807655334473e-01
4.740676283836364746e-01 -7.589154839515686035e-01 3.155006766319274902e-01
4.710048139095306396e-01 -6.026855707168579102e-01 3.250410258769989014e-01
4.762250185012817383e-01 -6.739555597305297852e-01 3.118029236793518066e-01
4.720111191272735596e-01 -5.932010412216186523e-01 3.246587812900543213e-01
4.743381440639495850e-01 -6.510584950447082520e-01 3.120592236518859863e-01
4.777919054031372070e-01 -7.680866122245788574e-01 3.244064450263977051e-01
4.815849065780639648e-01 -6.874237656593322754e-01 3.134567439556121826e-01
4.674881398677825928e-01 -6.929503083229064941e-01 3.173000812530517578e-01
4.664200842380523682e-01 -6.716073155403137207e-01 3.181533515453338623e-01
4.858408868312835693e-01 -7.728450894355773926e-01 3.240147829055786133e-01
4.809842109680175781e-01 -6.365394592285156250e-01 3.258619308471679688e-01
4.769453406333923340e-01 -6.299874186515808105e-01 3.136323392391204834e-01
4.869449138641357422e-01 -7.479878067970275879e-01 3.175074458122253418e-01
4.847634434700012207e-01 -6.575365066528320312e-01 3.196643292903900146e-01
4.845654070377349854e-01 -7.068405747413635254e-01 3.266279697418212891e-01
4.763453006744384766e-01 -5.980678200721740723e-01 3.247041404247283936e-01
4.819569885730743408e-01 -7.801250219345092773e-01 3.244653642177581787e-01
4.827895164489746094e-01 -6.775258183479309082e-01 3.146992623805999756e-01
4.805333614349365234e-01 -7.305294275283813477e-01 3.127388656139373779e-01
4.818421006202697754e-01 -6.528359651565551758e-01 3.153710067272186279e-01
4.731211960315704346e-01 -6.864671111106872559e-01 3.268114328384399414e-01
4.790830016136169434e-01 -6.082180738449096680e-01 3.175086677074432373e-01
4.659948348999023438e-01 -6.174502968788146973e-01 3.168285787105560303e-01
4.846090078353881836e-01 -7.021242976188659668e-01 3.265255391597747803e-01
4.707511961460113525e-01 -7.390209436416625977e-01 3.185643553733825684e-01
4.831012189388275146e-01 -7.476243972778320312e-01 3.140949904918670654e-01
4.714988768100738525e-01 -7.461342811584472656e-01 3.178247213363647461e-01
4.728879332542419434e-01 -7.245430350303649902e-01 3.248860836029052734e-01
4.706406295299530029e-01 -6.878947615623474121e-01 3.126948475837707520e-01
4.720135629177093506e-01 -5.904753208160400391e-01 3.244092166423797607e-01
4.816690683364868164e-01 -7.742653489112854004e-01 3.148228526115417480e-01
4.837242662906646729e-01 -7.043563127517700195e-01 3.145000636577606201e-01
4.748400747776031494e-01 -6.646191477775573730e-01 3.276866078376770020e-01
4.877446293830871582e-01 -7.612533569335937500e-01 3.199538588523864746e-01
4.814062714576721191e-01 -7.070962190628051758e-01 3.278324604034423828e-01
4.802252948284149170e-01 -7.126768827438354492e-01 3.124925494194030762e-01
4.690702557563781738e-01 -6.228578090667724609e-01 3.247478902339935303e-01
4.861223399639129639e-01 -7.708805799484252930e-01 3.173233568668365479e-01
4.800286293029785156e-01 -7.333279848098754883e-01 3.126565217971801758e-01
4.683977067470550537e-01 -6.518095135688781738e-01 3.242040574550628662e-01
4.878351092338562012e-01 -7.405401468276977539e-01 3.228556215763092041e-01
4.755474030971527100e-01 -7.776616811752319336e-01 3.182446956634521484e-01
4.661274850368499756e-01 -6.008102297782897949e-01 3.190169036388397217e-01
4.659554660320281982e-01 -6.393822431564331055e-01 3.165481090545654297e-01
4.772451817989349365e-01 -5.902684330940246582e-01 3.190247714519500732e-01
4.801695346832275391e-01 -7.284824252128601074e-01 3.275097608566284180e-01
