5.328549146652221680e-01 -5.449843406677246094e-01 3.529774844646453857e-01
5.379747748374938965e-01 -5.698477625846862793e-01 3.407270312309265137e-01
5.183724761009216309e-01 -6.672439575195312500e-01 3.923885524272918701e-01
4.936492741107940674e-01 -6.443912386894226074e-01 3.711822032928466797e-01
4.842150807380676270e-01 -5.764324665069580078e-01 3.698936402797698975e-01
4.865523874759674072e-01 -5.933496952056884766e-01 3.695330321788787842e-01
4.777382910251617432e-01 -4.018292129039764404e-01 3.460410833358764648e-01
5.043858289718627930e-01 -7.154028415679931641e-01 3.823696970939636230e-01
5.136286020278930664e-01 -3.580568134784698486e-01 3.373345434665679932e-01
5.364570021629333496e-01 -7.035521864891052246e-01 3.584250509738922119e-01
5.014805793762207031e-01 -5.035737156867980957e-01 3.909718394279479980e-01
5.057532787322998047e-01 -4.374028742313385010e-01 3.747857213020324707e-01
4.797142148017883301e-01 -5.346870422363281250e-01 3.967380523681640625e-01
5.327701568603515625e-01 -5.346794128417968750e-01 3.180215358734130859e-01
4.890567064285278320e-01 -6.344707608222961426e-01 3.977026343345642090e-01
4.714963436126708984e-01 -4.198202192783355713e-01 3.736332058906555176e-01
5.244633555412292480e-01 -4.876354932785034180e-01 3.580953776836395264e-01
4.858086407184600830e-01 -4.879929721355438232e-01 3.440521955490112305e-01
4.887287020683288574e-01 -5.518280863761901855e-01 3.524649739265441895e-01
5.092509984970092773e-01 -6.591244339942932129e-01 3.493455052375793457e-01
4.787775576114654541e-01 -3.570316433906555176e-01 3.402351438999176025e-01
5.317211747169494629e-01 -6.814426183700561523e-01 3.741484284400939941e-01
5.368798375129699707e-01 -6.497107744216918945e-01 3.599072992801666260e-01
4.801188707351684570e-01 -3.828777670860290527e-01 3.393182456493377686e-01
4.930151998996734619e-01 -3.900213837623596191e-01 3.216304183006286621e-01
4.988051056861877441e-01 -5.140342712402343750e-01 3.944212496280670166e-01
5.221779942512512207e-01 -3.921767175197601318e-01 3.248796164989471436e-01
4.837838113307952881e-01 -5.960630178451538086e-01 3.960402011871337891e-01
4.916900992393493652e-01 -5.238170027732849121e-01 3.413956761360168457e-01
5.189376473426818848e-01 -4.592947065830230713e-01 3.100889325141906738e-01
5.015777945518493652e-01 -6.823124289512634277e-01 3.692902922630310059e-01
4.954711496829986572e-01 -6.621337532997131348e-01 4.005535244941711426e-01
5.357614159584045410e-01 -6.676079034805297852e-01 3.643297851085662842e-01
5.129428505897521973e-01 -7.323126792907714844e-01 3.727317452430725098e-01
4.883506298065185547e-01 -4.266682863235473633e-01 3.308446407318115234e-01
5.319638252258300781e-01 -5.759355425834655762e-01 3.616485893726348877e-01
5.224384069442749023e-01 -4.015539288520812988e-01 3.152485191822052002e-01
4.895352125167846680e-01 -5.547604560852050781e-01 4.020738303661346436e-01
5.042359828948974609e-01 -3.691877126693725586e-01 3.591866791248321533e-01
5.236225724220275879e-01 -4.203599691390991211e-01 3.382011651992797852e-01
4.835707247257232666e-01 -3.340896964073181152e-01 3.313802778720855713e-01
4.914482235908508301e-01 -6.021742820739746094e-01 3.609760701656341553e-01
5.360225439071655273e-01 -6.254767775535583496e-01 3.597199022769927979e-01
4.825264215469360352e-01 -5.921162962913513184e-01 3.865204751491546631e-01
4.838259220123291016e-01 -4.456235170364379883e-01 3.911469280719757080e-01
5.203968286514282227e-01 -4.225840568542480469e-01 3.099552989006042480e-01
5.301293730735778809e-01 -5.005937814712524414e-01 3.484674692153930664e-01
4.936780333518981934e-01 -4.633477628231048584e-01 3.286111056804656982e-01
5.334345698356628418e-01 -6.046798825263977051e-01 3.631932139396667480e-01
5.395850539207458496e-01 -6.151949763298034668e-01 3.416986167430877686e-01
4.746764004230499268e-01 -3.697521686553955078e-01 3.747178614139556885e-01
5.086326003074645996e-01 -3.466711640357971191e-01 3.437660932540893555e-01
5.172124505043029785e-01 -5.504547357559204102e-01 3.199891746044158936e-01
5.322946906089782715e-01 -7.259150743484497070e-01 3.693633675575256348e-01
5.062538981437683105e-01 -5.972585082054138184e-01 3.375504612922668457e-01
4.769678711891174316e-01 -3.199421763420104980e-01 3.460991978645324707e-01
4.995289742946624756e-01 -6.907296180725097656e-01 3.790392279624938965e-01
5.037490725517272949e-01 -5.616640448570251465e-01 3.330789506435394287e-01
4.966032207012176514e-01 -5.881217122077941895e-01 4.027682840824127197e-01
5.257170200347900391e-01 -5.343016386032104492e-01 3.153041601181030273e-01
5.028936266899108887e-01 -4.244309067726135254e-01 3.750962913036346436e-01
5.107312798500061035e-01 -6.449854373931884766e-01 3.982001543045043945e-01
4.877611994743347168e-01 -5.673329234123229980e-01 4.024020433425903320e-01
4.761599004268646240e-01 -5.213531255722045898e-01 3.884785175323486328e-01
4.900408685207366943e-01 -6.248981952667236328e-01 3.724767863750457764e-01
5.298004746437072754e-01 -5.329673886299133301e-01 3.576486408710479736e-01
5.352845191955566406e-01 -5.996760129928588867e-01 3.577804267406463623e-01
5.010241866111755371e-01 -6.515471935272216797e-01 4.029583334922790527e-01
5.234103202819824219e-01 -5.764198899269104004e-01 3.771974444389343262e-01
4.746064841747283936e-01 -3.457489013671875000e-01 3.509255051612854004e-01
4.796842932701110840e-01 -5.248639583587646484e-01 3.659255802631378174e-01
4.794780611991882324e-01 -5.173407196998596191e-01 3.643051385879516602e-01
5.342779755592346191e-01 -5.040142536163330078e-01 3.233423829078674316e-01
5.168097615242004395e-01 -4.032225012779235840e-01 3.095671236515045166e-01
4.729033112525939941e-01 -4.407298564910888672e-01 3.832788467407226562e-01
4.883971810340881348e-01 -4.599245488643646240e-01 3.352443575859069824e-01
5.167221426963806152e-01 -5.054625868797302246e-01 3.747815489768981934e-01
5.232957601547241211e-01 -6.788241863250732422e-01 3.420039117336273193e-01
5.102424621582031250e-01 -4.938703775405883789e-01 3.808482587337493896e-01
4.924727678298950195e-01 -5.223920345306396484e-01 3.987426757812500000e-01
5.067651271820068359e-01 -3.202034533023834229e-01 3.188953399658203125e-01
5.227771401405334473e-01 -6.423305869102478027e-01 3.334655463695526123e-01
5.164974331855773926e-01 -3.760288357734680176e-01 3.385654091835021973e-01
5.109423995018005371e-01 -6.500521898269653320e-01 3.449273109436035156e-01
5.322907567024230957e-01 -4.949029088020324707e-01 3.181666433811187744e-01
5.081628561019897461e-01 -7.078934907913208008e-01 3.680736422538757324e-01
5.093638896942138672e-01 -3.910259008407592773e-01 3.582906424999237061e-01
4.989491701126098633e-01 -6.298314332962036133e-01 3.555485904216766357e-01
4.789172410964965820e-01 -5.176490545272827148e-01 3.960205018520355225e-01
4.919767975807189941e-01 -5.640614032745361328e-01 3.496798872947692871e-01
5.073838233947753906e-01 -4.674484729766845703e-01 3.158041536808013916e-01
5.325620770454406738e-01 -5.476976037025451660e-01 3.185403048992156982e-01
4.841503202915191650e-01 -6.036608219146728516e-01 3.939712643623352051e-01
5.382354259490966797e-01 -5.643069148063659668e-01 3.330051600933074951e-01
4.967086613178253174e-01 -6.228088140487670898e-01 3.572697937488555908e-01
5.187800526618957520e-01 -3.792295455932617188e-01 3.147462904453277588e-01
5.391061902046203613e-01 -6.069521903991699219e-01 3.445604741573333740e-01
5.364181995391845703e-01 -5.480607151985168457e-01 3.415911495685577393e-01
5.213425755500793457e-01 -6.690989136695861816e-01 3.406557440757751465e-01
5.041877031326293945e-01 -3.365559279918670654e-01 3.477732539176940918e-01
4.908795654773712158e-01 -6.506779789924621582e-01 3.845217227935791016e-01
4.799599349498748779e-01 -4.569432139396667480e-01 3.495304584503173828e-01
5.030685067176818848e-01 -6.525543928146362305e-01 3.558588325977325439e-01
5.297107100486755371e-01 -4.915553629398345947e-01 3.468742966651916504e-01
5.240804553031921387e-01 -4.060702025890350342e-01 3.264363408088684082e-01
5.308349728584289551e-01 -4.613712430000305176e-01 3.259578049182891846e-01
5.275483727455139160e-01 -4.328869581222534180e-01 3.204773366451263428e-01
4.961756467819213867e-01 -5.464901328086853027e-01 3.394453823566436768e-01
5.020656585693359375e-01 -6.758296489715576172e-01 3.656137585639953613e-01
4.881314337253570557e-01 -3.503166735172271729e-01 3.252884745597839355e-01
4.770002663135528564e-01 -4.630738496780395508e-01 3.914979994297027588e-01
5.094762444496154785e-01 -4.435766339302062988e-01 3.716413974761962891e-01
5.322881340980529785e-01 -4.763819277286529541e-01 3.253206014633178711e-01
5.173342227935791016e-01 -3.879997432231903076e-01 3.418357968330383301e-01
5.200710296630859375e-01 -4.398849606513977051e-01 3.095614016056060791e-01
5.305721163749694824e-01 -6.207403540611267090e-01 3.713369071483612061e-01
4.990281760692596436e-01 -6.653985381126403809e-01 3.675033450126647949e-01
5.123088359832763672e-01 -3.468254506587982178e-01 3.151493966579437256e-01
4.920253753662109375e-01 -2.902450263500213623e-01 3.271857202053070068e-01
5.137201547622680664e-01 -5.632252097129821777e-01 3.878328204154968262e-01
5.038000941276550293e-01 -6.377202272415161133e-01 4.020892083644866943e-01
5.321705937385559082e-01 -6.909277439117431641e-01 3.733911812305450439e-01
5.008121728897094727e-01 -5.835158228874206543e-01 3.410843014717102051e-01
5.335623621940612793e-01 -5.050811767578125000e-01 3.381688892841339111e-01
5.154374837875366211e-01 -4.248660206794738770e-01 3.581570088863372803e-01
4.899829328060150146e-01 -5.045601129531860352e-01 3.975807428359985352e-01
5.125693082809448242e-01 -4.006154239177703857e-01 3.559810817241668701e-01
5.193231701850891113e-01 -4.107506573200225830e-01 3.459969460964202881e-01
4.820587635040283203e-01 -5.783939361572265625e-01 3.785368502140045166e-01
5.290317535400390625e-01 -5.449798107147216797e-01 3.618925511837005615e-01
5.209856033325195312e-01 -4.945079982280731201e-01 3.660461902618408203e-01
4.754877984523773193e-01 -3.725451231002807617e-01 3.486474156379699707e-01
5.253353714942932129e-01 -5.179966092109680176e-01 3.634629249572753906e-01
5.026341676712036133e-01 -3.026149868965148926e-01 3.262397050857543945e-01
4.813374578952789307e-01 -5.821068286895751953e-01 3.886659145355224609e-01
5.011963248252868652e-01 -4.216023683547973633e-01 3.162790536880493164e-01
5.368874669075012207e-01 -6.136623620986938477e-01 3.554247617721557617e-01
4.862991571426391602e-01 -3.203479647636413574e-01 3.279095590114593506e-01
5.386058688163757324e-01 -5.990781188011169434e-01 3.457703292369842529e-01
5.233061313629150391e-01 -6.147077083587646484e-01 3.276127874851226807e-01
5.096650123596191406e-01 -7.327668070793151855e-01 3.820931017398834229e-01
4.832547605037689209e-01 -5.473876595497131348e-01 3.629552721977233887e-01
4.926710426807403564e-01 -6.148808002471923828e-01 3.624883592128753662e-01
4.909165501594543457e-01 -5.713765621185302734e-01 3.533456921577453613e-01
5.320650339126586914e-01 -7.228372693061828613e-01 3.553631305694580078e-01
5.329152941703796387e-01 -4.862703680992126465e-01 3.225963413715362549e-01
5.212689042091369629e-01 -6.587744951248168945e-01 3.381275534629821777e-01
5.067389607429504395e-01 -4.047448039054870605e-01 3.658264875411987305e-01
4.765812158584594727e-01 -5.113190412521362305e-01 3.723371922969818115e-01
5.042812824249267578e-01 -4.435550570487976074e-01 3.157342076301574707e-01
4.814532399177551270e-01 -3.654836416244506836e-01 3.761371672153472900e-01
5.157058238983154297e-01 -4.794762134552001953e-01 3.123170733451843262e-01
5.242747664451599121e-01 -5.864643454551696777e-01 3.773483633995056152e-01
5.107752084732055664e-01 -4.928830862045288086e-01 3.163085877895355225e-01
4.863536059856414795e-01 -4.338495135307312012e-01 3.887076079845428467e-01
4.764155745506286621e-01 -4.853014051914215088e-01 3.922390043735504150e-01
4.811002314090728760e-01 -4.934912323951721191e-01 3.543252944946289062e-01
4.971085488796234131e-01 -3.281586170196533203e-01 3.547518253326416016e-01
4.950190484523773193e-01 -4.435826241970062256e-01 3.859026730060577393e-01
5.191093683242797852e-01 -4.686288833618164062e-01 3.632621169090270996e-01
5.313740968704223633e-01 -6.557548642158508301e-01 3.341060578823089600e-01
4.964783489704132080e-01 -5.762524604797363281e-01 3.454420566558837891e-01
4.906090199947357178e-01 -3.284759819507598877e-01 3.225550949573516846e-01
4.909242987632751465e-01 -3.441857099533081055e-01 3.220089077949523926e-01
5.266476273536682129e-01 -6.257288455963134766e-01 3.786344528198242188e-01
4.766949415206909180e-01 -3.203408122062683105e-01 3.599981367588043213e-01
5.015606880187988281e-01 -3.953719437122344971e-01 3.697051107883453369e-01
5.200704336166381836e-01 -4.264034330844879150e-01 3.497244715690612793e-01
5.299689769744873047e-01 -6.497409343719482422e-01 3.754816949367523193e-01
5.149739384651184082e-01 -4.945873618125915527e-01 3.750829398632049561e-01
4.720640778541564941e-01 -3.766875267028808594e-01 3.703518211841583252e-01
5.380885601043701172e-01 -6.466609835624694824e-01 3.370590209960937500e-01
5.181226730346679688e-01 -6.470628976821899414e-01 3.375414609909057617e-01
5.268784165382385254e-01 -6.910417079925537109e-01 3.437214791774749756e-01
5.219639539718627930e-01 -6.965214014053344727e-01 3.479295969009399414e-01
4.748531281948089600e-01 -4.902009665966033936e-01 3.724561035633087158e-01
5.220903158187866211e-01 -5.075473785400390625e-01 3.669908642768859863e-01
5.188108682632446289e-01 -6.818105578422546387e-01 3.923317790031433105e-01
5.031580328941345215e-01 -5.403378605842590332e-01 3.947083652019500732e-01
5.086893439292907715e-01 -4.813542664051055908e-01 3.803199231624603271e-01
4.923540353775024414e-01 -6.294486522674560547e-01 4.026906490325927734e-01
4.998284280300140381e-01 -5.368964076042175293e-01 3.329472541809082031e-01
5.149383544921875000e-01 -4.171438813209533691e-01 3.568159043788909912e-01
4.963999390602111816e-01 -5.303563475608825684e-01 3.978806138038635254e-01
5.298531055450439453e-01 -5.111863017082214355e-01 3.147710859775543213e-01
5.099840164184570312e-01 -3.404047787189483643e-01 3.374623954296112061e-01
5.092752575874328613e-01 -6.856104135513305664e-01 3.575395941734313965e-01
4.794393181800842285e-01 -2.999002933502197266e-01 3.454471230506896973e-01
4.809460937976837158e-01 -4.256970882415771484e-01 3.426306545734405518e-01
5.369265675544738770e-01 -5.415642857551574707e-01 3.352547287940979004e-01
5.181047916412353516e-01 -4.818855822086334229e-01 3.679290115833282471e-01
5.175246596336364746e-01 -3.638736009597778320e-01 3.207003176212310791e-01
5.283932089805603027e-01 -4.766452312469482422e-01 3.457816243171691895e-01
5.136051774024963379e-01 -4.352512955665588379e-01 3.638846278190612793e-01
5.056186914443969727e-01 -6.400288343429565430e-01 3.486401736736297607e-01
5.025205016136169434e-01 -4.444818496704101562e-01 3.797135055065155029e-01
4.841046333312988281e-01 -5.948653817176818848e-01 3.784108459949493408e-01
5.104913711547851562e-01 -3.555022776126861572e-01 3.437544405460357666e-01
4.743072092533111572e-01 -4.949043989181518555e-01 3.849694728851318359e-01
5.217978954315185547e-01 -4.096559882164001465e-01 3.390244841575622559e-01
5.081080198287963867e-01 -4.518686830997467041e-01 3.751376569271087646e-01
5.089840888977050781e-01 -4.277703762054443359e-01 3.686139583587646484e-01
5.368623733520507812e-01 -5.556111931800842285e-01 3.420277833938598633e-01
5.169431567192077637e-01 -5.216826200485229492e-01 3.162505924701690674e-01
4.960606396198272705e-01 -3.580854535102844238e-01 3.173040747642517090e-01
4.840772449970245361e-01 -4.798098802566528320e-01 3.456154465675354004e-01
5.036436319351196289e-01 -6.951165199279785156e-01 3.708387613296508789e-01
4.838191568851470947e-01 -2.872563600540161133e-01 3.419437706470489502e-01
5.280936360359191895e-01 -4.442483782768249512e-01 3.329834043979644775e-01
5.132961869239807129e-01 -7.345587611198425293e-01 3.905822038650512695e-01
4.958495199680328369e-01 -3.179261386394500732e-01 3.523162603378295898e-01
5.281291007995605469e-01 -4.384673237800598145e-01 3.281893730163574219e-01
4.733524620532989502e-01 -4.362699985504150391e-01 3.637290298938751221e-01
5.169413089752197266e-01 -7.469244599342346191e-01 3.790755271911621094e-01
5.055521130561828613e-01 -6.323443055152893066e-01 3.466898500919342041e-01
4.844309687614440918e-01 -4.521323144435882568e-01 3.403123617172241211e-01
5.258309841156005859e-01 -7.197192311286926270e-01 3.831941485404968262e-01
5.155891180038452148e-01 -3.568317294120788574e-01 3.294086158275604248e-01
5.062767863273620605e-01 -5.536503195762634277e-01 3.938428461551666260e-01
5.150919556617736816e-01 -7.027072906494140625e-01 3.561796844005584717e-01
5.224010944366455078e-01 -6.524437069892883301e-01 3.869854509830474854e-01
5.155417919158935547e-01 -5.527238845825195312e-01 3.842633366584777832e-01
4.808537065982818604e-01 -4.426987171173095703e-01 3.453220129013061523e-01
4.883190989494323730e-01 -5.318771004676818848e-01 3.485748469829559326e-01
5.391407608985900879e-01 -5.942406058311462402e-01 3.346030712127685547e-01
5.272658467292785645e-01 -5.625236630439758301e-01 3.184508979320526123e-01
4.970895349979400635e-01 -3.479606509208679199e-01 3.614692091941833496e-01
4.783454835414886475e-01 -5.443190336227416992e-01 3.923001587390899658e-01
4.962918758392333984e-01 -4.357056915760040283e-01 3.834889531135559082e-01
4.883900880813598633e-01 -5.775312781333923340e-01 4.027349352836608887e-01
5.159726738929748535e-01 -6.876970529556274414e-01 3.502997457981109619e-01
5.395563244819641113e-01 -6.340357065200805664e-01 3.456845283508300781e-01
5.109724402427673340e-01 -3.612533211708068848e-01 3.113453388214111328e-01
5.167258977890014648e-01 -6.549029350280761719e-01 3.934920132160186768e-01
4.997934699058532715e-01 -5.050392150878906250e-01 3.276191651821136475e-01
5.017179250717163086e-01 -6.290256977081298828e-01 4.027191996574401855e-01
5.166593790054321289e-01 -5.214692950248718262e-01 3.778010010719299316e-01
4.930233657360076904e-01 -3.516721725463867188e-01 3.665432333946228027e-01
4.859084784984588623e-01 -5.094515681266784668e-01 3.480888605117797852e-01
4.960457682609558105e-01 -4.709486961364746094e-01 3.268311321735382080e-01
5.210029482841491699e-01 -4.678543806076049805e-01 3.103993833065032959e-01
5.088198184967041016e-01 -5.262752175331115723e-01 3.222051262855529785e-01
4.793970584869384766e-01 -5.323602557182312012e-01 3.692407608032226562e-01
5.017359256744384766e-01 -6.000339984893798828e-01 3.436476290225982666e-01
5.102655887603759766e-01 -3.779520988464355469e-01 3.101334571838378906e-01
5.314033627510070801e-01 -6.345378756523132324e-01 3.297339677810668945e-01
5.109965205192565918e-01 -5.610637068748474121e-01 3.259842693805694580e-01
4.911812245845794678e-01 -4.817711710929870605e-01 3.346379399299621582e-01
4.883104264736175537e-01 -4.678336679935455322e-01 3.365844786167144775e-01
4.947522580623626709e-01 -3.752960264682769775e-01 3.190071582794189453e-01
4.936228990554809570e-01 -4.410060644149780273e-01 3.258078396320343018e-01
5.228000879287719727e-01 -7.491481304168701172e-01 3.729189932346343994e-01
5.048178434371948242e-01 -5.407950878143310547e-01 3.281779289245605469e-01
5.387182831764221191e-01 -6.692180633544921875e-01 3.458983004093170166e-01
4.749597311019897461e-01 -5.062597990036010742e-01 3.803255558013916016e-01
4.547587931156158447e-01 -8.657523989677429199e-02 -3.841490149497985840e-01
4.537352323532104492e-01 2.275321260094642639e-02 -3.238154947757720947e-01
4.822596907615661621e-01 -1.198757439851760864e-02 -2.369873076677322388e-01
4.261329770088195801e-01 7.735535502433776855e-03 -3.527479469776153564e-01
4.818100035190582275e-01 -1.118374019861221313e-01 -3.271183073520660400e-01
4.625970721244812012e-01 2.446508780121803284e-02 -2.934142351150512695e-01
4.643327891826629639e-01 -4.337985441088676453e-02 -3.735793232917785645e-01
4.245948791503906250e-01 3.732275217771530151e-03 -3.374060094356536865e-01
4.949049949645996094e-01 -9.354356676340103149e-02 -2.568899095058441162e-01
4.765432178974151611e-01 -1.888858340680599213e-02 -2.395019233226776123e-01
4.801646471023559570e-01 -9.463246166706085205e-02 -3.480805456638336182e-01
5.139783024787902832e-01 -3.832529485225677490e-02 -2.444665133953094482e-01
4.781000316143035889e-01 -3.041531704366207123e-02 -3.491641283035278320e-01
4.516210556030273438e-01 -2.857040055096149445e-02 -2.677114605903625488e-01
4.186179339885711670e-01 -6.253109127283096313e-02 -3.457117676734924316e-01
4.962829053401947021e-01 -1.012992933392524719e-01 -2.699277102947235107e-01
4.822826683521270752e-01 -8.693980425596237183e-02 -2.555044889450073242e-01
4.769787490367889404e-01 -3.686577454209327698e-02 -3.536825478076934814e-01
4.296959042549133301e-01 -9.794355928897857666e-02 -3.769856989383697510e-01
4.350578188896179199e-01 -4.721221700310707092e-02 -4.009563028812408447e-01
4.840644598007202148e-01 -6.069369614124298096e-02 -2.387174367904663086e-01
4.589949846267700195e-01 2.530179917812347412e-03 -3.525830805301666260e-01
4.503038823604583740e-01 -1.068541035056114197e-01 -3.175886869430541992e-01
4.442869722843170166e-01 4.012279212474822998e-03 -2.875289916992187500e-01
4.711673855781555176e-01 -8.357450366020202637e-02 -2.628505229949951172e-01
4.855384528636932373e-01 -7.657313346862792969e-02 -2.457460910081863403e-01
4.714202284812927246e-01 -1.495822891592979431e-02 -3.506111800670623779e-01
4.530650675296783447e-01 2.110834792256355286e-02 -3.297093212604522705e-01
4.153040945529937744e-01 -7.192226499319076538e-02 -3.767207860946655273e-01
4.905243813991546631e-01 -1.052166298031806946e-01 -3.173366785049438477e-01
4.687584340572357178e-01 -3.184361755847930908e-02 -2.462803423404693604e-01
5.008147954940795898e-01 -3.879193216562271118e-03 -2.462159097194671631e-01
4.864219427108764648e-01 -1.105645745992660522e-01 -3.181816339492797852e-01
4.370894432067871094e-01 -1.832628436386585236e-02 -2.922960519790649414e-01
4.958127140998840332e-01 -2.304926142096519470e-02 -3.110358715057373047e-01
4.859598278999328613e-01 -5.464372038841247559e-02 -3.436830937862396240e-01
5.083940625190734863e-01 -7.362912595272064209e-02 -2.429955899715423584e-01
4.932776391506195068e-01 -1.083220764994621277e-01 -2.898687124252319336e-01
4.385555386543273926e-01 -7.752044498920440674e-02 -3.069272041320800781e-01
4.922513365745544434e-01 -1.078110039234161377e-01 -3.058458268642425537e-01
4.626861214637756348e-01 -1.073731034994125366e-01 -2.980109751224517822e-01
4.319234490394592285e-01 -5.615468323230743408e-02 -4.033769071102142334e-01
4.223933517932891846e-01 -3.577496856451034546e-03 -3.745450079441070557e-01
4.274019896984100342e-01 -8.644065260887145996e-02 -3.428372442722320557e-01
4.353935718536376953e-01 -4.180727526545524597e-02 -2.964221835136413574e-01
5.084076523780822754e-01 -2.389108389616012573e-02 -2.736022472381591797e-01
4.155477285385131836e-01 -4.447574540972709656e-02 -3.467073738574981689e-01
4.473471641540527344e-01 -3.225737810134887695e-02 -2.743507325649261475e-01
4.680861532688140869e-01 5.636356770992279053e-03 -2.566146254539489746e-01
4.280593097209930420e-01 -1.298666745424270630e-02 -3.874295353889465332e-01
4.714782238006591797e-01 -1.124184280633926392e-01 -3.451022803783416748e-01
4.373304545879364014e-01 1.373643800616264343e-02 -3.123502731323242188e-01
4.310352802276611328e-01 -3.614835441112518311e-02 -3.042008280754089355e-01
4.134435653686523438e-01 -4.759166762232780457e-02 -3.957872986793518066e-01
4.255678951740264893e-01 -4.070519283413887024e-02 -4.022226333618164062e-01
4.553466141223907471e-01 -8.874471485614776611e-02 -2.870378792285919189e-01
4.466379582881927490e-01 5.408946424722671509e-03 -3.615657687187194824e-01
4.540637731552124023e-01 -8.043162524700164795e-02 -3.865885734558105469e-01
4.139551222324371338e-01 -5.682080611586570740e-02 -3.954885900020599365e-01
4.209533631801605225e-01 -7.288202643394470215e-02 -3.471802473068237305e-01
4.596222341060638428e-01 -3.684274107217788696e-02 -3.771780133247375488e-01
4.829748272895812988e-01 9.867396205663681030e-03 -3.032274544239044189e-01
4.635473787784576416e-01 -9.477370977401733398e-02 -2.812834084033966064e-01
4.516917467117309570e-01 -1.236577704548835754e-02 -2.690790891647338867e-01
4.225171208381652832e-01 -4.719912633299827576e-02 -4.034579396247863770e-01
4.268349707126617432e-01 6.703037768602371216e-03 -3.596617579460144043e-01
4.876962900161743164e-01 -4.157148301601409912e-03 -3.124084174633026123e-01
4.922043681144714355e-01 -8.965712785720825195e-02 -3.276238441467285156e-01
4.334840476512908936e-01 1.004565879702568054e-02 -3.168010115623474121e-01
5.038454532623291016e-01 -8.020596951246261597e-02 -2.450200915336608887e-01
4.853402078151702881e-01 1.377918571233749390e-02 -2.614326477050781250e-01
4.765889644622802734e-01 -1.764648966491222382e-02 -3.444299697875976562e-01
5.045326948165893555e-01 -4.765232652425765991e-02 -3.018955588340759277e-01
4.778773188591003418e-01 -1.162034124135971069e-01 -3.234614729881286621e-01
4.300277531147003174e-01 -1.059450581669807434e-02 -3.088388442993164062e-01
4.633744955062866211e-01 1.633860543370246887e-02 -3.283854126930236816e-01
4.370811581611633301e-01 -5.207762122154235840e-03 -3.783589899539947510e-01
4.591258466243743896e-01 -9.121786803007125854e-03 -3.627535104751586914e-01
5.070385336875915527e-01 -1.582317240536212921e-02 -2.670803070068359375e-01
4.491385519504547119e-01 -6.159618869423866272e-02 -2.791493535041809082e-01
4.701268672943115234e-01 -2.031644992530345917e-02 -3.559008240699768066e-01
4.572850167751312256e-01 2.492472156882286072e-02 -3.057045042514801025e-01
4.728324413299560547e-01 -1.081360876560211182e-01 -2.875155508518218994e-01
4.590119719505310059e-01 -6.367314606904983521e-02 -2.658365368843078613e-01
4.920817315578460693e-01 8.245620876550674438e-03 -2.565629184246063232e-01
4.595063328742980957e-01 -8.869843184947967529e-02 -3.786384463310241699e-01
4.162650704383850098e-01 -6.503258645534515381e-02 -3.966759443283081055e-01
4.570527672767639160e-01 -1.156303137540817261e-01 -3.256738781929016113e-01
5.151436328887939453e-01 -4.684654623270034790e-02 -2.544971704483032227e-01
4.788277447223663330e-01 -4.302528500556945801e-02 -3.528927266597747803e-01
4.957091510295867920e-01 -7.900100201368331909e-02 -2.428973019123077393e-01
4.155255556106567383e-01 -1.260991767048835754e-02 -3.569157719612121582e-01
4.185467064380645752e-01 -1.795199885964393616e-02 -3.878745138645172119e-01
4.654786288738250732e-01 -1.128668338060379028e-01 -3.522844016551971436e-01
4.605058133602142334e-01 -5.294749513268470764e-02 -3.803316652774810791e-01
4.461850225925445557e-01 -3.624641522765159607e-02 -3.904321789741516113e-01
4.538215696811676025e-01 -4.834351316094398499e-02 -3.867228925228118896e-01
5.043783187866210938e-01 -3.087179549038410187e-02 -2.941759526729583740e-01
4.842227995395660400e-01 -1.768719777464866638e-02 -3.312759697437286377e-01
5.077278017997741699e-01 -3.351269662380218506e-02 -2.853780984878540039e-01
4.121203124523162842e-01 -2.851674705743789673e-02 -3.623923659324645996e-01
5.019693374633789062e-01 -3.010096587240695953e-02 -3.004459142684936523e-01
4.654888212680816650e-01 -1.186649948358535767e-01 -3.318670690059661865e-01
4.445521831512451172e-01 -1.062823235988616943e-01 -3.753283321857452393e-01
4.140751659870147705e-01 -5.786802247166633606e-02 -3.601607084274291992e-01
4.256017208099365234e-01 -2.506248839199542999e-02 -3.160444200038909912e-01
4.426506161689758301e-01 -8.481271564960479736e-03 -2.844640016555786133e-01
4.116506576538085938e-01 -3.359794616699218750e-02 -3.862469196319580078e-01
5.037185549736022949e-01 -3.903362527489662170e-02 -2.275447994470596313e-01
4.865969419479370117e-01 1.837946474552154541e-03 -3.074897229671478271e-01
4.108624756336212158e-01 -4.562339559197425842e-02 -3.715577125549316406e-01
5.046633481979370117e-01 -8.140108734369277954e-02 -2.994429767131805420e-01
4.827727675437927246e-01 -6.334094703197479248e-02 -3.501518666744232178e-01
4.627273976802825928e-01 2.259478345513343811e-02 -2.845311760902404785e-01
4.121186733245849609e-01 -5.786934494972229004e-02 -3.869308531284332275e-01
4.215229749679565430e-01 -3.045175224542617798e-03 -3.389934599399566650e-01
4.940089285373687744e-01 -2.529826760292053223e-02 -3.166484236717224121e-01
4.384179711341857910e-01 -5.829892680048942566e-02 -2.959820628166198730e-01
4.699426889419555664e-01 -4.154546558856964111e-02 -3.656404614448547363e-01
4.843519330024719238e-01 -9.246541559696197510e-02 -3.418658971786499023e-01
4.426314830780029297e-01 -6.387653201818466187e-02 -2.909629344940185547e-01
4.443283677101135254e-01 -1.119452863931655884e-01 -3.544113337993621826e-01
4.378396272659301758e-01 -6.376020610332489014e-02 -4.008531868457794189e-01
4.451972246170043945e-01 -1.023656576871871948e-01 -3.805510699748992920e-01
4.942809343338012695e-01 -6.703962385654449463e-02 -3.286967575550079346e-01
4.415774643421173096e-01 -9.559327363967895508e-02 -3.880723118782043457e-01
4.946010708808898926e-01 -4.612558707594871521e-02 -3.250391483306884766e-01
4.438198208808898926e-01 1.815266534686088562e-02 -3.419352769851684570e-01
5.139826536178588867e-01 -6.071837618947029114e-02 -2.685193717479705811e-01
4.547091424465179443e-01 -9.724044054746627808e-02 -3.790015578269958496e-01
4.632169902324676514e-01 -8.011990785598754883e-02 -3.769298195838928223e-01
4.238792657852172852e-01 -8.455479145050048828e-02 -3.920954465866088867e-01
4.498113095760345459e-01 2.386396005749702454e-02 -3.142721951007843018e-01
4.621681272983551025e-01 -3.624904900789260864e-02 -2.541666030883789062e-01
5.152530670166015625e-01 -5.511894077062606812e-02 -2.512503862380981445e-01
4.161446094512939453e-01 -3.186086937785148621e-02 -3.428400158882141113e-01
4.667772948741912842e-01 -5.015683174133300781e-02 -3.721103072166442871e-01
4.901904165744781494e-01 -5.198278650641441345e-02 -2.320363968610763550e-01
4.297827482223510742e-01 -6.145311519503593445e-02 -3.150535225868225098e-01
5.107212066650390625e-01 -6.546958535909652710e-02 -2.398780882358551025e-01
4.513089358806610107e-01 -7.079821825027465820e-02 -3.906530737876892090e-01
4.609138369560241699e-01 -9.775385260581970215e-03 -2.574012875556945801e-01
4.550332129001617432e-01 -5.427459627389907837e-02 -2.675775587558746338e-01
4.244703352451324463e-01 -8.878202736377716064e-02 -3.585443794727325439e-01
4.660668075084686279e-01 -7.659544050693511963e-02 -2.638463675975799561e-01
4.430937170982360840e-01 -7.058985531330108643e-02 -3.971696496009826660e-01
4.500233232975006104e-01 -8.492356538772583008e-02 -3.888377249240875244e-01
4.223520457744598389e-01 -5.340372771024703979e-02 -4.040092527866363525e-01
4.884540438652038574e-01 -2.253525145351886749e-02 -2.311058640480041504e-01
5.022964477539062500e-01 -5.379617959260940552e-02 -2.295074164867401123e-01
4.753829240798950195e-01 -4.221230000257492065e-02 -3.579851984977722168e-01
4.563511312007904053e-01 5.530886352062225342e-03 -2.699419558048248291e-01
4.355870783329010010e-01 2.796452492475509644e-03 -3.037674427032470703e-01
4.785542488098144531e-01 -1.126441359519958496e-01 -3.324482440948486328e-01
4.838992357254028320e-01 -4.237768799066543579e-02 -2.338770329952239990e-01
4.772807061672210693e-01 1.964005455374717712e-02 -2.732705175876617432e-01
4.128420352935791016e-01 -6.311226636171340942e-02 -3.786874115467071533e-01
4.790200889110565186e-01 1.941205933690071106e-02 -2.841026782989501953e-01
4.394809305667877197e-01 -8.907334506511688232e-02 -3.153963387012481689e-01
4.118162095546722412e-01 -2.633433230221271515e-02 -3.785311281681060791e-01
4.330053329467773438e-01 -9.778344631195068359e-02 -3.444680571556091309e-01
5.002302527427673340e-01 -1.797459833323955536e-02 -2.955516278743743896e-01
4.337443709373474121e-01 -3.050368092954158783e-02 -2.981876134872436523e-01
4.455900788307189941e-01 -1.747209578752517700e-03 -2.820767760276794434e-01
4.343723654747009277e-01 -5.984100699424743652e-02 -3.045086562633514404e-01
4.628517329692840576e-01 1.823291182518005371e-03 -2.597188055515289307e-01
4.480560719966888428e-01 1.497723907232284546e-02 -3.468393683433532715e-01
4.296977818012237549e-01 -4.325801134109497070e-02 -3.083406388759613037e-01
4.970525205135345459e-01 -1.045133769512176514e-01 -2.828821837902069092e-01
4.167354404926300049e-01 -5.459995940327644348e-02 -3.469327092170715332e-01
4.643065929412841797e-01 -9.027189016342163086e-02 -3.726266324520111084e-01
4.803246855735778809e-01 -8.637097477912902832e-02 -3.513576388359069824e-01
4.540103971958160400e-01 1.646354421973228455e-02 -3.392781913280487061e-01
4.935458600521087646e-01 -3.380808606743812561e-02 -3.224294185638427734e-01
4.334768652915954590e-01 1.415434852242469788e-02 -3.477324843406677246e-01
4.751035273075103760e-01 -1.071905940771102905e-01 -3.465616106986999512e-01
5.109224915504455566e-01 -3.984408825635910034e-02 -2.776320278644561768e-01
4.866092205047607422e-01 -3.861951828002929688e-02 -3.381007015705108643e-01
4.620787799358367920e-01 -1.181087195873260498e-01 -3.394832015037536621e-01
4.750145375728607178e-01 8.081875741481781006e-03 -2.530392706394195557e-01
4.187076985836029053e-01 -3.554388880729675293e-03 -3.593321740627288818e-01
4.975560307502746582e-01 1.249141991138458252e-03 -2.741644680500030518e-01
4.579051733016967773e-01 -4.600164666771888733e-02 -2.612927258014678955e-01
5.021919608116149902e-01 -9.042853116989135742e-02 -2.559566497802734375e-01
4.225070178508758545e-01 2.549622207880020142e-03 -3.469023704528808594e-01
4.955241978168487549e-01 -1.678756065666675568e-02 -3.067819774150848389e-01
4.180911183357238770e-01 -4.552405327558517456e-02 -3.384936749935150146e-01
4.499323964118957520e-01 -7.342576235532760620e-02 -2.841008305549621582e-01
4.869140088558197021e-01 -1.363457366824150085e-02 -3.230417966842651367e-01
4.922418892383575439e-01 -1.674122177064418793e-02 -3.143544495105743408e-01
4.161607921123504639e-01 -1.566690951585769653e-02 -3.488098382949829102e-01
4.864868223667144775e-01 -1.050649881362915039e-01 -3.275154829025268555e-01
5.023235082626342773e-01 -9.384419023990631104e-02 -2.620612978935241699e-01
4.257826209068298340e-01 -6.890647113323211670e-02 -3.293516933917999268e-01
4.112547934055328369e-01 -5.282191187143325806e-02 -3.748758137226104736e-01
4.204888641834259033e-01 -8.328600227832794189e-02 -3.670128881931304932e-01
5.143660902976989746e-01 -4.260633885860443115e-02 -2.602695822715759277e-01
4.276297390460968018e-01 -9.541287273168563843e-02 -3.623091280460357666e-01
4.722101688385009766e-01 -9.791348129510879517e-03 -3.456496894359588623e-01
4.483949840068817139e-01 -9.367875754833221436e-02 -3.860255181789398193e-01
4.673950672149658203e-01 -4.469940438866615295e-02 -2.494237273931503296e-01
4.899998307228088379e-01 -1.025792881846427917e-01 -2.697248458862304688e-01
4.703699350357055664e-01 9.037230163812637329e-03 -3.292061090469360352e-01
4.172519743442535400e-01 -7.687617093324661255e-02 -3.839476406574249268e-01
4.803599417209625244e-01 1.517039909958839417e-02 -2.980941236019134521e-01
4.383472204208374023e-01 -8.202372491359710693e-02 -3.970044553279876709e-01
4.339518249034881592e-01 6.529644131660461426e-03 -3.653777241706848145e-01
4.270489215850830078e-01 9.227529168128967285e-03 -3.460479676723480225e-01
4.725757837295532227e-01 -7.412936538457870483e-02 -3.656739294528961182e-01
4.562909901142120361e-01 -4.834711551666259766e-03 -2.648433148860931396e-01
4.794181883335113525e-01 -2.412807010114192963e-02 -2.365543842315673828e-01
4.753385484218597412e-01 -4.558433592319488525e-02 -2.414734363555908203e-01
4.714972972869873047e-01 -6.773380190134048462e-02 -2.529204189777374268e-01
5.122694969177246094e-01 -2.828292921185493469e-02 -2.477225065231323242e-01
4.562289416790008545e-01 -7.762148976325988770e-02 -2.773046493530273438e-01
4.922828972339630127e-01 -7.940828800201416016e-03 -3.060021400451660156e-01
5.116494297981262207e-01 -3.391971066594123840e-02 -2.695005834102630615e-01
4.564644396305084229e-01 2.218548581004142761e-02 -2.906271219253540039e-01
4.420156478881835938e-01 1.146068796515464783e-02 -3.560673892498016357e-01
4.800172150135040283e-01 -3.437010943889617920e-02 -2.359408140182495117e-01
4.565693140029907227e-01 -1.137160807847976685e-01 -3.583436310291290283e-01
5.044627785682678223e-01 -8.705001324415206909e-03 -2.642418146133422852e-01
4.184486567974090576e-01 -7.989892363548278809e-02 -3.728464841842651367e-01
4.272664785385131836e-01 -5.133209004998207092e-02 -3.162101507186889648e-01
4.135145246982574463e-01 -6.106505170464515686e-02 -3.667983412742614746e-01
4.666496515274047852e-01 -1.051007807254791260e-01 -2.895728647708892822e-01
4.712498784065246582e-01 -5.374026298522949219e-02 -3.667483031749725342e-01
4.955016970634460449e-01 -9.854559600353240967e-02 -2.641353607177734375e-01
5.070253610610961914e-01 -6.808756291866302490e-02 -2.966365218162536621e-01
4.370273351669311523e-01 -2.667566016316413879e-02 -2.917863428592681885e-01
4.541516304016113281e-01 2.289277687668800354e-02 -2.963737547397613525e-01
4.805084168910980225e-01 -1.103302538394927979e-01 -2.861484885215759277e-01
4.926867187023162842e-01 -1.895684748888015747e-03 -2.399265170097351074e-01
4.922042489051818848e-01 9.412791579961776733e-03 -2.661117911338806152e-01
4.921834468841552734e-01 -3.164619207382202148e-03 -3.005341887474060059e-01
4.468301236629486084e-01 -8.230178058147430420e-02 -2.953584790229797363e-01
5.002827644348144531e-01 -6.598554551601409912e-03 -2.806841731071472168e-01
4.369007349014282227e-01 -3.869243338704109192e-02 -3.978161811828613281e-01
4.148407578468322754e-01 -2.958655171096324921e-02 -3.921553790569305420e-01
4.200778603553771973e-01 -1.159359142184257507e-02 -3.359331786632537842e-01
4.245969355106353760e-01 -5.892641842365264893e-02 -3.260815143585205078e-01
4.905754625797271729e-01 9.541898965835571289e-03 -2.798182964324951172e-01
4.316718876361846924e-01 -2.229351177811622620e-02 -3.026092648506164551e-01
4.641538560390472412e-01 -3.107387386262416840e-02 -3.694185614585876465e-01
5.003646016120910645e-01 -9.160064160823822021e-03 -2.375566810369491577e-01
4.155964255332946777e-01 -6.940789520740509033e-02 -3.664278090000152588e-01
4.228176474571228027e-01 -7.387068122625350952e-03 -3.297456204891204834e-01
4.826685488224029541e-01 4.751548171043395996e-03 -3.121926784515380859e-01
4.831863045692443848e-01 -5.051540210843086243e-02 -3.476994931697845459e-01
4.632246792316436768e-01 7.368374615907669067e-03 -2.628405094146728516e-01
4.875233471393585205e-01 -9.639161825180053711e-02 -2.617166936397552490e-01
4.536990523338317871e-01 -6.230642646551132202e-02 -2.726022303104400635e-01
4.694535732269287109e-01 -1.018762290477752686e-01 -3.596445620059967041e-01
4.674622714519500732e-01 -6.995821744203567505e-02 -3.728940188884735107e-01
4.310998916625976562e-01 -7.126986980438232422e-02 -3.181402981281280518e-01
4.318674504756927490e-01 1.143593713641166687e-02 -3.246943652629852295e-01
4.577464759349822998e-01 -1.988490857183933258e-02 -3.714864253997802734e-01
4.547900259494781494e-01 -1.097451448440551758e-01 -3.666824400424957275e-01
4.897086024284362793e-01 -5.393250659108161926e-02 -3.366710543632507324e-01
4.494774341583251953e-01 -6.893184036016464233e-03 -3.711088895797729492e-01
4.488922059535980225e-01 -3.092973679304122925e-02 -3.860144019126892090e-01
4.517871737480163574e-01 6.342217326164245605e-03 -2.769321203231811523e-01
4.970263838768005371e-01 -7.471400499343872070e-02 -3.219741284847259521e-01
4.940154552459716797e-01 -2.038661390542984009e-03 -2.939309775829315186e-01
4.711991250514984131e-01 -9.931138157844543457e-02 -2.772001624107360840e-01
4.612712562084197998e-01 -8.927255868911743164e-02 -2.791452407836914062e-01
4.230151772499084473e-01 -7.250951230525970459e-02 -3.401238024234771729e-01
4.452751278877258301e-01 2.143451198935508728e-02 -3.109668195247650146e-01
4.529172480106353760e-01 -7.158918678760528564e-02 -2.784374654293060303e-01
4.679698050022125244e-01 -8.150789886713027954e-03 -3.505742549896240234e-01
4.341684281826019287e-01 -8.522458374500274658e-02 -3.231443464756011963e-01
4.210953116416931152e-01 8.501261472702026367e-04 -3.545465469360351562e-01
4.412078857421875000e-01 -1.083969771862030029e-01 -3.684044480323791504e-01
4.418507814407348633e-01 -8.583149313926696777e-02 -3.074226677417755127e-01
5.106634497642517090e-01 -2.408533543348312378e-02 -2.605375945568084717e-01
4.576034545898437500e-01 -5.940786749124526978e-02 -3.843784332275390625e-01
4.567320048809051514e-01 -1.850496232509613037e-02 -2.610492110252380371e-01
5.128732323646545410e-01 -3.091820515692234039e-02 -2.548838257789611816e-01
4.451997280120849609e-01 -2.106828056275844574e-02 -2.777818441390991211e-01
4.146187305450439453e-01 -6.895521283149719238e-02 -3.860341012477874756e-01
4.315497875213623047e-01 -2.328783273696899414e-03 -3.093981146812438965e-01
4.768488407135009766e-01 3.825273364782333374e-03 -3.248187899589538574e-01
4.922103583812713623e-01 -8.408866822719573975e-02 -2.478215545415878296e-01
4.246587157249450684e-01 -2.958479896187782288e-02 -3.980785608291625977e-01
4.842585027217864990e-01 -5.538839846849441528e-03 -2.385998815298080444e-01
4.105811119079589844e-01 -4.729905351996421814e-02 -3.788917362689971924e-01
5.075439810752868652e-01 -6.140247732400894165e-02 -2.954953014850616455e-01
4.772161841392517090e-01 -7.044596970081329346e-02 -3.591011762619018555e-01
4.949546456336975098e-01 -1.847187243402004242e-02 -2.302237004041671753e-01
5.070931911468505859e-01 -8.098493516445159912e-02 -2.911132574081420898e-01
4.257551729679107666e-01 -3.727602213621139526e-02 -3.160958588123321533e-01
4.711255431175231934e-01 -5.478955805301666260e-02 -2.480773925781250000e-01
4.714649617671966553e-01 -3.338356316089630127e-02 -3.605362176895141602e-01
4.699361026287078857e-01 -1.965988427400588989e-03 -3.423388004302978516e-01
4.704691469669342041e-01 2.301200851798057556e-02 -2.855497002601623535e-01
4.549279510974884033e-01 -2.324082329869270325e-02 -3.764266371726989746e-01
4.640351533889770508e-01 -1.183055341243743896e-01 -3.256589472293853760e-01
4.348801672458648682e-01 -4.353754222393035889e-03 -3.008716106414794922e-01
4.898428320884704590e-01 -7.333104312419891357e-02 -3.371914923191070557e-01
4.342230558395385742e-01 1.612390950322151184e-02 -3.368598818778991699e-01
4.738067984580993652e-01 -4.954807832837104797e-02 -3.622800707817077637e-01
5.095958709716796875e-01 -8.438844233751296997e-02 -2.687590718269348145e-01
4.693692922592163086e-01 1.608003303408622742e-02 -3.195210993289947510e-01
5.089331269264221191e-01 -2.354408241808414459e-02 -2.375663220882415771e-01
4.367333650588989258e-01 9.427990764379501343e-03 -3.075112104415893555e-01
4.301045536994934082e-01 -8.203026652336120605e-02 -3.297894597053527832e-01
4.261188507080078125e-01 -7.921043783426284790e-03 -3.825970292091369629e-01
4.693809449672698975e-01 2.106155827641487122e-02 -3.071915507316589355e-01
4.334679543972015381e-01 -1.365047693252563477e-02 -3.003891110420227051e-01
4.481224417686462402e-01 -1.584532298147678375e-02 -3.787723183631896973e-01
4.683051705360412598e-01 -8.852697163820266724e-02 -2.698636651039123535e-01
4.602633118629455566e-01 -7.369763404130935669e-02 -2.693472802639007568e-01
5.074028968811035156e-01 -2.664631232619285583e-02 -2.808060944080352783e-01
5.130543708801269531e-01 -4.329485073685646057e-02 -2.698082923889160156e-01
4.976065754890441895e-01 -9.894612431526184082e-02 -3.055566251277923584e-01
4.739892482757568359e-01 1.505095884203910828e-02 -2.617863714694976807e-01
4.476051926612854004e-01 -4.866428300738334656e-02 -2.768858075141906738e-01
4.141292572021484375e-01 -2.204205840826034546e-02 -3.841445147991180420e-01
4.705569148063659668e-01 2.697821706533432007e-03 -3.366419970989227295e-01
4.269644618034362793e-01 -4.369780793786048889e-02 -3.145371675491333008e-01
4.884588122367858887e-01 -8.902010321617126465e-02 -2.536346316337585449e-01
4.695358276367187500e-01 2.159476652741432190e-02 -2.775755822658538818e-01
4.821239411830902100e-01 -6.917838007211685181e-03 -3.264840245246887207e-01
4.597341418266296387e-01 -6.653421372175216675e-02 -3.823018968105316162e-01
5.048963427543640137e-01 -6.453372538089752197e-02 -3.032981157302856445e-01
4.742568433284759521e-01 -6.081243604421615601e-02 -3.633394241333007812e-01
4.271624982357025146e-01 2.801332622766494751e-03 -3.688111007213592529e-01
4.587722122669219971e-01 -5.701240152120590210e-02 -2.634454071521759033e-01
4.960308670997619629e-01 -1.053106039762496948e-01 -2.961617410182952881e-01
5.080068707466125488e-01 -5.478932708501815796e-02 -2.934528589248657227e-01
4.366982877254486084e-01 -1.039748638868331909e-01 -3.472714424133300781e-01
4.878301918506622314e-01 -6.159928813576698303e-02 -3.411556184291839600e-01
4.621611833572387695e-01 -2.150836773216724396e-02 -2.538931965827941895e-01
4.269307553768157959e-01 -8.584458380937576294e-03 -3.172442615032196045e-01
4.369779527187347412e-01 1.707178726792335510e-02 -3.222472071647644043e-01
4.434362351894378662e-01 2.178307622671127319e-03 -3.674709498882293701e-01
4.261651337146759033e-01 -7.903710752725601196e-02 -3.988678455352783203e-01
4.973722994327545166e-01 -7.122844457626342773e-02 -2.374278306961059570e-01
4.580356180667877197e-01 -1.066918373107910156e-01 -3.037349879741668701e-01
4.893794953823089600e-01 1.211344823241233826e-02 -2.708438932895660400e-01
4.628729224205017090e-01 -8.346050977706909180e-02 -2.724153399467468262e-01
4.812880456447601318e-01 -9.300853312015533447e-02 -2.616831064224243164e-01
4.127161502838134766e-01 -3.912008553743362427e-02 -3.926153779029846191e-01
4.820348024368286133e-01 -1.698181033134460449e-03 -3.214233517646789551e-01
4.711960256099700928e-01 -2.701133489608764648e-04 -2.501606941223144531e-01
5.065656900405883789e-01 -4.847166314721107483e-02 -2.294980585575103760e-01
4.331506192684173584e-01 -1.027928069233894348e-01 -3.656289875507354736e-01
4.863448143005371094e-01 -4.829538613557815552e-02 -3.416554033756256104e-01
4.523096680641174316e-01 -3.595165908336639404e-02 -3.847188651561737061e-01
4.544224143028259277e-01 -9.885875880718231201e-02 -2.987653315067291260e-01
4.290804862976074219e-01 -3.578957170248031616e-02 -4.001138210296630859e-01
4.758184254169464111e-01 -5.584175139665603638e-02 -2.437900900840759277e-01
4.924649298191070557e-01 -7.571589201688766479e-03 -2.354776561260223389e-01
4.350181818008422852e-01 -6.903345882892608643e-02 -3.082081675529479980e-01
4.754311740398406982e-01 -1.039148196578025818e-01 -2.788796722888946533e-01
4.565989971160888672e-01 -8.406017720699310303e-02 -2.813560366630554199e-01
5.017230510711669922e-01 -1.580202765762805939e-02 -2.888007164001464844e-01
4.925675094127655029e-01 -2.800597809255123138e-02 -2.287494093179702759e-01
4.735439121723175049e-01 -1.351015642285346985e-02 -2.431500405073165894e-01
4.489874839782714844e-01 -4.270296543836593628e-02 -3.899976015090942383e-01
4.177670478820800781e-01 -2.203226089477539062e-02 -3.388501703739166260e-01
4.973616003990173340e-01 -3.798288106918334961e-02 -3.160144984722137451e-01
5.002833008766174316e-01 -1.004962921142578125e-01 -2.893490493297576904e-01
4.561970531940460205e-01 -1.124837696552276611e-01 -3.179488182067871094e-01
4.791212081909179688e-01 -2.510173432528972626e-02 -3.447958827018737793e-01
4.853119850158691406e-01 -9.866304695606231689e-02 -3.361841142177581787e-01
4.151122272014617920e-01 -1.218824461102485657e-02 -3.658772110939025879e-01
4.361866116523742676e-01 -9.880065172910690308e-02 -3.365840315818786621e-01
4.927484393119812012e-01 -7.869614660739898682e-02 -3.304652571678161621e-01
5.049657225608825684e-01 -3.891452029347419739e-02 -2.971893846988677979e-01
4.842528700828552246e-01 1.098490506410598755e-02 -2.540914118289947510e-01
4.235623478889465332e-01 -2.213921584188938141e-02 -3.215466141700744629e-01
