1.041004061698913574e-02 3.701354265213012695e-01 -6.120043247938156128e-02
9.171061962842941284e-02 3.745945692062377930e-01 5.279458314180374146e-02
3.516136668622493744e-03 3.746352791786193848e-01 -3.997581079602241516e-02
1.083100065588951111e-01 1.224782764911651611e-01 6.078635156154632568e-02
6.146477907896041870e-02 2.054873406887054443e-01 1.604125499725341797e-01
1.035250499844551086e-01 3.579798936843872070e-01 -8.784487098455429077e-02
-8.782795816659927368e-02 2.005247324705123901e-01 1.460579335689544678e-01
1.960644274950027466e-01 2.777250707149505615e-01 -6.193640828132629395e-02
7.633386552333831787e-02 1.940552592277526855e-01 -1.474868357181549072e-01
1.934771239757537842e-01 2.272416055202484131e-01 5.103164166212081909e-02
1.415565144270658493e-02 2.130487561225891113e-01 1.690067052841186523e-01
1.735059171915054321e-01 2.254533469676971436e-01 8.783178776502609253e-02
9.719064086675643921e-02 2.710479497909545898e-01 1.477276086807250977e-01
-1.313971579074859619e-01 2.024156302213668823e-01 1.138345748186111450e-01
-1.645486801862716675e-01 2.213420122861862183e-01 -3.681718930602073669e-02
1.202222481369972229e-01 1.970679610967636108e-01 -1.273991763591766357e-01
-6.268259882926940918e-02 3.340534865856170654e-01 7.783696800470352173e-02
-2.471486292779445648e-02 3.662691712379455566e-01 3.718360140919685364e-02
4.290783777832984924e-02 1.093039363622665405e-01 1.000968366861343384e-01
1.306456774473190308e-01 3.717569410800933838e-01 2.318541146814823151e-02
-1.740638315677642822e-01 2.083843052387237549e-01 1.019050180912017822e-02
-3.741168975830078125e-02 1.281983703374862671e-01 -1.183387786149978638e-01
7.162529043853282928e-03 7.385101914405822754e-02 9.272663854062557220e-03
1.412979662418365479e-01 1.377964019775390625e-01 2.357540279626846313e-02
-2.414787001907825470e-02 1.415642797946929932e-01 1.446403563022613525e-01
-6.276668608188629150e-02 1.225453317165374756e-01 1.234142184257507324e-01
-3.360776603221893311e-02 2.285294532775878906e-01 -1.553894877433776855e-01
-7.081518322229385376e-02 3.439601957798004150e-01 3.780168667435646057e-02
-1.358625590801239014e-01 2.770497500896453857e-01 -4.850865900516510010e-02
-3.934459388256072998e-02 3.415910005569458008e-01 -8.351032435894012451e-02
-1.632473170757293701e-01 2.469193488359451294e-01 8.423354476690292358e-03
8.619865030050277710e-02 3.510893285274505615e-01 9.790872037410736084e-02
1.162540614604949951e-01 2.818744778633117676e-01 1.361230313777923584e-01
7.025162689387798309e-03 7.486902177333831787e-02 -1.139610074460506439e-02
-7.752337306737899780e-02 3.265948295593261719e-01 -6.804886460304260254e-02
5.189864337444305420e-02 3.440054655075073242e-01 -1.147497594356536865e-01
1.266459226608276367e-01 1.319700479507446289e-01 4.972150176763534546e-02
-1.122413650155067444e-01 9.252008795738220215e-02 -1.384524814784526825e-02
1.203666925430297852e-01 3.522328734397888184e-01 -8.757133036851882935e-02
1.079611033201217651e-01 3.273080587387084961e-01 -1.196792647242546082e-01
1.863187849521636963e-01 1.957331597805023193e-01 3.161913156509399414e-02
1.245335564017295837e-01 1.761741042137145996e-01 -1.107729971408843994e-01
1.817733943462371826e-01 2.692801654338836670e-01 -8.794175088405609131e-02
-3.882150352001190186e-02 2.748892307281494141e-01 -1.431421041488647461e-01
-3.521137684583663940e-02 3.603868484497070312e-01 -4.313995689153671265e-02
1.748730987310409546e-01 3.255256414413452148e-01 5.763928592205047607e-02
3.356053680181503296e-02 1.653513461351394653e-01 1.534536778926849365e-01
1.986848115921020508e-01 2.919807732105255127e-01 4.085353016853332520e-02
9.248720854520797729e-02 3.054969608783721924e-01 1.358280181884765625e-01
-1.400755643844604492e-01 1.887459307909011841e-01 1.041427254676818848e-01
-3.778778761625289917e-02 3.041698932647705078e-01 -1.265859901905059814e-01
3.164185956120491028e-02 2.416053116321563721e-01 1.676430702209472656e-01
1.280069947242736816e-01 3.754016757011413574e-01 -6.453145295381546021e-03
1.645897328853607178e-01 1.611466407775878906e-01 -1.936552859842777252e-02
-1.494361460208892822e-01 2.727262377738952637e-01 -6.632579024881124496e-04
2.570937573909759521e-02 2.895817756652832031e-01 -1.520701646804809570e-01
6.950254552066326141e-03 3.332168459892272949e-01 -1.189286038279533386e-01
-2.686628885567188263e-02 9.457005560398101807e-02 -7.882188260555267334e-02
-8.269991725683212280e-02 2.857118248939514160e-01 1.197946146130561829e-01
-6.090806424617767334e-02 1.945182979106903076e-01 -1.441099345684051514e-01
-1.594364196062088013e-01 2.441735565662384033e-01 -3.011752665042877197e-02
-9.716191887855529785e-02 3.236772418022155762e-01 -3.799494355916976929e-02
-3.434110432863235474e-02 8.711491525173187256e-02 -6.367337703704833984e-02
1.795025356113910675e-02 2.522362172603607178e-01 -1.618649661540985107e-01
3.491826727986335754e-02 3.450945019721984863e-01 1.104582175612449646e-01
-9.554175660014152527e-03 2.085895240306854248e-01 -1.593040823936462402e-01
-1.379107385873794556e-01 2.228505015373229980e-01 1.026411503553390503e-01
1.632777005434036255e-01 3.563504517078399658e-01 -1.230315957218408585e-02
1.639557927846908569e-01 3.532801568508148193e-01 -3.018486127257347107e-02
8.452260494232177734e-02 1.820893585681915283e-01 -1.388955712318420410e-01
1.330042630434036255e-01 2.417441606521606445e-01 -1.327484846115112305e-01
6.495465338230133057e-02 1.550239622592926025e-01 -1.294403970241546631e-01
-7.935599237680435181e-02 1.306938976049423218e-01 -1.063952893018722534e-01
-6.270446628332138062e-02 7.383604347705841064e-02 1.081185229122638702e-02
-1.463970541954040527e-01 2.235336601734161377e-01 -7.461449503898620605e-02
2.059054821729660034e-01 2.855229675769805908e-01 -2.558107301592826843e-02
-1.377338021993637085e-01 1.118693575263023376e-01 4.047033190727233887e-02
1.373982429504394531e-01 3.636985719203948975e-01 4.190222918987274170e-02
-1.574287861585617065e-01 1.864222735166549683e-01 -5.977836996316909790e-02
1.691214889287948608e-01 3.396081328392028809e-01 -5.507357046008110046e-02
-9.446547925472259521e-02 1.850343197584152222e-01 -1.256067156791687012e-01
-7.861968129873275757e-03 1.017963737249374390e-01 -9.041476249694824219e-02
1.838847994804382324e-01 2.840065658092498779e-01 7.519958168268203735e-02
-1.327639222145080566e-01 2.934986352920532227e-01 2.755790948867797852e-02
2.583039551973342896e-02 3.664769232273101807e-01 7.489772140979766846e-02
-6.667283922433853149e-02 3.501854538917541504e-01 1.044082641601562500e-02
5.837972462177276611e-02 3.810171484947204590e-01 -4.581600427627563477e-02
-5.179649218916893005e-03 1.641715764999389648e-01 -1.459069848060607910e-01
1.501376926898956299e-01 3.034686744213104248e-01 -1.105123832821846008e-01
1.052295416593551636e-01 3.771238625049591064e-01 3.539576008915901184e-02
-1.173529997467994690e-01 3.067152202129364014e-01 -3.235689550638198853e-02
3.897313028573989868e-03 3.051158785820007324e-01 1.432276666164398193e-01
1.390884723514318466e-02 1.581968963146209717e-01 -1.425313651561737061e-01
-1.460162252187728882e-01 1.308977305889129639e-01 -4.030504450201988220e-02
-2.928699739277362823e-02 3.372211158275604248e-01 -9.764301776885986328e-02
-1.218557432293891907e-01 2.858810424804687500e-01 -6.435348838567733765e-02
1.833855956792831421e-01 2.027497589588165283e-01 -5.486542358994483948e-02
2.469983696937561035e-02 3.318793177604675293e-01 -1.243527606129646301e-01
2.685467898845672607e-02 1.823770552873611450e-01 1.616691052913665771e-01
-5.955155938863754272e-02 8.104047179222106934e-02 -4.007789492607116699e-02
1.794064044952392578e-02 9.955865144729614258e-02 9.588861465454101562e-02
-1.422853618860244751e-01 2.422046512365341187e-01 -7.219564914703369141e-02
-1.124725267291069031e-01 1.837428361177444458e-01 -1.127140149474143982e-01
1.486461311578750610e-01 1.494266092777252197e-01 -3.955608606338500977e-02
7.202766090631484985e-02 9.591010212898254395e-02 -2.774093858897686005e-02
3.891826421022415161e-02 9.195627272129058838e-02 6.848477572202682495e-02
7.145603746175765991e-02 2.741714417934417725e-01 -1.546596884727478027e-01
-7.670942693948745728e-02 2.555815279483795166e-01 -1.315691173076629639e-01
1.260379552841186523e-01 2.330142557621002197e-01 1.353844404220581055e-01
-5.019649863243103027e-03 3.675126135349273682e-01 5.604274943470954895e-02
-1.677451580762863159e-01 2.337454110383987427e-01 2.003400772809982300e-02
-9.868565201759338379e-02 9.388899803161621094e-02 6.303746998310089111e-02
-4.287414997816085815e-02 3.179838061332702637e-01 -1.116470023989677429e-01
1.620501279830932617e-04 1.779917776584625244e-01 -1.522228121757507324e-01
-1.732895374298095703e-01 1.958457529544830322e-01 3.276041150093078613e-02
1.567623317241668701e-01 3.199059069156646729e-01 -9.422060102224349976e-02
7.218883186578750610e-02 1.005932837724685669e-01 5.660179629921913147e-02
-1.025098003447055817e-02 3.302735090255737305e-01 1.176787093281745911e-01
-6.331694126129150391e-02 2.827588319778442383e-01 1.345994770526885986e-01
1.958575695753097534e-01 2.602858841419219971e-01 -6.374222785234451294e-02
-1.148056760430335999e-01 3.115530610084533691e-01 3.273699805140495300e-02
-1.495311260223388672e-01 1.320291012525558472e-01 5.581711605191230774e-02
1.059492975473403931e-01 3.097274899482727051e-01 1.282248497009277344e-01
1.429469287395477295e-01 3.527349829673767090e-01 -6.837972253561019897e-02
2.030585408210754395e-01 2.349097281694412231e-01 2.330100536346435547e-02
9.641132503747940063e-02 3.140515983104705811e-01 -1.327413022518157959e-01
-1.123610809445381165e-01 1.158512309193611145e-01 8.804699033498764038e-02
-9.940852224826812744e-02 1.313242912292480469e-01 1.138538420200347900e-01
7.574979960918426514e-02 1.328070908784866333e-01 -1.028452366590499878e-01
8.595497906208038330e-02 1.099851876497268677e-01 -5.452510342001914978e-02
2.048971951007843018e-01 2.460277676582336426e-01 -3.079049661755561829e-02
-2.380877919495105743e-02 7.152903079986572266e-02 2.113165892660617828e-02
-1.332840174436569214e-01 2.740705609321594238e-01 7.095190137624740601e-02
-1.304482221603393555e-01 2.983527183532714844e-01 6.759359501302242279e-03
1.002499908208847046e-01 1.308772861957550049e-01 -8.079683780670166016e-02
2.700029313564300537e-02 2.699965536594390869e-01 -1.587974727153778076e-01
1.640534996986389160e-01 1.795409172773361206e-01 6.595394015312194824e-02
1.038482133299112320e-02 2.455864846706390381e-01 1.677231490612030029e-01
-1.310352683067321777e-01 2.468544095754623413e-01 9.991649538278579712e-02
-1.206939890980720520e-01 2.743313610553741455e-01 -7.956714928150177002e-02
-1.380176097154617310e-01 1.284414231777191162e-01 7.280407100915908813e-02
4.748266190290451050e-02 1.922895312309265137e-01 -1.542021930217742920e-01
-1.087895259261131287e-01 2.915349006652832031e-01 8.760045468807220459e-02
1.631255894899368286e-01 1.946616619825363159e-01 8.378335833549499512e-02
2.054993361234664917e-01 2.952614724636077881e-01 -3.703564405441284180e-03
-6.604307144880294800e-02 1.351426243782043457e-01 1.324279606342315674e-01
1.529161781072616577e-01 2.908260524272918701e-01 1.082375347614288330e-01
1.018439605832099915e-01 2.125211656093597412e-01 -1.437057256698608398e-01
-1.084725782275199890e-01 2.685243785381317139e-01 1.105083525180816650e-01
-1.154761835932731628e-01 3.013239502906799316e-01 -5.103068426251411438e-02
1.973710954189300537e-01 2.169758975505828857e-01 2.466082014143466949e-02
1.410650908946990967e-01 1.790146231651306152e-01 -9.744197875261306763e-02
2.056509554386138916e-01 2.866255939006805420e-01 1.772106811404228210e-02
1.376807689666748047e-02 3.745779991149902344e-01 4.760383069515228271e-02
-1.625348478555679321e-01 1.601733267307281494e-01 -3.645355626940727234e-02
-1.576830297708511353e-01 2.307750135660171509e-01 -4.915909469127655029e-02
1.925606280565261841e-01 3.073471188545227051e-01 -5.175850540399551392e-02
-1.233277842402458191e-02 9.106250107288360596e-02 -7.242689281702041626e-02
-4.818600416183471680e-02 1.054956614971160889e-01 -9.160696715116500854e-02
1.021332815289497375e-01 2.389638721942901611e-01 1.491351425647735596e-01
2.547611668705940247e-02 2.378045767545700073e-01 -1.632352769374847412e-01
-1.342477500438690186e-01 1.403178870677947998e-01 9.030290693044662476e-02
-1.563421636819839478e-01 1.863549947738647461e-01 8.065517991781234741e-02
-5.846907943487167358e-02 3.020509481430053711e-01 1.225386932492256165e-01
-1.510188132524490356e-01 1.471096277236938477e-01 -5.037488043308258057e-02
-8.213001489639282227e-02 2.174964696168899536e-01 1.484650969505310059e-01
1.260853856801986694e-01 2.626358568668365479e-01 -1.372087299823760986e-01
2.004407197237014771e-01 2.449365705251693726e-01 4.203330352902412415e-02
-1.138537935912609100e-02 7.849553227424621582e-02 -4.023475572466850281e-02
-6.035314500331878662e-02 2.322162240743637085e-01 1.560799479484558105e-01
1.283630281686782837e-01 3.124492466449737549e-01 1.149112209677696228e-01
7.893238961696624756e-02 9.664683043956756592e-02 -1.184703316539525986e-02
-4.190816730260848999e-02 7.261544466018676758e-02 2.930149249732494354e-02
7.242801040410995483e-02 3.755788505077362061e-01 5.667145550251007080e-02
-5.019757896661758423e-02 2.740384936332702637e-01 1.459906101226806641e-01
-1.565314978361129761e-01 2.414500862360000610e-01 5.851969122886657715e-02
-1.229766532778739929e-01 2.174046635627746582e-01 1.201363578438758850e-01
1.346556544303894043e-01 1.332467794418334961e-01 -2.516931854188442230e-02
-1.631469428539276123e-01 1.840553134679794312e-01 6.673913449048995972e-02
-2.160804159939289093e-02 3.593771457672119141e-01 6.403443217277526855e-02
1.877593696117401123e-01 3.245861828327178955e-01 2.993605844676494598e-02
8.611297607421875000e-02 1.272460073232650757e-01 9.623801708221435547e-02
-3.906421363353729248e-02 3.498165309429168701e-01 7.028134167194366455e-02
7.128138095140457153e-02 9.238113462924957275e-02 3.392469370737671852e-03
1.651627868413925171e-01 3.501036763191223145e-01 2.879814058542251587e-02
2.213370986282825470e-02 2.692400515079498291e-01 1.622678935527801514e-01
-1.143859252333641052e-01 3.141365051269531250e-01 -1.084473915398120880e-02
5.446556210517883301e-02 3.149024248123168945e-01 -1.392849981784820557e-01
4.587466269731521606e-02 3.147189021110534668e-01 1.389940977096557617e-01
-1.053927615284919739e-01 2.749037742614746094e-01 -9.793806076049804688e-02
3.956094384193420410e-02 8.221647143363952637e-02 2.750047482550144196e-02
1.191928386688232422e-01 2.860446870326995850e-01 -1.363399326801300049e-01
1.533029973506927490e-01 2.445788234472274780e-01 -1.179175898432731628e-01
7.650665193796157837e-02 1.190338581800460815e-01 -8.286047726869583130e-02
-1.660277396440505981e-01 2.276916950941085815e-01 4.278508946299552917e-02
4.100052639842033386e-03 1.675449311733245850e-01 1.583923995494842529e-01
1.805276870727539062e-01 3.006365895271301270e-01 -7.951612025499343872e-02
1.434119492769241333e-01 2.311287671327590942e-01 -1.234802529215812683e-01
-1.469808220863342285e-01 2.057169079780578613e-01 -7.759632170200347900e-02
1.475194841623306274e-01 3.610900640487670898e-01 -4.235079139471054077e-02
3.200705721974372864e-02 1.978832483291625977e-01 -1.579844653606414795e-01
1.470077931880950928e-01 2.757751047611236572e-01 1.179998815059661865e-01
3.354294598102569580e-02 2.182877361774444580e-01 1.678313016891479492e-01
-1.338431537151336670e-01 1.045580580830574036e-01 6.004734896123409271e-03
-5.444137006998062134e-02 3.561637401580810547e-01 -1.613948680460453033e-02
9.666809439659118652e-02 3.560791909694671631e-01 8.732605725526809692e-02
8.658646047115325928e-02 3.330689370632171631e-01 1.175664961338043213e-01
-3.395494818687438965e-02 3.200695812702178955e-01 1.186047196388244629e-01
-6.408646702766418457e-02 2.122841328382492065e-01 1.566483974456787109e-01
6.574657559394836426e-02 1.048256158828735352e-01 7.529331743717193604e-02
2.072097063064575195e-01 2.522906363010406494e-01 1.550200674682855606e-02
1.812224090099334717e-01 1.856019645929336548e-01 -2.886825799942016602e-02
1.357769221067428589e-01 2.875122427940368652e-01 1.226762458682060242e-01
1.085334829986095428e-02 8.067055046558380127e-02 5.456185340881347656e-02
3.664513677358627319e-02 2.540854215621948242e-01 -1.618745923042297363e-01
7.462149858474731445e-02 2.859704792499542236e-01 1.502040326595306396e-01
1.126951053738594055e-01 1.187196746468544006e-01 -3.231985494494438171e-02
-9.814351797103881836e-02 8.450263738632202148e-02 2.621409296989440918e-02
-1.841019839048385620e-03 2.298531383275985718e-01 1.689320802688598633e-01
3.700768947601318359e-02 8.145761489868164062e-02 -1.354448311030864716e-02
-1.318374723196029663e-01 1.192495003342628479e-01 -4.783965274691581726e-02
-1.452392637729644775e-01 2.087437361478805542e-01 9.670107066631317139e-02
1.893199533224105835e-01 2.356245070695877075e-01 6.549401581287384033e-02
6.668633781373500824e-03 3.792813420295715332e-01 -1.373766176402568817e-02
-1.258583068847656250e-01 1.000774502754211426e-01 -8.650768548250198364e-03
-3.572047501802444458e-02 6.550098955631256104e-02 1.091787666082382202e-01
-6.312446296215057373e-02 -2.043339610099792480e-01 -9.102012962102890015e-02
-2.320326268672943115e-01 9.262651205062866211e-02 -2.203266322612762451e-02
-1.095966845750808716e-01 9.400890767574310303e-02 -1.452818661928176880e-01
-7.569930702447891235e-02 1.121008247137069702e-01 9.456998854875564575e-02
7.051557302474975586e-03 1.169032007455825806e-01 2.990728430449962616e-02
-1.462181210517883301e-01 -1.624450236558914185e-01 9.063106775283813477e-02
4.836658388376235962e-02 -7.491619139909744263e-02 -5.392855033278465271e-02
-1.502620875835418701e-01 1.375806629657745361e-01 5.013538897037506104e-02
-8.688156306743621826e-02 -1.673407256603240967e-01 -1.507003903388977051e-01
-1.713961064815521240e-01 8.092202246189117432e-02 9.731676429510116577e-02
1.341099292039871216e-02 -7.261554896831512451e-02 7.423469424247741699e-02
-7.946139574050903320e-02 -1.360858678817749023e-01 1.025684773921966553e-01
-2.552519440650939941e-01 3.389224782586097717e-02 3.576056659221649170e-02
-1.883330941200256348e-02 -1.854944676160812378e-01 -4.324823617935180664e-02
-1.609934866428375244e-02 1.443838328123092651e-01 -3.298801183700561523e-02
-2.216111719608306885e-01 -1.150443702936172485e-01 8.497001975774765015e-02
5.651906132698059082e-03 9.097126126289367676e-02 6.390602886676788330e-02
-2.443526089191436768e-01 3.551898524165153503e-02 -1.012426614761352539e-01
2.617738395929336548e-02 -8.871871232986450195e-02 -1.043780073523521423e-01
-2.075424194335937500e-01 -2.715288475155830383e-02 -1.639490127563476562e-01
-2.255069166421890259e-01 4.936077818274497986e-02 7.243532687425613403e-02
-2.128880620002746582e-01 7.244449853897094727e-02 6.949631869792938232e-02
-1.572844684123992920e-01 -1.955835968255996704e-01 5.712071061134338379e-02
-2.364248037338256836e-02 1.484892964363098145e-01 5.464492365717887878e-03
-1.890210062265396118e-02 -5.058661103248596191e-03 -1.623644828796386719e-01
3.141397982835769653e-02 5.075943842530250549e-02 -9.583518654108047485e-02
1.381995528936386108e-02 1.180231422185897827e-01 -4.072795063257217407e-02
-2.394545376300811768e-01 -4.270979389548301697e-02 8.524095267057418823e-02
-8.653993159532546997e-02 -1.888590157032012939e-01 5.929675698280334473e-02
-2.418324053287506104e-01 -1.623184084892272949e-01 2.811136282980442047e-02
-2.345151603221893311e-01 -1.219283193349838257e-01 -1.351166665554046631e-01
-2.433198690414428711e-01 -4.618297517299652100e-02 -1.368046253919601440e-01
-1.257265657186508179e-01 -2.270864695310592651e-01 -7.934786379337310791e-02
-2.536404430866241455e-01 -1.452190279960632324e-01 -9.504784643650054932e-02
-4.545189440250396729e-03 -8.623911440372467041e-02 -1.443468630313873291e-01
6.035233289003372192e-02 -8.515696972608566284e-03 -3.161920607089996338e-02
-1.597068905830383301e-01 1.399299353361129761e-01 3.616835176944732666e-02
-1.102877333760261536e-01 1.012853160500526428e-02 1.376708745956420898e-01
-2.238564789295196533e-01 9.616872668266296387e-02 1.644439809024333954e-02
-7.353639602661132812e-02 -2.865570597350597382e-02 1.351364254951477051e-01
-1.113460436463356018e-01 1.231246292591094971e-01 8.507670462131500244e-02
3.509824723005294800e-02 8.603431284427642822e-02 1.198917813599109650e-02
-3.410435467958450317e-02 1.348359733819961548e-01 -8.404468744993209839e-02
-8.522272109985351562e-02 -1.747340559959411621e-01 7.428221404552459717e-02
-3.894803673028945923e-02 1.004342436790466309e-01 -1.266542226076126099e-01
-2.531145215034484863e-01 -1.346327960491180420e-01 3.796572983264923096e-02
-4.299315065145492554e-02 -2.028714865446090698e-01 -1.719211041927337646e-02
2.596988528966903687e-02 1.031040549278259277e-01 6.565259769558906555e-03
-9.290287643671035767e-02 1.190513074398040771e-01 9.019756317138671875e-02
-2.721254825592041016e-01 -1.362668424844741821e-01 -2.503343299031257629e-02
-1.165444478392601013e-01 -2.139747291803359985e-01 -1.070456802845001221e-01
-9.825145453214645386e-02 -1.301577389240264893e-01 -1.747887730598449707e-01
-1.794727891683578491e-01 4.362465068697929382e-02 -1.561245322227478027e-01
-1.863351464271545410e-01 -5.287396535277366638e-02 1.216750293970108032e-01
-5.541530251502990723e-02 -4.312811419367790222e-03 1.307928413152694702e-01
1.956523209810256958e-02 -9.843701124191284180e-02 5.006622523069381714e-02
-1.482439488172531128e-01 1.531187891960144043e-01 -3.935790061950683594e-02
-1.274519264698028564e-01 4.742804914712905884e-03 1.371683031320571899e-01
-2.064384520053863525e-03 2.627504244446754456e-02 -1.439328640699386597e-01
-1.286661177873611450e-01 1.509446352720260620e-01 3.850550204515457153e-02
-1.845919787883758545e-01 1.159498244524002075e-01 -8.678850531578063965e-02
-1.852506697177886963e-01 -1.666339039802551270e-01 7.558871060609817505e-02
9.422115981578826904e-03 -4.135418683290481567e-02 -1.411279141902923584e-01
2.188988775014877319e-02 1.210894808173179626e-02 7.916565984487533569e-02
-2.582781910896301270e-01 2.794885635375976562e-02 -8.091164380311965942e-02
-5.469842627644538879e-02 1.036490201950073242e-01 9.572037309408187866e-02
-1.542337238788604736e-03 -1.104838252067565918e-01 -1.300295442342758179e-01
-2.788472175598144531e-01 -6.315581500530242920e-02 -7.761643826961517334e-02
8.254572749137878418e-04 1.258094161748886108e-01 -5.550976842641830444e-02
-2.629947364330291748e-01 1.113040000200271606e-02 -8.557033538818359375e-02
-2.161331176757812500e-01 -1.298511326313018799e-01 -1.475791186094284058e-01
-2.162767201662063599e-01 -6.206401437520980835e-02 -1.610510200262069702e-01
-9.654293954372406006e-02 6.239297613501548767e-02 -1.652133017778396606e-01
-6.322550773620605469e-02 -1.615563631057739258e-01 7.690509408712387085e-02
-1.206286177039146423e-01 -1.769934445619583130e-01 -1.501526981592178345e-01
-2.412304580211639404e-01 5.956026539206504822e-02 -8.120595663785934448e-02
-2.641143500804901123e-01 -1.306706070899963379e-01 -8.603870868682861328e-02
-2.253957688808441162e-01 -1.307746618986129761e-01 7.376367598772048950e-02
-2.143742591142654419e-01 9.669269621372222900e-02 3.829416632652282715e-02
-1.840104460716247559e-01 -2.192878127098083496e-01 4.360787570476531982e-04
-2.372777014970779419e-01 5.996849760413169861e-02 4.605734348297119141e-02
-1.811545342206954956e-01 -1.022380590438842773e-01 1.130218356847763062e-01
-2.280605584383010864e-02 1.338979601860046387e-02 1.155788600444793701e-01
4.382132738828659058e-02 -9.128073602914810181e-02 -4.847172647714614868e-02
-1.915982365608215332e-01 2.929500117897987366e-02 -1.563685685396194458e-01
-2.443843483924865723e-01 -1.349671334028244019e-01 -1.173672825098037720e-01
-1.498630046844482422e-01 2.382384613156318665e-02 1.297562122344970703e-01
4.724728316068649292e-02 3.446311876177787781e-02 3.091437555849552155e-02
-2.838756442070007324e-01 -4.859999939799308777e-02 -9.079407900571823120e-04
-2.714443206787109375e-01 -8.218608796596527100e-02 -9.448602795600891113e-02
3.989427536725997925e-02 8.207149803638458252e-02 -3.791963681578636169e-03
-1.247327849268913269e-01 -6.266218423843383789e-02 1.350988149642944336e-01
-1.671636849641799927e-02 -6.916538625955581665e-02 1.029657125473022461e-01
-2.753233313560485840e-01 -1.904033124446868896e-02 2.208175696432590485e-02
-1.213999241590499878e-01 -1.987325996160507202e-01 -1.293161064386367798e-01
5.826183408498764038e-02 2.282723411917686462e-02 -3.096471913158893585e-02
-6.292717158794403076e-02 8.398121595382690430e-02 -1.478104889392852783e-01
-1.672706156969070435e-01 2.296928316354751587e-02 -1.705175489187240601e-01
-2.273711860179901123e-01 8.466562628746032715e-02 3.212694823741912842e-02
-1.110187843441963196e-01 5.418730154633522034e-02 1.274791061878204346e-01
-1.124220266938209534e-01 -2.487366832792758942e-02 1.393228173255920410e-01
-2.017914354801177979e-01 -5.155496671795845032e-02 -1.698754727840423584e-01
2.458260208368301392e-02 -1.312250643968582153e-01 -1.241689361631870270e-02
-2.215451300144195557e-01 7.810272276401519775e-02 -9.227038174867630005e-02
1.795072108507156372e-02 3.686878830194473267e-03 -1.307493150234222412e-01
4.875317960977554321e-02 1.234180852770805359e-02 3.470555692911148071e-02
-8.708786964416503906e-02 1.149458587169647217e-01 -1.274434924125671387e-01
-4.447110742330551147e-02 -2.052916288375854492e-01 -3.465449810028076172e-02
-1.775929629802703857e-01 -1.122386381030082703e-02 1.257168799638748169e-01
-1.694946587085723877e-01 7.348042726516723633e-02 -1.430315226316452026e-01
-2.744783759117126465e-01 1.139909029006958008e-03 9.872915223240852356e-03
-2.191376984119415283e-01 3.053134307265281677e-02 8.940578252077102661e-02
-2.704854309558868408e-01 -1.378986388444900513e-01 -5.205753073096275330e-02
-1.784248203039169312e-01 -2.077388018369674683e-01 3.109288774430751801e-02
2.314180880784988403e-02 1.101403534412384033e-01 -2.184327878057956696e-02
-2.539634108543395996e-01 5.050971731543540955e-02 -6.140329688787460327e-02
-1.727289259433746338e-01 -1.812733411788940430e-01 -1.394277215003967285e-01
-2.645692229270935059e-01 3.981908783316612244e-02 -2.688722498714923859e-02
-2.118890285491943359e-01 -2.015031427145004272e-01 -8.438643813133239746e-02
-2.011739909648895264e-01 -1.215230524539947510e-01 9.577670693397521973e-02
-1.716743409633636475e-02 9.290291368961334229e-02 8.362585306167602539e-02
-1.914973258972167969e-01 2.270532399415969849e-02 1.127098351716995239e-01
-2.425140738487243652e-01 -1.587305516004562378e-01 -1.010128408670425415e-01
9.900100529193878174e-03 8.392740786075592041e-02 -1.011211499571800232e-01
-1.027283594012260437e-01 -1.545382440090179443e-01 -1.633150428533554077e-01
-1.304963380098342896e-01 1.017132699489593506e-01 9.960003197193145752e-02
-1.080264225602149963e-01 -3.659411519765853882e-02 -1.916290223598480225e-01
-1.155116483569145203e-01 -1.459105759859085083e-01 -1.696677058935165405e-01
-6.313346326351165771e-02 -1.599971204996109009e-03 -1.810304075479507446e-01
-1.181902885437011719e-01 1.452985554933547974e-01 -8.523336052894592285e-02
-1.772786378860473633e-01 -2.222234904766082764e-01 -7.513760775327682495e-02
-7.858435064554214478e-02 -1.236815601587295532e-01 -1.728357225656509399e-01
-8.372589945793151855e-04 -2.001997083425521851e-02 1.012411713600158691e-01
-7.275004684925079346e-02 5.825616791844367981e-02 1.236703395843505859e-01
1.358195394277572632e-02 -1.484256386756896973e-01 -1.605639234185218811e-02
4.875056445598602295e-03 -1.016456633806228638e-03 9.707104414701461792e-02
-6.875613331794738770e-02 -1.104115396738052368e-01 -1.746293455362319946e-01
-4.988506436347961426e-03 6.511129438877105713e-02 -1.293403804302215576e-01
-1.628838330507278442e-01 -2.130212783813476562e-01 2.967520244419574738e-02
-6.876760721206665039e-02 -1.772460043430328369e-01 6.411146372556686401e-02
-7.906247675418853760e-02 1.644086539745330811e-01 8.178664371371269226e-03
-2.033228576183319092e-01 6.063411012291908264e-02 8.775483071804046631e-02
-3.011211752891540527e-03 1.337080001831054688e-01 9.930433705449104309e-03
-4.956324398517608643e-02 -1.920418888330459595e-01 2.764833159744739532e-02
-1.300202459096908569e-01 1.057227253913879395e-01 -1.321593970060348511e-01
5.184357613325119019e-02 -1.748312450945377350e-02 -7.549960166215896606e-02
-2.559134662151336670e-01 1.999506354331970215e-02 4.582663625478744507e-02
-1.018584221601486206e-01 -2.185010462999343872e-01 1.711971499025821686e-02
-5.628081411123275757e-02 1.618146300315856934e-01 -2.837549895048141479e-02
-6.006583198904991150e-02 1.556005030870437622e-01 -5.927114933729171753e-02
-1.257885545492172241e-01 3.694760426878929138e-02 1.313516497611999512e-01
-1.135028153657913208e-02 1.425605863332748413e-01 -7.626017555594444275e-03
-5.196724086999893188e-02 -2.051478475332260132e-01 -7.138402760028839111e-02
4.516880959272384644e-02 7.029213011264801025e-02 -3.389129415154457092e-02
-4.254857450723648071e-02 -1.865575313568115234e-01 -1.001364514231681824e-01
-1.923381686210632324e-01 -1.045044958591461182e-01 -1.697171628475189209e-01
-2.217159271240234375e-01 -1.870915144681930542e-01 2.325020171701908112e-02
-6.977759301662445068e-03 -5.524156615138053894e-02 9.991402924060821533e-02
-2.153220176696777344e-01 -1.541047692298889160e-01 6.643546372652053833e-02
-3.719499707221984863e-02 7.652555406093597412e-02 -1.430235207080841064e-01
-1.808636337518692017e-01 6.105342134833335876e-02 -1.452995687723159790e-01
-1.731527447700500488e-01 -2.279779165983200073e-01 -5.293927714228630066e-02
-2.714571058750152588e-01 2.023402601480484009e-03 -7.045517116785049438e-02
-2.597575485706329346e-01 -8.606687188148498535e-02 5.411151051521301270e-02
-1.447996646165847778e-01 1.558270901441574097e-01 1.265127211809158325e-04
-7.734587043523788452e-02 1.479709297418594360e-01 5.334813147783279419e-02
-2.423691153526306152e-01 6.456922739744186401e-03 -1.228455901145935059e-01
-1.428966224193572998e-01 1.472133398056030273e-01 -6.696324050426483154e-02
-1.201283633708953857e-01 -1.359611004590988159e-01 1.091724485158920288e-01
-7.082419842481613159e-02 1.045017093420028687e-01 -1.344726532697677612e-01
-1.685192286968231201e-01 8.636541664600372314e-03 1.267607063055038452e-01
-1.996487379074096680e-03 -1.566456556320190430e-01 -8.352798968553543091e-02
-2.619097530841827393e-01 -1.107653826475143433e-01 3.970333188772201538e-02
-4.629455506801605225e-02 -1.799399405717849731e-01 4.406417906284332275e-02
-2.367204129695892334e-01 -1.803351342678070068e-01 -8.161271363496780396e-02
-1.225828155875205994e-01 -2.329954802989959717e-01 -4.229177907109260559e-02
-1.876626014709472656e-01 5.623437091708183289e-02 1.019266843795776367e-01
-1.444691568613052368e-01 -2.213994711637496948e-01 -9.426338225603103638e-02
-1.458743959665298462e-01 1.186252981424331665e-01 7.879819720983505249e-02
-2.116248607635498047e-01 -1.769232302904129028e-01 -1.197669282555580139e-01
-9.263292700052261353e-02 1.386060938239097595e-02 -1.831698715686798096e-01
-2.053809463977813721e-01 5.424320325255393982e-02 -1.326154023408889771e-01
-8.461627364158630371e-02 9.722001850605010986e-02 -1.424966156482696533e-01
-2.710358500480651855e-01 2.431295439600944519e-02 -2.410721220076084137e-02
1.072807610034942627e-02 4.555619135499000549e-02 -1.251715272665023804e-01
-1.857876479625701904e-01 7.945943623781204224e-03 1.193167418241500854e-01
-2.503256201744079590e-01 -1.119231730699539185e-01 -1.209446713328361511e-01
2.129457145929336548e-02 -1.386707127094268799e-01 -3.270868957042694092e-02
-1.172821596264839172e-01 -2.271910458803176880e-01 -4.812963306903839111e-04
5.786528438329696655e-02 3.683775663375854492e-03 -5.047196894884109497e-02
-1.612116843461990356e-01 -1.659875921905040741e-02 1.319096386432647705e-01
-9.611538052558898926e-02 -1.529630422592163086e-01 9.565892070531845093e-02
-1.070186644792556763e-01 -2.293641716241836548e-01 -5.862804502248764038e-02
-2.822247445583343506e-01 -1.704847440123558044e-02 -1.633627153933048248e-02
-2.579621374607086182e-01 -9.884685277938842773e-02 -1.146087348461151123e-01
-1.292563080787658691e-01 1.253200173377990723e-01 7.837410271167755127e-02
2.149363607168197632e-02 1.005157381296157837e-01 -6.159521639347076416e-02
-6.677423417568206787e-02 -1.909399591386318207e-02 -1.843177378177642822e-01
-7.066690921783447266e-02 1.380570083856582642e-01 -9.767597168684005737e-02
-2.475792765617370605e-01 -1.751921921968460083e-01 -6.233736872673034668e-02
-1.742345839738845825e-01 6.511338055133819580e-02 1.052222847938537598e-01
-2.858695983886718750e-01 -4.354315996170043945e-02 -3.278663754463195801e-02
-1.218978986144065857e-01 1.593521833419799805e-01 -4.692834243178367615e-02
-4.572200775146484375e-02 1.595477461814880371e-01 -9.689774364233016968e-03
-2.290516346693038940e-01 -1.713618189096450806e-01 3.572283685207366943e-02
-1.498128473758697510e-01 -2.329678237438201904e-01 -4.096589982509613037e-02
-2.752485871315002441e-02 -1.582232490181922913e-02 1.190478056669235229e-01
5.976518243551254272e-02 6.641127169132232666e-03 -1.207322254776954651e-02
4.342349618673324585e-02 -3.265216946601867676e-02 -9.433165937662124634e-02
-2.118131220340728760e-01 1.449709758162498474e-02 1.013610959053039551e-01
-3.867746144533157349e-02 -2.694588899612426758e-02 -1.747587472200393677e-01
-1.128894090652465820e-01 3.588466718792915344e-02 -1.768201142549514771e-01
-2.073917537927627563e-01 -6.786884367465972900e-02 1.086743175983428955e-01
-2.057894617319107056e-01 1.109537333250045776e-01 -6.302635371685028076e-02
-2.192497849464416504e-01 -1.115926504135131836e-01 -1.518328189849853516e-01
5.409098416566848755e-02 4.059470817446708679e-02 -3.963144868612289429e-02
-2.639758288860321045e-01 -3.168842196464538574e-02 -1.058691143989562988e-01
-1.560366749763488770e-01 -1.140388697385787964e-01 1.161959022283554077e-01
-1.850825548171997070e-02 -1.356111019849777222e-01 -1.310600042343139648e-01
-2.001279741525650024e-01 7.596361637115478516e-02 7.979670166969299316e-02
-2.310138046741485596e-01 5.322789028286933899e-02 -1.056540831923484802e-01
-2.803093492984771729e-01 -6.635230034589767456e-03 -2.985082380473613739e-02
-9.833323210477828979e-02 -2.107142359018325806e-01 -1.062808856368064880e-01
-5.766246840357780457e-02 -2.984077110886573792e-02 1.308107078075408936e-01
-2.837643921375274658e-01 -8.832757174968719482e-02 -1.363336201757192612e-02
-1.746875643730163574e-01 1.385289132595062256e-01 -4.772917926311492920e-02
-2.380030453205108643e-01 4.267996922135353088e-02 6.039598584175109863e-02
-7.103331387042999268e-02 1.618353724479675293e-01 -4.457495361566543579e-02
-2.050795853137969971e-01 -2.070430219173431396e-01 6.756724789738655090e-03
-2.129650115966796875e-01 1.125183105468750000e-01 -3.916319459676742554e-03
-2.609461545944213867e-01 -1.397691369056701660e-01 1.723025552928447723e-02
-3.343826532363891602e-02 -1.020909547805786133e-01 -1.606793850660324097e-01
6.527468562126159668e-03 1.158696413040161133e-02 -1.405342072248458862e-01
-7.066193222999572754e-02 7.831270992755889893e-02 1.149601340293884277e-01
-2.652677595615386963e-01 -1.513564735651016235e-01 -2.603291906416416168e-02
-5.059232935309410095e-02 -1.053432226181030273e-01 -1.689205169677734375e-01
-8.382698893547058105e-02 1.510528475046157837e-01 -7.812834531068801880e-02
-1.019852533936500549e-01 1.599231511354446411e-01 2.676671929657459259e-02
-2.082278430461883545e-01 3.429404273629188538e-02 -1.425669491291046143e-01
-7.341013848781585693e-02 1.655146330595016479e-01 -2.025744132697582245e-02
-6.972099840641021729e-02 7.091543078422546387e-02 -1.573129296302795410e-01
-1.462659090757369995e-01 -2.078934162855148315e-01 4.274582862854003906e-02
-2.064754515886306763e-01 -2.123408168554306030e-01 -1.364920102059841156e-02
-3.977498412132263184e-02 -1.422138512134552002e-01 7.905086129903793335e-02
2.641454339027404785e-04 -1.080694049596786499e-01 6.882697343826293945e-02
-8.044306933879852295e-02 1.270332336425781250e-01 8.156939595937728882e-02
-3.619180619716644287e-02 -1.672206819057464600e-01 5.116651207208633423e-02
-2.256741523742675781e-01 -6.423966586589813232e-02 9.630111604928970337e-02
-8.393903821706771851e-02 -3.336153551936149597e-02 -1.890170723199844360e-01
-1.675076782703399658e-03 -1.865392364561557770e-02 -1.515154391527175903e-01
2.332558482885360718e-02 6.692497432231903076e-02 5.854611098766326904e-02
-4.397470504045486450e-02 -2.037429660558700562e-01 -5.417071282863616943e-02
-2.069047689437866211e-01 -1.954158544540405273e-01 -1.016977652907371521e-01
-2.781011760234832764e-01 -7.347241044044494629e-03 -5.319319665431976318e-02
-2.132643759250640869e-02 -1.688917279243469238e-01 3.066321648657321930e-02
-1.165488585829734802e-01 5.756647512316703796e-02 -1.672114729881286621e-01
-2.352689802646636963e-01 8.532306551933288574e-02 -4.477545619010925293e-02
-5.571039766073226929e-02 -1.499146074056625366e-01 -1.492451876401901245e-01
-2.818080037832260132e-02 -1.188679039478302002e-01 8.753713220357894897e-02
1.987210661172866821e-02 -1.125407814979553223e-01 -9.722313284873962402e-02
2.956167608499526978e-02 3.057560697197914124e-02 -1.089154779911041260e-01
-2.410949021577835083e-02 5.173214897513389587e-02 1.082529127597808838e-01
-4.059470444917678833e-02 -1.220915615558624268e-01 -1.565637588500976562e-01
-1.847233176231384277e-01 8.480592072010040283e-02 8.572266995906829834e-02
-2.035933136940002441e-01 -1.604899019002914429e-02 1.127604097127914429e-01
-8.782566338777542114e-02 -7.343456894159317017e-02 -1.880348473787307739e-01
-2.517719864845275879e-01 4.321012273430824280e-02 -7.886019349098205566e-02
-1.332645714282989502e-01 -2.292631268501281738e-01 -4.271849989891052246e-03
3.235606104135513306e-02 -1.311023160815238953e-02 -1.144912019371986389e-01
4.303691536188125610e-02 -8.428406715393066406e-02 8.497053757309913635e-03
-1.804787665605545044e-02 -1.654890775680541992e-01 -9.912741184234619141e-02
-2.741981148719787598e-01 1.310313120484352112e-02 -3.934943303465843201e-02
2.279009670019149780e-02 1.925906911492347717e-02 -1.216470599174499512e-01
3.145895898342132568e-03 -1.628642380237579346e-01 -2.552154287695884705e-02
-3.065951168537139893e-03 4.991148039698600769e-02 -1.356948614120483398e-01
-1.440079659223556519e-01 1.185140311717987061e-01 -1.139214038848876953e-01
-7.033635675907135010e-02 1.233939379453659058e-01 -1.161381900310516357e-01
-2.864244878292083740e-01 -6.702963262796401978e-02 -2.879194729030132294e-02
-2.153921872377395630e-01 9.318169951438903809e-02 -8.022802323102951050e-02
-7.292033731937408447e-02 -2.194487899541854858e-01 -2.164422348141670227e-02
3.253323584794998169e-02 -4.855832085013389587e-02 5.810710787773132324e-02
-2.630073130130767822e-01 -1.690552942454814911e-02 5.014020949602127075e-02
-1.140508875250816345e-01 -1.498022675514221191e-01 1.004315167665481567e-01
-7.970994710922241211e-02 1.591531783342361450e-01 2.925369702279567719e-02
-2.010163962841033936e-01 1.061005145311355591e-02 -1.581851840019226074e-01
-1.666796803474426270e-01 1.464772820472717285e-01 -4.503386095166206360e-03
-1.384935975074768066e-01 -2.191813141107559204e-01 2.355426736176013947e-02
-4.833727329969406128e-02 -5.384808033704757690e-02 1.240735650062561035e-01
-1.560599803924560547e-01 1.334127038717269897e-02 -1.774241924285888672e-01
-1.365357935428619385e-01 -2.333520054817199707e-01 -2.999949082732200623e-02
3.276912122964859009e-02 7.651895284652709961e-04 6.578116118907928467e-02
-2.988084405660629272e-02 -4.218285158276557922e-02 1.176012903451919556e-01
-2.082759737968444824e-01 -5.120231211185455322e-02 1.101291030645370483e-01
-3.166925162076950073e-02 1.144737899303436279e-01 -1.091617867350578308e-01
-6.413252651691436768e-02 -1.276598423719406128e-01 1.022099256515502930e-01
-2.545081675052642822e-01 -1.047221720218658447e-01 5.471126735210418701e-02
-1.706606596708297729e-01 -1.609583199024200439e-02 -1.798878014087677002e-01
-2.120804786682128906e-01 7.647681236267089844e-02 -1.069081276655197144e-01
6.020993739366531372e-02 -1.464673317968845367e-02 -1.588725671172142029e-02
4.017030447721481323e-02 -9.102793782949447632e-02 -6.769039481878280640e-02
-1.831326782703399658e-01 1.033310592174530029e-01 6.975255906581878662e-02
2.459337562322616577e-02 1.055123656988143921e-01 -3.874986246228218079e-02
-3.252152353525161743e-02 1.113734692335128784e-01 7.924126833677291870e-02
-2.740578055381774902e-01 -4.587118700146675110e-02 3.267007321119308472e-02
-2.298705875873565674e-01 1.786282286047935486e-02 -1.314894109964370728e-01
-2.223459035158157349e-01 -9.099945425987243652e-03 -1.490929424762725830e-01
-3.739558160305023193e-03 3.580264374613761902e-02 9.929530322551727295e-02
-2.798158228397369385e-01 -2.217217162251472473e-02 -6.024670600891113281e-02
-1.654404401779174805e-01 1.080540269613265991e-01 7.855270057916641235e-02
-9.802641719579696655e-02 4.431150481104850769e-02 -1.735321879386901855e-01
-1.020743697881698608e-02 -6.881482899188995361e-02 -1.541055142879486084e-01
-2.519891411066055298e-02 -5.678538978099822998e-02 -1.664865165948867798e-01
-6.639172136783599854e-02 4.307806119322776794e-02 -1.695789396762847900e-01
-1.469297707080841064e-01 7.369479537010192871e-02 1.124285310506820679e-01
-2.613527774810791016e-01 4.361635819077491760e-02 -4.341850802302360535e-02
-2.379219979047775269e-02 -2.074731141328811646e-02 -1.667579710483551025e-01
-1.571463048458099365e-01 -1.515720486640930176e-01 -1.640506684780120850e-01
-2.127010822296142578e-01 8.806620538234710693e-02 5.351218581199645996e-02
-2.317818105220794678e-01 -1.723565906286239624e-01 -1.019525304436683655e-01
-2.398033738136291504e-01 -7.516152411699295044e-02 8.164354413747787476e-02
-5.972720682621002197e-03 -7.687464356422424316e-02 9.182102233171463013e-02
-2.502489686012268066e-01 -1.712382286787033081e-01 -8.053122088313102722e-03
-8.509228378534317017e-02 -9.586544334888458252e-02 -1.833952367305755615e-01
-1.257885843515396118e-01 -6.992270797491073608e-02 -1.909295916557312012e-01
2.052657306194305420e-03 -1.231137216091156006e-01 5.445183813571929932e-02
-3.823143243789672852e-02 -1.013510674238204956e-01 1.036290079355239868e-01
4.795207828283309937e-02 1.195660978555679321e-02 -8.188056200742721558e-02
-3.644656389951705933e-02 1.463408023118972778e-01 3.397417068481445312e-02
7.833369076251983643e-03 1.032270938158035278e-01 -8.315938711166381836e-02
5.533226579427719116e-02 -4.329313710331916809e-02 -5.324805155396461487e-02
-1.908108592033386230e-02 -1.854812949895858765e-01 -2.431053109467029572e-02
-1.891549527645111084e-01 1.280234009027481079e-01 -5.195133388042449951e-02
-1.645522117614746094e-01 1.375838369131088257e-01 -6.767635792493820190e-02
6.469249725341796875e-03 -1.527630984783172607e-01 2.343393862247467041e-03
7.669053971767425537e-03 -3.159825876355171204e-02 9.247659146785736084e-02
-2.639655470848083496e-01 -1.496156752109527588e-01 -9.277474135160446167e-03
4.824580997228622437e-02 -5.917821452021598816e-02 -7.149463146924972534e-02
-1.152773499488830566e-01 -9.635403752326965332e-02 1.265934109687805176e-01
-1.092527061700820923e-01 -6.111575663089752197e-02 -1.915426999330520630e-01
-4.303045570850372314e-03 -1.670890003442764282e-01 -6.476818025112152100e-02
-1.556546986103057861e-01 -9.200195968151092529e-02 1.240254938602447510e-01
-2.850762903690338135e-01 -5.863188207149505615e-02 -5.022669583559036255e-02
-1.774316579103469849e-01 1.158740073442459106e-01 5.972757935523986816e-02
-2.749966681003570557e-01 -6.250302493572235107e-02 3.009637258946895599e-02
-2.283574640750885010e-01 -1.511334627866744995e-01 -1.253751218318939209e-01
-1.607368141412734985e-01 -2.046085298061370850e-01 -1.185673326253890991e-01
-2.361733317375183105e-01 -1.913578808307647705e-01 -2.531617693603038788e-02
1.458067446947097778e-02 1.154788285493850708e-01 1.384476386010646820e-02
-1.289601773023605347e-01 -1.096113771200180054e-01 1.215499341487884521e-01
8.124120533466339111e-03 -8.268436789512634277e-02 -1.327388137578964233e-01
-1.302792131900787354e-02 -1.734176129102706909e-01 4.818027839064598083e-03
-1.764897406101226807e-01 -2.272769957780838013e-01 -2.696503512561321259e-02
-9.575109183788299561e-02 1.649572849273681641e-01 6.696520373225212097e-03
3.982716053724288940e-02 -9.846268594264984131e-02 -2.531597390770912170e-03
2.341950684785842896e-02 -7.414655387401580811e-02 6.035330891609191895e-02
3.209950774908065796e-02 9.699650108814239502e-02 -8.901318535208702087e-03
-1.611652374267578125e-01 1.496034711599349976e-01 -2.059487625956535339e-02
-1.727942526340484619e-01 -1.234803199768066406e-01 -1.719920188188552856e-01
-2.490090727806091309e-01 -2.854904718697071075e-02 -1.271586418151855469e-01
-5.468462780117988586e-02 5.979044362902641296e-02 1.186740547418594360e-01
5.713770538568496704e-02 -3.189803659915924072e-02 3.164038062095642090e-04
2.523677796125411987e-02 -3.896076604723930359e-02 7.158444076776504517e-02
-6.231210753321647644e-02 1.557755619287490845e-01 3.161852806806564331e-02
2.528711408376693726e-02 -2.636822126805782318e-02 -1.242478117346763611e-01
-2.517459094524383545e-01 6.417988240718841553e-02 -1.426581665873527527e-02
-6.055451929569244385e-02 -7.810300588607788086e-02 -1.800909042358398438e-01
-2.254799455404281616e-01 -2.189103886485099792e-02 9.728916734457015991e-02
-6.445378065109252930e-03 7.696848362684249878e-03 -1.519171744585037231e-01
-4.699095338582992554e-02 3.945250436663627625e-02 -1.649786084890365601e-01
-8.242224901914596558e-02 -1.120869666337966919e-01 1.161313056945800781e-01
-1.208437830209732056e-01 7.755367457866668701e-02 1.165734827518463135e-01
-1.697853952646255493e-02 2.918118610978126526e-02 -1.535810381174087524e-01
-3.395426273345947266e-02 -1.824430823326110840e-01 2.536743693053722382e-02
-1.623512059450149536e-02 1.034854501485824585e-01 -1.091867089271545410e-01
-1.068040728569030762e-01 1.655863523483276367e-01 -8.865987882018089294e-03
-1.693309992551803589e-01 -1.045793890953063965e-01 -1.784326285123825073e-01
-1.026277914643287659e-01 3.427937999367713928e-02 1.334172189235687256e-01
-9.224578738212585449e-03 1.282210350036621094e-01 3.699356317520141602e-02
-1.212775558233261108e-01 -2.216530591249465942e-01 1.682407595217227936e-02
-2.507394552230834961e-01 -1.750606596469879150e-01 -3.116568364202976227e-02
-4.998964816331863403e-02 1.235119700431823730e-01 -1.091024503111839294e-01
-4.680827260017395020e-02 -1.653714329004287720e-01 -1.308169811964035034e-01
5.475958436727523804e-02 4.265938326716423035e-02 -1.632361114025115967e-02
-2.707391381263732910e-01 1.434352621436119080e-02 -5.823121964931488037e-02
-1.932404935359954834e-02 -1.578719466924667358e-01 4.403651505708694458e-02
5.527959018945693970e-02 3.064584359526634216e-02 3.281213343143463135e-03
-1.519980877637863159e-01 -4.559269919991493225e-02 -1.882303655147552490e-01
-1.477420330047607422e-01 -1.823757439851760864e-01 -1.448895484209060669e-01
-5.919313058257102966e-02 -1.123573482036590576e-01 1.084726750850677490e-01
2.412777394056320190e-02 9.920448064804077148e-02 2.257061190903186798e-02
-5.331607535481452942e-02 9.495054185390472412e-02 -1.371321827173233032e-01
-1.194165050983428955e-01 1.195320487022399902e-01 -1.208109185099601746e-01
4.094953089952468872e-02 -1.015939414501190186e-01 -2.864464744925498962e-02
-2.357175797224044800e-01 -1.863885372877120972e-01 -2.409087494015693665e-03
1.858495920896530151e-02 9.578768908977508545e-02 4.020442068576812744e-02
-1.605958938598632812e-01 -1.546079218387603760e-01 9.341317415237426758e-02
-1.410092562437057495e-01 -2.883771806955337524e-02 1.367280632257461548e-01
-1.850623637437820435e-01 1.348168849945068359e-01 -3.307225182652473450e-02
-2.134484946727752686e-01 -1.826461404561996460e-01 3.956824541091918945e-02
-8.395241200923919678e-02 -9.331163018941879272e-02 1.240252554416656494e-01
