5.783832073211669922e-01 -2.725340425968170166e-01 1.193901989609003067e-02
3.517878353595733643e-01 -5.105099081993103027e-01 6.886556744575500488e-01
4.182669818401336670e-01 -8.530687093734741211e-01 1.517026573419570923e-01
-5.350645184516906738e-01 -3.255518078804016113e-01 -3.534996211528778076e-01
2.734906375408172607e-01 -7.470479011535644531e-01 -5.709662437438964844e-01
-3.885079175233840942e-02 -3.596222400665283203e-01 6.931710839271545410e-01
4.919113814830780029e-01 -4.529107213020324707e-01 5.768815875053405762e-01
-4.116038084030151367e-01 -2.661116421222686768e-01 -3.674258887767791748e-01
-1.829128265380859375e-01 -8.923120498657226562e-01 -2.421246767044067383e-01
2.909708917140960693e-01 -6.449066400527954102e-01 6.834250092506408691e-01
-5.919332504272460938e-01 -6.834836006164550781e-01 3.961050808429718018e-01
-6.424117088317871094e-01 -7.226684093475341797e-01 2.033234536647796631e-01
6.847007870674133301e-01 -6.169248223304748535e-01 -2.938860654830932617e-01
-8.780972659587860107e-02 -1.813667416572570801e-01 -3.189405202865600586e-01
9.990150481462478638e-02 -3.387808799743652344e-01 -6.506611704826354980e-01
-5.287531614303588867e-01 -3.718292713165283203e-01 -4.427155852317810059e-01
-2.172048389911651611e-01 -5.588980317115783691e-01 7.405597567558288574e-01
2.499619498848915100e-02 -5.562746524810791016e-01 7.727527022361755371e-01
-8.870115131139755249e-02 -7.874902486801147461e-01 5.865335464477539062e-01
-7.214016318321228027e-01 -4.888844788074493408e-01 2.404496669769287109e-01
2.723387479782104492e-01 -2.535985708236694336e-01 -4.594427347183227539e-01
4.283234477043151855e-02 -5.479770302772521973e-01 -7.555217742919921875e-01
-7.271592617034912109e-01 -6.551479697227478027e-01 2.555352821946144104e-02
-4.536312818527221680e-01 -8.048429489135742188e-01 -3.092750608921051025e-01
-3.017984926700592041e-01 -3.612671196460723877e-01 6.239005327224731445e-01
-3.092489242553710938e-01 -7.718713283538818359e-01 5.336849093437194824e-01
-4.406744539737701416e-01 -7.457547783851623535e-01 -4.611284732818603516e-01
-6.771004199981689453e-01 -4.588679075241088867e-01 3.273960351943969727e-01
-2.114192098379135132e-01 -4.221118688583374023e-01 7.100831866264343262e-01
-1.549258828163146973e-01 -4.322244524955749512e-01 -7.147923707962036133e-01
3.123822622001171112e-02 -8.948719501495361328e-01 -2.859697937965393066e-01
-2.761225402355194092e-01 -3.136870265007019043e-01 5.763005614280700684e-01
2.695713639259338379e-01 -1.953600347042083740e-01 2.955518960952758789e-01
-5.841600894927978516e-01 -7.584809064865112305e-01 -2.218371629714965820e-01
-6.838380694389343262e-01 -7.102020978927612305e-01 9.854695759713649750e-03
-7.576265931129455566e-01 -5.159667730331420898e-01 -7.725635915994644165e-02
5.022177696228027344e-01 -8.093751668930053711e-01 -1.948687285184860229e-01
3.133345246315002441e-01 -8.150830268859863281e-01 -4.197949469089508057e-01
6.151186823844909668e-01 -7.643129229545593262e-01 -4.597453027963638306e-02
1.381534244865179062e-02 -3.232847452163696289e-01 6.546178460121154785e-01
-2.090954482555389404e-01 -7.366313934326171875e-01 6.302669644355773926e-01
-4.098462760448455811e-01 -2.116613686084747314e-01 -1.312807053327560425e-01
3.461711108684539795e-01 -1.885339021682739258e-01 1.464376747608184814e-01
5.331439152359962463e-02 -1.588512957096099854e-01 2.327187359333038330e-01
2.742851153016090393e-02 -6.700935959815979004e-01 7.263709306716918945e-01
5.404340624809265137e-01 -8.101398348808288574e-01 -8.889547549188137054e-03
6.143766455352306366e-03 -1.847835481166839600e-01 -3.456450998783111572e-01
-4.799096882343292236e-01 -8.227373361587524414e-01 -1.884223371744155884e-01
5.077590942382812500e-01 -8.116227388381958008e-01 1.878505200147628784e-01
-1.437981426715850830e-01 -4.711481630802154541e-01 7.498809099197387695e-01
-3.362964987754821777e-01 -6.763619780540466309e-01 -6.198089122772216797e-01
-7.048164010047912598e-01 -4.340071380138397217e-01 -2.085406780242919922e-01
2.528237998485565186e-01 -7.669042348861694336e-01 5.701378583908081055e-01
-7.538567185401916504e-01 -5.927491188049316406e-01 5.697670206427574158e-02
-2.417160123586654663e-01 -7.218495607376098633e-01 -6.176559329032897949e-01
1.122602075338363647e-02 -9.043201208114624023e-01 2.597454786300659180e-01
-5.531333684921264648e-01 -6.803358197212219238e-01 4.537408351898193359e-01
9.461524337530136108e-02 -9.030228853225708008e-01 2.480442672967910767e-01
-1.559803485870361328e-01 -8.207525014877319336e-01 -4.885540306568145752e-01
4.160046577453613281e-01 -5.690423250198364258e-01 6.490790247917175293e-01
-6.963437795639038086e-01 -3.753934204578399658e-01 1.752912998199462891e-02
3.757551610469818115e-01 -1.983465850353240967e-01 -1.465976089239120483e-01
2.336137145757675171e-01 -2.257837355136871338e-01 4.259334206581115723e-01
-3.339136540889739990e-01 -4.142765998840332031e-01 6.545785069465637207e-01
-2.343349903821945190e-02 -2.300801575183868408e-01 -4.783717393875122070e-01
-5.082179903984069824e-01 -4.192306399345397949e-01 -5.162988305091857910e-01
3.798565566539764404e-01 -2.663618624210357666e-01 -4.114590883255004883e-01
5.354391932487487793e-01 -2.500606179237365723e-01 -2.699120715260505676e-02
9.421112388372421265e-02 -9.124695658683776855e-01 1.825804561376571655e-01
3.372611105442047119e-01 -1.794902980327606201e-01 4.442059993743896484e-02
-6.539803743362426758e-01 -3.337184786796569824e-01 -8.113439194858074188e-03
9.974094480276107788e-02 -9.148024320602416992e-01 -1.375058740377426147e-01
6.525071859359741211e-01 -3.317989706993103027e-01 -1.045961752533912659e-01
1.709692925214767456e-01 -6.508156061172485352e-01 -7.012837529182434082e-01
2.710560262203216553e-01 -5.231171846389770508e-01 -7.081012129783630371e-01
1.857602149248123169e-01 -1.610473990440368652e-01 1.730833202600479126e-01
-2.831265032291412354e-01 -8.223198056221008301e-01 4.448686838150024414e-01
-1.334088295698165894e-01 -8.305344581604003906e-01 4.923605620861053467e-01
3.433036208152770996e-01 -2.556768357753753662e-01 4.313673079013824463e-01
-6.605793833732604980e-01 -5.186074376106262207e-01 3.898707628250122070e-01
2.372024059295654297e-01 -3.350743055343627930e-01 -6.111010909080505371e-01
1.753533184528350830e-01 -9.069991707801818848e-01 -1.412451118230819702e-01
-4.536298289895057678e-02 -5.749189853668212891e-01 7.686818838119506836e-01
-6.308718025684356689e-02 -8.688880205154418945e-01 -3.826857507228851318e-01
-5.014311075210571289e-01 -8.266876935958862305e-01 -8.755787461996078491e-02
1.785745471715927124e-01 -3.529946804046630859e-01 -6.498381495475769043e-01
-4.849734902381896973e-01 -2.340614199638366699e-01 -5.642000213265419006e-02
1.808760762214660645e-01 -8.330852985382080078e-01 -4.491654634475708008e-01
5.800218880176544189e-02 -8.446278572082519531e-01 -4.525277912616729736e-01
3.468724489212036133e-01 -2.851631343364715576e-01 -4.779694378376007080e-01
6.986637115478515625e-01 -5.903452038764953613e-01 3.049644529819488525e-01
5.045691132545471191e-01 -7.896193265914916992e-01 -2.727623581886291504e-01
4.303657710552215576e-01 -8.227440714836120605e-01 2.935916185379028320e-01
-5.032530426979064941e-01 -8.163626194000244141e-01 1.828581541776657104e-01
2.791311033070087433e-02 -9.216688275337219238e-01 -9.647867828607559204e-02
4.801716804504394531e-01 -2.478756606578826904e-01 2.355754226446151733e-01
1.245534792542457581e-02 -2.972189784049987793e-01 -6.043552756309509277e-01
4.243321716785430908e-01 -7.221568822860717773e-01 -5.099139213562011719e-01
1.804438829421997070e-01 -4.694879055023193359e-01 -7.261160612106323242e-01
1.533749848604202271e-01 -6.900990605354309082e-01 6.943119168281555176e-01
-2.317228019237518311e-01 -4.645438194274902344e-01 -7.083293795585632324e-01
6.134924888610839844e-01 -7.429537773132324219e-01 -1.934700608253479004e-01
-1.915697753429412842e-01 -3.704391717910766602e-01 -6.609236598014831543e-01
-4.968577623367309570e-01 -6.427072286605834961e-01 5.502139329910278320e-01
3.413330614566802979e-01 -4.430370330810546875e-01 6.726430058479309082e-01
3.953657448291778564e-01 -3.545115590095520020e-01 5.668133497238159180e-01
2.727225124835968018e-01 -2.808323502540588379e-01 -5.146359801292419434e-01
-4.155609011650085449e-01 -2.264608740806579590e-01 2.301961183547973633e-01
-4.992486909031867981e-02 -9.098032116889953613e-01 -2.014251351356506348e-01
8.300540596246719360e-02 -1.476679146289825439e-01 -1.158418208360671997e-01
1.794475018978118896e-01 -9.143096208572387695e-01 3.127122670412063599e-02
6.204986572265625000e-01 -3.177479505538940430e-01 1.843911558389663696e-01
-6.850723624229431152e-01 -5.148226022720336914e-01 -3.269312977790832520e-01
-1.457840651273727417e-01 -2.272517979145050049e-01 4.619251191616058350e-01
4.532548487186431885e-01 -5.816451311111450195e-01 -6.019000411033630371e-01
5.057862401008605957e-01 -2.378888726234436035e-01 7.902868837118148804e-02
5.315544605255126953e-01 -2.590335905551910400e-01 1.632368713617324829e-01
8.608121424913406372e-02 -4.765736460685729980e-01 -7.448404431343078613e-01
-2.134119570255279541e-01 -3.207273483276367188e-01 -5.980769991874694824e-01
-4.070773124694824219e-01 -5.647727251052856445e-01 -6.361554861068725586e-01
-6.129810959100723267e-02 -1.801190674304962158e-01 3.343740701675415039e-01
2.228337228298187256e-01 -2.326800823211669922e-01 -4.352180063724517822e-01
4.493018388748168945e-01 -6.517857909202575684e-01 -5.662656426429748535e-01
4.808280766010284424e-01 -6.843051910400390625e-01 5.273891687393188477e-01
-2.107744216918945312e-01 -3.580474257469177246e-01 6.581063270568847656e-01
3.066569268703460693e-01 -1.905367970466613770e-01 -2.159514874219894409e-01
6.071246787905693054e-02 -9.243627786636352539e-01 2.595112472772598267e-02
5.591071844100952148e-01 -7.151635885238647461e-01 3.932681083679199219e-01
3.977433741092681885e-01 -2.112583816051483154e-01 2.051829695701599121e-01
-2.351181954145431519e-02 -9.246229529380798340e-01 -4.654448479413986206e-02
-5.754565596580505371e-01 -2.989564538002014160e-01 2.062603682279586792e-01
5.428767800331115723e-01 -7.781685590744018555e-01 2.583498060703277588e-01
3.913399279117584229e-01 -8.464318513870239258e-01 2.510627508163452148e-01
-3.241544067859649658e-01 -5.550077557563781738e-01 -6.831713914871215820e-01
-4.814151227474212646e-01 -2.419109046459197998e-01 -1.519596725702285767e-01
2.426138222217559814e-01 -6.046535968780517578e-01 -7.041981220245361328e-01
-3.301227390766143799e-01 -1.820526719093322754e-01 6.268815696239471436e-02
-4.598347097635269165e-02 -9.250787496566772461e-01 3.174171224236488342e-02
3.601381182670593262e-01 -8.562167882919311523e-01 -2.303766012191772461e-01
-1.710204631090164185e-01 -1.692963838577270508e-01 2.315125912427902222e-01
-4.550856947898864746e-01 -4.387097954750061035e-01 5.925386548042297363e-01
2.881984710693359375e-01 -3.106047511100769043e-01 5.715168714523315430e-01
5.677549242973327637e-01 -7.362187504768371582e-01 3.356427550315856934e-01
-3.345903456211090088e-01 -6.951270103454589844e-01 6.212544441223144531e-01
-6.951614618301391602e-01 -3.805073499679565430e-01 -8.154769986867904663e-02
-5.375871658325195312e-01 -7.441405653953552246e-01 3.683294355869293213e-01
-6.038748025894165039e-01 -3.319048285484313965e-01 2.542523145675659180e-01
-5.559222102165222168e-01 -6.556394100189208984e-01 -4.601518213748931885e-01
-3.899308145046234131e-01 -8.192054033279418945e-01 -3.437367379665374756e-01
4.130863249301910400e-01 -7.718721032142639160e-01 4.546900987625122070e-01
7.639504075050354004e-01 -4.996116757392883301e-01 -3.826194629073143005e-02
-8.525413274765014648e-02 -1.530475914478302002e-01 1.733186244964599609e-01
1.197789534926414490e-01 -8.368450403213500977e-01 4.798198640346527100e-01
7.986062020063400269e-02 -5.124813914299011230e-01 7.692697048187255859e-01
-5.116192698478698730e-01 -4.918242394924163818e-01 -5.533512234687805176e-01
1.804540455341339111e-01 -8.642247915267944336e-01 3.789121508598327637e-01
-1.853757947683334351e-01 -2.720875144004821777e-01 -5.314508676528930664e-01
-3.007024526596069336e-01 -8.919736146926879883e-01 1.005140542984008789e-01
1.572028845548629761e-01 -7.321602702140808105e-01 -6.315181255340576172e-01
7.326305508613586426e-01 -6.273862123489379883e-01 -1.200616210699081421e-01
5.147786736488342285e-01 -2.584411799907684326e-01 -1.930931806564331055e-01
1.660984307527542114e-01 -3.137136101722717285e-01 6.218562722206115723e-01
-4.255987107753753662e-01 -2.458929419517517090e-01 2.993122935295104980e-01
-6.405047774314880371e-01 -3.916640877723693848e-01 3.143169879913330078e-01
6.831905841827392578e-01 -4.343296885490417480e-01 3.037366867065429688e-01
-5.086702108383178711e-01 -2.581571042537689209e-01 1.890815198421478271e-01
2.214661389589309692e-01 -4.297229647636413574e-01 -6.975892186164855957e-01
-3.036754131317138672e-01 -1.836320459842681885e-01 1.633797436952590942e-01
-9.985805302858352661e-02 -4.926881790161132812e-01 -7.464413046836853027e-01
1.201464682817459106e-01 -1.462492346763610840e-01 6.972121447324752808e-02
7.214881181716918945e-01 -4.310646057128906250e-01 -1.679062247276306152e-01
2.798385918140411377e-01 -8.837893009185791016e-01 2.072588652372360229e-01
5.413192510604858398e-01 -5.683333277702331543e-01 5.478637814521789551e-01
-2.669787406921386719e-01 -2.872387170791625977e-01 -5.234351158142089844e-01
7.161723971366882324e-01 -6.077067852020263672e-01 -2.222733944654464722e-01
-2.793682515621185303e-01 -4.092882871627807617e-01 6.768224239349365234e-01
5.559734702110290527e-01 -6.168282628059387207e-01 -4.923096597194671631e-01
-2.677974104881286621e-01 -9.011162519454956055e-01 -2.906408160924911499e-02
1.607525497674942017e-01 -9.097024202346801758e-01 1.525200158357620239e-01
5.113930702209472656e-01 -7.242094278335571289e-01 -4.207734167575836182e-01
6.059709787368774414e-01 -7.252639532089233398e-01 2.888647615909576416e-01
-2.892394065856933594e-01 -2.499527037143707275e-01 4.470938742160797119e-01
6.739138364791870117e-01 -6.962493658065795898e-01 -1.651262342929840088e-01
-1.608199924230575562e-01 -1.536667048931121826e-01 1.053884103894233704e-01
7.213888764381408691e-01 -3.959604501724243164e-01 1.207008957862854004e-03
-6.005857586860656738e-01 -6.870319247245788574e-01 -3.595381975173950195e-01
-3.922815024852752686e-01 -6.382915377616882324e-01 -6.157689094543457031e-01
1.158349961042404175e-02 -9.242078065872192383e-01 7.819496840238571167e-02
-6.937181353569030762e-01 -4.037609696388244629e-01 1.955991387367248535e-01
-4.464705586433410645e-01 -3.174689710140228271e-01 4.600129723548889160e-01
-1.518975943326950073e-01 -5.798085927963256836e-01 7.533602118492126465e-01
7.307162284851074219e-01 -5.299487113952636719e-01 2.442969232797622681e-01
-7.159246802330017090e-01 -4.129481613636016846e-01 1.206949725747108459e-01
1.545414775609970093e-01 -1.479605138301849365e-01 1.439666096121072769e-02
-3.646701872348785400e-01 -7.925207614898681641e-01 -4.364829659461975098e-01
3.071860969066619873e-01 -2.306031584739685059e-01 -3.766690790653228760e-01
4.890363216400146484e-01 -3.045173287391662598e-01 -3.838729262351989746e-01
-3.463819622993469238e-01 -1.900795102119445801e-01 -1.079565882682800293e-01
6.849182248115539551e-01 -3.531973659992218018e-01 2.534305676817893982e-02
-7.828286290168762207e-02 -8.207250833511352539e-01 5.256355404853820801e-01
-6.428236961364746094e-01 -7.468824982643127441e-01 3.344071656465530396e-02
5.988498330116271973e-01 -5.866323709487915039e-01 4.764941334724426270e-01
-2.494175434112548828e-01 -2.701629102230072021e-01 5.148924589157104492e-01
1.588423848152160645e-01 -4.918558597564697266e-01 7.537938952445983887e-01
3.455123901367187500e-01 -8.257641792297363281e-01 3.840608298778533936e-01
-5.172454118728637695e-01 -6.202641129493713379e-01 -5.290348529815673828e-01
-4.421180784702301025e-01 -8.541483879089355469e-01 -2.671117335557937622e-02
5.758574604988098145e-02 -6.155735254287719727e-01 -7.376800179481506348e-01
6.645502448081970215e-01 -7.211764454841613770e-01 -8.680244535207748413e-02
-3.255099654197692871e-01 -2.463595867156982422e-01 -3.966503143310546875e-01
-5.277234315872192383e-01 -8.138645887374877930e-01 1.106748431921005249e-01
-2.782021760940551758e-01 -2.025308310985565186e-01 3.049073219299316406e-01
-1.413562595844268799e-01 -9.187856912612915039e-01 5.336711183190345764e-02
-6.905566453933715820e-01 -5.543186068534851074e-01 3.321976363658905029e-01
2.494715452194213867e-01 -8.975616097450256348e-01 -1.220941245555877686e-01
7.645431756973266602e-01 -5.620321631431579590e-01 -2.339535579085350037e-02
6.415143013000488281e-01 -3.169079422950744629e-01 6.660293787717819214e-02
1.628285795450210571e-01 -1.523545980453491211e-01 -9.471500664949417114e-02
-7.530872225761413574e-01 -5.242969989776611328e-01 1.311022639274597168e-01
-6.308191418647766113e-01 -3.546791672706604004e-01 -2.392517775297164917e-01
-5.656920075416564941e-01 -2.751987576484680176e-01 -7.047000527381896973e-02
6.194188594818115234e-01 -6.103667020797729492e-01 -4.163356125354766846e-01
1.509879902005195618e-02 -3.335678577423095703e-01 -6.515631079673767090e-01
6.183444857597351074e-01 -3.146849870681762695e-01 -1.615530401468276978e-01
4.214600026607513428e-01 -2.318041622638702393e-01 -2.541919648647308350e-01
1.176721751689910889e-01 -8.715415000915527344e-01 -3.593155741691589355e-01
-1.053783744573593140e-01 -8.988807201385498047e-01 -2.494360208511352539e-01
-4.308145344257354736e-01 -2.447744607925415039e-01 -2.731000483036041260e-01
2.579435110092163086e-01 -6.943542361259460449e-01 6.582277417182922363e-01
5.373741984367370605e-01 -2.731828093528747559e-01 2.235927283763885498e-01
1.182138025760650635e-01 -8.775442838668823242e-01 3.575276434421539307e-01
4.734718799591064453e-01 -6.093105673789978027e-01 5.932047367095947266e-01
-1.514898538589477539e-01 -3.472640514373779297e-01 6.636004447937011719e-01
-6.105399727821350098e-01 -7.584811449050903320e-01 -1.387696564197540283e-01
3.738680779933929443e-01 -6.881910562515258789e-01 6.053722500801086426e-01
2.425466775894165039e-01 -8.608793020248413086e-01 3.533609807491302490e-01
-2.544598579406738281e-01 -2.355795502662658691e-01 -4.184574484825134277e-01
-1.084620207548141479e-01 -7.137773633003234863e-01 6.806195378303527832e-01
-3.892917633056640625e-01 -8.720740079879760742e-01 2.389477938413619995e-02
9.837928414344787598e-02 -8.110684156417846680e-01 5.414684414863586426e-01
-2.618436217308044434e-01 -1.667711138725280762e-01 -4.544470459222793579e-02
-1.844635456800460815e-01 -8.866457343101501465e-01 2.897807955741882324e-01
-3.241935670375823975e-01 -8.895125389099121094e-01 2.849826961755752563e-02
1.509038731455802917e-02 -2.038140892982482910e-01 4.235274195671081543e-01
6.234901025891304016e-02 -2.191285789012908936e-01 4.631536900997161865e-01
-2.007477730512619019e-01 -5.640262365341186523e-01 -7.275426387786865234e-01
-2.373128980398178101e-01 -8.866744041442871094e-01 2.470897436141967773e-01
-1.224748045206069946e-01 -6.123691797256469727e-01 -7.310386896133422852e-01
4.550516903400421143e-01 -3.142999410629272461e-01 4.570285081863403320e-01
5.240885615348815918e-01 -6.309340000152587891e-01 5.347002148628234863e-01
1.766034364700317383e-01 -5.772882699966430664e-01 7.493550777435302734e-01
5.032082200050354004e-01 -7.108865976333618164e-01 4.706376492977142334e-01
-3.956277072429656982e-01 -4.447686076164245605e-01 6.381430029869079590e-01
-2.077616453170776367e-01 -6.301280856132507324e-01 7.209934592247009277e-01
4.315886199474334717e-01 -7.995296120643615723e-01 -3.487853705883026123e-01
7.410715222358703613e-01 -4.439374506473541260e-01 1.169613227248191833e-01
-2.882151305675506592e-01 -6.750333905220031738e-01 6.622262001037597656e-01
-5.909921526908874512e-01 -7.581917643547058105e-01 2.231231927871704102e-01
4.637514054775238037e-01 -2.653269171714782715e-01 -3.144345581531524658e-01
3.143267631530761719e-01 -8.668404221534729004e-01 2.599526643753051758e-01
4.412937462329864502e-01 -8.356354236602783203e-01 -1.938246488571166992e-01
6.377972960472106934e-01 -6.609191298484802246e-01 3.526309728622436523e-01
4.854987561702728271e-01 -2.748799026012420654e-01 3.276937603950500488e-01
6.019473075866699219e-01 -3.639025092124938965e-01 -3.387276232242584229e-01
-6.206808686256408691e-01 -3.293505907058715820e-01 -1.832022666931152344e-01
-5.033332705497741699e-01 -7.334923148155212402e-01 4.346950352191925049e-01
4.000639617443084717e-01 -8.668215870857238770e-01 -1.557393465191125870e-02
-1.315869837999343872e-01 -9.199021458625793457e-01 -2.444747090339660645e-02
6.178271770477294922e-01 -7.229070067405700684e-01 -2.487286329269409180e-01
3.065344095230102539e-01 -1.749608814716339111e-01 -8.494365215301513672e-02
1.802666336297988892e-01 -2.882397770881652832e-01 -5.647243857383728027e-01
3.573245704174041748e-01 -3.313828706741333008e-01 -5.464221239089965820e-01
-6.397210359573364258e-01 -7.451082468032836914e-01 -7.707704603672027588e-02
4.035110175609588623e-01 -4.741252660751342773e-01 -6.338278651237487793e-01
5.437952876091003418e-01 -6.696423292160034180e-01 -4.594497680664062500e-01
2.523039281368255615e-01 -2.057699859142303467e-01 3.510347008705139160e-01
3.290871381759643555e-01 -7.843044996261596680e-01 -4.772024154663085938e-01
6.405345797538757324e-01 -5.510125160217285156e-01 4.299145638942718506e-01
-2.798140794038772583e-02 -7.523363232612609863e-01 6.443313956260681152e-01
1.542160660028457642e-01 -1.652365028858184814e-01 -2.156530171632766724e-01
-6.108492612838745117e-01 -7.188310027122497559e-01 2.965607941150665283e-01
1.819433271884918213e-01 -2.001337409019470215e-01 3.727350234985351562e-01
-6.411946415901184082e-01 -3.244237899780273438e-01 5.530242621898651123e-02
-1.236509308218955994e-01 -3.836036324501037598e-01 -6.884761452674865723e-01
-1.970866136252880096e-02 -9.183140993118286133e-01 -1.381151974201202393e-01
-1.430152803659439087e-01 -8.471419811248779297e-01 -4.281297028064727783e-01
4.297952950000762939e-01 -2.351077198982238770e-01 2.702037096023559570e-01
4.846824407577514648e-01 -7.833117246627807617e-01 3.445180356502532959e-01
-2.518414855003356934e-01 -2.144293487071990967e-01 3.711974322795867920e-01
3.478785157203674316e-01 -2.185081541538238525e-01 -2.977396249771118164e-01
7.178195118904113770e-01 -6.038163900375366211e-01 2.406594306230545044e-01
-7.058222293853759766e-01 -6.425343155860900879e-01 2.127917557954788208e-01
1.168831735849380493e-01 -8.602914810180664062e-01 4.164205491542816162e-01
7.403944134712219238e-01 -5.677736401557922363e-01 -1.801061779260635376e-01
-1.214936468750238419e-02 -8.328765034675598145e-01 -4.848884940147399902e-01
-5.861657261848449707e-01 -6.094701886177062988e-01 4.767546653747558594e-01
2.885090112686157227e-01 -1.682920753955841064e-01 -1.842102780938148499e-02
-7.456317543983459473e-01 -4.531707763671875000e-01 -1.868311315774917603e-02
-2.714172601699829102e-01 -4.746662676334381104e-01 7.137674093246459961e-01
6.014277338981628418e-01 -5.680581331253051758e-01 -4.619356989860534668e-01
-3.775556683540344238e-01 -7.081660032272338867e-01 5.814761519432067871e-01
3.434021472930908203e-01 -6.338521838188171387e-01 -6.468320488929748535e-01
4.334506392478942871e-02 -1.995345354080200195e-01 -3.945748805999755859e-01
-4.936372861266136169e-03 -1.641968786716461182e-01 2.677253186702728271e-01
-7.159330248832702637e-01 -6.678633689880371094e-01 -5.746751651167869568e-02
-2.718842327594757080e-01 -1.775144040584564209e-01 -1.569715887308120728e-01
1.990351527929306030e-01 -2.470667660236358643e-01 4.949306845664978027e-01
6.141993403434753418e-01 -4.307555556297302246e-01 -4.080364108085632324e-01
2.606145143508911133e-01 -9.001698493957519531e-01 7.726822048425674438e-02
4.221736490726470947e-01 -4.189631342887878418e-01 6.096825599670410156e-01
-1.086497232317924500e-01 -1.460597515106201172e-01 5.563305690884590149e-02
4.419030845165252686e-01 -7.524912357330322266e-01 -4.453839361667633057e-01
2.217033803462982178e-01 -1.718625128269195557e-01 -2.016600072383880615e-01
-3.640832006931304932e-01 -7.159906625747680664e-01 -5.628730058670043945e-01
-6.657609343528747559e-02 -7.880644798278808594e-01 -5.693293213844299316e-01
6.790292263031005859e-01 -4.958527386188507080e-01 3.601738512516021729e-01
-5.991007089614868164e-01 -7.783997654914855957e-01 -1.044243853539228439e-02
4.938496351242065430e-01 -2.402094602584838867e-01 -1.408820748329162598e-01
6.259580254554748535e-01 -4.339818656444549561e-01 4.102997481822967529e-01
4.155095815658569336e-01 -8.554680347442626953e-01 -1.180365681648254395e-01
5.374250411987304688e-01 -2.916995882987976074e-01 -2.777595818042755127e-01
-3.112752921879291534e-02 -8.823951482772827148e-01 3.590247035026550293e-01
2.552570104598999023e-01 -7.941824197769165039e-01 -5.013332962989807129e-01
-2.481808066368103027e-01 -2.068147957324981689e-01 -3.333270549774169922e-01
-4.643791615962982178e-01 -3.306967616081237793e-01 -4.505784213542938232e-01
-2.756489515304565430e-01 -8.461329936981201172e-01 -3.634979724884033203e-01
5.326415896415710449e-01 -3.843546509742736816e-01 4.803061187267303467e-01
-1.017259284853935242e-01 -1.633116304874420166e-01 -2.248957604169845581e-01
-1.079396978020668030e-01 -1.554496586322784424e-01 -1.661420017480850220e-01
-5.299810767173767090e-01 -4.471129775047302246e-01 5.307315587997436523e-01
-1.214866340160369873e-02 -8.108159303665161133e-01 5.511792302131652832e-01
2.409248948097229004e-01 -3.414202630519866943e-01 6.329318881034851074e-01
-3.623383343219757080e-01 -4.599326848983764648e-01 -6.494685411453247070e-01
-4.254027307033538818e-01 -7.907838821411132812e-01 -3.835852146148681641e-01
-5.121918916702270508e-01 -3.783628940582275391e-01 4.850336611270904541e-01
3.614036738872528076e-01 -6.259363889694213867e-01 6.600334644317626953e-01
-3.097994923591613770e-01 -7.849867343902587891e-01 -4.908310472965240479e-01
3.715571463108062744e-01 -1.906950473785400391e-01 -7.716429233551025391e-02
9.876369684934616089e-02 -2.049310207366943359e-01 4.168638288974761963e-01
-2.795553803443908691e-01 -7.290823459625244141e-01 6.114442348480224609e-01
3.278578221797943115e-01 -7.489032745361328125e-01 -5.391605496406555176e-01
-4.052874445915222168e-01 -2.049285173416137695e-01 8.513497561216354370e-02
9.333889931440353394e-02 -9.205932617187500000e-01 -6.818396598100662231e-02
-2.843966335058212280e-02 -2.520473897457122803e-01 5.405104756355285645e-01
-5.033472180366516113e-01 -2.730543315410614014e-01 2.700825929641723633e-01
-1.052637025713920593e-01 -9.145010709762573242e-01 -1.415790319442749023e-01
1.516651064157485962e-01 -8.983925580978393555e-01 -2.245279997587203979e-01
4.923661798238754272e-02 -7.608058452606201172e-01 6.315190196037292480e-01
4.974234998226165771e-01 -5.293189287185668945e-01 5.928002595901489258e-01
-6.563643813133239746e-01 -6.162239313125610352e-01 3.661023974418640137e-01
-1.715762615203857422e-01 -6.940039396286010742e-01 -6.681746244430541992e-01
-5.907084941864013672e-01 -4.461251199245452881e-01 4.597209095954895020e-01
7.229055762290954590e-01 -4.530187249183654785e-01 2.181479036808013916e-01
-7.563962340354919434e-01 -4.870035052299499512e-01 4.617119580507278442e-02
1.738253533840179443e-01 -8.872800469398498535e-01 2.898377180099487305e-01
7.392804026603698730e-01 -5.017072558403015137e-01 -1.902824938297271729e-01
-6.990029215812683105e-01 -4.695329070091247559e-01 -2.709784209728240967e-01
-8.041770756244659424e-02 -2.841981351375579834e-01 5.930148363113403320e-01
-7.116019129753112793e-01 -5.842278003692626953e-01 2.687251865863800049e-01
6.954488158226013184e-02 -1.729552149772644043e-01 3.047267198562622070e-01
1.999101415276527405e-02 -1.463676095008850098e-01 1.362740993499755859e-01
1.126976404339075089e-02 -9.078030586242675781e-01 -2.187910377979278564e-01
6.697233766317367554e-02 -7.589148879051208496e-01 -6.133509278297424316e-01
5.598840713500976562e-01 -7.983824014663696289e-01 6.763733923435211182e-02
-4.107423722743988037e-01 -7.416502237319946289e-01 5.122631192207336426e-01
4.551609754562377930e-01 -3.208618164062500000e-01 -4.528454244136810303e-01
-2.593048810958862305e-01 -5.979647636413574219e-01 7.175553441047668457e-01
-4.741064608097076416e-01 -6.836037635803222656e-01 -5.160785913467407227e-01
-2.167351096868515015e-01 -8.461496829986572266e-01 -4.001012742519378662e-01
5.903095006942749023e-01 -2.820832133293151855e-01 7.602318376302719116e-02
-8.067683875560760498e-02 -9.210538864135742188e-01 -8.068483322858810425e-02
-7.833671756088733673e-03 -1.584973633289337158e-01 -2.206956148147583008e-01
-2.400657236576080322e-01 -1.902669668197631836e-01 -2.716763615608215332e-01
-1.608506888151168823e-01 -8.715485334396362305e-01 3.648339211940765381e-01
-3.298731148242950439e-01 -3.128474354743957520e-01 -5.303023457527160645e-01
2.555118799209594727e-01 -4.332773685455322266e-01 7.046293020248413086e-01
6.814998388290405273e-01 -6.476460099220275879e-01 2.788487970829010010e-01
1.388068348169326782e-01 -8.851594924926757812e-01 -2.982095479965209961e-01
-6.100422143936157227e-02 1.200841367244720459e-02 6.014370322227478027e-01
-1.014343351125717163e-01 2.918862402439117432e-01 7.607216835021972656e-01
1.059765219688415527e-01 2.452749311923980713e-01 5.262144804000854492e-01
-5.675599575042724609e-01 5.163562297821044922e-01 -4.252677261829376221e-01
-6.381660699844360352e-01 5.175869464874267578e-01 2.867448329925537109e-01
-4.606984853744506836e-01 -4.825693368911743164e-02 2.164641767740249634e-01
-5.688005089759826660e-01 1.026135683059692383e-01 5.054178237915039062e-01
-5.559682846069335938e-01 -2.052849531173706055e-02 3.178627043962478638e-02
-2.202738523483276367e-01 5.302498340606689453e-01 3.958178758621215820e-01
1.694069802761077881e-01 1.584225594997406006e-01 1.084429174661636353e-01
-5.071381330490112305e-01 2.620617747306823730e-01 6.975657343864440918e-01
-9.972949326038360596e-02 5.082801580429077148e-01 2.516195774078369141e-01
-5.097467899322509766e-01 5.316550731658935547e-01 4.071546494960784912e-01
-6.298040151596069336e-01 4.805305004119873047e-01 3.972131311893463135e-01
-5.010275244712829590e-01 4.110896587371826172e-02 4.861560165882110596e-01
-1.180721670389175415e-01 -2.848744392395019531e-03 -3.598598241806030273e-01
-3.223630189895629883e-01 2.158749252557754517e-01 -6.811757683753967285e-01
-7.042105197906494141e-01 3.113570511341094971e-01 4.382592737674713135e-01
-5.446030497550964355e-01 5.775396823883056641e-01 -1.748180091381072998e-01
2.967190742492675781e-02 2.598269283771514893e-01 -3.386009335517883301e-01
-2.736812829971313477e-01 -9.968811273574829102e-02 8.531437069177627563e-02
-3.861347138881683350e-01 -7.904896140098571777e-02 -5.605505034327507019e-02
-7.150447368621826172e-01 4.075171649456024170e-01 3.611910641193389893e-01
-4.678605794906616211e-01 -1.103124022483825684e-02 -3.512787222862243652e-01
-6.854102015495300293e-02 3.616076707839965820e-01 -4.071558117866516113e-01
-1.699572950601577759e-01 -8.730643987655639648e-02 -9.345076978206634521e-02
-4.725663959980010986e-01 -5.618426203727722168e-02 -1.947879418730735779e-02
-5.957739353179931641e-01 5.347250401973724365e-02 -3.829114437103271484e-01
-5.437014102935791016e-01 -2.119192481040954590e-02 -1.340050250291824341e-01
-7.676173448562622070e-01 1.509871184825897217e-01 -4.157129302620887756e-02
-7.224581241607666016e-01 4.885088801383972168e-01 -2.948831915855407715e-01
-4.906057417392730713e-01 -4.819887876510620117e-02 8.419124782085418701e-02
1.097423136234283447e-01 1.835059225559234619e-01 5.465571284294128418e-01
-6.976864337921142578e-01 1.032749116420745850e-01 1.966624557971954346e-01
-1.775117367506027222e-01 5.093964338302612305e-01 -2.369106411933898926e-01
-8.328370749950408936e-02 -8.235529065132141113e-02 2.551178038120269775e-01
-6.187447905540466309e-02 4.814906716346740723e-01 -5.106887593865394592e-02
-6.790128350257873535e-02 4.919552206993103027e-01 8.045308291912078857e-03
-4.880841374397277832e-01 5.091711282730102539e-01 4.831967353820800781e-01
-7.857828140258789062e-01 2.629658579826354980e-01 2.040743082761764526e-01
-8.907856047153472900e-02 4.292015433311462402e-01 5.678493976593017578e-01
-6.979994773864746094e-01 2.948625385761260986e-01 -5.527656078338623047e-01
-2.948640584945678711e-01 2.275473475456237793e-01 8.065316081047058105e-01
-3.610872328281402588e-01 2.424682676792144775e-02 -5.006773471832275391e-01
-4.616265296936035156e-01 2.650180459022521973e-01 -6.981984972953796387e-01
-4.532155394554138184e-01 5.777137279510498047e-01 2.501467466354370117e-01
-2.441805601119995117e-02 2.509871721267700195e-01 7.249491810798645020e-01
-1.314601898193359375e-01 2.791482210159301758e-02 -4.298003911972045898e-01
-8.195494413375854492e-01 3.751171827316284180e-01 1.077188551425933838e-02
-8.134635090827941895e-01 3.531117141246795654e-01 9.087888151407241821e-02
-3.645523190498352051e-01 2.646414935588836670e-01 7.858253121376037598e-01
-6.486299037933349609e-01 2.843112349510192871e-01 5.339540243148803711e-01
-3.500510454177856445e-01 3.666399717330932617e-01 7.459089756011962891e-01
-5.062788724899291992e-01 3.269588351249694824e-01 6.886637210845947266e-01
-3.726378679275512695e-01 -8.986115455627441406e-03 -4.213160276412963867e-01
3.536456823348999023e-02 4.048525094985961914e-01 -4.741387441754341125e-02
4.861772060394287109e-02 -1.768317818641662598e-02 -2.618849650025367737e-02
1.728243529796600342e-01 1.860100477933883667e-01 2.250020056962966919e-01
-6.632328033447265625e-01 5.383130311965942383e-01 -2.208636403083801270e-01
-6.569253802299499512e-01 1.029490381479263306e-01 3.286142647266387939e-01
6.987652182579040527e-02 3.913084268569946289e-01 2.169054448604583740e-01
-1.601095348596572876e-01 -7.219970226287841797e-02 -1.752365529537200928e-01
-6.416903734207153320e-01 3.379446268081665039e-02 -1.343940496444702148e-01
-2.732502818107604980e-01 5.637168884277343750e-01 2.694558203220367432e-01
-6.477982997894287109e-01 5.027172565460205078e-01 -3.911013603210449219e-01
-3.688821196556091309e-02 3.662204742431640625e-01 6.264099478721618652e-01
7.137462496757507324e-02 -1.917657256126403809e-02 1.197141259908676147e-01
-4.254363775253295898e-01 2.568926513195037842e-01 7.565060853958129883e-01
2.283909916877746582e-02 5.940914154052734375e-02 6.038976311683654785e-01
-7.901387810707092285e-01 2.349893748760223389e-01 1.486349552869796753e-01
-1.983460187911987305e-01 5.940386652946472168e-02 7.130163311958312988e-01
-1.719094365835189819e-01 1.031794399023056030e-01 -5.525895357131958008e-01
-2.601316571235656738e-01 5.731539726257324219e-01 5.816400796175003052e-02
6.914880871772766113e-02 -2.213999629020690918e-02 1.944940984249114990e-01
-2.044738531112670898e-01 -1.016368269920349121e-01 1.256963610649108887e-01
-4.463488459587097168e-01 5.253423452377319336e-01 4.644266366958618164e-01
-5.880725383758544922e-02 -6.975579261779785156e-02 3.168647885322570801e-01
-5.575113892555236816e-01 1.736371219158172607e-02 3.110285699367523193e-01
-1.513917893171310425e-01 -9.289008378982543945e-02 -2.281249687075614929e-02
-3.469260036945343018e-01 -3.484207391738891602e-02 -3.523212671279907227e-01
-8.015940785408020020e-01 4.253672063350677490e-01 4.895601421594619751e-03
-5.771961808204650879e-02 2.378602325916290283e-01 -4.863566458225250244e-01
-5.269656777381896973e-01 5.885929465293884277e-01 5.475558340549468994e-02
-7.493652105331420898e-01 4.966934621334075928e-01 -5.940560624003410339e-02
-7.770724892616271973e-01 2.526289224624633789e-01 -3.753710687160491943e-01
-2.402466982603073120e-01 2.964566946029663086e-01 7.993929982185363770e-01
-1.883795410394668579e-01 6.052961945533752441e-02 -5.172483325004577637e-01
-8.114873170852661133e-01 2.911247014999389648e-01 -2.726379632949829102e-01
-7.176536917686462402e-01 4.897091686725616455e-01 1.862779110670089722e-01
-6.163223981857299805e-01 4.263196289539337158e-01 5.029162168502807617e-01
-1.049663871526718140e-01 4.618887603282928467e-01 5.005160570144653320e-01
-6.922041773796081543e-01 3.967556357383728027e-01 4.178305864334106445e-01
-4.842032492160797119e-01 4.098552763462066650e-01 -6.274327635765075684e-01
-2.603161334991455078e-02 2.471745461225509644e-01 -4.397943615913391113e-01
-5.075557231903076172e-01 -2.671894431114196777e-02 2.268152534961700439e-01
-2.814112603664398193e-01 5.181387662887573242e-01 -3.526571393013000488e-01
-6.029462814331054688e-02 -3.835126757621765137e-02 -1.965382099151611328e-01
-2.606611847877502441e-01 -8.606991171836853027e-02 -1.351030021905899048e-01
-1.357044726610183716e-01 5.296680927276611328e-01 4.357194527983665466e-02
-4.483773708343505859e-01 -5.868959426879882812e-02 1.627483516931533813e-01
-1.246571391820907593e-01 3.725909590721130371e-01 -4.711180031299591064e-01
-3.112344741821289062e-01 4.838260710239410400e-01 -4.669786989688873291e-01
-7.999511957168579102e-01 3.837475478649139404e-01 1.292241960763931274e-01
1.341458261013031006e-01 1.599400341510772705e-01 4.781700372695922852e-01
-3.124440312385559082e-01 -4.882365465164184570e-02 4.392409920692443848e-01
-7.552187442779541016e-01 3.229101002216339111e-01 3.212034404277801514e-01
-3.197151720523834229e-01 7.721468806266784668e-03 -4.697721302509307861e-01
-4.737194180488586426e-01 4.076719582080841064e-01 6.559578180313110352e-01
8.893817663192749023e-03 4.456059336662292480e-01 2.029178440570831299e-01
-8.238202929496765137e-01 2.719172537326812744e-01 -1.169151067733764648e-01
-3.980564177036285400e-01 5.942789316177368164e-01 1.702642813324928284e-02
-3.205205798149108887e-01 -6.549885869026184082e-02 3.612193167209625244e-01
-1.499185711145401001e-01 5.348315238952636719e-01 1.894763708114624023e-01
-3.366269767284393311e-01 1.239135339856147766e-01 -6.360687613487243652e-01
-1.373359560966491699e-02 -5.437150597572326660e-02 -2.514785155653953552e-02
-2.457606792449951172e-01 -4.980146884918212891e-03 -4.313478171825408936e-01
-8.355051279067993164e-03 3.350838422775268555e-01 -3.384017646312713623e-01
-1.325105875730514526e-01 -7.246232032775878906e-02 3.794005513191223145e-01
-2.131800353527069092e-01 4.006235003471374512e-01 7.065258026123046875e-01
-2.350619286298751831e-01 1.792097091674804688e-02 -4.740642607212066650e-01
-3.976168632507324219e-01 5.388336777687072754e-01 -3.706765174865722656e-01
-6.737968921661376953e-01 2.809883356094360352e-01 4.925755262374877930e-01
-2.193184942007064819e-01 -6.974780559539794922e-02 4.026198983192443848e-01
-3.962097764015197754e-01 1.028865575790405273e-01 6.918635964393615723e-01
-5.042299628257751465e-02 4.577080607414245605e-01 -1.392858326435089111e-01
3.080546855926513672e-02 3.835819959640502930e-01 -1.456221938133239746e-01
-5.022726058959960938e-01 4.504253864288330078e-01 -5.755801200866699219e-01
-4.375161528587341309e-01 5.695848464965820312e-01 3.030975759029388428e-01
-1.604539453983306885e-01 4.070567190647125244e-01 6.733552217483520508e-01
-5.810099840164184570e-01 5.791032314300537109e-01 1.801807433366775513e-02
-6.454132795333862305e-01 5.327893495559692383e-01 -2.896372973918914795e-01
-1.004051864147186279e-01 5.032749176025390625e-01 2.997677028179168701e-01
-7.315248250961303711e-01 1.406110525131225586e-01 1.849477440118789673e-01
1.038176417350769043e-01 3.495669960975646973e-01 1.047197505831718445e-01
-6.216495037078857422e-01 9.601411223411560059e-02 -4.509667456150054932e-01
-1.710501313209533691e-02 1.599005758762359619e-01 -4.290142059326171875e-01
-1.738990545272827148e-01 3.214693069458007812e-01 -5.724935531616210938e-01
-5.803535580635070801e-01 5.311829447746276855e-01 -3.727148473262786865e-01
-4.714018106460571289e-02 -1.268389821052551270e-02 5.351635217666625977e-01
-1.458775997161865234e-01 5.296102166175842285e-01 2.393958717584609985e-01
-4.425542950630187988e-01 1.466646790504455566e-01 6.998442411422729492e-01
-7.149981260299682617e-01 5.223274230957031250e-01 -1.602910831570625305e-02
-7.839660048484802246e-01 4.401900470256805420e-01 7.868283241987228394e-02
-2.835181057453155518e-01 -9.672269225120544434e-02 1.554117798805236816e-01
-1.972846686840057373e-01 3.711689114570617676e-01 -5.502383708953857422e-01
-1.074245870113372803e-01 4.435732066631317139e-01 -3.177602291107177734e-01
1.238286495208740234e-01 9.627118706703186035e-02 4.591486454010009766e-01
-6.294613480567932129e-01 2.145613729953765869e-02 -4.496290162205696106e-02
-5.093135833740234375e-01 2.140134871006011963e-01 -6.754523515701293945e-01
-7.217773795127868652e-01 9.848840534687042236e-02 4.559323191642761230e-03
-1.226898580789566040e-01 -9.241136908531188965e-02 2.778696641325950623e-02
-2.665396034717559814e-01 5.385509729385375977e-01 -2.604053020477294922e-01
-9.423372149467468262e-02 1.977253854274749756e-01 -5.315600633621215820e-01
-1.486550271511077881e-01 5.303239822387695312e-01 -3.156920149922370911e-02
-5.140139460563659668e-01 2.440720796585083008e-03 -3.421791791915893555e-01
-2.884843945503234863e-02 5.422942340373992920e-02 -3.581616878509521484e-01
-5.231887102127075195e-01 3.944520354270935059e-01 6.327725052833557129e-01
-3.042658865451812744e-01 1.787234097719192505e-01 7.922340035438537598e-01
-5.707381963729858398e-01 4.813984036445617676e-03 -2.360273003578186035e-01
-5.395444631576538086e-01 5.826631784439086914e-01 1.156068593263626099e-01
-3.749442100524902344e-01 2.691893875598907471e-01 -6.958718895912170410e-01
-2.191323935985565186e-01 4.414245486259460449e-01 -4.723150432109832764e-01
-4.914895296096801758e-01 1.959167420864105225e-01 6.916773319244384766e-01
-6.043858528137207031e-01 3.622415661811828613e-01 5.745014548301696777e-01
-6.139936447143554688e-01 2.526438236236572266e-02 1.652784049510955811e-01
-4.471811354160308838e-01 1.919794976711273193e-01 7.258271574974060059e-01
-7.473331689834594727e-01 4.083814024925231934e-01 -4.158231317996978760e-01
-8.056391477584838867e-01 3.310518264770507812e-01 -3.101586997509002686e-01
-7.726996541023254395e-01 4.707616567611694336e-01 -1.338099315762519836e-02
-6.786072254180908203e-01 1.440028101205825806e-01 -4.506238400936126709e-01
-1.100415438413619995e-01 4.049414992332458496e-01 6.395918130874633789e-01
1.493487060070037842e-01 2.681204676628112793e-01 2.896720767021179199e-01
-1.442091315984725952e-01 5.148881673812866211e-01 3.485309183597564697e-01
-4.738858938217163086e-01 5.509442090988159180e-01 3.674666285514831543e-01
-4.225532412528991699e-01 1.910358667373657227e-03 4.905350208282470703e-01
-4.227632284164428711e-02 4.304300248622894287e-01 4.913213849067687988e-01
9.466612339019775391e-02 1.687419116497039795e-01 -2.191235721111297607e-01
-4.232183992862701416e-01 5.876246690750122070e-01 1.823180019855499268e-01
-1.863904744386672974e-01 -1.867848634719848633e-02 -3.739640414714813232e-01
-7.698096036911010742e-01 3.602071404457092285e-01 2.658097445964813232e-01
1.268760263919830322e-01 9.795626997947692871e-02 -7.216858863830566406e-02
-2.811237275600433350e-01 5.547242164611816406e-01 -2.026033997535705566e-01
-2.051451206207275391e-01 5.304692983627319336e-01 -1.957910358905792236e-01
-1.210710704326629639e-01 4.122138023376464844e-01 -4.061380922794342041e-01
-1.457200348377227783e-01 5.350471138954162598e-01 1.402075737714767456e-01
-2.307299673557281494e-01 5.512939691543579102e-01 2.912255823612213135e-01
-7.302926778793334961e-01 1.056082844734191895e-01 -7.613217830657958984e-02
-6.340786814689636230e-02 4.539006352424621582e-01 4.549180269241333008e-01
-6.012738943099975586e-01 5.647507905960083008e-01 1.341595351696014404e-01
-1.734309196472167969e-01 5.350677371025085449e-01 2.840924859046936035e-01
-6.413874626159667969e-01 5.433501303195953369e-02 2.123619318008422852e-01
-1.098060607910156250e-01 3.000759184360504150e-01 -5.216525197029113770e-01
-5.627924203872680664e-01 1.234398484230041504e-01 -5.667783617973327637e-01
-5.278468132019042969e-03 4.504513144493103027e-01 2.772972583770751953e-01
-4.116581380367279053e-01 3.528566956520080566e-01 7.346380949020385742e-01
-5.701444149017333984e-01 3.932838439941406250e-01 5.902578830718994141e-01
1.253795623779296875e-01 2.688817381858825684e-01 -5.811531469225883484e-02
-6.483296155929565430e-01 3.820984959602355957e-01 5.025457739830017090e-01
1.482182145118713379e-01 6.861044466495513916e-02 2.447894215583801270e-01
-1.983857154846191406e-02 4.526665210723876953e-01 -4.786368831992149353e-02
-3.655076026916503906e-03 4.398133158683776855e-01 3.461875319480895996e-01
-5.735623836517333984e-01 5.599219799041748047e-01 2.241847217082977295e-01
-1.769208163022994995e-01 -9.965831041336059570e-02 4.238281771540641785e-02
-3.371546864509582520e-01 -7.319402694702148438e-02 2.993187606334686279e-01
1.235559880733489990e-01 3.081531822681427002e-01 3.372717499732971191e-01
-6.290666460990905762e-01 1.338865756988525391e-01 4.518462121486663818e-01
-7.079215049743652344e-01 2.424869090318679810e-01 4.118365347385406494e-01
-6.022456884384155273e-01 1.469549238681793213e-01 5.168299674987792969e-01
-3.094627261161804199e-01 4.007800221443176270e-01 7.187309265136718750e-01
-1.869955360889434814e-01 5.512425899505615234e-01 7.806231081485748291e-02
1.049117445945739746e-01 3.467491567134857178e-01 2.704919576644897461e-01
-4.920254349708557129e-01 5.075495243072509766e-01 -4.712058603763580322e-01
-5.025156736373901367e-01 -2.276638150215148926e-02 -2.482183575630187988e-01
9.386610984802246094e-02 2.586700022220611572e-02 3.948835432529449463e-01
-5.292565822601318359e-01 4.344494342803955078e-01 5.845956802368164062e-01
-6.791263818740844727e-01 5.440888404846191406e-01 -4.657422378659248352e-02
1.524297297000885010e-01 1.163690835237503052e-01 3.720278441905975342e-01
3.030124306678771973e-02 3.484437465667724609e-01 5.499954819679260254e-01
-4.755066037178039551e-01 5.489317178726196289e-01 -3.519256114959716797e-01
-4.289768934249877930e-01 -2.973255515098571777e-02 3.795229792594909668e-01
-3.638646304607391357e-01 3.456665575504302979e-01 -6.668232083320617676e-01
-7.266737222671508789e-01 2.550616562366485596e-01 -4.952611625194549561e-01
-3.481857776641845703e-01 -8.479717373847961426e-02 1.822673529386520386e-01
-2.730295658111572266e-01 4.585844874382019043e-01 -4.891674816608428955e-01
-4.574805498123168945e-02 -5.729177594184875488e-02 -8.999392390251159668e-02
-5.023030042648315430e-01 5.926408767700195312e-01 -1.355797052383422852e-03
9.235799312591552734e-03 5.281674861907958984e-02 -2.980552613735198975e-01
-6.290389895439147949e-01 5.651314258575439453e-01 -4.762731492519378662e-03
-2.357802987098693848e-01 -2.763441205024719238e-02 -3.726544976234436035e-01
5.020520091056823730e-02 1.801588237285614014e-01 -3.206236064434051514e-01
3.965497016906738281e-04 3.955819308757781982e-01 -2.033308744430541992e-01
-6.156792640686035156e-01 1.548810303211212158e-02 6.454347074031829834e-02
6.300440430641174316e-02 3.385384976863861084e-01 4.945910573005676270e-01
-7.115278244018554688e-01 1.282734870910644531e-01 -3.347848951816558838e-01
3.930410742759704590e-02 1.254467666149139404e-01 6.497572064399719238e-01
-4.462066292762756348e-01 1.880821734666824341e-01 -6.791492700576782227e-01
-7.496461868286132812e-01 1.979316920042037964e-01 -3.824109435081481934e-01
-7.888269424438476562e-01 2.007612735033035278e-01 -2.226499021053314209e-01
-4.605208635330200195e-01 5.885938405990600586e-01 -1.288653463125228882e-01
-1.882227063179016113e-01 1.479253172874450684e-02 -4.463492333889007568e-01
-3.274516463279724121e-01 1.402722299098968506e-02 6.003336906433105469e-01
-3.986027836799621582e-01 5.768465399742126465e-01 -2.011201083660125732e-01
1.529814600944519043e-01 2.046039551496505737e-01 3.953294456005096436e-01
-1.672013700008392334e-01 2.748221158981323242e-04 6.156772375106811523e-01
5.350103974342346191e-02 9.744197130203247070e-02 -2.713786065578460693e-01
-7.108594179153442383e-01 4.519362747669219971e-01 3.028493225574493408e-01
-4.968092739582061768e-01 1.220584064722061157e-01 6.256456971168518066e-01
