7.999933362007141113e-01 1.173780113458633423e-01 6.268683820962905884e-02
8.554803133010864258e-01 4.622130095958709717e-01 7.544115930795669556e-02
8.218662738800048828e-01 1.518888920545578003e-01 7.785142958164215088e-02
6.783694028854370117e-01 4.260003268718719482e-01 1.296030823141336441e-02
7.084202170372009277e-01 2.676272690296173096e-01 -9.009465575218200684e-02
8.861570358276367188e-01 1.112769842147827148e-01 -2.728940546512603760e-02
7.080577611923217773e-01 1.818321496248245239e-01 7.555077224969863892e-02
7.788695693016052246e-01 4.106288254261016846e-01 -8.677079528570175171e-02
7.226296663284301758e-01 8.827608823776245117e-02 -1.978398114442825317e-02
8.547750115394592285e-01 3.302951455116271973e-01 -1.069665551185607910e-01
6.595980525016784668e-01 2.478057593107223511e-01 4.387363418936729431e-02
7.649741172790527344e-01 2.057175040245056152e-01 1.044127568602561951e-01
8.550718426704406738e-01 3.362404704093933105e-01 1.067174151539802551e-01
9.263347387313842773e-01 3.252870440483093262e-01 3.214235603809356689e-02
7.601610422134399414e-01 8.354733884334564209e-02 2.976016141474246979e-02
7.985891103744506836e-01 2.889198362827301025e-01 -1.203201264142990112e-01
7.290498614311218262e-01 3.338798582553863525e-01 -9.372344613075256348e-02
8.857938051223754883e-01 3.450953960418701172e-01 -8.841273188591003418e-02
6.663693785667419434e-01 3.371101915836334229e-01 -3.173971548676490784e-02
7.994324564933776855e-01 3.674113750457763672e-01 -1.046604216098785400e-01
8.268467187881469727e-01 5.089216232299804688e-01 -5.350285675376653671e-03
8.167411684989929199e-01 5.183816552162170410e-01 3.089960291981697083e-02
7.977801561355590820e-01 1.249827444553375244e-01 -1.031790971755981445e-01
7.690135240554809570e-01 1.603430807590484619e-01 8.726728707551956177e-02
8.599401712417602539e-01 8.530606329441070557e-02 -1.016514003276824951e-02
6.781914234161376953e-01 1.542074084281921387e-01 -1.088305748999118805e-02
9.221408963203430176e-01 3.090784251689910889e-01 4.234853759407997131e-02
7.903672456741333008e-01 3.113839626312255859e-01 1.239809468388557434e-01
9.350709319114685059e-01 2.688426375389099121e-01 -3.973859827965497971e-03
7.318597435951232910e-01 2.092479169368743896e-01 9.830833971500396729e-02
6.929588913917541504e-01 4.471351504325866699e-01 5.517892912030220032e-02
8.834853768348693848e-01 4.069485068321228027e-01 -6.472545862197875977e-02
8.557630181312561035e-01 3.076314926147460938e-01 1.056007221341133118e-01
6.874889731407165527e-01 4.453952312469482422e-01 1.753902994096279144e-02
6.735520362854003906e-01 3.615056574344635010e-01 -3.452597558498382568e-02
6.584892272949218750e-01 3.367294371128082275e-01 -1.287676766514778137e-02
7.723990082740783691e-01 6.133316457271575928e-02 -3.825827315449714661e-02
8.825559616088867188e-01 1.100940555334091187e-01 -8.149474859237670898e-03
7.810631394386291504e-01 1.270988285541534424e-01 7.011280953884124756e-02
8.910785913467407227e-01 2.697537839412689209e-01 -9.758333861827850342e-02
6.860607862472534180e-01 2.753132581710815430e-01 8.833426982164382935e-02
8.668901920318603516e-01 1.769350469112396240e-01 6.779905408620834351e-02
8.926434516906738281e-01 1.386370211839675903e-01 -6.365440040826797485e-02
7.899587154388427734e-01 3.496465981006622314e-01 1.246673762798309326e-01
8.347097039222717285e-01 3.331662118434906006e-01 1.154547557234764099e-01
7.186961770057678223e-01 2.780150771141052246e-01 -9.628835320472717285e-02
8.479433059692382812e-01 2.698455750942230225e-01 -1.173622235655784607e-01
7.614054679870605469e-01 2.859450578689575195e-01 1.212584525346755981e-01
8.636907935142517090e-01 4.245951175689697266e-01 -6.828699260950088501e-02
9.058658480644226074e-01 2.525916993618011475e-01 5.877159535884857178e-02
7.253450155258178711e-01 1.858488172292709351e-01 8.704844862222671509e-02
9.171249866485595703e-01 3.568310141563415527e-01 4.553790390491485596e-02
7.769985795021057129e-01 4.987676143646240234e-01 -2.554236166179180145e-02
8.910188078880310059e-01 4.576905965805053711e-01 1.476512011140584946e-02
9.313410520553588867e-01 3.233529031276702881e-01 -3.225170075893402100e-02
6.647900342941284180e-01 3.909862935543060303e-01 1.765177212655544281e-02
7.948774695396423340e-01 7.806323468685150146e-02 -7.336331903934478760e-02
7.531974911689758301e-01 1.130053102970123291e-01 5.595644935965538025e-02
6.945859789848327637e-01 3.299246430397033691e-01 -7.033739238977432251e-02
7.476465106010437012e-01 4.844577312469482422e-01 -2.720885910093784332e-02
6.954579949378967285e-01 4.364834427833557129e-01 -1.843712292611598969e-02
6.602877974510192871e-01 2.101324498653411865e-01 -6.956754252314567566e-03
6.775594949722290039e-01 2.803145349025726318e-01 -5.986840650439262390e-02
6.825149655342102051e-01 3.974531292915344238e-01 7.506198436021804810e-02
8.651310205459594727e-01 1.639321595430374146e-01 -1.014756187796592712e-01
7.042052745819091797e-01 4.019697308540344238e-01 9.598860144615173340e-02
8.179582357406616211e-01 2.812690436840057373e-01 -1.211256682872772217e-01
8.622879385948181152e-01 2.495458275079727173e-01 -1.135437786579132080e-01
8.854623436927795410e-01 4.555367827415466309e-01 -2.016898617148399353e-02
7.123671770095825195e-01 4.815165102481842041e-01 2.257139049470424652e-02
7.058192491531372070e-01 3.590618371963500977e-01 1.051192656159400940e-01
7.345038056373596191e-01 3.101932108402252197e-01 -1.009722054004669189e-01
8.965891003608703613e-01 3.567147254943847656e-01 7.453691959381103516e-02
8.582394719123840332e-01 4.927900135517120361e-01 3.622207045555114746e-02
8.931208848953247070e-01 4.338232874870300293e-01 4.970650747418403625e-02
8.467440009117126465e-01 4.587468504905700684e-01 -5.415499210357666016e-02
8.458414673805236816e-01 4.951593279838562012e-01 5.285072326660156250e-02
6.656120419502258301e-01 3.033382296562194824e-01 6.741301715373992920e-02
6.788759827613830566e-01 4.130055010318756104e-01 -9.149405173957347870e-03
8.688024282455444336e-01 1.169231384992599487e-01 2.610119804739952087e-02
6.516120433807373047e-01 2.958067059516906738e-01 2.756362035870552063e-02
8.083248138427734375e-01 2.709158957004547119e-01 1.174079924821853638e-01
8.394035100936889648e-01 4.178178906440734863e-01 -8.169412612915039062e-02
8.441151380538940430e-01 2.082806229591369629e-01 -1.175532042980194092e-01
7.103018164634704590e-01 2.275645136833190918e-01 -9.101597219705581665e-02
7.011446952819824219e-01 3.444151282310485840e-01 -7.241732627153396606e-02
8.653342723846435547e-01 4.631547331809997559e-01 -3.791961446404457092e-02
7.874032855033874512e-01 5.215463638305664062e-01 3.515806794166564941e-02
7.064470648765563965e-01 1.886877417564392090e-01 -8.224684000015258789e-02
7.566608786582946777e-01 8.722481131553649902e-02 -6.889703869819641113e-02
9.319303035736083984e-01 2.409136593341827393e-01 -3.247218206524848938e-02
7.752207517623901367e-01 9.497480094432830811e-02 -8.346288651227951050e-02
8.804829716682434082e-01 2.565394937992095947e-01 -1.048274263739585876e-01
7.755426764488220215e-01 4.011495709419250488e-01 1.199611648917198181e-01
9.246086478233337402e-01 3.428909778594970703e-01 3.278551623225212097e-02
8.328229188919067383e-01 8.539107441902160645e-02 2.320267818868160248e-02
8.508548140525817871e-01 8.049272000789642334e-02 -5.117225274443626404e-02
7.376277446746826172e-01 1.544446349143981934e-01 7.723136246204376221e-02
8.309401273727416992e-01 5.125342607498168945e-01 1.153672207146883011e-02
7.927238345146179199e-01 1.053675562143325806e-01 5.474869534373283386e-02
8.845252394676208496e-01 4.228704273700714111e-01 -5.377943813800811768e-02
7.442007064819335938e-01 1.977801918983459473e-01 9.815163165330886841e-02
8.637826442718505859e-01 1.906238794326782227e-01 -1.083642914891242981e-01
7.006774544715881348e-01 4.622989296913146973e-01 6.492767017334699631e-03
8.088763356208801270e-01 2.042964100837707520e-01 1.019440963864326477e-01
6.848931908607482910e-01 2.433954328298568726e-01 -6.881424784660339355e-02
9.054279923439025879e-01 3.710691928863525391e-01 6.098932027816772461e-02
7.118871808052062988e-01 3.058308064937591553e-01 -8.868748694658279419e-02
8.920809030532836914e-01 4.491475820541381836e-01 3.476193919777870178e-02
9.239063262939453125e-01 3.807161450386047363e-01 6.108830682933330536e-03
9.035052061080932617e-01 2.342129498720169067e-01 -8.667664229869842529e-02
7.053474783897399902e-01 2.861520349979400635e-01 1.036498993635177612e-01
7.239478230476379395e-01 4.899157583713531494e-01 9.458790533244609833e-03
8.002657294273376465e-01 4.039700627326965332e-01 1.180550530552864075e-01
9.117689132690429688e-01 2.072555571794509888e-01 3.407568857073783875e-02
7.006388306617736816e-01 2.157219052314758301e-01 -8.199523389339447021e-02
7.187339067459106445e-01 2.324316203594207764e-01 9.993750602006912231e-02
8.150541186332702637e-01 3.227441310882568359e-01 -1.154569163918495178e-01
8.124591708183288574e-01 5.076065063476562500e-01 -1.507729664444923401e-02
7.924661040306091309e-01 2.381744086742401123e-01 1.132974550127983093e-01
8.613499402999877930e-01 1.454698294401168823e-01 -9.713902324438095093e-02
9.284141063690185547e-01 3.073678314685821533e-01 2.836420945823192596e-02
8.365383744239807129e-01 2.865776121616363525e-01 -1.184253171086311340e-01
6.677961945533752441e-01 3.679865896701812744e-01 -1.997698843479156494e-02
7.284206748008728027e-01 8.579909801483154297e-02 2.351535018533468246e-03
8.749039173126220703e-01 4.782288074493408203e-01 2.540786191821098328e-02
7.201011776924133301e-01 4.800590872764587402e-01 -3.614006331190466881e-03
8.079664707183837891e-01 4.888824224472045898e-01 -3.913220763206481934e-02
6.992154717445373535e-01 1.159876137971878052e-01 -1.538659632205963135e-02
7.839141488075256348e-01 1.443253755569458008e-01 7.994876801967620850e-02
7.184028625488281250e-01 1.304686218500137329e-01 -7.056626677513122559e-02
7.460485696792602539e-01 3.364615440368652344e-01 -1.009461507201194763e-01
6.799944639205932617e-01 2.630962133407592773e-01 -6.357000023126602173e-02
7.252158522605895996e-01 1.713081598281860352e-01 -9.230858832597732544e-02
8.282538056373596191e-01 2.263478487730026245e-01 1.034571677446365356e-01
7.337107658386230469e-01 3.558828830718994141e-01 -9.058395773172378540e-02
6.770803928375244141e-01 1.700216531753540039e-01 2.934304252266883850e-02
8.816736936569213867e-01 1.162850111722946167e-01 -5.854177847504615784e-02
8.398042321205139160e-01 4.614230096340179443e-01 8.673226088285446167e-02
9.046872854232788086e-01 3.092377781867980957e-01 6.789427995681762695e-02
8.107762336730957031e-01 3.323686718940734863e-01 1.220059990882873535e-01
6.812622547149658203e-01 1.475338935852050781e-01 2.806234871968626976e-03
6.965278387069702148e-01 1.419193744659423828e-01 3.721931949257850647e-02
9.293306469917297363e-01 2.697712481021881104e-01 -4.891512170433998108e-02
8.532500267028808594e-01 4.962752461433410645e-01 -1.835413509979844093e-03
7.433426976203918457e-01 4.979665279388427734e-01 6.255052983760833740e-02
8.307905197143554688e-01 1.028550267219543457e-01 4.238203540444374084e-02
7.889467477798461914e-01 4.190592765808105469e-01 1.160525530576705933e-01
8.124460577964782715e-01 2.514304220676422119e-01 1.132259368896484375e-01
8.390444517135620117e-01 1.024409979581832886e-01 -8.515217900276184082e-02
6.922621726989746094e-01 3.008788526058197021e-01 -7.366695255041122437e-02
9.049174189567565918e-01 3.384705483913421631e-01 6.696423143148422241e-02
6.865929365158081055e-01 1.366981863975524902e-01 -1.175376586616039276e-02
8.356502652168273926e-01 2.365301847457885742e-01 -1.208941191434860229e-01
8.236606717109680176e-01 1.539724916219711304e-01 -1.118318513035774231e-01
7.363905906677246094e-01 1.833376586437225342e-01 -1.015525385737419128e-01
7.071409225463867188e-01 1.212621778249740601e-01 2.962398901581764221e-02
9.222133755683898926e-01 2.885499298572540283e-01 4.113517329096794128e-02
6.729351282119750977e-01 2.096517384052276611e-01 5.217870324850082397e-02
7.764420509338378906e-01 1.361114382743835449e-01 -1.042209491133689880e-01
9.204270839691162109e-01 2.089441716670989990e-01 1.732261106371879578e-02
6.573313474655151367e-01 2.833341062068939209e-01 -2.344950288534164429e-02
6.717163920402526855e-01 3.111197352409362793e-01 -4.780140519142150879e-02
6.824151277542114258e-01 4.325721263885498047e-01 4.546218365430831909e-02
6.507819890975952148e-01 2.915389537811279297e-01 1.154495403170585632e-02
8.239471316337585449e-01 2.190908938646316528e-01 -1.219135299324989319e-01
9.315141439437866211e-01 3.205738663673400879e-01 1.680221594870090485e-02
6.573388576507568359e-01 2.363455593585968018e-01 -1.521139033138751984e-02
7.326093912124633789e-01 4.874167144298553467e-01 -9.879168123006820679e-03
8.015884757041931152e-01 5.211834907531738281e-01 1.794097758829593658e-02
8.825747966766357422e-01 4.441262483596801758e-01 -3.840305656194686890e-02
7.185103893280029297e-01 3.660401701927185059e-01 1.112945824861526489e-01
9.009616971015930176e-01 1.402746289968490601e-01 -4.582425579428672791e-02
8.000428676605224609e-01 6.714235246181488037e-02 1.161461882293224335e-02
8.296918869018554688e-01 4.443635642528533936e-01 9.939703345298767090e-02
8.792706727981567383e-01 2.164907306432723999e-01 7.416713237762451172e-02
7.686800360679626465e-01 4.821296930313110352e-01 8.925937116146087646e-02
9.008536338806152344e-01 2.568058669567108154e-01 -9.016114473342895508e-02
9.109241962432861328e-01 4.134866595268249512e-01 -1.682178303599357605e-02
7.924992442131042480e-01 1.883136034011840820e-01 -1.190154328942298889e-01
7.597949504852294922e-01 3.957044184207916260e-01 1.195814907550811768e-01
8.493642807006835938e-01 9.719553589820861816e-02 -7.521036267280578613e-02
7.085826992988586426e-01 1.339151114225387573e-01 4.478274285793304443e-02
9.315949678421020508e-01 2.494349479675292969e-01 6.489415653049945831e-03
8.174721598625183105e-01 3.616747260093688965e-01 -1.061939150094985962e-01
6.990786790847778320e-01 3.607909083366394043e-01 -6.559624522924423218e-02
7.304064035415649414e-01 2.868502736091613770e-01 -1.020281463861465454e-01
7.643692493438720703e-01 2.545964121818542480e-01 -1.171656772494316101e-01
5.572611093521118164e-01 1.662026345729827881e-01 4.761509224772453308e-02
4.259002506732940674e-01 2.534759342670440674e-01 -6.545322015881538391e-03
4.476019442081451416e-01 1.504673510789871216e-01 1.227826625108718872e-01
4.428536593914031982e-01 2.232624143362045288e-01 1.177166700363159180e-01
4.097099304199218750e-01 2.027770578861236572e-01 -1.099546179175376892e-01
2.573544979095458984e-01 2.734929323196411133e-01 -9.358775615692138672e-02
4.336264133453369141e-01 1.228248104453086853e-01 5.293496325612068176e-02
3.219723105430603027e-01 1.457311958074569702e-01 -2.118542790412902832e-02
4.115591943264007568e-01 2.590404152870178223e-01 -6.017378531396389008e-03
3.884168863296508789e-01 1.315948218107223511e-01 4.877354949712753296e-02
3.822790384292602539e-01 1.339433342218399048e-01 -4.644577205181121826e-02
4.836950302124023438e-01 1.221819072961807251e-01 -1.267692167311906815e-02
3.621696829795837402e-01 1.441576033830642700e-01 -7.023131847381591797e-02
2.347883433103561401e-01 1.964383125305175781e-01 2.349216118454933167e-02
3.011741340160369873e-01 2.543145716190338135e-01 -1.152445524930953979e-01
4.499084353446960449e-01 2.092404365539550781e-01 1.300977170467376709e-01
3.207118511199951172e-01 2.268663048744201660e-01 -1.315850764513015747e-01
3.396539390087127686e-01 1.525187045335769653e-01 -8.090694248676300049e-02
5.397303700447082520e-01 1.309157013893127441e-01 2.086140960454940796e-02
2.253388315439224243e-01 2.382158190011978149e-01 -1.205264925956726074e-01
4.316624999046325684e-01 1.454640775918960571e-01 1.122774332761764526e-01
5.024273395538330078e-01 1.860167235136032104e-01 1.243647336959838867e-01
3.531455099582672119e-01 2.412657439708709717e-01 1.113897413015365601e-01
2.086242437362670898e-01 2.466527521610260010e-01 3.214491903781890869e-02
3.147018551826477051e-01 2.835832536220550537e-01 -1.394706498831510544e-02
5.009120702743530273e-01 2.141854465007781982e-01 8.218429982662200928e-02
3.919928073883056641e-01 2.451418936252593994e-01 -8.032813668251037598e-02
3.979565501213073730e-01 2.639742493629455566e-01 -3.690053708851337433e-03
3.177901506423950195e-01 2.744867801666259766e-01 -6.822840869426727295e-02
2.149320691823959351e-01 2.812995314598083496e-01 -1.083548925817012787e-02
3.093476295471191406e-01 2.745738029479980469e-01 5.383256450295448303e-02
3.063437342643737793e-01 1.553250849246978760e-01 -5.894340574741363525e-02
2.905766069889068604e-01 2.850639224052429199e-01 1.024716906249523163e-02
2.068868577480316162e-01 2.686221003532409668e-01 -8.992907404899597168e-02
3.265180587768554688e-01 1.473699808120727539e-01 2.664250880479812622e-02
4.589505493640899658e-01 1.856292039155960083e-01 1.389685273170471191e-01
3.974546790122985840e-01 2.575819194316864014e-01 -4.286314919590950012e-02
2.760064005851745605e-01 1.827608495950698853e-01 -1.050201058387756348e-01
5.134227871894836426e-01 1.878906041383743286e-01 -3.217273205518722534e-02
4.452819824218750000e-01 1.758892238140106201e-01 1.389942020177841187e-01
3.399201631546020508e-01 2.680025994777679443e-01 -7.124302536249160767e-02
5.392431616783142090e-01 1.370077729225158691e-01 8.700472116470336914e-02
4.189323782920837402e-01 2.573857903480529785e-01 3.111844137310981750e-02
3.631594777107238770e-01 1.331948041915893555e-01 -4.896360915154218674e-03
3.700422644615173340e-01 2.110764384269714355e-01 -1.239006370306015015e-01
4.375995099544525146e-01 2.505661845207214355e-01 1.548479963093996048e-02
5.309065580368041992e-01 1.251702308654785156e-01 5.812072008848190308e-02
2.620263099670410156e-01 1.878415197134017944e-01 -1.034644246101379395e-01
4.605206549167633057e-01 2.359974086284637451e-01 7.393432408571243286e-02
5.223047733306884766e-01 1.869986504316329956e-01 -1.961755752563476562e-02
4.761638045310974121e-01 1.832687556743621826e-01 1.360796689987182617e-01
2.558534145355224609e-01 2.105096727609634399e-01 6.961327046155929565e-02
4.817416667938232422e-01 2.067224234342575073e-01 1.181553155183792114e-01
3.948037028312683105e-01 2.655131518840789795e-01 1.967059448361396790e-02
3.399019241333007812e-01 1.552796661853790283e-01 7.210478186607360840e-02
3.070221841335296631e-01 2.017625570297241211e-01 1.038765832781791687e-01
4.165188074111938477e-01 2.190296351909637451e-01 1.292494088411331177e-01
3.740814924240112305e-01 2.582779824733734131e-01 -6.776313483715057373e-02
3.387309312820434570e-01 2.624130845069885254e-01 -8.583393692970275879e-02
2.356248646974563599e-01 2.517140209674835205e-01 5.704081058502197266e-02
3.525208532810211182e-01 2.154854834079742432e-01 -1.280440390110015869e-01
2.237930595874786377e-01 2.428822666406631470e-01 4.938274994492530823e-02
4.131879210472106934e-01 1.980546861886978149e-01 1.387186199426651001e-01
3.198293447494506836e-01 2.817075848579406738e-01 1.643005199730396271e-02
2.562521696090698242e-01 2.536162734031677246e-01 7.008884847164154053e-02
4.491737782955169678e-01 1.260313391685485840e-01 -3.537095338106155396e-02
5.328556299209594727e-01 1.249828189611434937e-01 3.938972949981689453e-02
4.309805035591125488e-01 1.898371130228042603e-01 -1.021763905882835388e-01
5.309773087501525879e-01 1.939671635627746582e-01 7.972438633441925049e-02
2.957020103931427002e-01 1.670077443122863770e-01 -8.702104538679122925e-02
4.952493309974670410e-01 2.215341478586196899e-01 6.279198080301284790e-02
5.547950267791748047e-01 1.689609885215759277e-01 6.794801354408264160e-02
3.483458161354064941e-01 2.498354464769363403e-01 1.012976318597793579e-01
2.517400383949279785e-01 1.857757419347763062e-01 -8.878395706415176392e-02
3.263911306858062744e-01 2.271760404109954834e-01 1.149739027023315430e-01
2.749513983726501465e-01 2.350439727306365967e-01 -1.323556900024414062e-01
2.159113436937332153e-01 1.989365518093109131e-01 -5.729968845844268799e-02
4.932216107845306396e-01 1.205283701419830322e-01 6.454194337129592896e-02
3.535931110382080078e-01 1.930289566516876221e-01 1.237988024950027466e-01
2.549426555633544922e-01 2.708084285259246826e-01 4.913935065269470215e-02
2.770801782608032227e-01 2.840079367160797119e-01 1.903792470693588257e-02
4.889313876628875732e-01 1.185290664434432983e-01 5.222832411527633667e-02
2.999168038368225098e-01 1.544817984104156494e-01 5.246419459581375122e-05
2.887799441814422607e-01 2.556439042091369629e-01 -1.165495291352272034e-01
3.906562328338623047e-01 1.288902759552001953e-01 3.617854416370391846e-02
4.334236681461334229e-01 1.267416626214981079e-01 7.048006355762481689e-02
5.073285102844238281e-01 1.191748529672622681e-01 2.726676315069198608e-02
3.545334637165069580e-01 1.667931973934173584e-01 -1.096397936344146729e-01
3.362112641334533691e-01 2.329738140106201172e-01 -1.245122551918029785e-01
4.727948307991027832e-01 1.486767381429672241e-01 -6.699296087026596069e-02
3.272430300712585449e-01 2.751474082469940186e-01 4.837170243263244629e-02
2.134765535593032837e-01 2.775278687477111816e-01 2.119795186445116997e-03
4.143537282943725586e-01 2.523591518402099609e-01 -3.694356605410575867e-02
3.919097483158111572e-01 2.629185020923614502e-01 5.222722887992858887e-02
2.814066708087921143e-01 2.860044538974761963e-01 -3.927035257220268250e-02
2.437996864318847656e-01 2.621147632598876953e-01 5.463749542832374573e-02
2.217505872249603271e-01 1.963993757963180542e-01 -9.557725861668586731e-03
4.362343549728393555e-01 1.194280758500099182e-01 1.226914860308170319e-02
5.078012943267822266e-01 2.154972553253173828e-01 3.436496481299400330e-02
5.179800987243652344e-01 1.276434063911437988e-01 8.258260041475296021e-02
4.406195580959320068e-01 2.375591546297073364e-01 -4.447589442133903503e-02
4.544429779052734375e-01 1.179419383406639099e-01 3.051032871007919312e-02
4.155993163585662842e-01 2.281964868307113647e-01 1.205756440758705139e-01
3.185401260852813721e-01 2.608398497104644775e-01 8.363793790340423584e-02
2.351813465356826782e-01 2.522794902324676514e-01 -1.189881563186645508e-01
3.696015775203704834e-01 2.328489124774932861e-01 -1.111110523343086243e-01
2.602365016937255859e-01 2.267386019229888916e-01 -1.318613588809967041e-01
4.578350484371185303e-01 2.089877128601074219e-01 -7.302762567996978760e-02
3.475287556648254395e-01 1.416261196136474609e-01 3.680548816919326782e-02
4.752960801124572754e-01 1.170257180929183960e-01 2.437746897339820862e-02
4.861315786838531494e-01 1.173724457621574402e-01 3.887985646724700928e-02
2.303290218114852905e-01 2.859833538532257080e-01 -2.196444943547248840e-02
3.595887422561645508e-01 2.549825906753540039e-01 -8.685901015996932983e-02
1.832322031259536743e-01 2.359794080257415771e-01 -2.146241068840026855e-02
5.427206754684448242e-01 1.853278875350952148e-01 7.028883695602416992e-02
2.792970240116119385e-01 1.762864738702774048e-01 4.861997812986373901e-02
4.264678061008453369e-01 2.122008502483367920e-01 1.328737884759902954e-01
3.601085841655731201e-01 1.582186073064804077e-01 9.476376324892044067e-02
3.094016015529632568e-01 1.519228965044021606e-01 -4.480991885066032410e-02
2.488122582435607910e-01 2.242027223110198975e-01 7.040277868509292603e-02
2.733623683452606201e-01 1.773408353328704834e-01 -9.207406640052795410e-02
5.204284191131591797e-01 1.603464633226394653e-01 1.196163520216941833e-01
3.074215054512023926e-01 2.430220097303390503e-01 -1.248240023851394653e-01
2.897663414478302002e-01 2.832411527633666992e-01 2.247763797640800476e-02
5.297963023185729980e-01 1.996816843748092651e-01 4.952160641551017761e-02
4.472311735153198242e-01 2.449405938386917114e-01 -1.757977064698934555e-03
4.560234844684600830e-01 1.290604919195175171e-01 8.830165117979049683e-02
3.048352003097534180e-01 1.542202532291412354e-01 1.517564523965120316e-02
5.393751859664916992e-01 1.545644849538803101e-01 1.038925200700759888e-01
1.969041079282760620e-01 2.176559269428253174e-01 -1.554852258414030075e-02
4.308730959892272949e-01 2.318210899829864502e-01 -6.811465322971343994e-02
3.397116363048553467e-01 2.696837484836578369e-01 6.278371810913085938e-02
2.379629015922546387e-01 2.801291048526763916e-01 1.800097152590751648e-02
3.074103593826293945e-01 2.842017114162445068e-01 -2.417277917265892029e-02
4.411903023719787598e-01 1.938233077526092529e-01 -9.538874775171279907e-02
5.505526065826416016e-01 1.490902602672576904e-01 1.243275031447410583e-02
2.159306854009628296e-01 2.533122897148132324e-01 -1.113145500421524048e-01
4.667330980300903320e-01 2.229185104370117188e-01 -4.256378114223480225e-02
2.988972663879394531e-01 1.617513746023178101e-01 -7.475353032350540161e-02
4.988495111465454102e-01 1.257854104042053223e-01 8.392297476530075073e-02
4.951870143413543701e-01 1.970657706260681152e-01 1.200399547815322876e-01
2.324707806110382080e-01 1.993177831172943115e-01 -9.521486610174179077e-02
5.021317601203918457e-01 1.192186400294303894e-01 5.228157341480255127e-02
3.645024895668029785e-01 2.591089904308319092e-01 8.310414105653762817e-02
1.954723000526428223e-01 2.220396399497985840e-01 -7.917200773954391479e-02
3.309259116649627686e-01 2.069301158189773560e-01 -1.331516653299331665e-01
3.224810659885406494e-01 1.496141254901885986e-01 -5.578216910362243652e-02
4.875656664371490479e-01 1.568364650011062622e-01 1.291055381298065186e-01
4.052227139472961426e-01 1.410242021083831787e-01 -7.352768629789352417e-02
2.385458052158355713e-01 2.848208844661712646e-01 -9.775629732757806778e-04
3.581604063510894775e-01 1.531191468238830566e-01 8.398715406656265259e-02
4.037418961524963379e-01 1.452046632766723633e-01 9.971830248832702637e-02
3.537314832210540771e-01 1.375326067209243774e-01 -3.368048742413520813e-02
3.441060185432434082e-01 2.781472802162170410e-01 -1.292170118540525436e-02
2.958965003490447998e-01 1.552935540676116943e-01 -2.332245185971260071e-02
1.809412091970443726e-01 2.340984493494033813e-01 -4.969552531838417053e-02
5.517542362213134766e-01 1.674628108739852905e-01 2.000949531793594360e-02
2.708074748516082764e-01 2.859407067298889160e-01 -4.661460220813751221e-02
4.289536178112030029e-01 2.472645044326782227e-01 7.489144057035446167e-02
3.662023842334747314e-01 2.734372615814208984e-01 7.083035307005047798e-04
3.436887264251708984e-01 2.040289938449859619e-01 1.229508072137832642e-01
3.329181075096130371e-01 1.621689945459365845e-01 7.979328185319900513e-02
2.484977543354034424e-01 2.836885452270507812e-01 1.166238356381654739e-02
2.765004336833953857e-01 1.704028248786926270e-01 2.740857377648353577e-02
5.102980732917785645e-01 1.358352303504943848e-01 -2.746168151497840881e-02
2.874349951744079590e-01 2.044301331043243408e-01 9.212634712457656860e-02
4.180293679237365723e-01 1.393325626850128174e-01 9.586136043071746826e-02
4.688319563865661621e-01 2.221927791833877563e-01 1.032055094838142395e-01
4.705571830272674561e-01 1.409783363342285156e-01 1.141907945275306702e-01
2.723284363746643066e-01 1.669098436832427979e-01 -1.223057508468627930e-03
3.696998059749603271e-01 1.811335980892181396e-01 -1.208499521017074585e-01
2.564438581466674805e-01 2.879220843315124512e-01 -2.546526491641998291e-02
3.667700588703155518e-01 1.331955343484878540e-01 1.939269900321960449e-02
4.602476656436920166e-01 2.322946488857269287e-01 -2.884816750884056091e-02
3.579242527484893799e-01 2.166442275047302246e-01 1.268810927867889404e-01
2.682785391807556152e-01 2.061611711978912354e-01 7.784550637006759644e-02
3.618171215057373047e-01 2.235108166933059692e-01 -1.215263381600379944e-01
3.620299100875854492e-01 2.707042694091796875e-01 -3.723104298114776611e-02
2.163698524236679077e-01 2.052617073059082031e-01 -8.397533744573593140e-02
2.924336194992065430e-01 1.736466586589813232e-01 5.986786633729934692e-02
4.846094846725463867e-01 1.727849841117858887e-01 -6.921745091676712036e-02
2.875128388404846191e-01 2.864666879177093506e-01 -3.931952640414237976e-03
5.557717084884643555e-01 1.456946581602096558e-01 7.071285694837570190e-02
4.575724899768829346e-01 2.416647076606750488e-01 4.579687118530273438e-02
1.871147602796554565e-01 2.246397733688354492e-01 -4.295383393764495850e-02
2.200312465429306030e-01 2.762612998485565186e-01 -8.157481253147125244e-02
4.071184098720550537e-01 1.240011975169181824e-01 -4.855385515838861465e-03
5.279507637023925781e-01 1.899444758892059326e-01 -4.397069104015827179e-03
3.165307343006134033e-01 2.794105112552642822e-01 3.409095108509063721e-02
5.035654306411743164e-01 1.240369081497192383e-01 -6.354073062539100647e-03
1.827547252178192139e-01 2.485728263854980469e-01 -7.899989932775497437e-02
4.119387269020080566e-01 1.227605864405632019e-01 9.342497214674949646e-03
2.690764069557189941e-01 2.673291563987731934e-01 -1.037762239575386047e-01
4.966204166412353516e-01 1.199240460991859436e-01 6.270658690482378006e-03
4.028484523296356201e-01 1.706502437591552734e-01 1.293866187334060669e-01
5.265221595764160156e-01 1.278653144836425781e-01 6.725843530148267746e-03
3.381318151950836182e-01 2.724221944808959961e-01 -5.849661305546760559e-02
4.705959260463714600e-01 1.968706399202346802e-01 -7.192054390907287598e-02
4.570836722850799561e-01 1.994650959968566895e-01 1.347642391920089722e-01
3.207888305187225342e-01 1.462185978889465332e-01 -3.366514574736356735e-03
2.058088034391403198e-01 2.643478512763977051e-01 1.805792376399040222e-02
4.918095767498016357e-01 2.053432464599609375e-01 -3.969885408878326416e-02
3.511526584625244141e-01 1.445647031068801880e-01 5.444508045911788940e-02
2.737962603569030762e-01 2.875704169273376465e-01 -2.394235506653785706e-02
1.939166039228439331e-01 2.757327854633331299e-01 -3.629617765545845032e-02
3.533423244953155518e-01 2.699228525161743164e-01 -5.220120772719383240e-02
1.776718348264694214e-01 2.479701936244964600e-01 -6.227989122271537781e-02
3.489534854888916016e-01 1.371862292289733887e-01 -1.307399757206439972e-02
4.630045294761657715e-01 1.202076226472854614e-01 -9.898690506815910339e-03
3.899491727352142334e-01 2.670015692710876465e-01 6.694154813885688782e-03
1.995749622583389282e-01 2.401839643716812134e-01 1.910734921693801880e-02
1.989498585462570190e-01 2.364110201597213745e-01 -1.005879938602447510e-01
4.816344976425170898e-01 1.326807737350463867e-01 -4.140212759375572205e-02
2.252721041440963745e-01 2.019813060760498047e-01 1.775058731436729431e-02
2.472139596939086914e-01 2.837002873420715332e-01 -6.362287700176239014e-02
2.149232923984527588e-01 2.812750041484832764e-01 -5.995288118720054626e-02
3.876824975013732910e-01 1.898446977138519287e-01 1.341138333082199097e-01
3.957748711109161377e-01 2.354443520307540894e-01 -9.247118979692459106e-02
4.787159562110900879e-01 1.234226673841476440e-01 7.666379213333129883e-02
5.455834865570068359e-01 1.323237717151641846e-01 3.273746743798255920e-02
3.161245584487915039e-01 1.521611511707305908e-01 3.001577034592628479e-02
4.178438484668731689e-01 1.241464167833328247e-01 -2.016018331050872803e-02
3.614970147609710693e-01 1.755972951650619507e-01 1.166015714406967163e-01
3.297673463821411133e-01 2.805467247962951660e-01 -2.171688899397850037e-02
4.549118280410766602e-01 1.194206029176712036e-01 4.828030988574028015e-02
2.555930018424987793e-01 1.737609654664993286e-01 -2.250987291336059570e-02
2.719347476959228516e-01 2.780873775482177734e-01 3.997224569320678711e-02
5.278890728950500488e-01 1.408370882272720337e-01 1.022665202617645264e-01
2.218121588230133057e-01 2.270767688751220703e-01 -1.163505986332893372e-01
3.548235595226287842e-01 1.362994611263275146e-01 1.549833174794912338e-02
4.860678911209106445e-01 2.149550616741180420e-01 1.013816520571708679e-01
4.026681184768676758e-01 2.489464133977890015e-01 -6.226127222180366516e-02
2.520938515663146973e-01 2.507056593894958496e-01 -1.229889690876007080e-01
3.897989988327026367e-01 1.474651247262954712e-01 9.577103704214096069e-02
4.493621289730072021e-01 1.184372752904891968e-01 8.785859681665897369e-03
5.117406845092773438e-01 1.877682209014892578e-01 1.165685653686523438e-01
3.239264190196990967e-01 2.709165215492248535e-01 6.267390400171279907e-02
3.730454146862030029e-01 2.642602622509002686e-01 -5.053126439452171326e-02
4.459708333015441895e-01 1.760864853858947754e-01 -9.431581199169158936e-02
2.303662002086639404e-01 1.893975585699081421e-01 -5.708438158035278320e-02
3.871810734272003174e-01 1.274730116128921509e-01 5.312873981893062592e-03
2.620666921138763428e-01 1.711018681526184082e-01 -1.102863531559705734e-02
4.102583527565002441e-01 1.268533766269683838e-01 -3.108724579215049744e-02
4.359489977359771729e-01 1.207675486803054810e-01 -7.455706596374511719e-03
2.475489377975463867e-01 2.797801494598388672e-01 2.514780685305595398e-02
4.947372376918792725e-01 2.177658528089523315e-01 -6.045538932085037231e-03
4.851045906543731689e-01 1.925082951784133911e-01 -6.142375245690345764e-02
3.163774311542510986e-01 1.689956933259963989e-01 7.674571871757507324e-02
5.513715147972106934e-01 1.360795944929122925e-01 5.732918158173561096e-02
2.377004623413085938e-01 2.756942212581634521e-01 -8.821787685155868530e-02
2.954923510551452637e-01 2.161587774753570557e-01 -1.352698951959609985e-01
4.198378920555114746e-01 1.226823776960372925e-01 3.521738573908805847e-02
3.238288164138793945e-01 2.806037366390228271e-01 -3.279296681284904480e-02
3.367110788822174072e-01 1.803111732006072998e-01 -1.215583235025405884e-01
4.995501041412353516e-01 1.567476540803909302e-01 -5.459489300847053528e-02
4.832228422164916992e-01 2.249567955732345581e-01 7.724218070507049561e-02
3.397201895713806152e-01 2.792781591415405273e-01 5.568475462496280670e-03
2.875555753707885742e-01 2.267318367958068848e-01 -1.346402615308761597e-01
5.211732387542724609e-01 2.057170569896697998e-01 3.015470504760742188e-02
4.557528197765350342e-01 1.518751233816146851e-01 -7.792281359434127808e-02
4.633477032184600830e-01 1.418050676584243774e-01 -6.387163698673248291e-02
3.055176436901092529e-01 2.719767093658447266e-01 -8.286681771278381348e-02
4.199719727039337158e-01 1.867743581533432007e-01 1.393438875675201416e-01
1.857499033212661743e-01 2.287072241306304932e-01 -6.385882943868637085e-02
4.258981645107269287e-01 1.407336592674255371e-01 -7.220817357301712036e-02
4.385423362255096436e-01 2.446666061878204346e-01 -2.473537996411323547e-02
4.135464429855346680e-01 1.828897744417190552e-01 -1.100051403045654297e-01
2.286104410886764526e-01 2.098436653614044189e-01 -1.076352223753929138e-01
2.061506360769271851e-01 2.226136028766632080e-01 1.696098223328590393e-02
4.309524297714233398e-01 1.955029070377349854e-01 1.395157277584075928e-01
2.318430095911026001e-01 2.041739374399185181e-01 3.352722525596618652e-02
4.885680079460144043e-01 1.286816149950027466e-01 9.253112226724624634e-02
2.833413183689117432e-01 2.870839536190032959e-01 -1.663711667060852051e-02
4.996981620788574219e-01 1.843745410442352295e-01 -5.181065201759338379e-02
3.358380496501922607e-01 1.454811692237854004e-01 3.518453240394592285e-02
2.459043264389038086e-01 1.827415972948074341e-01 -6.894114613533020020e-02
2.902698218822479248e-01 1.638517081737518311e-01 2.972063422203063965e-02
3.167017102241516113e-01 1.614132672548294067e-01 6.143282726407051086e-02
4.985216259956359863e-01 1.179461032152175903e-01 3.553780540823936462e-02
4.363854229450225830e-01 1.196055710315704346e-01 2.704178914427757263e-02
3.153469860553741455e-01 1.487647891044616699e-01 -3.438464179635047913e-02
4.717384278774261475e-01 2.150857895612716675e-01 -5.047209933400154114e-02
4.009184241294860840e-01 1.324538588523864746e-01 6.582929939031600952e-02
3.676921725273132324e-01 1.684134900569915771e-01 -1.117965579032897949e-01
4.853595197200775146e-01 2.256304919719696045e-01 2.047155518084764481e-03
2.692844867706298828e-01 2.620673477649688721e-01 6.863062083721160889e-02
3.948872089385986328e-01 1.386385262012481689e-01 7.972312718629837036e-02
3.614858686923980713e-01 1.658913940191268921e-01 1.065548285841941833e-01
1.937373727560043335e-01 2.176215946674346924e-01 -5.627809464931488037e-02
3.318442106246948242e-01 2.592139244079589844e-01 -9.608421474695205688e-02
3.949604630470275879e-01 1.526204347610473633e-01 1.072666347026824951e-01
3.112114667892456055e-01 2.667981386184692383e-01 7.241415977478027344e-02
4.185697734355926514e-01 2.558181285858154297e-01 4.892391711473464966e-02
4.914034605026245117e-01 1.280330121517181396e-01 -2.625141665339469910e-02
4.554520845413208008e-01 2.289153188467025757e-01 -4.506355151534080505e-02
2.679559588432312012e-01 2.486574798822402954e-01 -1.251844763755798340e-01
3.212141990661621094e-01 2.447059154510498047e-01 -1.196829378604888916e-01
3.410076498985290527e-01 1.417832374572753906e-01 2.454262599349021912e-02
3.766802251338958740e-01 2.667903304100036621e-01 -3.442326188087463379e-02
4.999693632125854492e-01 1.456359624862670898e-01 -4.713601246476173401e-02
5.343744754791259766e-01 1.953495442867279053e-01 3.751278296113014221e-02
3.815757930278778076e-01 2.692860960960388184e-01 1.834820210933685303e-02
4.800664782524108887e-01 1.602959930896759033e-01 -7.020673155784606934e-02
3.620326817035675049e-01 2.729937434196472168e-01 -2.197409421205520630e-02
3.597640693187713623e-01 1.991539001464843750e-01 -1.279148608446121216e-01
2.110203057527542114e-01 2.133182883262634277e-01 -9.205320477485656738e-02
2.792261540889739990e-01 2.827391326427459717e-01 -6.057192757725715637e-02
4.633452594280242920e-01 2.368068099021911621e-01 -3.753993660211563110e-03
2.321870476007461548e-01 1.868848502635955811e-01 -3.839737921953201294e-02
2.650090456008911133e-01 2.867117226123809814e-01 2.211809623986482620e-04
3.897928595542907715e-01 1.643824428319931030e-01 1.193165779113769531e-01
2.087068706750869751e-01 2.818098962306976318e-01 -3.956163674592971802e-02
4.996733069419860840e-01 2.087146490812301636e-01 -2.120920270681381226e-02
3.034990429878234863e-01 2.184488326311111450e-01 1.065309643745422363e-01
3.849736452102661133e-01 1.284316182136535645e-01 1.820555329322814941e-02
4.463947415351867676e-01 1.214329525828361511e-01 -1.607729122042655945e-02
3.624503314495086670e-01 2.670430839061737061e-01 6.137707829475402832e-02
5.045452117919921875e-01 1.510767191648483276e-01 1.218030378222465515e-01
4.180186986923217773e-01 2.530502676963806152e-01 6.523975729942321777e-02
2.391406148672103882e-01 2.253805994987487793e-01 -1.251157075166702271e-01
4.730402827262878418e-01 1.268710196018218994e-01 -3.222577646374702454e-02
5.156574249267578125e-01 2.103963196277618408e-01 4.178282245993614197e-02
2.994583249092102051e-01 1.932449787855148315e-01 -1.266034096479415894e-01
3.825606703758239746e-01 1.400663405656814575e-01 -6.724631041288375854e-02
4.875742197036743164e-01 1.437841355800628662e-01 -5.380160361528396606e-02
5.006324648857116699e-01 1.358803808689117432e-01 -3.514063358306884766e-02
2.163393795490264893e-01 2.538289129734039307e-01 3.843402862548828125e-02
3.144951760768890381e-01 2.095861583948135376e-01 1.109153181314468384e-01
4.487367272377014160e-01 2.368492782115936279e-01 -3.428749740123748779e-02
4.393778443336486816e-01 2.464790940284729004e-01 6.293943524360656738e-02
4.682233929634094238e-01 1.316071450710296631e-01 9.743367135524749756e-02
3.794160783290863037e-01 2.680293321609497070e-01 3.941043466329574585e-02
2.705788016319274902e-01 1.727446615695953369e-01 -7.555959373712539673e-02
4.474151134490966797e-01 1.325398683547973633e-01 -5.294711515307426453e-02
2.309264391660690308e-01 2.222033143043518066e-01 5.162425339221954346e-02
5.165084004402160645e-01 1.293038427829742432e-01 -9.365951642394065857e-03
4.696353077888488770e-01 1.186203509569168091e-01 1.264539081603288651e-03
3.581722974777221680e-01 2.447738945484161377e-01 -1.038637682795524597e-01
2.883929014205932617e-01 1.729343831539154053e-01 -9.505278617143630981e-02
3.077778518199920654e-01 1.883352547883987427e-01 9.482726454734802246e-02
3.275610804557800293e-01 2.687834799289703369e-01 -7.812026143074035645e-02
5.425040721893310547e-01 1.293160319328308105e-01 4.987907409667968750e-02
3.284812271595001221e-01 1.451430618762969971e-01 -3.941911831498146057e-02
4.909590780735015869e-01 1.457479000091552734e-01 1.197747811675071716e-01
3.287605345249176025e-01 1.616863608360290527e-01 -9.581399708986282349e-02
3.055593371391296387e-01 1.592502444982528687e-01 3.988645970821380615e-02
3.094803392887115479e-01 2.821093201637268066e-01 -4.103118926286697388e-02
3.492759466171264648e-01 2.246380746364593506e-01 1.222469806671142578e-01
4.769578874111175537e-01 2.257918417453765869e-01 -1.808421313762664795e-02
3.817965686321258545e-01 2.306735813617706299e-01 -1.067232042551040649e-01
4.790592789649963379e-01 1.356181651353836060e-01 1.064212024211883545e-01
2.004631161689758301e-01 2.770632505416870117e-01 -5.995725840330123901e-02
3.490089774131774902e-01 2.553581893444061279e-01 -9.309855103492736816e-02
4.054479002952575684e-01 2.598702013492584229e-01 -1.719653978943824768e-02
4.004780650138854980e-01 1.347255706787109375e-01 -5.743663758039474487e-02
1.990876793861389160e-01 2.681679427623748779e-01 3.387880977243185043e-03
2.292380779981613159e-01 1.947050988674163818e-01 -7.852251082658767700e-02
3.135589659214019775e-01 2.534868419170379639e-01 9.290046989917755127e-02
4.368784725666046143e-01 2.492867261171340942e-01 5.098924785852432251e-02
2.434129714965820312e-01 1.824995428323745728e-01 -4.484831355512142181e-03
3.752299249172210693e-01 2.211003005504608154e-01 1.281874626874923706e-01
5.051171183586120605e-01 2.172509580850601196e-01 4.648784920573234558e-02
3.184290230274200439e-01 1.578339487314224243e-01 -8.108974993228912354e-02
3.661314547061920166e-01 2.474987953901290894e-01 1.038394495844841003e-01
4.463238120079040527e-01 1.924166530370712280e-01 1.392391920089721680e-01
4.680557847023010254e-01 2.113484442234039307e-01 1.206513270735740662e-01
3.718078136444091797e-01 2.710743248462677002e-01 2.852628007531166077e-02
3.966000676155090332e-01 2.065112888813018799e-01 1.357854604721069336e-01
2.875397205352783203e-01 2.347314208745956421e-01 9.658206999301910400e-02
2.419635355472564697e-01 2.019441723823547363e-01 -1.089989393949508667e-01
2.794930934906005859e-01 1.624690741300582886e-01 -1.290843915194272995e-02
3.732510805130004883e-01 1.344455927610397339e-01 4.187118634581565857e-02
2.488997578620910645e-01 1.942329257726669312e-01 4.212216660380363464e-02
2.137949317693710327e-01 2.826735973358154297e-01 -2.336570248007774353e-02
2.557751536369323730e-01 2.642370462417602539e-01 -1.094189658761024475e-01
2.936677336692810059e-01 2.845400273799896240e-01 -4.034448787569999695e-02
2.788199484348297119e-01 2.783167362213134766e-01 -7.697477936744689941e-02
2.182876765727996826e-01 2.236298769712448120e-01 3.695183619856834412e-02
4.212080836296081543e-01 1.533063352108001709e-01 1.191848218441009521e-01
4.133211672306060791e-01 1.301419138908386230e-01 6.818408519029617310e-02
2.038329094648361206e-01 2.236876785755157471e-01 -9.672045707702636719e-02
5.123541951179504395e-01 1.676576137542724609e-01 1.246544346213340759e-01
5.122104287147521973e-01 1.219938322901725769e-01 1.122065447270870209e-02
3.795330226421356201e-01 1.624879390001296997e-01 1.124396771192550659e-01
3.438359498977661133e-01 2.778235971927642822e-01 1.810534298419952393e-02
3.289773464202880859e-01 1.579659432172775269e-01 6.702378392219543457e-02
3.607851862907409668e-01 1.548579037189483643e-01 -9.349456429481506348e-02
3.967632353305816650e-01 2.594221234321594238e-01 6.305228173732757568e-02
2.023553401231765747e-01 2.113543152809143066e-01 -6.727407127618789673e-02
3.131500482559204102e-01 1.702109575271606445e-01 -1.042833402752876282e-01
5.594024658203125000e-01 1.501262187957763672e-01 4.726739227771759033e-02
3.773283958435058594e-01 2.002713531255722046e-01 1.331193447113037109e-01
4.018325209617614746e-01 1.252007931470870972e-01 2.513812109827995300e-02
3.050866723060607910e-01 2.764788269996643066e-01 -7.013098895549774170e-02
4.437065422534942627e-01 2.325680851936340332e-01 1.017092913389205933e-01
2.230682075023651123e-01 1.987410336732864380e-01 3.950159065425395966e-03
4.362547099590301514e-01 2.168382853269577026e-01 1.272641122341156006e-01
1.948662251234054565e-01 2.340749204158782959e-01 7.425311952829360962e-03
4.688576757907867432e-01 1.187621727585792542e-01 5.121625587344169617e-02
5.082985162734985352e-01 1.655887067317962646e-01 -4.868849366903305054e-02
3.019527196884155273e-01 1.670441478490829468e-01 5.701278895139694214e-02
3.429968953132629395e-01 1.903236657381057739e-01 -1.278465837240219116e-01
4.301509559154510498e-01 1.279564797878265381e-01 -4.163632169365882874e-02
3.801007866859436035e-01 1.485368609428405762e-01 -8.561179041862487793e-02
1.904538869857788086e-01 2.715551555156707764e-01 -2.302850410342216492e-02
2.813247442245483398e-01 1.651715040206909180e-01 1.596702635288238525e-02
2.538788616657257080e-01 1.850031912326812744e-01 3.009489178657531738e-02
4.597507417201995850e-01 2.411677241325378418e-01 2.029167860746383667e-02
2.997969686985015869e-01 2.788858413696289062e-01 4.043948277831077576e-02
4.104533791542053223e-01 1.710047274827957153e-01 -1.069789752364158630e-01
5.261989831924438477e-01 1.985674351453781128e-01 1.358164753764867783e-02
1.901648342609405518e-01 2.384329587221145630e-01 -8.962211012840270996e-02
1.880604326725006104e-01 2.487852722406387329e-01 -4.365830682218074799e-05
4.935316443443298340e-01 1.970796883106231689e-01 -4.817061126232147217e-02
5.499501824378967285e-01 1.787612736225128174e-01 4.369000345468521118e-02
5.407158136367797852e-01 1.864214688539505005e-01 2.340819314122200012e-02
4.197649061679840088e-01 1.301445662975311279e-01 -4.745650291442871094e-02
3.710456490516662598e-01 1.439108550548553467e-01 7.376523315906524658e-02
3.803685605525970459e-01 2.646160125732421875e-01 5.723506584763526917e-02
3.354858160018920898e-01 1.411808729171752930e-01 -5.680863745510578156e-03
4.193429946899414062e-01 1.565525531768798828e-01 -9.408693015575408936e-02
5.405616760253906250e-01 1.406514048576354980e-01 1.355079584755003452e-03
5.326781868934631348e-01 1.397230327129364014e-01 -9.063822217285633087e-03
2.563703656196594238e-01 2.008733451366424561e-01 -1.175030246376991272e-01
5.371122956275939941e-01 1.763818860054016113e-01 -5.473582074046134949e-03
4.260807931423187256e-01 2.411435544490814209e-01 9.503594040870666504e-02
3.807347714900970459e-01 2.486974895000457764e-01 -8.294623345136642456e-02
4.077612757682800293e-01 1.598941534757614136e-01 1.218163520097732544e-01
3.189169466495513916e-01 2.829569280147552490e-01 -9.202114306390285492e-04
4.865584075450897217e-01 2.167064696550369263e-01 -2.580992132425308228e-02
1.790471524000167847e-01 2.615377306938171387e-01 -5.246366560459136963e-02
4.915513992309570312e-01 1.616699397563934326e-01 -6.255942583084106445e-02
4.848968386650085449e-01 1.196762770414352417e-01 -2.908161841332912445e-04
2.323341369628906250e-01 2.863591313362121582e-01 -3.644344955682754517e-02
3.632830083370208740e-01 1.485266387462615967e-01 -8.169528096914291382e-02
2.748742103576660156e-01 2.725826799869537354e-01 5.398184061050415039e-02
2.850629985332489014e-01 2.477830201387405396e-01 8.899052441120147705e-02
2.933622002601623535e-01 2.034999281167984009e-01 -1.317044645547866821e-01
3.387262225151062012e-01 1.407585591077804565e-01 -2.572127059102058411e-02
2.983029484748840332e-01 1.732021868228912354e-01 -1.021035611629486084e-01
3.545883297920227051e-01 1.407879889011383057e-01 -5.322243273258209229e-02
3.138158619403839111e-01 1.778024435043334961e-01 -1.152018979191780090e-01
5.576962828636169434e-01 1.603336632251739502e-01 3.566867858171463013e-02
2.545662522315979004e-01 1.764602810144424438e-01 -7.754052057862281799e-04
4.739221632480621338e-01 1.510692536830902100e-01 1.258388459682464600e-01
4.026792049407958984e-01 1.895994991064071655e-01 -1.148371174931526184e-01
2.717539966106414795e-01 2.364711314439773560e-01 8.749116212129592896e-02
