1.279337555170059204e-01 3.929770365357398987e-02 -2.175429761409759521e-01
2.926406562328338623e-01 -9.180025756359100342e-02 -1.120185405015945435e-01
4.756481945514678955e-01 -7.432436943054199219e-02 2.770725786685943604e-01
1.679603755474090576e-01 1.096662506461143494e-02 -3.945431709289550781e-01
1.851844787597656250e-02 1.403502747416496277e-02 -2.734860777854919434e-01
2.309902310371398926e-01 -6.764593720436096191e-02 -2.925290465354919434e-01
3.649481236934661865e-01 -7.861284911632537842e-02 3.033386468887329102e-01
-4.248735308647155762e-02 -6.251076236367225647e-03 7.603068649768829346e-02
4.747344255447387695e-01 2.820371091365814209e-02 -3.113217353820800781e-01
1.843107640743255615e-01 3.553002327680587769e-02 -3.086863458156585693e-01
1.733197271823883057e-01 -9.281833469867706299e-02 -8.679963648319244385e-02
7.207553088665008545e-02 -8.218183368444442749e-02 1.651948541402816772e-01
3.989124894142150879e-01 3.853297606110572815e-02 1.424200534820556641e-01
2.862484157085418701e-01 -6.588024646043777466e-02 3.476620912551879883e-01
6.021538376808166504e-01 -8.366078138351440430e-03 -2.596539258956909180e-01
1.518578231334686279e-01 3.913433477282524109e-02 -2.529641091823577881e-01
2.434048056602478027e-02 -3.816040232777595520e-02 -3.181392550468444824e-01
2.647678256034851074e-01 5.177171155810356140e-02 -1.338213235139846802e-01
-8.591118454933166504e-02 -9.728292934596538544e-03 -9.423738718032836914e-02
5.285009145736694336e-01 -3.362910449504852295e-02 3.363874256610870361e-01
4.599629044532775879e-01 3.799685463309288025e-02 -2.723596096038818359e-01
4.119854569435119629e-01 -9.330394864082336426e-02 8.920490741729736328e-03
3.989458382129669189e-01 4.473778977990150452e-02 8.290416002273559570e-02
8.458013832569122314e-02 -9.079833328723907471e-02 3.179692104458808899e-02
2.572596967220306396e-01 1.364674791693687439e-02 2.657115161418914795e-01
5.806319713592529297e-01 2.334227785468101501e-02 -2.293832600116729736e-01
2.419002652168273926e-01 -3.513696789741516113e-02 -3.969583809375762939e-01
4.532158970832824707e-01 -8.988285064697265625e-02 8.572716265916824341e-03
5.130214691162109375e-01 -8.129522949457168579e-02 1.761529743671417236e-01
6.860641241073608398e-01 -3.696554526686668396e-02 -3.362354636192321777e-02
1.783656030893325806e-01 4.304748401045799255e-02 -2.338682115077972412e-01
3.870314657688140869e-01 -5.704912915825843811e-02 3.637210726737976074e-01
2.394603937864303589e-01 3.329702094197273254e-02 -3.420485556125640869e-01
4.838021993637084961e-01 2.536563202738761902e-02 2.083599865436553955e-01
4.551379382610321045e-01 4.630992934107780457e-02 -2.007196843624114990e-01
6.042065620422363281e-01 -4.192999750375747681e-02 2.710520625114440918e-01
4.925917387008666992e-01 -8.510258048772811890e-02 1.558569669723510742e-01
3.608693778514862061e-01 3.726607561111450195e-02 -3.213312625885009766e-01
2.867590188980102539e-01 -8.066290616989135742e-02 2.975438237190246582e-01
5.278854370117187500e-01 2.494440600275993347e-02 1.874241679906845093e-01
-3.304114937782287598e-02 1.280348375439643860e-02 -9.045058488845825195e-02
7.536932826042175293e-02 2.211019396781921387e-02 -3.025784194469451904e-01
3.706339001655578613e-02 -8.489352464675903320e-02 4.405880346894264221e-03
4.733660817146301270e-01 -8.109310269355773926e-02 2.330465614795684814e-01
-2.171903848648071289e-03 -7.738574594259262085e-02 -4.606741294264793396e-02
6.929466724395751953e-01 -1.388547662645578384e-02 1.311503052711486816e-01
3.249556720256805420e-01 -9.613195061683654785e-02 1.627962589263916016e-01
4.925348758697509766e-01 4.769689217209815979e-02 -8.332966268062591553e-02
2.597051858901977539e-01 5.036785081028938293e-02 -3.981333971023559570e-02
5.530217885971069336e-01 3.408391028642654419e-02 -2.028915733098983765e-01
2.723549604415893555e-01 -3.382251039147377014e-02 -3.984907865524291992e-01
6.228889226913452148e-01 -3.892382606863975525e-02 -1.758981943130493164e-01
1.975510567426681519e-01 4.749606922268867493e-02 -6.006896495819091797e-02
5.512238740921020508e-01 4.031915590167045593e-02 5.122007802128791809e-03
1.026521027088165283e-01 -5.306125432252883911e-02 2.956449985504150391e-01
1.003260612487792969e-01 9.259961545467376709e-03 1.957021653652191162e-01
5.386381149291992188e-01 -7.065352797508239746e-02 -1.111050844192504883e-01
1.755072325468063354e-01 2.898301929235458374e-02 -3.410927355289459229e-01
6.168308854103088379e-01 2.469564974308013916e-02 -1.587118357419967651e-01
7.045887708663940430e-01 -1.690412312746047974e-02 -4.004716873168945312e-02
6.059632301330566406e-01 -6.687688827514648438e-02 3.715092316269874573e-03
1.707804054021835327e-01 -7.222875952720642090e-02 2.959319055080413818e-01
4.591400027275085449e-01 2.898935228586196899e-02 1.961118280887603760e-01
4.091948866844177246e-01 -7.927934080362319946e-02 -1.732608526945114136e-01
2.234906256198883057e-01 4.238336160778999329e-02 -2.755017876625061035e-01
6.418236494064331055e-01 2.526398375630378723e-02 -2.959027513861656189e-02
5.566805005073547363e-01 2.218423411250114441e-02 1.827348619699478149e-01
3.805014491081237793e-02 -5.124657601118087769e-02 -2.924307882785797119e-01
4.629112482070922852e-01 -7.960997521877288818e-02 -1.251369863748550415e-01
6.480931043624877930e-01 -4.665926843881607056e-02 1.909514665603637695e-01
3.889274299144744873e-01 -5.385816097259521484e-02 -3.183392584323883057e-01
1.377311646938323975e-01 4.316051676869392395e-02 -1.346618235111236572e-01
5.546825528144836426e-01 -4.817597940564155579e-02 3.069071173667907715e-01
1.473364830017089844e-01 2.815860882401466370e-02 -3.299645781517028809e-01
3.364935517311096191e-02 -6.657145917415618896e-02 -2.188887000083923340e-01
5.375977754592895508e-01 -4.991221427917480469e-02 -2.363171577453613281e-01
2.026829719543457031e-01 4.336057975888252258e-02 2.945921570062637329e-02
2.356487512588500977e-01 2.406239882111549377e-02 2.084032446146011353e-01
2.861269414424896240e-01 -2.626449987292289734e-02 3.686245679855346680e-01
4.889310896396636963e-01 4.533543065190315247e-02 2.041172236204147339e-02
2.971842885017395020e-02 7.806267589330673218e-03 1.263355314731597900e-01
8.211056888103485107e-02 -1.814211159944534302e-02 2.657508552074432373e-01
5.019682645797729492e-02 3.082489594817161560e-02 -6.990526616573333740e-02
3.080130517482757568e-01 5.300255492329597473e-02 -9.871949255466461182e-02
6.326096057891845703e-01 2.679168805480003357e-02 7.326027378439903259e-03
2.874735593795776367e-01 5.230785533785820007e-02 -7.692604511976242065e-02
6.616919040679931641e-01 1.001930609345436096e-02 1.122166067361831665e-01
1.246061176061630249e-01 4.135635867714881897e-02 -7.888212054967880249e-02
4.901676476001739502e-01 4.090892896056175232e-02 -2.240118831396102905e-01
5.107600092887878418e-01 -7.773418724536895752e-02 -8.295004069805145264e-02
5.002803206443786621e-01 -6.154594942927360535e-03 -3.496236205101013184e-01
4.738646149635314941e-01 -8.868440985679626465e-02 1.127685606479644775e-01
-4.092341661453247070e-02 1.626983284950256348e-04 4.285014793276786804e-02
4.609506130218505859e-01 -8.122892118990421295e-03 3.361532390117645264e-01
5.473793745040893555e-01 -7.722886651754379272e-02 1.581131368875503540e-01
4.682392477989196777e-01 4.047534987330436707e-02 1.023280322551727295e-01
2.605407238006591797e-01 2.711633220314979553e-02 -3.712433874607086182e-01
7.834254205226898193e-02 -6.330641359090805054e-02 -2.700542509555816650e-01
3.850809335708618164e-01 5.238754674792289734e-02 -1.427983790636062622e-01
2.706075906753540039e-01 -4.924456402659416199e-02 3.694197833538055420e-01
9.233185648918151855e-02 -8.958625793457031250e-02 -5.510744452476501465e-02
5.541840195655822754e-01 3.770666942000389099e-02 4.739757999777793884e-02
-7.354438304901123047e-03 3.403151407837867737e-03 -2.801941335201263428e-01
1.853970140218734741e-01 -9.779992699623107910e-02 5.237841233611106873e-02
3.621923029422760010e-01 -8.585187792778015137e-02 -1.458023935556411743e-01
5.681376457214355469e-01 3.912595286965370178e-02 -9.126710891723632812e-02
-4.039898514747619629e-02 1.577414572238922119e-03 -2.255382537841796875e-01
1.502162814140319824e-01 2.753673866391181946e-02 1.342722326517105103e-01
6.842477917671203613e-01 -3.107510134577751160e-02 -7.613664120435714722e-02
-4.150801897048950195e-02 -1.296338066458702087e-02 1.056863814592361450e-01
3.312674462795257568e-01 1.931047439575195312e-02 2.574724256992340088e-01
9.403169155120849609e-03 -8.016832172870635986e-02 3.053870797157287598e-02
1.371660232543945312e-01 -3.877136111259460449e-02 3.230628669261932373e-01
-7.849541306495666504e-02 -4.828639701008796692e-02 4.218543693423271179e-02
4.530858695507049561e-01 -8.606205880641937256e-02 -6.382276117801666260e-02
7.208493351936340332e-02 -8.194465935230255127e-02 -1.367569565773010254e-01
-3.410384058952331543e-02 -3.304241597652435303e-02 -2.681377232074737549e-01
3.716003298759460449e-01 -9.643533825874328613e-02 1.083866804838180542e-01
4.995432794094085693e-01 -6.442506611347198486e-02 -2.008726745843887329e-01
-9.398132562637329102e-03 9.360145777463912964e-03 5.005624517798423767e-02
-1.753443479537963867e-02 1.343678683042526245e-02 -2.009550184011459351e-01
3.446876108646392822e-01 -9.029737114906311035e-02 -1.089096665382385254e-01
2.862010598182678223e-01 -8.675272762775421143e-02 -1.650999933481216431e-01
6.270845234394073486e-02 -8.343662321567535400e-02 -1.073086857795715332e-01
5.870380401611328125e-01 3.650720790028572083e-02 -3.630893677473068237e-02
-3.661662340164184570e-03 -7.612825930118560791e-02 6.591749191284179688e-02
5.806562900543212891e-01 -6.717376410961151123e-02 2.002266496419906616e-01
1.349211931228637695e-01 3.055433556437492371e-02 9.647758305072784424e-02
5.608804523944854736e-02 1.605640351772308350e-02 1.123206317424774170e-01
1.011457145214080811e-01 -9.216764569282531738e-02 5.978636816143989563e-02
-3.261411190032958984e-02 -7.088156044483184814e-02 -4.002965614199638367e-02
1.774067729711532593e-01 -6.549477577209472656e-02 -2.970707714557647705e-01
4.986220300197601318e-01 -8.609235286712646484e-02 5.061614885926246643e-02
2.884575426578521729e-01 -9.720864892005920410e-02 1.512269973754882812e-01
2.164526730775833130e-01 -6.106059998273849487e-02 -3.209488689899444580e-01
1.201539933681488037e-01 3.208359703421592712e-02 -2.844576537609100342e-01
4.128018021583557129e-02 1.275398954749107361e-02 -3.088400661945343018e-01
5.948360264301300049e-02 1.215742528438568115e-02 1.401139050722122192e-01
1.316757649183273315e-01 -6.315268576145172119e-02 -2.954491376876831055e-01
6.036338806152343750e-01 -2.929642796516418457e-03 2.471118569374084473e-01
3.342402875423431396e-01 3.291432932019233704e-02 1.831700950860977173e-01
6.037467122077941895e-01 9.852331131696701050e-03 2.024015337228775024e-01
2.455630153417587280e-01 6.045447662472724915e-03 2.903124094009399414e-01
5.915162563323974609e-01 -2.417172864079475403e-02 2.912375330924987793e-01
1.596958637237548828e-01 -8.367750048637390137e-02 -1.806004494428634644e-01
2.117371708154678345e-01 4.919354990124702454e-02 -1.344293355941772461e-01
2.685133814811706543e-01 -9.922401607036590576e-02 3.689863532781600952e-02
3.954136073589324951e-01 3.609473630785942078e-02 -3.171256184577941895e-01
5.216301679611206055e-01 -6.997515261173248291e-02 -1.400334984064102173e-01
6.655613780021667480e-01 -3.497524186968803406e-03 -1.610084623098373413e-01
7.334873080253601074e-02 7.594039663672447205e-03 1.782087832689285278e-01
2.588894665241241455e-01 4.452003166079521179e-02 5.898305401206016541e-02
5.689212679862976074e-01 3.936732932925224304e-02 -6.322978436946868896e-02
1.090505570173263550e-01 -1.844076626002788544e-02 2.859364748001098633e-01
5.463556051254272461e-01 -5.517946183681488037e-02 -2.035359591245651245e-01
2.834570407867431641e-02 1.351416856050491333e-02 8.943653106689453125e-02
1.233388632535934448e-01 -8.651010692119598389e-02 1.888640820980072021e-01
-9.560540318489074707e-02 -3.973761200904846191e-02 -9.333565831184387207e-02
3.927741050720214844e-01 -2.840793691575527191e-02 -3.825733065605163574e-01
1.071991622447967529e-01 -9.252630174160003662e-02 -6.258269771933555603e-03
4.391208887100219727e-01 -8.536519855260848999e-02 2.256505042314529419e-01
-4.470238089561462402e-02 -6.493756920099258423e-02 -9.525917470455169678e-02
5.772417187690734863e-01 3.572214394807815552e-02 -1.368958652019500732e-01
3.934173882007598877e-01 4.191288724541664124e-02 1.131854653358459473e-01
6.476271152496337891e-01 1.660961657762527466e-03 1.804157644510269165e-01
2.994620800018310547e-01 -9.818555414676666260e-02 1.246767044067382812e-01
6.378649473190307617e-01 2.367293462157249451e-02 -1.071990430355072021e-01
5.943487882614135742e-01 -6.798665970563888550e-02 -2.217865549027919769e-02
3.698498606681823730e-01 -4.612050577998161316e-02 -3.504911363124847412e-01
4.989632368087768555e-01 3.450091928243637085e-02 -2.626782059669494629e-01
4.269701242446899414e-01 2.064081281423568726e-02 -3.603901267051696777e-01
5.510355234146118164e-01 3.940546140074729919e-02 -1.466105282306671143e-01
5.542498826980590820e-01 -7.844028621912002563e-02 7.454350590705871582e-02
3.071839213371276855e-01 5.183770880103111267e-02 -3.909931331872940063e-02
5.006563067436218262e-01 -8.581332862377166748e-02 1.044466048479080200e-01
4.355315268039703369e-01 5.015368387103080750e-02 -2.398922666907310486e-02
6.665666401386260986e-02 -1.751185953617095947e-02 -3.709892630577087402e-01
4.327738881111145020e-01 -2.797653898596763611e-02 -3.669304549694061279e-01
4.196257889270782471e-01 4.744178429245948792e-02 -2.164578884840011597e-01
3.620487451553344727e-01 5.021155253052711487e-02 1.009055227041244507e-02
6.579254865646362305e-01 -4.844755306839942932e-02 1.547450572252273560e-01
4.722205400466918945e-01 -4.332067072391510010e-02 3.580374717712402344e-01
6.989866495132446289e-01 1.771997660398483276e-03 7.626647129654884338e-03
5.339783430099487305e-01 1.184595003724098206e-02 -3.114995360374450684e-01
4.936156570911407471e-01 4.544287547469139099e-02 -1.623331308364868164e-01
4.340068697929382324e-01 3.276820853352546692e-02 -3.161766827106475830e-01
3.035959899425506592e-01 5.072566494345664978e-02 -2.001747041940689087e-01
2.675953507423400879e-01 3.178687766194343567e-02 1.743562072515487671e-01
6.199862957000732422e-01 -5.517242103815078735e-02 2.068880349397659302e-01
3.386343419551849365e-01 5.329646542668342590e-02 -9.648659825325012207e-02
1.788492351770401001e-01 -9.665654599666595459e-02 -1.123855262994766235e-02
3.409483432769775391e-01 4.302238300442695618e-02 -2.882331609725952148e-01
9.920585155487060547e-02 -8.361509442329406738e-02 -1.458234786987304688e-01
1.265942603349685669e-01 4.119899496436119080e-02 -1.738108843564987183e-01
2.655733227729797363e-01 -8.966657519340515137e-02 2.398332357406616211e-01
5.228776931762695312e-01 -6.323215365409851074e-02 -1.846985667943954468e-01
6.344239711761474609e-01 2.485839277505874634e-02 3.888171166181564331e-02
2.495229244232177734e-02 -8.237750828266143799e-02 5.389422550797462463e-02
5.024636387825012207e-01 -3.552376106381416321e-02 -3.112469613552093506e-01
-9.687218070030212402e-02 -2.903818152844905853e-02 -1.211866140365600586e-01
1.497662365436553955e-01 -9.321841597557067871e-02 -6.261229515075683594e-02
1.327972412109375000e-01 -8.836439251899719238e-02 -1.199669241905212402e-01
1.889681816101074219e-01 -7.569612562656402588e-02 -2.451896071434020996e-01
6.172257065773010254e-01 -6.510715186595916748e-02 1.108018457889556885e-01
1.410137414932250977e-01 3.768707439303398132e-02 3.022658079862594604e-02
2.041185498237609863e-01 -9.297817945480346680e-02 1.883060336112976074e-01
1.615220159292221069e-01 -4.554332792758941650e-02 -3.647403717041015625e-01
1.996687054634094238e-02 -4.439898207783699036e-02 2.297871410846710205e-01
1.612081080675125122e-01 3.683687001466751099e-02 6.461420655250549316e-02
2.110182046890258789e-01 -9.851618111133575439e-02 2.974293753504753113e-02
-3.421026468276977539e-01 5.608010292053222656e-01 -2.486097067594528198e-01
-3.367124497890472412e-01 7.688663005828857422e-01 -2.019553184509277344e-01
-3.192365765571594238e-01 2.793611884117126465e-01 3.007509410381317139e-01
-3.456929326057434082e-01 5.518809556961059570e-01 -1.293897777795791626e-01
-2.810824811458587646e-01 8.118930459022521973e-01 -7.738054543733596802e-02
-3.445332944393157959e-01 6.536570787429809570e-01 1.405468881130218506e-01
-3.056905269622802734e-01 8.085371255874633789e-01 3.970341682434082031e-01
-2.903586030006408691e-01 3.297528624534606934e-01 -2.675439119338989258e-01
-3.382275700569152832e-01 8.052837252616882324e-01 5.677714943885803223e-03
-2.798939943313598633e-01 5.601493120193481445e-01 -2.841965258121490479e-01
-3.304311335086822510e-01 2.368693649768829346e-01 6.406046450138092041e-02
-2.840102016925811768e-01 8.250700235366821289e-01 -1.770583838224411011e-01
-3.317456245422363281e-01 8.421877622604370117e-01 -1.670984625816345215e-01
-2.927178442478179932e-01 8.796899914741516113e-01 2.054507732391357422e-01
-2.831279039382934570e-01 6.611032485961914062e-01 -3.396843969821929932e-01
-3.145546317100524902e-01 8.919169306755065918e-01 2.851552069187164307e-01
-3.232862651348114014e-01 2.923914194107055664e-01 -3.329805433750152588e-01
-3.350356817245483398e-01 2.722985148429870605e-01 7.795868813991546631e-02
-3.437159657478332520e-01 3.845995068550109863e-01 4.085613042116165161e-02
-2.852179706096649170e-01 5.300653576850891113e-01 -3.757054805755615234e-01
-3.457574844360351562e-01 6.150199174880981445e-01 1.178925782442092896e-01
-3.464643061161041260e-01 6.161367297172546387e-01 3.298620879650115967e-02
-3.329564630985260010e-01 3.235327899456024170e-01 2.586402297019958496e-01
-2.898989915847778320e-01 3.157394230365753174e-01 -2.270600795745849609e-01
-3.361044526100158691e-01 2.998861968517303467e-01 -1.573954075574874878e-01
-3.056000471115112305e-01 9.530014991760253906e-01 -1.089897751808166504e-01
-3.420222699642181396e-01 5.032402276992797852e-01 -2.468462884426116943e-01
-2.787257432937622070e-01 6.078742742538452148e-01 -2.582867443561553955e-01
-3.409902453422546387e-01 7.592605948448181152e-01 -4.437529295682907104e-02
-3.339273035526275635e-01 8.399646282196044922e-01 -1.034721806645393372e-01
-3.259404003620147705e-01 8.204120993614196777e-01 -3.062176108360290527e-01
-3.222900032997131348e-01 2.394725382328033447e-01 -2.417425364255905151e-01
-2.826139926910400391e-01 8.356676101684570312e-01 -5.780974030494689941e-02
-3.100249469280242920e-01 4.785857498645782471e-01 -5.091137886047363281e-01
-3.339982330799102783e-01 8.249285817146301270e-01 1.819725185632705688e-01
-2.972838580608367920e-01 4.065737128257751465e-01 3.770164847373962402e-01
-3.448405861854553223e-01 6.270900964736938477e-01 -1.273443102836608887e-01
-3.232958316802978516e-01 7.264534235000610352e-01 -4.255935549736022949e-01
-2.865869700908660889e-01 5.904506444931030273e-01 -4.024346172809600830e-01
-2.835021018981933594e-01 8.434926271438598633e-01 4.283647984266281128e-02
-2.789988219738006592e-01 7.766366004943847656e-01 -6.847870349884033203e-02
-3.417049944400787354e-01 4.652997553348541260e-01 -2.395571172237396240e-01
-2.831778228282928467e-01 8.380224704742431641e-01 -9.409634023904800415e-02
-3.278864622116088867e-01 8.910512924194335938e-01 1.275338232517242432e-01
-3.013131022453308105e-01 2.162418067455291748e-01 -1.125217974185943604e-01
-3.432650566101074219e-01 6.768720149993896484e-01 -1.364569962024688721e-01
-2.885239720344543457e-01 7.818871140480041504e-01 2.917271256446838379e-01
-2.758240997791290283e-01 5.283325314521789551e-01 -1.247429568320512772e-02
-3.457030057907104492e-01 4.538427591323852539e-01 8.404117077589035034e-02
-2.843308746814727783e-01 8.397114276885986328e-01 -1.454191058874130249e-01
-2.865553200244903564e-01 5.722371339797973633e-01 3.419016301631927490e-01
-3.304473459720611572e-01 5.245709419250488281e-01 -4.270558655261993408e-01
-2.900651991367340088e-01 3.025978207588195801e-01 1.178465187549591064e-01
-3.377719521522521973e-01 2.946242392063140869e-01 -5.552109330892562866e-02
-3.435326814651489258e-01 3.881605565547943115e-01 7.897063344717025757e-02
-3.242777585983276367e-01 9.087646603584289551e-01 -1.215182542800903320e-01
-3.361515104770660400e-01 6.340537071228027344e-01 3.584523797035217285e-01
-3.435862064361572266e-01 7.092102766036987305e-01 6.603132188320159912e-02
-3.464534580707550049e-01 4.737122356891632080e-01 4.108565300703048706e-02
-3.402664959430694580e-01 3.398306369781494141e-01 1.142993271350860596e-01
-2.935930192470550537e-01 4.009281396865844727e-01 3.370024859905242920e-01
-3.332856893539428711e-01 2.576952576637268066e-01 -9.316898882389068604e-02
-2.773516178131103516e-01 5.150750875473022461e-01 -1.740498095750808716e-01
-3.391850888729095459e-01 7.453795671463012695e-01 -1.732140481472015381e-01
-2.768412828445434570e-01 7.037113904953002930e-01 -1.234000101685523987e-01
-2.754291594028472900e-01 5.819281935691833496e-01 3.012097813189029694e-02
-3.229915499687194824e-01 2.071595489978790283e-01 7.915879786014556885e-02
-2.866508662700653076e-01 5.590640306472778320e-01 -4.013323485851287842e-01
-2.901241779327392578e-01 8.593773841857910156e-01 -2.367849797010421753e-01
-3.258699476718902588e-01 9.145367145538330078e-01 4.407465457916259766e-03
-3.466773927211761475e-01 5.515827536582946777e-01 9.191486984491348267e-02
-3.011101782321929932e-01 4.666579961776733398e-01 4.407308399677276611e-01
-3.359163701534271240e-01 7.965246438980102539e-01 1.979312300682067871e-01
-2.767770886421203613e-01 5.252478718757629395e-01 7.667830586433410645e-02
-2.752679586410522461e-01 5.841665267944335938e-01 -8.686736226081848145e-02
-2.930040955543518066e-01 9.240986108779907227e-01 2.878032438457012177e-02
-2.843024730682373047e-01 3.808283805847167969e-01 1.449511796236038208e-01
-2.905125617980957031e-01 7.039445638656616211e-01 3.702436387538909912e-01
-3.256491720676422119e-01 7.788546085357666016e-01 3.750009238719940186e-01
-2.751910984516143799e-01 5.709385275840759277e-01 -3.685748204588890076e-02
-3.387473821640014648e-01 3.127742111682891846e-01 8.888203650712966919e-02
-2.829132080078125000e-01 3.751727342605590820e-01 7.538405805826187134e-02
-3.397993743419647217e-01 3.302347362041473389e-01 -1.065513491630554199e-01
-2.784703969955444336e-01 7.102713584899902344e-01 1.353459060192108154e-01
-3.007293343544006348e-01 2.758679091930389404e-01 2.387197613716125488e-01
-2.952544391155242920e-01 8.606791496276855469e-01 2.732800245285034180e-01
-2.843773961067199707e-01 3.852909803390502930e-01 -2.342586517333984375e-01
-2.862797379493713379e-01 6.128457188606262207e-01 3.404900431632995605e-01
-2.822192907333374023e-01 3.703818917274475098e-01 -5.477576050907373428e-03
-3.246546387672424316e-01 6.902136206626892090e-01 4.435195624828338623e-01
-3.353986442089080811e-01 3.691383004188537598e-01 -2.894544005393981934e-01
-2.815237045288085938e-01 4.791021943092346191e-01 2.059082537889480591e-01
-3.176232874393463135e-01 6.205796599388122559e-01 4.907443225383758545e-01
-3.292105793952941895e-01 3.114329576492309570e-01 -3.050769567489624023e-01
-3.246839642524719238e-01 3.175182640552520752e-01 -3.557929992675781250e-01
-3.234249055385589600e-01 7.535362243652343750e-01 4.124818444252014160e-01
-2.948145866394042969e-01 2.700727283954620361e-01 -2.085899561643600464e-01
-2.810248434543609619e-01 8.144973516464233398e-01 -6.883440073579549789e-03
-3.334157168865203857e-01 6.718752384185791016e-01 -3.606968224048614502e-01
-3.366459310054779053e-01 8.209713697433471680e-01 7.843064516782760620e-02
-3.206374943256378174e-01 9.284254312515258789e-01 1.277601569890975952e-01
-3.346805274486541748e-01 8.446139097213745117e-01 -2.700541913509368896e-02
-3.202587068080902100e-01 4.301465749740600586e-01 4.470033049583435059e-01
-2.759683132171630859e-01 6.885453462600708008e-01 4.448644816875457764e-03
-2.878280282020568848e-01 6.935303211212158203e-01 3.430379927158355713e-01
-2.885749340057373047e-01 2.984081804752349854e-01 3.685812652111053467e-02
-2.875760197639465332e-01 7.753981947898864746e-01 -3.256828486919403076e-01
-3.387019932270050049e-01 7.961357235908508301e-01 -3.295785933732986450e-02
-3.069805204868316650e-01 5.847558379173278809e-01 4.912476837635040283e-01
-2.871643006801605225e-01 8.839452266693115234e-01 2.082946710288524628e-02
-2.790448963642120361e-01 6.054033637046813965e-01 1.994142234325408936e-01
-3.012517690658569336e-01 5.207919478416442871e-01 4.615138769149780273e-01
-2.783355414867401123e-01 7.635736465454101562e-01 4.183346405625343323e-03
-2.825893759727478027e-01 4.349056780338287354e-01 -2.617596387863159180e-01
-3.325956761837005615e-01 3.183623850345611572e-01 -2.692905366420745850e-01
-3.373022675514221191e-01 3.096571564674377441e-01 1.385390162467956543e-01
-3.289364576339721680e-01 2.341662645339965820e-01 -1.240192353725433350e-01
-3.421819806098937988e-01 4.633192718029022217e-01 2.381147444248199463e-01
-2.763289511203765869e-01 5.322623848915100098e-01 -1.332858204841613770e-01
-3.368873596191406250e-01 8.004247546195983887e-01 1.558228135108947754e-01
-2.912943363189697266e-01 4.932347238063812256e-01 3.754097521305084229e-01
-3.302298486232757568e-01 8.829731941223144531e-01 -4.112419858574867249e-02
-3.073411881923675537e-01 4.811042547225952148e-01 4.714546203613281250e-01
-2.953975796699523926e-01 3.201168179512023926e-01 -3.252045512199401855e-01
-3.282128572463989258e-01 3.577686548233032227e-01 -3.686535358428955078e-01
-2.855896353721618652e-01 8.165446519851684570e-01 1.947543025016784668e-01
-2.923320233821868896e-01 2.678094804286956787e-01 4.809322953224182129e-02
-3.459033966064453125e-01 4.690504372119903564e-01 -7.706256955862045288e-02
-3.442631661891937256e-01 6.880117058753967285e-01 -4.970715194940567017e-02
-2.808832824230194092e-01 4.845110774040222168e-01 -2.687923908233642578e-01
-3.146857023239135742e-01 7.047852873802185059e-01 -4.793374836444854736e-01
-3.454654514789581299e-01 6.524629592895507812e-01 -3.998757898807525635e-02
-2.961461842060089111e-01 8.331480026245117188e-01 3.204536437988281250e-01
-3.342018425464630127e-01 3.659553825855255127e-01 2.976012527942657471e-01
-2.954561114311218262e-01 2.782914340496063232e-01 1.729381084442138672e-01
-3.277055323123931885e-01 2.437284886837005615e-01 -1.873332262039184570e-01
-2.817525267601013184e-01 4.217514395713806152e-01 1.394407600164413452e-01
-3.344957828521728516e-01 2.619190812110900879e-01 -4.664526879787445068e-02
-3.272039890289306641e-01 5.832160711288452148e-01 -4.542647302150726318e-01
-2.791782915592193604e-01 7.375852465629577637e-01 -1.857827752828598022e-01
-2.811240553855895996e-01 8.057218194007873535e-01 -1.122852340340614319e-01
-2.857181429862976074e-01 3.992139697074890137e-01 -2.881096303462982178e-01
-2.757251858711242676e-01 5.503239631652832031e-01 2.779019437730312347e-02
-3.228447139263153076e-01 8.973388075828552246e-01 2.090186178684234619e-01
-3.384203910827636719e-01 4.836769700050354004e-01 -3.155436217784881592e-01
-3.347467184066772461e-01 7.784636020660400391e-01 2.589297592639923096e-01
-2.838529944419860840e-01 7.547940611839294434e-01 -2.873321473598480225e-01
-2.875151932239532471e-01 6.400637626647949219e-01 3.544543385505676270e-01
-3.433443903923034668e-01 4.703333377838134766e-01 -1.963048428297042847e-01
-2.877977192401885986e-01 4.406763315200805664e-01 2.966056764125823975e-01
-2.782700657844543457e-01 4.440169632434844971e-01 -5.114578455686569214e-02
-3.046030104160308838e-01 6.775540113449096680e-01 -4.967275261878967285e-01
-2.779639959335327148e-01 7.337386608123779297e-01 7.677721232175827026e-02
-2.925276160240173340e-01 8.928101062774658203e-01 -1.939115226268768311e-01
-3.288203477859497070e-01 2.227958142757415771e-01 -1.127360016107559204e-02
-2.817972302436828613e-01 3.844038248062133789e-01 4.239615052938461304e-02
-2.757254540920257568e-01 5.628791451454162598e-01 -1.190114393830299377e-01
-2.826855480670928955e-01 4.690983891487121582e-01 -2.987821698188781738e-01
-3.445931077003479004e-01 5.755506157875061035e-01 -1.707251816987991333e-01
-2.833921909332275391e-01 3.811371326446533203e-01 -1.937557011842727661e-01
-2.883920967578887939e-01 8.897612094879150391e-01 6.101819872856140137e-02
-3.413762450218200684e-01 3.739658594131469727e-01 -1.510062962770462036e-01
-3.381598889827728271e-01 2.962628304958343506e-01 -1.928864791989326477e-02
-3.461261987686157227e-01 4.539242684841156006e-01 1.195644214749336243e-02
-2.855664193630218506e-01 8.582245111465454102e-01 8.816453814506530762e-02
-2.766018211841583252e-01 7.179780006408691406e-01 -3.610118851065635681e-02
-2.964826524257659912e-01 2.383419275283813477e-01 3.383143246173858643e-02
-3.311479687690734863e-01 6.121183037757873535e-01 -4.125538766384124756e-01
-3.435218930244445801e-01 5.926285386085510254e-01 2.255835235118865967e-01
-2.815540134906768799e-01 3.892893195152282715e-01 -1.278295069932937622e-01
-3.358543217182159424e-01 6.040961146354675293e-01 3.708494007587432861e-01
-2.763479053974151611e-01 5.757661461830139160e-01 9.320478141307830811e-02
-2.757504284381866455e-01 6.354934573173522949e-01 -1.280775070190429688e-01
-2.996765077114105225e-01 2.330168783664703369e-01 1.015705764293670654e-01
-2.792075872421264648e-01 7.070302367210388184e-01 1.647441685199737549e-01
-2.849856019020080566e-01 6.400726437568664551e-01 -3.749458193778991699e-01
-3.311211764812469482e-01 7.013087272644042969e-01 -3.705515861511230469e-01
-3.428433239459991455e-01 5.650386810302734375e-01 2.500946521759033203e-01
-3.339067697525024414e-01 4.497138857841491699e-01 3.683237731456756592e-01
-2.868224382400512695e-01 8.791959285736083984e-01 -7.282430678606033325e-02
-3.152282536029815674e-01 7.125759124755859375e-01 4.670103788375854492e-01
-2.830107212066650391e-01 7.245905399322509766e-01 2.476593554019927979e-01
-3.022680282592773438e-01 7.882519364356994629e-01 -4.224866628646850586e-01
-2.771965861320495605e-01 4.778287708759307861e-01 6.061689928174018860e-03
-2.800719439983367920e-01 4.384170770645141602e-01 1.042290553450584412e-01
-3.039268553256988525e-01 6.214530467987060547e-01 -5.113711357116699219e-01
-3.138045072555541992e-01 2.081652879714965820e-01 -1.907100975513458252e-01
-2.878450155258178711e-01 8.798848390579223633e-01 -1.222850978374481201e-01
-3.437826335430145264e-01 4.278164505958557129e-01 1.523857712745666504e-01
-2.982831895351409912e-01 7.494883537292480469e-01 -4.387067854404449463e-01
-3.397230803966522217e-01 7.748162746429443359e-01 -7.075366377830505371e-02
-2.848427295684814453e-01 5.614423751831054688e-01 3.142281174659729004e-01
-3.351580798625946045e-01 6.822764873504638672e-01 -3.290531933307647705e-01
-3.394902646541595459e-01 6.288884878158569336e-01 -2.846827507019042969e-01
-3.431647419929504395e-01 5.195584297180175781e-01 -2.200921475887298584e-01
-3.425806462764739990e-01 6.438040137290954590e-01 2.259407639503479004e-01
-3.410707414150238037e-01 3.359757661819458008e-01 -3.683475404977798462e-02
-2.845650017261505127e-01 8.388274312019348145e-01 1.163028478622436523e-01
-3.446920216083526611e-01 5.433627367019653320e-01 1.948706358671188354e-01
-2.892266511917114258e-01 3.435427546501159668e-01 1.972053647041320801e-01
-3.403358757495880127e-01 7.123705148696899414e-01 -1.907264143228530884e-01
-3.313093185424804688e-01 4.678154587745666504e-01 4.029306173324584961e-01
-3.388199508190155029e-01 7.610183954238891602e-01 1.857188642024993896e-01
-2.808526158332824707e-01 4.150409698486328125e-01 -1.689943671226501465e-01
-2.756041288375854492e-01 6.743363738059997559e-01 -4.048307985067367554e-02
-3.359350860118865967e-01 8.135350346565246582e-01 -1.196508854627609253e-01
-3.446772396564483643e-01 5.751371979713439941e-01 1.925161927938461304e-01
-3.338632285594940186e-01 2.820729017257690430e-01 1.555275917053222656e-01
-3.454731106758117676e-01 4.845494627952575684e-01 1.392655372619628906e-01
-3.315590918064117432e-01 6.746953725814819336e-01 3.961966931819915771e-01
-3.242163956165313721e-01 4.085460305213928223e-01 4.187654256820678711e-01
-2.849290966987609863e-01 7.286956310272216797e-01 -3.297700881958007812e-01
-2.785175442695617676e-01 7.587651014328002930e-01 4.907873272895812988e-02
-2.949314415454864502e-01 4.418123662471771240e-01 -4.407627582550048828e-01
-3.308343887329101562e-01 8.809729218482971191e-01 2.243821509182453156e-02
-3.319551348686218262e-01 4.844090938568115234e-01 -4.044869840145111084e-01
-3.017422854900360107e-01 9.556834697723388672e-01 -3.925178200006484985e-02
-2.796907126903533936e-01 5.777186751365661621e-01 2.135081440210342407e-01
-3.385534882545471191e-01 3.649235963821411133e-01 2.200326323509216309e-01
-2.788662016391754150e-01 7.648350596427917480e-01 -1.108250394463539124e-01
-2.860852777957916260e-01 3.461599349975585938e-01 1.201826333999633789e-01
-3.408962786197662354e-01 7.319731712341308594e-01 1.697451025247573853e-01
-3.239866197109222412e-01 8.551236391067504883e-01 -2.715740203857421875e-01
-2.796551287174224854e-01 7.053214907646179199e-01 -2.388565093278884888e-01
-2.751270830631256104e-01 6.215264201164245605e-01 -5.964701063930988312e-03
-2.894244194030761719e-01 2.871706783771514893e-01 9.101592004299163818e-03
-3.420158028602600098e-01 6.517158746719360352e-01 -2.088624238967895508e-01
-3.282126486301422119e-01 3.064055442810058594e-01 2.881834506988525391e-01
-3.008443713188171387e-01 2.138020098209381104e-01 -6.055239588022232056e-02
-2.823331058025360107e-01 3.845320343971252441e-01 -1.571418493986129761e-01
-3.140505552291870117e-01 5.463489294052124023e-01 -5.171548128128051758e-01
-3.282788395881652832e-01 2.549760937690734863e-01 1.850108951330184937e-01
-2.813204526901245117e-01 5.609866380691528320e-01 -3.163355290889739990e-01
-2.814340591430664062e-01 5.848023891448974609e-01 2.557574510574340820e-01
-3.189868927001953125e-01 1.953824460506439209e-01 -9.903958439826965332e-02
-2.978718578815460205e-01 2.279403209686279297e-01 1.091707497835159302e-03
-2.906224131584167480e-01 8.197789192199707031e-01 -3.109094500541687012e-01
-2.853573560714721680e-01 7.471722960472106934e-01 2.738510370254516602e-01
-3.459388017654418945e-01 6.219252347946166992e-01 -6.406556814908981323e-02
-3.411906957626342773e-01 3.856456279754638672e-01 1.819090396165847778e-01
-3.426665365695953369e-01 7.019896507263183594e-01 -1.201367154717445374e-01
-3.438983261585235596e-01 6.838613152503967285e-01 1.230299025774002075e-01
-2.823016345500946045e-01 7.182965278625488281e-01 -2.911534905433654785e-01
-3.184642791748046875e-01 9.134286642074584961e-01 -1.978054195642471313e-01
-3.422820866107940674e-01 4.271042943000793457e-01 -1.948597729206085205e-01
-2.886029183864593506e-01 4.953872561454772949e-01 -4.073045551776885986e-01
-3.345962464809417725e-01 4.700229167938232422e-01 -3.686893284320831299e-01
-3.368851542472839355e-01 7.904502153396606445e-01 -1.516995579004287720e-01
-3.419061601161956787e-01 6.772047877311706543e-01 2.160401195287704468e-01
-2.843812108039855957e-01 5.793581008911132812e-01 -3.721547722816467285e-01
-2.765741348266601562e-01 5.017167925834655762e-01 -9.470195323228836060e-02
-2.753267884254455566e-01 6.532430648803710938e-01 -1.576573401689529419e-02
-3.338036835193634033e-01 5.865563750267028809e-01 3.979877829551696777e-01
-2.812706828117370605e-01 4.333454370498657227e-01 -2.210462987422943115e-01
-3.018469512462615967e-01 7.240411043167114258e-01 4.432985782623291016e-01
-3.426518440246582031e-01 3.909709453582763672e-01 1.375480890274047852e-01
-2.812993526458740234e-01 5.525179505348205566e-01 2.451021969318389893e-01
-2.814567387104034424e-01 5.983449816703796387e-01 -3.224063515663146973e-01
-2.941922843456268311e-01 7.786285877227783203e-01 3.590454757213592529e-01
-2.779908478260040283e-01 5.862098336219787598e-01 -2.358797043561935425e-01
-3.387301862239837646e-01 7.895076274871826172e-01 1.048736721277236938e-01
-2.812862694263458252e-01 7.991101741790771484e-01 -1.435236930847167969e-01
-3.423546552658081055e-01 6.874006390571594238e-01 1.887712776660919189e-01
-3.382837772369384766e-01 7.815205454826354980e-01 -1.232153773307800293e-01
-3.374691009521484375e-01 6.136271357536315918e-01 -3.282793164253234863e-01
-3.395389914512634277e-01 3.153393268585205078e-01 4.473574459552764893e-02
-2.858380377292633057e-01 3.454716801643371582e-01 -1.885762661695480347e-01
-2.928490638732910156e-01 4.287703931331634521e-01 3.525895178318023682e-01
-3.428851366043090820e-01 7.158741950988769531e-01 -7.206611335277557373e-02
-3.413294553756713867e-01 7.575080394744873047e-01 -1.061023678630590439e-02
-3.365558683872222900e-01 7.463383674621582031e-01 2.677108943462371826e-01
-3.285874128341674805e-01 2.694696784019470215e-01 2.165697962045669556e-01
-3.427913486957550049e-01 6.133737564086914062e-01 -2.130387574434280396e-01
-3.367038071155548096e-01 4.731801152229309082e-01 3.449513018131256104e-01
-2.764893770217895508e-01 6.029706597328186035e-01 1.071814969182014465e-01
-2.788748443126678467e-01 6.416624784469604492e-01 1.904408186674118042e-01
-2.930974960327148438e-01 2.565898299217224121e-01 -6.968770176172256470e-02
-3.310998380184173584e-01 5.704537630081176758e-01 -4.205961525440216064e-01
-3.177353739738464355e-01 3.720676302909851074e-01 -4.432178139686584473e-01
-3.470256030559539795e-01 5.286540389060974121e-01 4.394878447055816650e-02
-2.815980613231658936e-01 7.895589470863342285e-01 1.307802796363830566e-01
-3.440534174442291260e-01 4.105693399906158447e-01 -9.710217267274856567e-02
-3.371886610984802246e-01 3.287340998649597168e-01 1.886333525180816650e-01
-3.442836999893188477e-01 6.961448788642883301e-01 1.997797377407550812e-02
-3.232179284095764160e-01 9.264014959335327148e-01 -3.886821120977401733e-02
-2.766698598861694336e-01 6.922385692596435547e-01 6.717318296432495117e-02
-2.754676640033721924e-01 5.499024987220764160e-01 -6.378192454576492310e-02
-3.218178749084472656e-01 9.341654777526855469e-01 3.564045578241348267e-02
-3.000004589557647705e-01 6.126646399497985840e-01 4.646569788455963135e-01
-2.832639813423156738e-01 6.916024684906005859e-01 -3.274764120578765869e-01
-2.872859537601470947e-01 3.110727667808532715e-01 -1.144347712397575378e-01
-3.466272652149200439e-01 5.161343812942504883e-01 8.721908181905746460e-02
-2.784008681774139404e-01 4.454187154769897461e-01 -9.235092997550964355e-02
-3.455752134323120117e-01 4.377915263175964355e-01 5.195000767707824707e-02
-2.885221838951110840e-01 6.242181062698364258e-01 -4.214283823966979980e-01
-2.760668098926544189e-01 6.898611783981323242e-01 -8.109121024608612061e-02
-3.454834222793579102e-01 6.587771177291870117e-01 -5.283171776682138443e-03
-3.353006243705749512e-01 7.091948986053466797e-01 -3.054420948028564453e-01
-2.753974199295043945e-01 6.551865339279174805e-01 -6.656962633132934570e-02
-3.152975738048553467e-01 1.908342838287353516e-01 4.414597153663635254e-02
-3.447547256946563721e-01 6.065900921821594238e-01 1.763182133436203003e-01
-3.207648992538452148e-01 9.190500974655151367e-01 1.672133952379226685e-01
-2.826320230960845947e-01 6.607071757316589355e-01 2.732131779193878174e-01
-2.865174710750579834e-01 4.290300011634826660e-01 -3.358912467956542969e-01
-2.926810085773468018e-01 2.734279334545135498e-01 9.125366806983947754e-02
-2.967768013477325439e-01 3.464818000793457031e-01 3.112897574901580811e-01
-2.964377105236053467e-01 3.354083895683288574e-01 -3.577614724636077881e-01
-3.104808926582336426e-01 9.606528282165527344e-01 4.814009368419647217e-02
-3.325673341751098633e-01 7.545028924942016602e-01 -3.033556640148162842e-01
-3.363311886787414551e-01 4.966967999935150146e-01 -3.525229990482330322e-01
-2.937677502632141113e-01 5.836778879165649414e-01 -4.705535173416137695e-01
-2.771724164485931396e-01 4.737486541271209717e-01 -4.123014211654663086e-02
-3.356436192989349365e-01 6.353179216384887695e-01 -3.482510149478912354e-01
-3.448029160499572754e-01 6.605804562568664551e-01 -8.013086766004562378e-02
-3.434667289257049561e-01 6.312516927719116211e-01 -1.796708106994628906e-01
-3.274105489253997803e-01 8.727571964263916016e-01 -1.804699897766113281e-01
-3.259696066379547119e-01 5.454821586608886719e-01 4.607817530632019043e-01
-2.947798371315002441e-01 2.446310520172119141e-01 -2.378462068736553192e-02
-2.815310657024383545e-01 4.506075978279113770e-01 1.755138635635375977e-01
-3.398967981338500977e-01 6.094303131103515625e-01 3.058229982852935791e-01
-3.258986175060272217e-01 5.104901790618896484e-01 -4.629365801811218262e-01
-2.770600318908691406e-01 5.555779933929443359e-01 1.177192330360412598e-01
-3.145771026611328125e-01 3.433531522750854492e-01 3.887904286384582520e-01
-2.837077081203460693e-01 3.477581143379211426e-01 -5.483322590589523315e-02
-2.750516235828399658e-01 6.005296111106872559e-01 -4.872828722000122070e-02
-3.408628106117248535e-01 7.631009817123413086e-01 6.807873398065567017e-02
-3.451253771781921387e-01 5.050527453422546387e-01 1.684586554765701294e-01
-3.285430073738098145e-01 2.374685108661651611e-01 1.226708292961120605e-01
-2.840121984481811523e-01 4.306277930736541748e-01 2.154765427112579346e-01
-2.772991359233856201e-01 6.722217202186584473e-01 -1.860837638378143311e-01
-3.397962152957916260e-01 5.362285971641540527e-01 -2.998512983322143555e-01
-2.880001366138458252e-01 6.931402683258056641e-01 -3.930226266384124756e-01
-2.969471514225006104e-01 2.410431504249572754e-01 -1.422589123249053955e-01
-3.218202590942382812e-01 6.671514511108398438e-01 4.668276309967041016e-01
-3.058137893676757812e-01 2.256741523742675781e-01 -2.209880501031875610e-01
-3.416200876235961914e-01 7.342048883438110352e-01 -9.753891080617904663e-02
-3.465375602245330811e-01 6.088172197341918945e-01 -1.649728044867515564e-02
-2.948081791400909424e-01 5.843373537063598633e-01 4.309010207653045654e-01
-3.223146200180053711e-01 5.982376933097839355e-01 -4.846003651618957520e-01
-2.910924255847930908e-01 6.037427783012390137e-01 3.981780707836151123e-01
-2.957584857940673828e-01 4.690816998481750488e-01 -4.605216383934020996e-01
-3.306970596313476562e-01 2.433009743690490723e-01 9.370007365942001343e-02
-3.218635022640228271e-01 7.601172924041748047e-01 -4.092452526092529297e-01
-2.893961071968078613e-01 7.665233016014099121e-01 -3.571853637695312500e-01
-2.955223321914672852e-01 7.467486858367919922e-01 3.932239115238189697e-01
-3.348633050918579102e-01 7.043771743774414062e-01 3.379452526569366455e-01
-3.049826622009277344e-01 5.545679926872253418e-01 4.834452271461486816e-01
-2.832900881767272949e-01 7.885808348655700684e-01 -2.309371083974838257e-01
-3.271695077419281006e-01 6.362227797508239746e-01 4.468532502651214600e-01
-2.886804640293121338e-01 4.506401717662811279e-01 -3.840841352939605713e-01
-3.334340453147888184e-01 8.533271551132202148e-01 9.001238644123077393e-02
-3.428656756877899170e-01 4.931820631027221680e-01 2.370480149984359741e-01
-3.350428044795989990e-01 5.454427003860473633e-01 3.843461871147155762e-01
-2.857915461063385010e-01 3.226245343685150146e-01 -1.156394928693771362e-02
-3.015803396701812744e-01 2.458398938179016113e-01 1.767710596323013306e-01
-3.204980194568634033e-01 2.446396946907043457e-01 2.297309190034866333e-01
-2.846783101558685303e-01 6.839790344238281250e-01 3.010968863964080811e-01
-3.287263810634613037e-01 3.919517397880554199e-01 -3.918739855289459229e-01
-2.793474495410919189e-01 5.296989083290100098e-01 1.845662593841552734e-01
-3.019279837608337402e-01 3.545565605163574219e-01 -4.173983335494995117e-01
-2.893052697181701660e-01 3.040498793125152588e-01 -1.754496246576309204e-01
-3.179946839809417725e-01 2.119345664978027344e-01 1.477664113044738770e-01
-3.469920158386230469e-01 5.730068683624267578e-01 3.246983885765075684e-02
-2.967285215854644775e-01 4.650411903858184814e-01 4.114120304584503174e-01
-3.263536393642425537e-01 4.751145839691162109e-01 -4.518105983734130859e-01
-2.802724242210388184e-01 6.378533840179443359e-01 -2.916855514049530029e-01
-3.066330850124359131e-01 1.952292621135711670e-01 -2.398084662854671478e-02
-2.868683636188507080e-01 3.100058734416961670e-01 -5.157688260078430176e-02
-3.013117611408233643e-01 9.418839812278747559e-01 -1.367458254098892212e-01
-3.292838633060455322e-01 3.320928215980529785e-01 -3.309126794338226318e-01
-3.216387927532196045e-01 5.696057677268981934e-01 -4.912333488464355469e-01
-3.377461433410644531e-01 3.827428817749023438e-01 -2.610999643802642822e-01
-2.916111350059509277e-01 3.615299463272094727e-01 -3.370374739170074463e-01
-3.425536751747131348e-01 7.327082157135009766e-01 -2.667759172618389130e-02
-3.445293903350830078e-01 6.871907711029052734e-01 -1.722418330609798431e-02
-2.917417883872985840e-01 3.502338528633117676e-01 2.533699572086334229e-01
-3.465663194656372070e-01 4.777343273162841797e-01 -9.470408782362937927e-03
-2.801207602024078369e-01 7.427657246589660645e-01 1.561873704195022583e-01
-3.111928105354309082e-01 9.120236039161682129e-01 -2.473832219839096069e-01
-2.790774703025817871e-01 7.810523509979248047e-01 -2.838815934956073761e-02
-3.444264829158782959e-01 4.874505996704101562e-01 -1.686808019876480103e-01
-2.761237025260925293e-01 5.625617504119873047e-01 -1.479800045490264893e-01
-3.288445472717285156e-01 2.765104174613952637e-01 -2.511314153671264648e-01
-3.454350531101226807e-01 4.347875714302062988e-01 -4.502677172422409058e-02
-2.798884809017181396e-01 5.955585837364196777e-01 -2.886077165603637695e-01
-3.416267633438110352e-01 6.026000976562500000e-01 -2.491629272699356079e-01
-2.763335704803466797e-01 5.037729740142822266e-01 -5.830187350511550903e-02
-2.945982813835144043e-01 2.739700973033905029e-01 1.437998861074447632e-01
-3.395591378211975098e-01 6.574702262878417969e-01 -2.659604251384735107e-01
-2.779598832130432129e-01 6.141383051872253418e-01 1.660828292369842529e-01
-3.305517137050628662e-01 4.332520961761474609e-01 -3.993727564811706543e-01
-3.435896039009094238e-01 3.892297744750976562e-01 -7.016143947839736938e-02
-2.876134216785430908e-01 8.638538122177124023e-01 -1.740462630987167358e-01
-3.453370630741119385e-01 5.811502337455749512e-01 -1.376762092113494873e-01
-3.408467173576354980e-01 6.423470377922058105e-01 2.716655135154724121e-01
-2.780240476131439209e-01 4.841551184654235840e-01 -1.669922173023223877e-01
-2.801856100559234619e-01 4.864938855171203613e-01 1.754998713731765747e-01
-3.290182650089263916e-01 7.359062433242797852e-01 3.829651176929473877e-01
-2.756803333759307861e-01 6.371045112609863281e-01 5.161794275045394897e-02
-3.196389973163604736e-01 6.530368924140930176e-01 -4.840632379055023193e-01
-3.250894844532012939e-01 7.657181024551391602e-01 -3.793933391571044922e-01
-3.361460268497467041e-01 3.458425998687744141e-01 -2.470304369926452637e-01
-2.937771379947662354e-01 6.956983208656311035e-01 4.049575030803680420e-01
-3.424907326698303223e-01 6.140236854553222656e-01 2.461336255073547363e-01
-2.921857237815856934e-01 5.538614392280578613e-01 4.042152762413024902e-01
-3.463917672634124756e-01 5.867434740066528320e-01 -7.078668475151062012e-02
-2.835896909236907959e-01 5.162478089332580566e-01 2.763773202896118164e-01
-3.219878673553466797e-01 9.084411859512329102e-01 -1.677051186561584473e-01
-3.145537376403808594e-01 8.826745748519897461e-01 -2.958124876022338867e-01
-2.956686913967132568e-01 3.709026575088500977e-01 -3.915329277515411377e-01
-2.939792275428771973e-01 2.858071029186248779e-01 -2.370772510766983032e-01
-2.817706763744354248e-01 8.175236582756042480e-01 5.664602667093276978e-02
-3.424377441406250000e-01 3.619218468666076660e-01 6.004756689071655273e-02
-2.755469083786010742e-01 6.501271724700927734e-01 -9.739050269126892090e-02
-3.274247944355010986e-01 7.353425025939941406e-01 -3.846144676208496094e-01
-3.201995790004730225e-01 8.484235405921936035e-01 3.303284645080566406e-01
-2.767595648765563965e-01 6.432088017463684082e-01 1.132397204637527466e-01
-3.339568972587585449e-01 6.207011938095092773e-01 -3.772094249725341797e-01
