-4.184373617172241211e-01 -3.860890865325927734e-01 -7.747536897659301758e-01
-4.064954519271850586e-01 -1.776260733604431152e-01 -7.265627384185791016e-01
-3.486706614494323730e-01 -2.893224358558654785e-01 -7.253766059875488281e-01
-3.859542012214660645e-01 -2.107421904802322388e-01 -7.181140780448913574e-01
-4.526197910308837891e-01 -2.960350513458251953e-01 -7.694334983825683594e-01
-4.123894870281219482e-01 -1.330966502428054810e-01 -7.430382370948791504e-01
-4.176505208015441895e-01 -3.789831995964050293e-01 -7.596261501312255859e-01
-4.020220339298248291e-01 -1.513029634952545166e-01 -7.334407567977905273e-01
-4.557766616344451904e-01 -2.156623154878616333e-01 -7.604449391365051270e-01
-4.590329825878143311e-01 -1.949752420186996460e-01 -7.689784765243530273e-01
-3.629937767982482910e-01 -2.737798392772674561e-01 -7.168800234794616699e-01
-4.126505255699157715e-01 -1.678407490253448486e-01 -7.307128906250000000e-01
-3.706344962120056152e-01 -2.110992670059204102e-01 -8.105731010437011719e-01
-4.386012554168701172e-01 -1.322007924318313599e-01 -7.600570321083068848e-01
-4.533580839633941650e-01 -2.274833470582962036e-01 -7.562998533248901367e-01
-4.554645717144012451e-01 -1.870948225259780884e-01 -7.632448673248291016e-01
-4.171875119209289551e-01 -1.026861667633056641e-01 -7.726716995239257812e-01
-3.800606727600097656e-01 -3.636859655380249023e-01 -7.286775708198547363e-01
-3.720393776893615723e-01 -1.620674133300781250e-01 -7.368823885917663574e-01
-3.571509718894958496e-01 -1.701372712850570679e-01 -7.644620537757873535e-01
-4.263881444931030273e-01 -2.713176012039184570e-01 -8.319312334060668945e-01
-3.426809310913085938e-01 -2.860045731067657471e-01 -7.324255108833312988e-01
-4.334727525711059570e-01 -2.635007202625274658e-01 -8.309594392776489258e-01
-4.314314126968383789e-01 -1.419594883918762207e-01 -7.487074732780456543e-01
-3.881421089172363281e-01 -3.294140696525573730e-01 -7.205410003662109375e-01
-3.517056107521057129e-01 -3.116769194602966309e-01 -7.955229878425598145e-01
-3.408075273036956787e-01 -2.396443784236907959e-01 -7.670192122459411621e-01
-3.607777655124664307e-01 -2.103127539157867432e-01 -7.996886968612670898e-01
-3.655274212360382080e-01 -1.516064703464508057e-01 -7.715349197387695312e-01
-4.015682339668273926e-01 -2.648879587650299072e-01 -8.311076164245605469e-01
-4.176084399223327637e-01 -1.908622980117797852e-01 -8.299842476844787598e-01
-3.870645761489868164e-01 -2.706982791423797607e-01 -8.258277177810668945e-01
-4.440341889858245850e-01 -1.325734108686447144e-01 -7.671110033988952637e-01
-3.472427129745483398e-01 -3.672528862953186035e-01 -7.528208494186401367e-01
-3.606393933296203613e-01 -2.057254910469055176e-01 -7.276082634925842285e-01
-3.911175727844238281e-01 -3.376954197883605957e-01 -8.188247680664062500e-01
-3.959179222583770752e-01 -2.568722665309906006e-01 -7.156394124031066895e-01
-3.791783750057220459e-01 -3.797764182090759277e-01 -7.356488108634948730e-01
-3.388124406337738037e-01 -2.752131223678588867e-01 -7.411897778511047363e-01
-3.402220010757446289e-01 -2.668108046054840088e-01 -7.750260233879089355e-01
-4.498105049133300781e-01 -1.518424749374389648e-01 -8.112286925315856934e-01
-4.317503273487091064e-01 -3.370175063610076904e-01 -8.137831687927246094e-01
-4.339925348758697510e-01 -3.548467755317687988e-01 -7.671510577201843262e-01
-4.461127519607543945e-01 -2.145046889781951904e-01 -8.268242478370666504e-01
-4.292246103286743164e-01 -1.755706071853637695e-01 -7.371664643287658691e-01
-4.584778547286987305e-01 -1.829274892807006836e-01 -7.704553008079528809e-01
-4.076940417289733887e-01 -2.249619215726852417e-01 -8.319512009620666504e-01
-4.097102284431457520e-01 -3.552490174770355225e-01 -7.370618581771850586e-01
-4.360921680927276611e-01 -3.230238258838653564e-01 -8.165369033813476562e-01
-3.854711949825286865e-01 -1.203230172395706177e-01 -7.775995731353759766e-01
-3.381659388542175293e-01 -3.263495564460754395e-01 -7.598426938056945801e-01
-3.699289560317993164e-01 -2.915215790271759033e-01 -7.154612541198730469e-01
-4.019309878349304199e-01 -2.711161971092224121e-01 -7.175388932228088379e-01
-4.348853826522827148e-01 -3.286620378494262695e-01 -7.513891458511352539e-01
-3.798165321350097656e-01 -3.320309221744537354e-01 -7.199667692184448242e-01
-3.721787631511688232e-01 -3.321804404258728027e-01 -8.111603260040283203e-01
-3.798700571060180664e-01 -1.266631633043289185e-01 -7.738521695137023926e-01
-4.383829236030578613e-01 -3.462443947792053223e-01 -7.987118959426879883e-01
-4.098630547523498535e-01 -3.551590442657470703e-01 -8.151164054870605469e-01
-4.628768265247344971e-01 -2.370864152908325195e-01 -7.793995738029479980e-01
-3.560757339000701904e-01 -3.204717040061950684e-01 -7.994771003723144531e-01
-4.152641296386718750e-01 -2.265184819698333740e-01 -7.230796813964843750e-01
-3.473987579345703125e-01 -2.178730517625808716e-01 -7.783852219581604004e-01
-4.633483886718750000e-01 -1.862754821777343750e-01 -7.929739356040954590e-01
-4.364828467369079590e-01 -2.738289535045623779e-01 -7.391822338104248047e-01
-4.499644637107849121e-01 -2.344263345003128052e-01 -7.514843940734863281e-01
-3.837452828884124756e-01 -1.457520127296447754e-01 -7.386722564697265625e-01
-4.018380939960479736e-01 -2.126597166061401367e-01 -7.195818424224853516e-01
-4.142506122589111328e-01 -2.299883812665939331e-01 -8.332923054695129395e-01
-4.365008473396301270e-01 -3.145668506622314453e-01 -7.481568455696105957e-01
-3.880902230739593506e-01 -3.227489292621612549e-01 -8.209986090660095215e-01
-3.748540580272674561e-01 -3.908245265483856201e-01 -7.896311283111572266e-01
-4.539254009723663330e-01 -1.857067048549652100e-01 -8.174957036972045898e-01
-3.959355056285858154e-01 -3.232609033584594727e-01 -7.213975787162780762e-01
-3.580884635448455811e-01 -3.669980764389038086e-01 -7.879359722137451172e-01
-4.243589043617248535e-01 -3.542619347572326660e-01 -8.101416230201721191e-01
-3.428368270397186279e-01 -3.383642137050628662e-01 -7.410558462142944336e-01
-3.611834049224853516e-01 -1.690973639488220215e-01 -7.456099390983581543e-01
-4.225271940231323242e-01 -2.095581889152526855e-01 -8.324818015098571777e-01
-3.682875633239746094e-01 -2.322048246860504150e-01 -8.118247985839843750e-01
-4.191674292087554932e-01 -2.806693017482757568e-01 -8.318011760711669922e-01
-3.729316890239715576e-01 -3.134838342666625977e-01 -8.147977590560913086e-01
-4.087139666080474854e-01 -3.628543019294738770e-01 -7.396139502525329590e-01
-4.130173623561859131e-01 -1.539199650287628174e-01 -8.207859992980957031e-01
-3.545075654983520508e-01 -1.933156996965408325e-01 -7.399365901947021484e-01
-3.548165559768676758e-01 -3.456798195838928223e-01 -7.291390299797058105e-01
-3.737321794033050537e-01 -3.504806458950042725e-01 -8.076547980308532715e-01
-3.976237773895263672e-01 -1.669087409973144531e-01 -8.189845085144042969e-01
-3.781429529190063477e-01 -3.761242032051086426e-01 -8.004977107048034668e-01
-3.513819575309753418e-01 -2.131600677967071533e-01 -7.856117486953735352e-01
-3.965189754962921143e-01 -1.468611955642700195e-01 -8.113741874694824219e-01
-3.567168414592742920e-01 -2.782830297946929932e-01 -7.196415662765502930e-01
-3.665328025817871094e-01 -2.308975607156753540e-01 -7.188901901245117188e-01
-3.734568357467651367e-01 -2.012753337621688843e-01 -8.110572099685668945e-01
-4.363614916801452637e-01 -3.397919535636901855e-01 -7.595920562744140625e-01
-3.513569235801696777e-01 -1.985908895730972290e-01 -7.778288125991821289e-01
-3.610969781875610352e-01 -1.609385907649993896e-01 -7.576674222946166992e-01
-3.936575651168823242e-01 -1.114619076251983643e-01 -7.683631181716918945e-01
-3.509896397590637207e-01 -3.697600364685058594e-01 -7.743051052093505859e-01
-3.802649676799774170e-01 -3.923817276954650879e-01 -7.437019944190979004e-01
-3.416126370429992676e-01 -2.987124025821685791e-01 -7.344334125518798828e-01
-4.478032290935516357e-01 -1.290914863348007202e-01 -7.791216373443603516e-01
-4.272265434265136719e-01 -1.475988626480102539e-01 -8.200320005416870117e-01
-3.904813528060913086e-01 -2.173555642366409302e-01 -8.251827955245971680e-01
-3.618805110454559326e-01 -3.115195333957672119e-01 -7.191308140754699707e-01
-4.277236461639404297e-01 -2.213988006114959717e-01 -7.303637266159057617e-01
-4.495623111724853516e-01 -2.744568884372711182e-01 -8.195142149925231934e-01
-3.895623087882995605e-01 -1.327927410602569580e-01 -7.984312176704406738e-01
-3.623447418212890625e-01 -1.779199391603469849e-01 -7.375762462615966797e-01
-3.757891058921813965e-01 -4.004188776016235352e-01 -7.519774436950683594e-01
-3.643395006656646729e-01 -3.507520854473114014e-01 -7.260830998420715332e-01
-4.019703269004821777e-01 -3.424219787120819092e-01 -8.196630477905273438e-01
-3.482760190963745117e-01 -3.537719845771789551e-01 -7.790127992630004883e-01
-3.703025877475738525e-01 -2.813652455806732178e-01 -7.150036692619323730e-01
-4.310004413127899170e-01 -3.445252180099487305e-01 -7.537121772766113281e-01
-4.241110384464263916e-01 -3.432779908180236816e-01 -7.446352839469909668e-01
-3.491336107254028320e-01 -3.730453252792358398e-01 -7.626274824142456055e-01
-3.905586004257202148e-01 -1.805279850959777832e-01 -7.240715026855468750e-01
-4.202730655670166016e-01 -3.710649907588958740e-01 -7.562061548233032227e-01
-3.678092360496520996e-01 -1.877936124801635742e-01 -7.284803390502929688e-01
-3.606734573841094971e-01 -3.158919215202331543e-01 -8.048427104949951172e-01
-4.279682338237762451e-01 -2.080120742321014404e-01 -7.315170168876647949e-01
-3.740390837192535400e-01 -1.654434800148010254e-01 -7.999206185340881348e-01
-4.384914338588714600e-01 -1.649048328399658203e-01 -8.229730725288391113e-01
-3.608490228652954102e-01 -3.309237957000732422e-01 -8.024565577507019043e-01
-4.353254735469818115e-01 -2.376905232667922974e-01 -7.357403635978698730e-01
-3.880324065685272217e-01 -2.828216552734375000e-01 -8.257260918617248535e-01
-3.854947090148925781e-01 -2.281942069530487061e-01 -8.236814141273498535e-01
-4.233899116516113281e-01 -1.512462496757507324e-01 -7.401676177978515625e-01
-3.367886841297149658e-01 -2.910978794097900391e-01 -7.641036510467529297e-01
-4.439619183540344238e-01 -3.218075037002563477e-01 -7.633910179138183594e-01
-4.076941907405853271e-01 -2.417799830436706543e-01 -7.193166017532348633e-01
-3.764280378818511963e-01 -4.021458029747009277e-01 -7.787594795227050781e-01
-4.159643650054931641e-01 -3.078407347202301025e-01 -8.279938697814941406e-01
-3.980292081832885742e-01 -2.860568165779113770e-01 -7.172078490257263184e-01
-3.937686383724212646e-01 -4.057432413101196289e-01 -7.717703580856323242e-01
-3.957696557044982910e-01 -3.327557146549224854e-01 -7.233048081398010254e-01
-3.449590802192687988e-01 -2.117776274681091309e-01 -7.566967606544494629e-01
-4.622084796428680420e-01 -2.569780647754669189e-01 -7.844027280807495117e-01
-3.880652189254760742e-01 -2.407165318727493286e-01 -8.259233236312866211e-01
-3.676733672618865967e-01 -3.907259106636047363e-01 -7.448527216911315918e-01
-3.957579433917999268e-01 -2.074424177408218384e-01 -8.263959288597106934e-01
-4.370641112327575684e-01 -2.895537912845611572e-01 -7.423267960548400879e-01
-3.558038771152496338e-01 -1.933941990137100220e-01 -7.854307293891906738e-01
-3.861355781555175781e-01 -4.072379767894744873e-01 -7.696681022644042969e-01
-3.955154716968536377e-01 -1.396842002868652344e-01 -8.074125051498413086e-01
-4.477417767047882080e-01 -1.333824098110198975e-01 -8.017739653587341309e-01
-4.278973042964935303e-01 -3.591321110725402832e-01 -8.038268089294433594e-01
-4.296836853027343750e-01 -1.283213198184967041e-01 -8.112144470214843750e-01
-3.362802267074584961e-01 -2.972250580787658691e-01 -7.522370815277099609e-01
-4.496175646781921387e-01 -2.379350364208221436e-01 -8.243819475173950195e-01
-4.646148979663848877e-01 -2.074698805809020996e-01 -7.888468503952026367e-01
-4.453189074993133545e-01 -3.299146592617034912e-01 -7.985640764236450195e-01
-3.700921833515167236e-01 -1.513600349426269531e-01 -7.850463390350341797e-01
-4.639973640441894531e-01 -2.237754762172698975e-01 -8.008946180343627930e-01
-4.161136746406555176e-01 -2.970544695854187012e-01 -7.264060378074645996e-01
-3.920401930809020996e-01 -2.314247936010360718e-01 -7.160363197326660156e-01
-4.178819358348846436e-01 -3.254388570785522461e-01 -8.237570524215698242e-01
-4.377258419990539551e-01 -3.482809364795684814e-01 -7.700465917587280273e-01
-4.466137588024139404e-01 -3.307130336761474609e-01 -7.902368903160095215e-01
-3.492431342601776123e-01 -3.165949583053588867e-01 -7.270414233207702637e-01
-4.385025799274444580e-01 -1.981402337551116943e-01 -7.406504154205322266e-01
-3.555113375186920166e-01 -3.777048587799072266e-01 -7.444632649421691895e-01
-3.785584568977355957e-01 -3.072372972965240479e-01 -8.189563751220703125e-01
-4.126900434494018555e-01 -3.681501150131225586e-01 -7.455683946609497070e-01
-3.590089678764343262e-01 -1.958967149257659912e-01 -7.924063205718994141e-01
-4.246418178081512451e-01 -1.275717467069625854e-01 -7.510477304458618164e-01
-4.306084513664245605e-01 -3.650295436382293701e-01 -7.926287055015563965e-01
-3.984986245632171631e-01 -1.583133488893508911e-01 -7.306910753250122070e-01
-4.645200967788696289e-01 -2.103471159934997559e-01 -7.972761988639831543e-01
-3.572682440280914307e-01 -2.328411340713500977e-01 -7.235335111618041992e-01
-4.320968091487884521e-01 -3.651505112648010254e-01 -7.800676822662353516e-01
-3.773789703845977783e-01 -4.056586027145385742e-01 -7.713363766670227051e-01
-3.999794423580169678e-01 -3.174586296081542969e-01 -8.252508044242858887e-01
-3.580784797668457031e-01 -3.586069941520690918e-01 -7.916557788848876953e-01
-4.396210014820098877e-01 -1.156924068927764893e-01 -7.927685976028442383e-01
-4.138974547386169434e-01 -3.402494192123413086e-01 -8.199897408485412598e-01
-4.219915866851806641e-01 -1.305837631225585938e-01 -8.128977417945861816e-01
-4.239262044429779053e-01 -1.806268393993377686e-01 -8.286331892013549805e-01
-3.414225876331329346e-01 -2.412673383951187134e-01 -7.438703179359436035e-01
-3.524734377861022949e-01 -3.076453506946563721e-01 -7.234436273574829102e-01
-4.482251405715942383e-01 -2.986302673816680908e-01 -7.606124877929687500e-01
-4.619980752468109131e-01 -1.952046155929565430e-01 -7.772460579872131348e-01
-4.609964787960052490e-01 -1.722100675106048584e-01 -7.842547893524169922e-01
-3.711259663105010986e-01 -3.804348111152648926e-01 -7.937721610069274902e-01
-3.866955637931823730e-01 -2.993887662887573242e-01 -8.237854242324829102e-01
-3.377814888954162598e-01 -3.037058115005493164e-01 -7.679992914199829102e-01
-4.575889706611633301e-01 -2.171792834997177124e-01 -8.164057731628417969e-01
-3.944949209690093994e-01 -1.434200108051300049e-01 -7.368081808090209961e-01
-3.378151059150695801e-01 -2.570360004901885986e-01 -7.551546692848205566e-01
-3.625682294368743896e-01 -1.603553891181945801e-01 -7.750205397605895996e-01
-4.347625970840454102e-01 -3.475633859634399414e-01 -7.620924711227416992e-01
-3.851248323917388916e-01 -2.803455889225006104e-01 -7.144079208374023438e-01
-3.801363110542297363e-01 -2.555751800537109375e-01 -8.222088217735290527e-01
-3.487549424171447754e-01 -1.976666450500488281e-01 -7.534575462341308594e-01
-3.520101606845855713e-01 -3.699375987052917480e-01 -7.431787252426147461e-01
-3.914991021156311035e-01 -1.898190081119537354e-01 -7.219035625457763672e-01
-3.926949799060821533e-01 -3.978245556354522705e-01 -7.523991465568542480e-01
-3.703604936599731445e-01 -4.018419981002807617e-01 -7.585407495498657227e-01
-4.469212293624877930e-01 -1.423340737819671631e-01 -8.094174265861511230e-01
-4.127416610717773438e-01 -3.666647672653198242e-01 -8.089866042137145996e-01
-3.763846755027770996e-01 -2.345512509346008301e-01 -8.185383081436157227e-01
-3.461886942386627197e-01 -2.891309559345245361e-01 -7.891639471054077148e-01
-3.755531609058380127e-01 -2.920975685119628906e-01 -8.186362385749816895e-01
-3.720174431800842285e-01 -2.169488668441772461e-01 -7.192531824111938477e-01
-3.432739078998565674e-01 -2.546545565128326416e-01 -7.349420189857482910e-01
-4.462936818599700928e-01 -2.454071640968322754e-01 -7.472353577613830566e-01
-3.990040421485900879e-01 -1.965187489986419678e-01 -7.213119864463806152e-01
-3.656531870365142822e-01 -3.610579371452331543e-01 -7.290884256362915039e-01
-4.471843540668487549e-01 -2.835229933261871338e-01 -8.197355866432189941e-01
-4.109965562820434570e-01 -3.872113823890686035e-01 -7.939984798431396484e-01
-4.301138818264007568e-01 -2.429956942796707153e-01 -8.329238295555114746e-01
-3.863810002803802490e-01 -3.463984131813049316e-01 -7.241462469100952148e-01
-4.551609158515930176e-01 -1.447602510452270508e-01 -7.916672825813293457e-01
-3.666492402553558350e-01 -3.101586997509002686e-01 -8.107231855392456055e-01
-3.683119416236877441e-01 -2.499279379844665527e-01 -8.135390877723693848e-01
-3.825876414775848389e-01 -3.547489941120147705e-01 -8.109971880912780762e-01
-3.667262792587280273e-01 -1.605581641197204590e-01 -7.860895991325378418e-01
-4.154688715934753418e-01 -1.213494241237640381e-01 -8.066650032997131348e-01
-3.391502499580383301e-01 -2.450089603662490845e-01 -7.563076019287109375e-01
-3.582847416400909424e-01 -3.580972850322723389e-01 -7.311677932739257812e-01
-3.961267173290252686e-01 -2.988786995410919189e-01 -8.271433711051940918e-01
-3.382022678852081299e-01 -3.126706779003143311e-01 -7.677997946739196777e-01
-3.870103955268859863e-01 -4.043538570404052734e-01 -7.585300803184509277e-01
-4.442778229713439941e-01 -3.377580344676971436e-01 -7.861474156379699707e-01
-3.468290865421295166e-01 -2.038041502237319946e-01 -7.609641551971435547e-01
-3.855063915252685547e-01 -1.190459877252578735e-01 -7.689714431762695312e-01
-4.540918171405792236e-01 -2.250281572341918945e-01 -8.206911683082580566e-01
-3.772847354412078857e-01 -1.392092704772949219e-01 -7.873108386993408203e-01
-4.551421403884887695e-01 -2.013220041990280151e-01 -7.604449987411499023e-01
-4.223741888999938965e-01 -3.280803561210632324e-01 -7.375646233558654785e-01
-4.034197330474853516e-01 -2.350244075059890747e-01 -7.181606292724609375e-01
-4.000252783298492432e-01 -3.648307919502258301e-01 -8.115538954734802246e-01
-4.278525114059448242e-01 -3.468230068683624268e-01 -8.117734193801879883e-01
-4.497227072715759277e-01 -1.870018839836120605e-01 -7.544080615043640137e-01
-4.243354499340057373e-01 -2.775349020957946777e-01 -7.293909788131713867e-01
-4.501949250698089600e-01 -1.971119046211242676e-01 -8.226683139801025391e-01
-4.468899071216583252e-01 -1.456958055496215820e-01 -7.634865641593933105e-01
-4.640833735466003418e-01 -2.379691749811172485e-01 -7.876611948013305664e-01
-4.612171053886413574e-01 -2.517859637737274170e-01 -8.051945567131042480e-01
-3.846448957920074463e-01 -2.242407053709030151e-01 -7.163419127464294434e-01
-3.911985158920288086e-01 -2.045380771160125732e-01 -7.191532850265502930e-01
-3.811637461185455322e-01 -1.660660207271575928e-01 -8.074991703033447266e-01
-4.371419548988342285e-01 -2.280841171741485596e-01 -8.312078118324279785e-01
-4.599804878234863281e-01 -1.640091836452484131e-01 -7.878541350364685059e-01
-3.524231910705566406e-01 -3.267132639884948730e-01 -7.261996269226074219e-01
-3.487236201763153076e-01 -2.361115068197250366e-01 -7.878307104110717773e-01
-4.240540862083435059e-01 -1.949339509010314941e-01 -7.306398749351501465e-01
-4.625049829483032227e-01 -2.578110396862030029e-01 -7.937569618225097656e-01
-4.486267864704132080e-01 -1.743962317705154419e-01 -8.198808431625366211e-01
-4.073102474212646484e-01 -2.740344405174255371e-01 -8.318005204200744629e-01
-3.998559713363647461e-01 -1.241351217031478882e-01 -8.011692762374877930e-01
-3.552478551864624023e-01 -1.767265200614929199e-01 -7.546668052673339844e-01
-3.499202132225036621e-01 -3.248305022716522217e-01 -7.910100221633911133e-01
-3.609988689422607422e-01 -3.853862285614013672e-01 -7.449656724929809570e-01
-4.179995954036712646e-01 -3.862332105636596680e-01 -7.837757468223571777e-01
-3.375167846679687500e-01 -2.806799113750457764e-01 -7.672902345657348633e-01
-3.451585173606872559e-01 -3.566590547561645508e-01 -7.689376473426818848e-01
-3.421695232391357422e-01 -2.321279495954513550e-01 -7.467787861824035645e-01
-3.544217646121978760e-01 -1.776971668004989624e-01 -7.629147768020629883e-01
-4.397579431533813477e-01 -1.779108345508575439e-01 -8.254570364952087402e-01
-3.834023475646972656e-01 -2.327797710895538330e-01 -7.154888510704040527e-01
-3.800303936004638672e-01 -3.972610831260681152e-01 -7.872115969657897949e-01
-3.430742025375366211e-01 -2.206789702177047729e-01 -7.575313448905944824e-01
-3.526375889778137207e-01 -2.394925057888031006e-01 -7.950105071067810059e-01
-4.021705985069274902e-01 -1.879274249076843262e-01 -7.234457135200500488e-01
-4.121223390102386475e-01 -3.164640069007873535e-01 -8.264521360397338867e-01
-4.088726937770843506e-01 -2.871320545673370361e-01 -7.213729023933410645e-01
-3.394090533256530762e-01 -2.878034114837646484e-01 -7.746335268020629883e-01
-4.589040577411651611e-01 -2.829387784004211426e-01 -7.900758385658264160e-01
-3.815685212612152100e-01 -3.646885454654693604e-01 -8.070835471153259277e-01
-3.672206401824951172e-01 -3.671335875988006592e-01 -7.971891164779663086e-01
-4.522967040538787842e-01 -1.366837024688720703e-01 -7.868881821632385254e-01
-4.213759303092956543e-01 -1.414828151464462280e-01 -7.427201867103576660e-01
-3.488719761371612549e-01 -2.280884534120559692e-01 -7.331566810607910156e-01
-3.604440391063690186e-01 -1.859232187271118164e-01 -7.903267741203308105e-01
-4.268498718738555908e-01 -3.143253326416015625e-01 -7.377350926399230957e-01
-3.455341756343841553e-01 -2.385397404432296753e-01 -7.351617813110351562e-01
-3.714725375175476074e-01 -1.392540633678436279e-01 -7.695696353912353516e-01
-4.613718688488006592e-01 -2.669211328029632568e-01 -7.883896231651306152e-01
-4.028288424015045166e-01 -1.698982715606689453e-01 -7.276874184608459473e-01
-3.880059123039245605e-01 -2.686601877212524414e-01 -7.143744826316833496e-01
-4.417437911033630371e-01 -2.348700165748596191e-01 -7.417514920234680176e-01
-3.657983839511871338e-01 -1.823118329048156738e-01 -7.968763709068298340e-01
-4.517526328563690186e-01 -2.071910947561264038e-01 -7.546148300170898438e-01
-4.363949596881866455e-01 -1.239837855100631714e-01 -7.630733847618103027e-01
-4.609907269477844238e-01 -2.496011108160018921e-01 -7.752336859703063965e-01
-4.302947819232940674e-01 -3.552241325378417969e-01 -7.596224546432495117e-01
-4.002713561058044434e-01 -1.771660447120666504e-01 -8.228508830070495605e-01
-4.069225788116455078e-01 -1.254457235336303711e-01 -8.061902523040771484e-01
-3.954623639583587646e-01 -3.584408760070800781e-01 -7.305346727371215820e-01
-4.593093395233154297e-01 -1.697185188531875610e-01 -8.032726049423217773e-01
-3.967545926570892334e-01 -3.263326287269592285e-01 -8.228533864021301270e-01
-3.447108268737792969e-01 -2.273419946432113647e-01 -7.753455042839050293e-01
-3.724568784236907959e-01 -1.435482501983642578e-01 -7.509042024612426758e-01
-4.490160048007965088e-01 -2.795963585376739502e-01 -7.559945583343505859e-01
-4.464693367481231689e-01 -1.790162622928619385e-01 -7.518550753593444824e-01
-4.475717842578887939e-01 -3.135275840759277344e-01 -7.666134834289550781e-01
-3.805200159549713135e-01 -1.258481442928314209e-01 -7.633574604988098145e-01
-4.486834704875946045e-01 -1.711644977331161499e-01 -7.565049529075622559e-01
-3.631847202777862549e-01 -2.024171203374862671e-01 -8.005318045616149902e-01
-4.563278257846832275e-01 -2.651577889919281006e-01 -7.664486169815063477e-01
-3.523758649826049805e-01 -2.874998450279235840e-01 -7.981491684913635254e-01
-3.364107906818389893e-01 -3.047832250595092773e-01 -7.576588988304138184e-01
-3.534347116947174072e-01 -1.892971694469451904e-01 -7.767992615699768066e-01
-4.486560523509979248e-01 -2.173320055007934570e-01 -7.498536109924316406e-01
-4.229779541492462158e-01 -2.379261553287506104e-01 -7.267853021621704102e-01
-3.596929311752319336e-01 -2.734960317611694336e-01 -8.065134286880493164e-01
-3.863830268383026123e-01 -1.267362833023071289e-01 -7.514171600341796875e-01
-4.644997119903564453e-01 -2.299582660198211670e-01 -7.883132100105285645e-01
-3.593947887420654297e-01 -3.025382459163665771e-01 -7.192153334617614746e-01
-4.034880697727203369e-01 -3.419073522090911865e-01 -7.288500070571899414e-01
-4.502654969692230225e-01 -2.973332405090332031e-01 -8.111289739608764648e-01
-3.743486106395721436e-01 -2.260718345642089844e-01 -7.172533273696899414e-01
-3.433542847633361816e-01 -3.417198657989501953e-01 -7.735113501548767090e-01
-4.417257010936737061e-01 -2.735404372215270996e-01 -8.260173201560974121e-01
-4.144301414489746094e-01 -1.262294352054595947e-01 -7.472845315933227539e-01
-3.917666673660278320e-01 -3.132596015930175781e-01 -7.185544967651367188e-01
-3.491900265216827393e-01 -2.695980966091156006e-01 -7.253929376602172852e-01
-4.049398899078369141e-01 -2.144692838191986084e-01 -8.304333686828613281e-01
-4.351649880409240723e-01 -1.477001011371612549e-01 -8.186957836151123047e-01
-3.397593796253204346e-01 -3.308551907539367676e-01 -7.668428421020507812e-01
-4.440887570381164551e-01 -2.779066860675811768e-01 -7.484466433525085449e-01
-4.152926504611968994e-01 -2.586397230625152588e-01 -7.226756215095520020e-01
-3.572378754615783691e-01 -3.657163679599761963e-01 -7.351282835006713867e-01
-4.467472732067108154e-01 -3.264109492301940918e-01 -7.751752734184265137e-01
-3.913647830486297607e-01 -1.183768808841705322e-01 -7.567867040634155273e-01
-3.826535046100616455e-01 -1.830624639987945557e-01 -8.141216635704040527e-01
-4.212503135204315186e-01 -3.729882836341857910e-01 -7.990494370460510254e-01
-3.417558372020721436e-01 -2.558734416961669922e-01 -7.771251797676086426e-01
-4.630198478698730469e-01 -2.152642458677291870e-01 -8.051353693008422852e-01
-3.988392353057861328e-01 -1.314609795808792114e-01 -8.052023053169250488e-01
-4.216293692588806152e-01 -1.030734032392501831e-01 -7.862755656242370605e-01
-3.683306872844696045e-01 -1.568413972854614258e-01 -7.442606091499328613e-01
-4.185049533843994141e-01 -3.801707327365875244e-01 -7.943962216377258301e-01
-4.629634618759155273e-01 -1.883153617382049561e-01 -7.842285633087158203e-01
-4.303608238697052002e-01 -1.709927022457122803e-01 -8.263166546821594238e-01
-4.391689002513885498e-01 -3.499497473239898682e-01 -7.797844409942626953e-01
-4.277114570140838623e-01 -3.699039816856384277e-01 -7.700057625770568848e-01
-4.035435318946838379e-01 -3.979240357875823975e-01 -7.852380871772766113e-01
-4.439587891101837158e-01 -1.234669983386993408e-01 -7.971525192260742188e-01
-4.028570055961608887e-01 -3.042470216751098633e-01 -8.279261589050292969e-01
-3.771895170211791992e-01 -3.002937734127044678e-01 -7.154126763343811035e-01
-3.891252875328063965e-01 -2.913361787796020508e-01 -8.255512118339538574e-01
-3.632247745990753174e-01 -3.942342400550842285e-01 -7.531897425651550293e-01
-4.037465453147888184e-01 -1.101223081350326538e-01 -7.599289417266845703e-01
-3.835495412349700928e-01 -1.464540213346481323e-01 -8.007997870445251465e-01
-4.624220132827758789e-01 -2.103055864572525024e-01 -7.762247920036315918e-01
-4.218266308307647705e-01 -1.153479963541030884e-01 -7.577262520790100098e-01
-4.322464168071746826e-01 -1.138702183961868286e-01 -7.991825938224792480e-01
-4.394847154617309570e-01 -1.726714074611663818e-01 -7.458894848823547363e-01
-3.752553761005401611e-01 -2.742629945278167725e-01 -7.142321467399597168e-01
-4.554199278354644775e-01 -1.638700664043426514e-01 -8.090065121650695801e-01
-3.622203767299652100e-01 -2.294496744871139526e-01 -8.054329156875610352e-01
-3.781504333019256592e-01 -3.131871819496154785e-01 -7.168180346488952637e-01
-4.567187726497650146e-01 -2.509768009185791016e-01 -8.151555061340332031e-01
-3.510673046112060547e-01 -3.761993348598480225e-01 -7.523866295814514160e-01
-3.807596862316131592e-01 -1.945508569478988647e-01 -8.155059218406677246e-01
-4.361625909805297852e-01 -3.106830418109893799e-01 -8.208763003349304199e-01
-4.634804725646972656e-01 -2.233745455741882324e-01 -7.801226973533630371e-01
-3.432720601558685303e-01 -2.234471291303634644e-01 -7.665725946426391602e-01
-3.912110626697540283e-01 -1.863830089569091797e-01 -8.204882144927978516e-01
-4.010626971721649170e-01 -1.166876405477523804e-01 -7.532702684402465820e-01
-3.534851968288421631e-01 -2.297039926052093506e-01 -7.942968606948852539e-01
-4.504286646842956543e-01 -3.123870193958282471e-01 -7.742930650711059570e-01
-3.477086722850799561e-01 -2.263358980417251587e-01 -7.828134298324584961e-01
-4.190118908882141113e-01 -3.103218674659729004e-01 -7.305678129196166992e-01
-4.613400697708129883e-01 -2.246894687414169312e-01 -8.096234798431396484e-01
-4.499719142913818359e-01 -1.624617874622344971e-01 -7.609996795654296875e-01
-3.570747077465057373e-01 -2.345374822616577148e-01 -8.002215623855590820e-01
-4.359668791294097900e-01 -2.981442511081695557e-01 -7.429555058479309082e-01
-4.430045485496520996e-01 -1.498730331659317017e-01 -8.160737156867980957e-01
-4.357971549034118652e-01 -2.281440049409866333e-01 -7.362197637557983398e-01
-4.089908897876739502e-01 -1.932660341262817383e-01 -7.242435812950134277e-01
-4.081089496612548828e-01 -2.663061916828155518e-01 -7.196279764175415039e-01
-3.395473957061767578e-01 -2.541996538639068604e-01 -7.445033192634582520e-01
-4.040831029415130615e-01 -1.317218244075775146e-01 -7.424039244651794434e-01
-3.403939008712768555e-01 -3.388267755508422852e-01 -7.640346288681030273e-01
-4.548564851284027100e-01 -1.646985709667205811e-01 -7.687861323356628418e-01
-4.562955498695373535e-01 -2.730186581611633301e-01 -8.101476430892944336e-01
-3.908830285072326660e-01 -3.009706437587738037e-01 -7.167913913726806641e-01
-4.117367267608642578e-01 -1.088871508836746216e-01 -7.606249451637268066e-01
-3.555199503898620605e-01 -2.133155316114425659e-01 -7.930635809898376465e-01
-4.410535395145416260e-01 -3.456600904464721680e-01 -7.886607646942138672e-01
-3.880196511745452881e-01 -1.359839737415313721e-01 -7.427223324775695801e-01
-4.042636752128601074e-01 -3.286372721195220947e-01 -7.258254885673522949e-01
-4.470970928668975830e-01 -2.257796227931976318e-01 -8.264930844306945801e-01
-3.758105039596557617e-01 -3.397873044013977051e-01 -7.215377092361450195e-01
-3.630325198173522949e-01 -2.445775568485260010e-01 -8.082522153854370117e-01
-3.988415598869323730e-01 -1.140698492527008057e-01 -7.911057472229003906e-01
-4.607867598533630371e-01 -2.291383743286132812e-01 -7.712756991386413574e-01
-4.194737374782562256e-01 -3.610798120498657227e-01 -7.483963370323181152e-01
-3.421134054660797119e-01 -3.293318748474121094e-01 -7.753404974937438965e-01
-4.258699417114257812e-01 -3.073026537895202637e-01 -8.263949751853942871e-01
-3.949032723903656006e-01 -3.820337653160095215e-01 -7.411329746246337891e-01
-4.489146471023559570e-01 -1.370128691196441650e-01 -7.728696465492248535e-01
-4.196176230907440186e-01 -2.657487392425537109e-01 -8.330746293067932129e-01
-3.891249895095825195e-01 -1.215343773365020752e-01 -7.876706719398498535e-01
-3.605969548225402832e-01 -2.978596687316894531e-01 -8.066602945327758789e-01
-3.973507583141326904e-01 -2.481334358453750610e-01 -7.160873413085937500e-01
-4.284849762916564941e-01 -2.530428171157836914e-01 -8.328800201416015625e-01
-4.431512653827667236e-01 -1.570611447095870972e-01 -7.539654970169067383e-01
-4.405432045459747314e-01 -1.334235668182373047e-01 -8.096495270729064941e-01
-3.726044595241546631e-01 -2.082305699586868286e-01 -7.207397222518920898e-01
-3.365437388420104980e-01 -2.755919098854064941e-01 -7.582681775093078613e-01
-4.200824797153472900e-01 -2.849477529525756836e-01 -7.273173928260803223e-01
-3.649305701255798340e-01 -3.712422847747802734e-01 -7.335741519927978516e-01
-3.549623489379882812e-01 -1.809164285659790039e-01 -7.735949158668518066e-01
-3.760623633861541748e-01 -3.510439991950988770e-01 -7.244281172752380371e-01
-3.656824231147766113e-01 -2.635774314403533936e-01 -7.162358760833740234e-01
-3.524492681026458740e-01 -2.581595778465270996e-01 -7.972620725631713867e-01
-3.800874352455139160e-01 -1.574569195508956909e-01 -8.028538823127746582e-01
-4.516456127166748047e-01 -2.660291492938995361e-01 -8.190445899963378906e-01
-4.570438265800476074e-01 -2.895936965942382812e-01 -7.818561196327209473e-01
-3.842835724353790283e-01 -3.326765298843383789e-01 -8.175263404846191406e-01
-3.636416196823120117e-01 -2.857191264629364014e-01 -7.167544364929199219e-01
-4.426531493663787842e-01 -2.337539643049240112e-01 -8.289567828178405762e-01
-3.768396675586700439e-01 -1.471379101276397705e-01 -7.931256294250488281e-01
-4.232527911663055420e-01 -1.823493987321853638e-01 -7.322324514389038086e-01
-4.338967800140380859e-01 -3.533712029457092285e-01 -8.004076480865478516e-01
-3.578049838542938232e-01 -2.187979519367218018e-01 -7.261936068534851074e-01
-3.590607643127441406e-01 -3.328565657138824463e-01 -7.235964536666870117e-01
-4.092327654361724854e-01 -1.473621428012847900e-01 -7.361069321632385254e-01
-4.043447971343994141e-01 -2.805860936641693115e-01 -7.189241647720336914e-01
-4.223842620849609375e-01 -1.092900037765502930e-01 -7.972746491432189941e-01
-4.340704381465911865e-01 -1.979420781135559082e-01 -8.301405906677246094e-01
-3.973857164382934570e-01 -1.275688409805297852e-01 -7.453570961952209473e-01
-4.457007050514221191e-01 -1.860986948013305664e-01 -8.241324424743652344e-01
-3.830780982971191406e-01 -3.884304761886596680e-01 -7.957422137260437012e-01
-4.070531427860260010e-01 -1.177520900964736938e-01 -8.008768558502197266e-01
-4.279704988002777100e-01 -3.627421855926513672e-01 -7.617530226707458496e-01
-4.043966829776763916e-01 -2.940277755260467529e-01 -8.295195698738098145e-01
-4.424383044242858887e-01 -1.186844110488891602e-01 -7.807506918907165527e-01
-4.584531784057617188e-01 -2.774213850498199463e-01 -8.020507693290710449e-01
-4.432844221591949463e-01 -2.521503865718841553e-01 -8.277047872543334961e-01
-3.606378436088562012e-01 -1.764604151248931885e-01 -7.852711677551269531e-01
-3.612040281295776367e-01 -2.498238235712051392e-01 -7.188927531242370605e-01
-4.602671861648559570e-01 -2.680917382240295410e-01 -7.804377675056457520e-01
-4.434325695037841797e-01 -2.069035321474075317e-01 -7.445139288902282715e-01
-4.435175657272338867e-01 -3.265622556209564209e-01 -8.058732748031616211e-01
-4.353535175323486328e-01 -3.580004572868347168e-01 -7.775864005088806152e-01
-4.442281126976013184e-01 -2.617094218730926514e-01 -7.461692690849304199e-01
-4.157531559467315674e-01 -3.413854837417602539e-01 -7.363992929458618164e-01
-4.390239119529724121e-01 -2.140049338340759277e-01 -7.396735548973083496e-01
-3.591476082801818848e-01 -1.675435900688171387e-01 -7.722237706184387207e-01
-3.497551083564758301e-01 -2.125709503889083862e-01 -7.378770112991333008e-01
-3.644183576107025146e-01 -3.951747417449951172e-01 -7.734488248825073242e-01
-3.801895976066589355e-01 -2.213085293769836426e-01 -8.196975588798522949e-01
-3.541139662265777588e-01 -2.039808630943298340e-01 -7.871820926666259766e-01
-3.375388681888580322e-01 -2.852898240089416504e-01 -7.443556189537048340e-01
-4.439539909362792969e-01 -3.163072168827056885e-01 -8.113680481910705566e-01
-3.682281076908111572e-01 -3.259955644607543945e-01 -7.195237874984741211e-01
-3.685428500175476074e-01 -1.665026545524597168e-01 -7.931373119354248047e-01
-4.525874853134155273e-01 -2.502082884311676025e-01 -7.565166354179382324e-01
-3.737177252769470215e-01 -2.596260905265808105e-01 -7.145769596099853516e-01
-4.113478064537048340e-01 -3.885288238525390625e-01 -7.607918381690979004e-01
-4.249978363513946533e-01 -3.049623668193817139e-01 -7.340179085731506348e-01
-3.858100771903991699e-01 -3.781718015670776367e-01 -8.027588129043579102e-01
-3.520717024803161621e-01 -1.848860383033752441e-01 -7.592014670372009277e-01
-4.070330262184143066e-01 -1.998225450515747070e-01 -8.292890787124633789e-01
-3.411168754100799561e-01 -3.200849890708923340e-01 -7.384719848632812500e-01
-3.416122198104858398e-01 -2.287852019071578979e-01 -7.557408213615417480e-01
-4.152069091796875000e-01 -1.801789402961730957e-01 -8.278206586837768555e-01
-4.157086312770843506e-01 -3.206088244915008545e-01 -7.305214405059814453e-01
-3.382089138031005859e-01 -2.656407654285430908e-01 -7.455594539642333984e-01
-3.785793185234069824e-01 -1.764430999755859375e-01 -7.272961139678955078e-01
-4.103064537048339844e-01 -2.523257732391357422e-01 -7.202379703521728516e-01
-4.414942264556884766e-01 -2.016308456659317017e-01 -8.282020092010498047e-01
-3.545148670673370361e-01 -2.956466078758239746e-01 -8.004059791564941406e-01
-4.075199961662292480e-01 -1.488739848136901855e-01 -8.174387216567993164e-01
-3.713125586509704590e-01 -1.855672299861907959e-01 -8.047038912773132324e-01
-4.296104013919830322e-01 -3.343632221221923828e-01 -7.470511198043823242e-01
-4.111363887786865234e-01 -1.571016311645507812e-01 -7.332713603973388672e-01
-4.277362227439880371e-01 -3.726480305194854736e-01 -7.846610546112060547e-01
-4.594287574291229248e-01 -1.905892193317413330e-01 -8.106034994125366211e-01
-4.458284080028533936e-01 -2.932479977607727051e-01 -7.545986771583557129e-01
-4.055401682853698730e-01 -3.760605454444885254e-01 -7.441802024841308594e-01
-3.474738001823425293e-01 -2.472701221704483032e-01 -7.879666090011596680e-01
-4.513813257217407227e-01 -2.626232802867889404e-01 -7.563266158103942871e-01
-4.005504548549652100e-01 -2.814742922782897949e-01 -8.299626708030700684e-01
-4.012293219566345215e-01 -3.644989132881164551e-01 -7.355924844741821289e-01
-4.307948052883148193e-01 -1.118424385786056519e-01 -7.683230042457580566e-01
-4.255238771438598633e-01 -2.339032739400863647e-01 -8.335781693458557129e-01
-3.798282146453857422e-01 -2.051499336957931519e-01 -8.169647455215454102e-01
-4.057457447052001953e-01 -2.264392971992492676e-01 -7.193889617919921875e-01
-4.544733166694641113e-01 -3.020528554916381836e-01 -7.955887317657470703e-01
-3.706700205802917480e-01 -3.842200934886932373e-01 -7.388802766799926758e-01
-4.369382560253143311e-01 -1.518395245075225830e-01 -7.494973540306091309e-01
-4.553321897983551025e-01 -1.529784351587295532e-01 -7.766063809394836426e-01
-3.631302118301391602e-01 -3.967745304107666016e-01 -7.628490924835205078e-01
-3.417167663574218750e-01 -3.487449288368225098e-01 -7.551539540290832520e-01
-3.965882062911987305e-01 -1.587825119495391846e-01 -8.159160614013671875e-01
-3.559468388557434082e-01 -3.871625065803527832e-01 -7.623846530914306641e-01
-4.117881059646606445e-01 -3.931344151496887207e-01 -7.710325121879577637e-01
-4.273098707199096680e-01 -2.162128686904907227e-01 -8.327615261077880859e-01
-3.435705602169036865e-01 -2.736170291900634766e-01 -7.316983342170715332e-01
-3.457683026790618896e-01 -2.147560566663742065e-01 -7.465220689773559570e-01
-3.739066720008850098e-01 -1.896350830793380737e-01 7.596585750579833984e-01
-4.062264561653137207e-01 -1.513390839099884033e-01 7.215204834938049316e-01
-3.940319716930389404e-01 -2.412155717611312866e-01 7.855708599090576172e-01
-4.636699259281158447e-01 -2.101734280586242676e-01 7.777487635612487793e-01
-4.469458460807800293e-01 -1.867119371891021729e-01 8.324981927871704102e-01
-4.141542911529541016e-01 -2.456034719944000244e-01 7.457665205001831055e-01
-3.765352964401245117e-01 -1.813830435276031494e-01 7.685778141021728516e-01
-3.737095892429351807e-01 -1.924866735935211182e-01 7.645581960678100586e-01
-4.684346914291381836e-01 -1.491348147392272949e-01 7.983661890029907227e-01
-4.308436214923858643e-01 -2.371911853551864624e-01 7.416643500328063965e-01
-4.352218806743621826e-01 -1.479104459285736084e-01 8.227319121360778809e-01
-4.644005000591278076e-01 -1.421527564525604248e-01 7.576447725296020508e-01
-4.166599810123443604e-01 -2.486748695373535156e-01 7.713321447372436523e-01
-4.615028500556945801e-01 -2.117451280355453491e-01 7.641048431396484375e-01
-4.250144958496093750e-01 -1.481928229331970215e-01 7.175109386444091797e-01
-4.033650457859039307e-01 -1.404098272323608398e-01 7.805155515670776367e-01
-4.210161566734313965e-01 -2.078193128108978271e-01 8.307055234909057617e-01
-4.421278834342956543e-01 -1.453479528427124023e-01 8.206433653831481934e-01
-4.601398408412933350e-01 -1.834124326705932617e-01 7.330608367919921875e-01
-3.737548887729644775e-01 -2.156580537557601929e-01 7.632383704185485840e-01
-4.144644141197204590e-01 -1.798491030931472778e-01 7.026820182800292969e-01
-4.190501272678375244e-01 -1.959873884916305542e-01 7.029303908348083496e-01
-3.914595544338226318e-01 -1.584900170564651489e-01 7.891280055046081543e-01
-4.656426310539245605e-01 -1.756598055362701416e-01 8.158512711524963379e-01
-4.683577120304107666e-01 -1.681689023971557617e-01 7.484376430511474609e-01
-4.655940830707550049e-01 -1.846069395542144775e-01 7.444214820861816406e-01
-4.364766180515289307e-01 -1.769730150699615479e-01 7.084577679634094238e-01
-3.865090608596801758e-01 -1.592183560132980347e-01 7.473632693290710449e-01
-3.862399756908416748e-01 -2.296762615442276001e-01 7.910369038581848145e-01
-4.464214444160461426e-01 -1.552505046129226685e-01 7.211003303527832031e-01
-4.437006413936614990e-01 -1.826756894588470459e-01 8.342036008834838867e-01
-4.299699366092681885e-01 -1.391991376876831055e-01 8.123471736907958984e-01
-3.811539113521575928e-01 -2.319035977125167847e-01 7.738990187644958496e-01
-4.592730402946472168e-01 -1.378877758979797363e-01 7.524425983428955078e-01
-4.448327124118804932e-01 -1.365258097648620605e-01 7.361469268798828125e-01
-4.014540612697601318e-01 -2.293047755956649780e-01 7.190281152725219727e-01
-3.991841971874237061e-01 -1.499805599451065063e-01 7.931349277496337891e-01
-4.549110531806945801e-01 -1.608109176158905029e-01 7.269683480262756348e-01
-4.434233307838439941e-01 -2.351232618093490601e-01 7.809635996818542480e-01
-4.284779429435729980e-01 -1.416679322719573975e-01 7.240239381790161133e-01
-3.840611577033996582e-01 -1.633719652891159058e-01 7.708215713500976562e-01
-3.837521672248840332e-01 -1.884136199951171875e-01 7.986189126968383789e-01
-3.993890881538391113e-01 -1.777566969394683838e-01 8.179576396942138672e-01
-4.536075592041015625e-01 -1.293025612831115723e-01 7.625122666358947754e-01
-4.119825065135955811e-01 -1.965199410915374756e-01 8.302208185195922852e-01
-4.550395309925079346e-01 -1.381404548883438110e-01 7.447101473808288574e-01
-4.133677780628204346e-01 -2.293724715709686279e-01 8.155222535133361816e-01
-4.157186746597290039e-01 -1.493591517210006714e-01 8.147270679473876953e-01
-4.045190513134002686e-01 -2.486245036125183105e-01 7.730337977409362793e-01
-4.479509592056274414e-01 -2.108418792486190796e-01 8.209787607192993164e-01
-3.836348354816436768e-01 -2.150097638368606567e-01 7.975645661354064941e-01
-3.821764886379241943e-01 -1.805956512689590454e-01 7.906291484832763672e-01
-4.671825170516967773e-01 -1.968871057033538818e-01 7.595446109771728516e-01
-4.611300826072692871e-01 -2.041071653366088867e-01 8.081826567649841309e-01
-4.444157779216766357e-01 -2.344631552696228027e-01 7.709702849388122559e-01
-4.024380147457122803e-01 -1.681481301784515381e-01 7.104591131210327148e-01
-3.731105923652648926e-01 -2.061234265565872192e-01 7.473070025444030762e-01
-4.354124665260314941e-01 -1.712144464254379272e-01 7.087204456329345703e-01
-4.425977170467376709e-01 -1.657820343971252441e-01 7.141887545585632324e-01
-3.933589756488800049e-01 -2.125504761934280396e-01 8.124437332153320312e-01
-4.462569952011108398e-01 -1.319229900836944580e-01 8.022709488868713379e-01
-4.411154091358184814e-01 -1.351478993892669678e-01 8.089164495468139648e-01
-4.430070519447326660e-01 -1.296750158071517944e-01 7.468553781509399414e-01
-4.019817113876342773e-01 -2.207753509283065796e-01 7.122596502304077148e-01
-4.637910127639770508e-01 -2.076945602893829346e-01 7.930235862731933594e-01
-4.474606215953826904e-01 -1.417182534933090210e-01 7.320480346679687500e-01
-3.824511170387268066e-01 -2.273408025503158569e-01 7.856624722480773926e-01
-4.007576406002044678e-01 -1.585770100355148315e-01 7.188168764114379883e-01
-3.774912357330322266e-01 -2.173826098442077637e-01 7.814640998840332031e-01
-3.950397372245788574e-01 -2.371876984834671021e-01 7.944734692573547363e-01
-3.902359604835510254e-01 -1.523211896419525146e-01 7.631588578224182129e-01
-4.458377361297607422e-01 -1.427157819271087646e-01 8.174405694007873535e-01
-4.206751585006713867e-01 -1.780335605144500732e-01 7.031505107879638672e-01
-4.203835129737854004e-01 -2.076845169067382812e-01 7.064931392669677734e-01
-3.773838281631469727e-01 -1.995232552289962769e-01 7.300342321395874023e-01
-3.953465223312377930e-01 -1.603461205959320068e-01 7.231671214103698730e-01
-4.135434031486511230e-01 -1.433797180652618408e-01 7.261149883270263672e-01
-4.572387337684631348e-01 -2.197711467742919922e-01 7.862383127212524414e-01
-3.921289443969726562e-01 -2.283587157726287842e-01 7.227490544319152832e-01
-3.857670724391937256e-01 -1.956849098205566406e-01 8.041263222694396973e-01
-4.705186188220977783e-01 -1.684097349643707275e-01 8.052986860275268555e-01
-4.340891540050506592e-01 -2.319557964801788330e-01 8.084106445312500000e-01
-3.871355652809143066e-01 -2.253929972648620605e-01 7.969064712524414062e-01
-3.830656707286834717e-01 -2.045099288225173950e-01 7.195610404014587402e-01
-4.356358945369720459e-01 -1.889478564262390137e-01 7.082983851432800293e-01
-4.108473360538482666e-01 -1.915252953767776489e-01 7.021209597587585449e-01
-4.602663516998291016e-01 -1.984552890062332153e-01 7.408804893493652344e-01
-4.177682995796203613e-01 -1.731324493885040283e-01 7.040616869926452637e-01
-3.747770488262176514e-01 -2.128250002861022949e-01 7.739517688751220703e-01
-4.274147450923919678e-01 -1.270270645618438721e-01 7.530993223190307617e-01
-4.266620874404907227e-01 -2.417881041765213013e-01 7.471193671226501465e-01
-4.136947989463806152e-01 -2.120595276355743408e-01 7.069994211196899414e-01
-3.897191882133483887e-01 -1.562721580266952515e-01 7.416615486145019531e-01
-4.414154887199401855e-01 -1.425986886024475098e-01 7.269496321678161621e-01
-3.890420794486999512e-01 -2.156230509281158447e-01 8.058845400810241699e-01
-4.594479799270629883e-01 -2.102805972099304199e-01 7.524921298027038574e-01
-4.600978791713714600e-01 -2.085800319910049438e-01 8.046434521675109863e-01
-4.495449960231781006e-01 -2.059795856475830078e-01 8.231900930404663086e-01
-3.856072425842285156e-01 -2.293381839990615845e-01 7.308284640312194824e-01
-4.356593489646911621e-01 -1.555658131837844849e-01 8.281331658363342285e-01
-4.418205916881561279e-01 -1.766015291213989258e-01 7.118610739707946777e-01
-4.131226241588592529e-01 -1.859998852014541626e-01 7.020549178123474121e-01
-4.223898053169250488e-01 -1.918002665042877197e-01 8.344676494598388672e-01
-4.480085074901580811e-01 -2.190270572900772095e-01 8.124066591262817383e-01
-3.934316933155059814e-01 -1.532875746488571167e-01 7.848511338233947754e-01
-3.977534770965576172e-01 -1.734694540500640869e-01 7.108851671218872070e-01
-3.841490745544433594e-01 -2.098830044269561768e-01 8.003401160240173340e-01
-4.702203571796417236e-01 -1.912908405065536499e-01 7.943173646926879883e-01
-3.769831359386444092e-01 -1.933958083391189575e-01 7.326589226722717285e-01
-4.170809686183929443e-01 -1.522914916276931763e-01 7.150616049766540527e-01
-4.132488369941711426e-01 -1.342300623655319214e-01 7.862656712532043457e-01
-4.525291919708251953e-01 -1.277574151754379272e-01 7.679736018180847168e-01
-4.647133946418762207e-01 -1.702124029397964478e-01 8.173071146011352539e-01
-4.669651687145233154e-01 -1.471470147371292114e-01 7.576894164085388184e-01
-4.719590842723846436e-01 -1.847156137228012085e-01 7.935988306999206543e-01
-4.495914578437805176e-01 -2.291814088821411133e-01 7.835230231285095215e-01
-4.170576930046081543e-01 -2.476576119661331177e-01 7.803990840911865234e-01
-3.788335025310516357e-01 -1.727082580327987671e-01 7.575478553771972656e-01
-4.534851014614105225e-01 -2.237103283405303955e-01 7.902909517288208008e-01
