8.166608959436416626e-02 1.936750262975692749e-01 -6.118877530097961426e-01
6.877838820219039917e-02 1.922330707311630249e-01 -5.201898217201232910e-01
5.523410439491271973e-02 1.957220435142517090e-01 -5.044787526130676270e-01
7.042787969112396240e-02 1.926244050264358521e-01 -4.661849439144134521e-01
9.272428601980209351e-02 2.135791629552841187e-01 -4.315029978752136230e-01
8.421142399311065674e-02 1.902274191379547119e-01 -4.629057645797729492e-01
1.377722918987274170e-01 2.115624099969863892e-01 -5.286435484886169434e-01
1.171745583415031433e-01 1.900421530008316040e-01 -3.688115179538726807e-01
5.955212563276290894e-02 2.113444954156875610e-01 -5.052989721298217773e-01
1.170723065733909607e-01 2.074208259582519531e-01 -3.205512464046478271e-01
9.862960129976272583e-02 1.915652304887771606e-01 -3.799834251403808594e-01
1.021803393959999084e-01 2.141571938991546631e-01 -4.392955303192138672e-01
5.204955488443374634e-02 2.062066048383712769e-01 -4.549304246902465820e-01
1.269774883985519409e-01 1.874588280916213989e-01 -5.083902478218078613e-01
1.141706481575965881e-01 1.910493522882461548e-01 -3.580262362957000732e-01
1.238404735922813416e-01 2.137923389673233032e-01 -4.309591054916381836e-01
8.776202797889709473e-02 1.908252686262130737e-01 -4.256956577301025391e-01
1.810532808303833008e-01 2.036750167608261108e-01 -3.591509461402893066e-01
9.525160491466522217e-02 1.938280463218688965e-01 -6.242542266845703125e-01
9.532981365919113159e-02 2.112419456243515015e-01 -3.796184360980987549e-01
1.412068456411361694e-01 1.913322061300277710e-01 -5.725368261337280273e-01
4.583935439586639404e-02 2.002596855163574219e-01 -5.060189366340637207e-01
1.814827919006347656e-01 1.952790021896362305e-01 -3.420201539993286133e-01
1.616459488868713379e-01 2.089658826589584351e-01 -3.725754618644714355e-01
1.197912395000457764e-01 2.047517299652099609e-01 -6.330024003982543945e-01
9.098075330257415771e-02 2.070279121398925781e-01 -6.404995918273925781e-01
1.632640659809112549e-01 2.081087827682495117e-01 -5.009248256683349609e-01
1.331290304660797119e-01 1.924735605716705322e-01 -5.951613783836364746e-01
5.875344201922416687e-02 2.111166417598724365e-01 -5.426575541496276855e-01
1.817193329334259033e-01 2.040826827287673950e-01 -4.576590061187744141e-01
1.235752627253532410e-01 2.136854976415634155e-01 -5.038689970970153809e-01
1.199482083320617676e-01 2.100502997636795044e-01 -5.921339392662048340e-01
8.203361928462982178e-02 1.903549879789352417e-01 -4.733670353889465332e-01
1.691307425498962402e-01 1.908358335494995117e-01 -4.932087659835815430e-01
1.175196170806884766e-01 1.991453021764755249e-01 -6.426861286163330078e-01
1.596603989601135254e-01 2.100821286439895630e-01 -4.028334617614746094e-01
1.375703066587448120e-01 1.917339563369750977e-01 -5.822586417198181152e-01
6.711250543594360352e-02 2.112961411476135254e-01 -4.510066807270050049e-01
1.818250566720962524e-01 1.962009519338607788e-01 -4.931444227695465088e-01
1.253155767917633057e-01 1.891873776912689209e-01 -5.591106414794921875e-01
1.112492308020591736e-01 2.139967381954193115e-01 -5.218147039413452148e-01
1.655612885951995850e-01 2.072796672582626343e-01 -3.508369326591491699e-01
1.211409941315650940e-01 2.079242318868637085e-01 -6.120494604110717773e-01
1.005372405052185059e-01 2.138908654451370239e-01 -4.300054311752319336e-01
1.041471809148788452e-01 2.060423642396926880e-01 -3.240458667278289795e-01
1.833774000406265259e-01 2.040892243385314941e-01 -3.884043097496032715e-01
1.118977069854736328e-01 2.114369422197341919e-01 -5.835737586021423340e-01
8.117134869098663330e-02 1.951629966497421265e-01 -3.819595575332641602e-01
1.291621327400207520e-01 1.901212185621261597e-01 -5.719479322433471680e-01
1.282698214054107666e-01 1.943989098072052002e-01 -3.108972012996673584e-01
1.341643184423446655e-01 2.067571878433227539e-01 -6.009240150451660156e-01
1.629171371459960938e-01 1.920539438724517822e-01 -3.324939012527465820e-01
1.626287698745727539e-01 1.885631680488586426e-01 -4.471751749515533447e-01
1.811785399913787842e-01 1.923249661922454834e-01 -4.507389962673187256e-01
1.765187978744506836e-01 1.918896436691284180e-01 -4.757827222347259521e-01
1.227668225765228271e-01 2.128844261169433594e-01 -3.937498331069946289e-01
1.402777880430221558e-01 1.871370822191238403e-01 -4.634078741073608398e-01
1.677939742803573608e-01 1.891572773456573486e-01 -4.366814792156219482e-01
1.784232854843139648e-01 2.056222856044769287e-01 -3.816736340522766113e-01
1.062112599611282349e-01 1.914720386266708374e-01 -3.655895590782165527e-01
1.548558473587036133e-01 1.878139078617095947e-01 -4.428238570690155029e-01
1.745803803205490112e-01 2.071706354618072510e-01 -4.337679147720336914e-01
1.464827507734298706e-01 2.121610045433044434e-01 -4.471268355846405029e-01
1.105242893099784851e-01 1.881154477596282959e-01 -5.294182300567626953e-01
1.292074918746948242e-01 2.117049843072891235e-01 -5.490450859069824219e-01
9.260929375886917114e-02 2.021854072809219360e-01 -3.306862711906433105e-01
1.091624721884727478e-01 2.098917514085769653e-01 -6.069136857986450195e-01
1.547417491674423218e-01 2.053968608379364014e-01 -5.651102066040039062e-01
1.611630022525787354e-01 1.883619427680969238e-01 -4.309480488300323486e-01
5.514161288738250732e-02 1.959233283996582031e-01 -5.577363371849060059e-01
7.394981384277343750e-02 1.978348642587661743e-01 -3.823623061180114746e-01
1.432712525129318237e-01 1.954504847526550293e-01 -6.004503965377807617e-01
1.293663233518600464e-01 2.123335301876068115e-01 -5.341635346412658691e-01
1.094899103045463562e-01 2.136092782020568848e-01 -5.392376184463500977e-01
1.086844205856323242e-01 1.882274746894836426e-01 -4.311946034431457520e-01
8.673590421676635742e-02 1.945483386516571045e-01 -6.263597011566162109e-01
1.410260945558547974e-01 2.098719626665115356e-01 -3.464050292968750000e-01
7.582461833953857422e-02 1.912106126546859741e-01 -5.373597741127014160e-01
7.021418213844299316e-02 1.921468079090118408e-01 -4.894478321075439453e-01
1.028774902224540710e-01 2.102436423301696777e-01 -3.576193749904632568e-01
7.441471517086029053e-02 2.133685648441314697e-01 -4.936461150646209717e-01
9.646630287170410156e-02 2.144509702920913696e-01 -4.668914973735809326e-01
1.066701039671897888e-01 1.887096464633941650e-01 -4.198526740074157715e-01
7.859561592340469360e-02 1.915093511343002319e-01 -4.495912790298461914e-01
1.443902552127838135e-01 1.909995675086975098e-01 -3.353325426578521729e-01
9.839729964733123779e-02 2.110454738140106201e-01 -6.005864143371582031e-01
1.584718525409698486e-01 2.077005207538604736e-01 -3.395175337791442871e-01
1.570755690336227417e-01 1.885269582271575928e-01 -3.944243192672729492e-01
8.340647071599960327e-02 2.129555195569992065e-01 -5.644642710685729980e-01
1.153709739446640015e-01 1.955326199531555176e-01 -6.325353980064392090e-01
1.055384203791618347e-01 1.976014375686645508e-01 -6.464536786079406738e-01
1.264806091785430908e-01 1.904848963022232056e-01 -3.509114682674407959e-01
1.740452945232391357e-01 2.073771059513092041e-01 -4.181731343269348145e-01
1.270278692245483398e-01 1.945727467536926270e-01 -6.175067424774169922e-01
1.122378855943679810e-01 2.120159268379211426e-01 -5.733858346939086914e-01
1.652891337871551514e-01 2.062800228595733643e-01 -3.355869650840759277e-01
6.548499315977096558e-02 1.933482587337493896e-01 -4.811895489692687988e-01
9.359033405780792236e-02 2.132459282875061035e-01 -4.202525019645690918e-01
1.115019768476486206e-01 1.901573687791824341e-01 -5.810375213623046875e-01
1.639279425144195557e-01 1.892779618501663208e-01 -3.871026337146759033e-01
1.585145443677902222e-01 2.104673981666564941e-01 -4.475331008434295654e-01
1.729085743427276611e-01 2.032957971096038818e-01 -5.192740559577941895e-01
1.090783178806304932e-01 2.145447880029678345e-01 -4.828420579433441162e-01
1.307363510131835938e-01 1.872471272945404053e-01 -4.296927452087402344e-01
1.609173417091369629e-01 1.884728670120239258e-01 -4.572935402393341064e-01
1.686786860227584839e-01 2.009325772523880005e-01 -5.468114614486694336e-01
1.283410042524337769e-01 2.041837275028228760e-01 -2.981670200824737549e-01
1.343493610620498657e-01 2.106981724500656128e-01 -5.555987358093261719e-01
1.816474199295043945e-01 1.923563927412033081e-01 -3.856520652770996094e-01
1.150516867637634277e-01 2.141506373882293701e-01 -5.050584673881530762e-01
1.146576255559921265e-01 1.889190971851348877e-01 -3.954085111618041992e-01
6.984446942806243896e-02 2.126228362321853638e-01 -5.447117090225219727e-01
7.901455461978912354e-02 2.098677307367324829e-01 -6.149038076400756836e-01
1.482144296169281006e-01 1.960471868515014648e-01 -5.942022204399108887e-01
1.653211414813995361e-01 2.092511057853698730e-01 -4.124938845634460449e-01
1.395114362239837646e-01 1.882215589284896851e-01 -3.871024847030639648e-01
5.124879628419876099e-02 2.094321250915527344e-01 -5.277265310287475586e-01
1.789577901363372803e-01 2.030719220638275146e-01 -3.420379757881164551e-01
7.209898531436920166e-02 2.094962149858474731e-01 -4.067662358283996582e-01
7.860624045133590698e-02 1.925262510776519775e-01 -4.254479408264160156e-01
5.780133232474327087e-02 1.980378627777099609e-01 -4.414133429527282715e-01
1.797081083059310913e-01 2.052851766347885132e-01 -4.477553367614746094e-01
8.273540437221527100e-02 2.139568775892257690e-01 -5.186442136764526367e-01
4.425673186779022217e-02 2.007545232772827148e-01 -5.328388214111328125e-01
1.428598314523696899e-01 2.079274058341979980e-01 -3.232709169387817383e-01
6.367066502571105957e-02 2.057968527078628540e-01 -4.050478339195251465e-01
7.796607911586761475e-02 2.135644257068634033e-01 -5.284706950187683105e-01
7.597526907920837402e-02 2.110907882452011108e-01 -5.960868597030639648e-01
5.927179753780364990e-02 2.109890729188919067e-01 -4.888208508491516113e-01
1.015676259994506836e-01 2.057903409004211426e-01 -6.434995532035827637e-01
8.089772611856460571e-02 1.902754604816436768e-01 -4.966064095497131348e-01
8.100563287734985352e-02 2.136332392692565918e-01 -5.355958342552185059e-01
7.547539472579956055e-02 2.124162018299102783e-01 -5.683612823486328125e-01
1.222768276929855347e-01 2.139627039432525635e-01 -4.388809204101562500e-01
7.040734589099884033e-02 2.123317122459411621e-01 -5.586696863174438477e-01
1.163282170891761780e-01 2.135913074016571045e-01 -5.279358625411987305e-01
7.847771048545837402e-02 1.907789111137390137e-01 -4.817033112049102783e-01
7.913473248481750488e-02 1.970458179712295532e-01 -3.728470504283905029e-01
8.491507172584533691e-02 1.908787935972213745e-01 -4.361844360828399658e-01
1.714556068181991577e-01 2.077241241931915283e-01 -4.518104493618011475e-01
1.735012829303741455e-01 1.929633617401123047e-01 -3.403345942497253418e-01
9.477122128009796143e-02 2.144841253757476807e-01 -4.765422344207763672e-01
1.665353178977966309e-01 1.912884265184402466e-01 -5.113711953163146973e-01
1.472830325365066528e-01 2.114224433898925781e-01 -3.932356834411621094e-01
9.766177088022232056e-02 1.884129941463470459e-01 -4.928712546825408936e-01
8.272740244865417480e-02 2.104799747467041016e-01 -3.919890522956848145e-01
1.127928495407104492e-01 1.911213994026184082e-01 -5.953396558761596680e-01
1.338586062192916870e-01 2.130343765020370483e-01 -4.932792782783508301e-01
8.505132794380187988e-02 2.115722000598907471e-01 -4.025002121925354004e-01
1.507512927055358887e-01 1.979481428861618042e-01 -2.908250391483306885e-01
4.914323985576629639e-02 2.084700018167495728e-01 -5.102540850639343262e-01
5.739170685410499573e-02 1.950629055500030518e-01 -5.481016635894775391e-01
9.934198856353759766e-02 1.911610662937164307e-01 -5.936996340751647949e-01
1.187130063772201538e-01 2.138085961341857910e-01 -4.232290685176849365e-01
1.561486572027206421e-01 1.880169510841369629e-01 -4.196187555789947510e-01
1.233200356364250183e-01 2.108360677957534790e-01 -5.761002302169799805e-01
5.504088848829269409e-02 1.956236511468887329e-01 -5.395095348358154297e-01
4.948369413614273071e-02 2.018824815750122070e-01 -6.007859110832214355e-01
7.223963737487792969e-02 1.947275996208190918e-01 -4.157369732856750488e-01
1.689019203186035156e-01 2.044132202863693237e-01 -3.244397044181823730e-01
9.879115223884582520e-02 1.934943199157714844e-01 -3.563730716705322266e-01
5.063679814338684082e-02 2.091849595308303833e-01 -5.192334651947021484e-01
1.845177263021469116e-01 1.973261237144470215e-01 -4.819328784942626953e-01
1.398177593946456909e-01 2.082345932722091675e-01 -5.762979388236999512e-01
6.246793642640113831e-02 1.973363906145095825e-01 -6.150605678558349609e-01
9.378663450479507446e-02 1.929489970207214355e-01 -3.729633092880249023e-01
1.076574921607971191e-01 1.888144314289093018e-01 -5.504136681556701660e-01
1.046435758471488953e-01 1.882447898387908936e-01 -5.241045951843261719e-01
1.641014218330383301e-01 1.996088922023773193e-01 -5.630959868431091309e-01
1.532544791698455811e-01 2.096649706363677979e-01 -3.621313571929931641e-01
1.567306220531463623e-01 2.091204822063446045e-01 -5.112338662147521973e-01
9.902398288249969482e-02 1.885893493890762329e-01 -4.548917114734649658e-01
1.717990040779113770e-01 2.078132331371307373e-01 -4.411528706550598145e-01
1.413651108741760254e-01 2.127000838518142700e-01 -4.558762013912200928e-01
6.346917152404785156e-02 2.109280526638031006e-01 -4.598081409931182861e-01
1.671406924724578857e-01 2.078258097171783447e-01 -4.851467609405517578e-01
1.218241602182388306e-01 1.871473640203475952e-01 -4.822385907173156738e-01
1.489887535572052002e-01 1.890643090009689331e-01 -5.228141546249389648e-01
1.006184592843055725e-01 2.131568491458892822e-01 -5.607354044914245605e-01
7.927390933036804199e-02 1.919108629226684570e-01 -5.778459906578063965e-01
1.193026453256607056e-01 2.120704352855682373e-01 -3.742617666721343994e-01
1.275972425937652588e-01 2.125309854745864868e-01 -3.876001834869384766e-01
1.479239612817764282e-01 2.083634436130523682e-01 -3.324275612831115723e-01
5.163277685642242432e-02 2.083896994590759277e-01 -5.752194523811340332e-01
7.304069399833679199e-02 1.962816864252090454e-01 -6.266832947731018066e-01
1.091881096363067627e-01 2.144903093576431274e-01 -4.929130077362060547e-01
9.402610361576080322e-02 2.141286581754684448e-01 -5.294071435928344727e-01
1.744536161422729492e-01 1.932101100683212280e-01 -5.049421787261962891e-01
1.511138677597045898e-01 2.111243903636932373e-01 -4.823492765426635742e-01
7.170159369707107544e-02 2.127824425697326660e-01 -4.743386209011077881e-01
1.699104905128479004e-01 2.073781341314315796e-01 -4.776873588562011719e-01
1.505519300699234009e-01 2.072140276432037354e-01 -3.222076892852783203e-01
1.703312098979949951e-01 1.912241280078887939e-01 -3.576096892356872559e-01
1.342998445034027100e-01 2.132857888936996460e-01 -4.707603156566619873e-01
1.238610893487930298e-01 1.928826123476028442e-01 -3.261732459068298340e-01
1.372857093811035156e-01 1.873868405818939209e-01 -4.935216903686523438e-01
1.062414497137069702e-01 2.127089202404022217e-01 -5.665304660797119141e-01
1.623191088438034058e-01 1.893884092569351196e-01 -3.788136839866638184e-01
9.519657492637634277e-02 1.906620562076568604e-01 -4.043175876140594482e-01
1.022347658872604370e-01 1.944661885499954224e-01 -3.415121734142303467e-01
1.457101404666900635e-01 1.954894661903381348e-01 -2.984166741371154785e-01
1.738625913858413696e-01 1.902262568473815918e-01 -4.049632549285888672e-01
1.074590533971786499e-01 2.045697122812271118e-01 -3.145810365676879883e-01
7.577012479305267334e-02 2.104495465755462646e-01 -6.053576469421386719e-01
1.022504046559333801e-01 2.127037495374679565e-01 -3.959257602691650391e-01
9.587631374597549438e-02 2.135540395975112915e-01 -5.517588257789611816e-01
1.103285849094390869e-01 2.078019976615905762e-01 -3.282396793365478516e-01
1.251150667667388916e-01 1.918369531631469727e-01 -5.971294641494750977e-01
1.144667789340019226e-01 2.106221765279769897e-01 -3.528874516487121582e-01
1.075895354151725769e-01 1.892814040184020996e-01 -4.017207026481628418e-01
9.700964391231536865e-02 1.926635056734085083e-01 -6.127993464469909668e-01
5.452087521553039551e-02 1.968109905719757080e-01 -4.791282415390014648e-01
7.565222680568695068e-02 1.928282231092453003e-01 -5.873770713806152344e-01
1.645998656749725342e-01 1.891140937805175781e-01 -3.963485062122344971e-01
9.797022491693496704e-02 1.907590031623840332e-01 -3.948156237602233887e-01
1.580190211534500122e-01 1.897888481616973877e-01 -3.613381683826446533e-01
1.239881813526153564e-01 2.140313237905502319e-01 -4.606363773345947266e-01
1.787884086370468140e-01 1.927862316370010376e-01 -3.593179285526275635e-01
6.573571264743804932e-02 1.942936182022094727e-01 -5.836013555526733398e-01
1.870346069335937500e-01 1.939350664615631104e-01 -4.079418480396270752e-01
1.325413882732391357e-01 2.133804410696029663e-01 -4.351217448711395264e-01
1.902423501014709473e-01 1.998735964298248291e-01 -4.187400639057159424e-01
6.109436601400375366e-02 1.956538259983062744e-01 -5.897905826568603516e-01
1.194791793823242188e-01 2.091764956712722778e-01 -6.026661396026611328e-01
1.113078221678733826e-01 1.875000596046447754e-01 -4.759571254253387451e-01
7.407930493354797363e-02 2.075373530387878418e-01 -6.327544450759887695e-01
1.628571301698684692e-01 2.085760533809661865e-01 -4.926584959030151367e-01
7.109217345714569092e-02 1.941438764333724976e-01 -4.288266599178314209e-01
1.194699704647064209e-01 2.142480462789535522e-01 -4.696267247200012207e-01
1.731511205434799194e-01 1.901285648345947266e-01 -4.449016451835632324e-01
1.820769608020782471e-01 2.048382461071014404e-01 -4.260460138320922852e-01
1.265781670808792114e-01 1.917417198419570923e-01 -3.350678980350494385e-01
1.018813624978065491e-01 2.143545597791671753e-01 -5.157146453857421875e-01
1.382558196783065796e-01 2.105684131383895874e-01 -5.478351116180419922e-01
6.183414906263351440e-02 2.073863297700881958e-01 -6.187728047370910645e-01
7.404818385839462280e-02 2.125607728958129883e-01 -4.546071290969848633e-01
1.713779568672180176e-01 2.055057585239410400e-01 -3.426772058010101318e-01
1.459624767303466797e-01 2.039981931447982788e-01 -2.968321144580841064e-01
6.744407117366790771e-02 2.099819928407669067e-01 -6.012264490127563477e-01
9.774030745029449463e-02 1.918991357088088989e-01 -6.035715341567993164e-01
1.021312102675437927e-01 1.886514872312545776e-01 -4.372295141220092773e-01
5.828393995761871338e-02 2.111864537000656128e-01 -5.207132101058959961e-01
6.040346622467041016e-02 1.942850202322006226e-01 -4.981305301189422607e-01
1.326751857995986938e-01 1.870048642158508301e-01 -4.596799910068511963e-01
1.544652581214904785e-01 1.936910599470138550e-01 -3.109451234340667725e-01
1.094601005315780640e-01 2.145348787307739258e-01 -4.690236449241638184e-01
8.732458949089050293e-02 2.038270086050033569e-01 -3.417393565177917480e-01
1.332124769687652588e-01 2.134000062942504883e-01 -4.437038898468017578e-01
6.972622871398925781e-02 2.129117846488952637e-01 -5.023527741432189941e-01
1.217238977551460266e-01 1.882647126913070679e-01 -5.391773581504821777e-01
1.182655468583106995e-01 2.127321958541870117e-01 -5.492130517959594727e-01
1.007895767688751221e-01 2.083271592855453491e-01 -3.419882953166961670e-01
5.260839313268661499e-02 2.098063528537750244e-01 -5.355882644653320312e-01
6.400971114635467529e-02 1.933933794498443604e-01 -5.434306859970092773e-01
1.455545127391815186e-01 2.114128768444061279e-01 -5.027378797531127930e-01
9.335482865571975708e-02 2.096327394247055054e-01 -3.634826838970184326e-01
1.349239349365234375e-01 2.067879885435104370e-01 -3.108894526958465576e-01
9.575930237770080566e-02 2.145420461893081665e-01 -4.864392280578613281e-01
1.772328168153762817e-01 2.028397172689437866e-01 -5.028972029685974121e-01
4.642571508884429932e-02 1.996067017316818237e-01 -5.586972236633300781e-01
1.298698484897613525e-01 1.883514672517776489e-01 -5.368844270706176758e-01
8.868063986301422119e-02 2.138436138629913330e-01 -5.391223430633544922e-01
1.159692853689193726e-01 1.881242096424102783e-01 -4.155414104461669922e-01
1.415342092514038086e-01 1.872031092643737793e-01 -4.373750388622283936e-01
1.324402391910552979e-01 1.873849034309387207e-01 -4.203980267047882080e-01
6.779821217060089111e-02 2.124801576137542725e-01 -4.864511489868164062e-01
1.796643137931823730e-01 1.922223418951034546e-01 -4.614057540893554688e-01
7.393805682659149170e-02 1.919491142034530640e-01 -5.586071610450744629e-01
7.579936087131500244e-02 1.926259398460388184e-01 -4.356560111045837402e-01
1.868136525154113770e-01 1.940139085054397583e-01 -4.279991984367370605e-01
8.751406520605087280e-02 2.142537832260131836e-01 -4.836507737636566162e-01
1.749109029769897461e-01 1.910728961229324341e-01 -4.671308994293212891e-01
1.206949651241302490e-01 1.886166781187057495e-01 -5.487875938415527344e-01
8.720871806144714355e-02 1.897627860307693481e-01 -5.348742604255676270e-01
1.001949310302734375e-01 2.145476788282394409e-01 -4.992230832576751709e-01
1.492656320333480835e-01 2.088268101215362549e-01 -5.439325571060180664e-01
1.697997152805328369e-01 1.950750797986984253e-01 -3.159483671188354492e-01
7.962673902511596680e-02 2.064538151025772095e-01 -6.423690319061279297e-01
1.036459878087043762e-01 1.885437965393066406e-01 -5.356821417808532715e-01
1.830563545227050781e-01 2.045309841632843018e-01 -4.150061905384063721e-01
1.254041045904159546e-01 2.138085216283798218e-01 -4.875509142875671387e-01
1.048228517174720764e-01 2.140632122755050659e-01 -5.281922221183776855e-01
1.790913045406341553e-01 1.985599547624588013e-01 -5.110285878181457520e-01
1.602330505847930908e-01 2.043586671352386475e-01 -3.094612061977386475e-01
6.453855335712432861e-02 2.118607014417648315e-01 -5.513330698013305664e-01
1.057602837681770325e-01 1.914778351783752441e-01 -6.004378795623779297e-01
7.421931624412536621e-02 1.953363269567489624e-01 -4.015199840068817139e-01
8.509545028209686279e-02 1.976940184831619263e-01 -6.464865207672119141e-01
5.483205616474151611e-02 2.101581841707229614e-01 -5.502434968948364258e-01
6.521679461002349854e-02 2.011600136756896973e-01 -3.957009315490722656e-01
8.373008668422698975e-02 1.899298429489135742e-01 -4.891122579574584961e-01
8.774559944868087769e-02 2.066731750965118408e-01 -3.508584201335906982e-01
5.669848620891571045e-02 1.972598284482955933e-01 -4.563246667385101318e-01
1.449365466833114624e-01 1.882669478654861450e-01 -5.118261575698852539e-01
8.999369293451309204e-02 2.143780291080474854e-01 -4.998543262481689453e-01
1.494343727827072144e-01 1.883372664451599121e-01 -3.879635930061340332e-01
1.500688791275024414e-01 2.045546621084213257e-01 -5.827004909515380859e-01
1.114956960082054138e-01 2.134642601013183594e-01 -4.085475206375122070e-01
8.785009384155273438e-02 1.903955340385437012e-01 -5.619388818740844727e-01
1.144556999206542969e-01 2.084231823682785034e-01 -6.159424781799316406e-01
1.382963657379150391e-01 1.969199329614639282e-01 -2.937142252922058105e-01
6.665553897619247437e-02 2.125255018472671509e-01 -5.246175527572631836e-01
1.492735743522644043e-01 2.100434303283691406e-01 -5.226126909255981445e-01
4.921779036521911621e-02 2.067326009273529053e-01 -5.848918557167053223e-01
4.530999064445495605e-02 1.999732404947280884e-01 -5.251280665397644043e-01
1.474393010139465332e-01 1.875122189521789551e-01 -4.709868729114532471e-01
4.738108813762664795e-02 2.035071700811386108e-01 -5.924836397171020508e-01
1.430820971727371216e-01 2.122337967157363892e-01 -4.820767939090728760e-01
1.491358429193496704e-01 2.095584720373153687e-01 -5.324922800064086914e-01
1.435583531856536865e-01 2.123258709907531738e-01 -4.721809029579162598e-01
1.008361876010894775e-01 2.102553844451904297e-01 -6.092608571052551270e-01
1.289255172014236450e-01 2.116466611623764038e-01 -3.683168292045593262e-01
9.339053928852081299e-02 2.128601521253585815e-01 -5.704391002655029297e-01
1.548841595649719238e-01 1.955910772085189819e-01 -2.998088300228118896e-01
1.728055179119110107e-01 2.058761417865753174e-01 -3.533566296100616455e-01
1.437296271324157715e-01 2.083975672721862793e-01 -5.651261210441589355e-01
1.459902077913284302e-01 1.887407898902893066e-01 -3.744893372058868408e-01
1.529392302036285400e-01 2.104111611843109131e-01 -3.799070417881011963e-01
1.810405105352401733e-01 1.973946094512939453e-01 -3.308835625648498535e-01
1.298781037330627441e-01 1.880475282669067383e-01 -3.968937098979949951e-01
1.741425096988677979e-01 2.006812691688537598e-01 -5.280097126960754395e-01
6.889754533767700195e-02 2.106760144233703613e-01 -5.931902527809143066e-01
1.663369983434677124e-01 1.942158490419387817e-01 -5.421121120452880859e-01
1.719713509082794189e-01 1.900583654642105103e-01 -4.538765847682952881e-01
1.169247180223464966e-01 1.913954019546508789e-01 -3.496470451354980469e-01
9.247051179409027100e-02 1.944109499454498291e-01 -3.608823716640472412e-01
1.513353586196899414e-01 1.899703294038772583e-01 -3.519963920116424561e-01
5.384468287229537964e-02 1.983351558446884155e-01 -5.957017540931701660e-01
1.528067141771316528e-01 1.880429685115814209e-01 -4.798653125762939453e-01
1.457506120204925537e-01 1.906639039516448975e-01 -5.566051006317138672e-01
4.530007392168045044e-02 2.067938745021820068e-01 -5.421662926673889160e-01
8.683048188686370850e-02 2.087405622005462646e-01 -6.282925605773925781e-01
1.239715144038200378e-01 1.872648000717163086e-01 -4.387856721878051758e-01
1.767731159925460815e-01 1.906829923391342163e-01 -4.219091534614562988e-01
9.019228816032409668e-02 2.125962376594543457e-01 -4.110666215419769287e-01
1.766946017742156982e-01 1.918481737375259399e-01 -3.674486875534057617e-01
1.739013344049453735e-01 1.901488602161407471e-01 -4.130927920341491699e-01
1.095018982887268066e-01 1.879272460937500000e-01 -4.426621496677398682e-01
1.156637594103813171e-01 2.124424427747726440e-01 -5.601844191551208496e-01
6.651192903518676758e-02 2.123823165893554688e-01 -5.369212031364440918e-01
4.823871701955795288e-02 2.011351883411407471e-01 -4.738447070121765137e-01
1.220730170607566833e-01 1.872503459453582764e-01 -4.946565926074981689e-01
1.571350842714309692e-01 1.973757147789001465e-01 -5.794087648391723633e-01
1.126683130860328674e-01 2.106135487556457520e-01 -5.944821238517761230e-01
8.908502757549285889e-02 2.101200371980667114e-01 -3.755265474319458008e-01
1.107728406786918640e-01 2.053512930870056152e-01 -6.392426490783691406e-01
1.321541219949722290e-01 1.871112436056137085e-01 -4.393018484115600586e-01
1.616626679897308350e-01 1.886246502399444580e-01 -4.071237742900848389e-01
1.082003414630889893e-01 2.090061008930206299e-01 -3.398442566394805908e-01
5.176989734172821045e-02 2.074042111635208130e-01 -4.668773710727691650e-01
1.684690862894058228e-01 1.924634277820587158e-01 -5.198629498481750488e-01
9.082151949405670166e-02 1.890674531459808350e-01 -5.027638077735900879e-01
1.276865750551223755e-01 1.912695318460464478e-01 -5.885553359985351562e-01
1.297843903303146362e-01 2.036653310060501099e-01 -6.244025230407714844e-01
6.259907037019729614e-02 1.998236328363418579e-01 -6.312601566314697266e-01
1.420781612396240234e-01 2.111279964447021484e-01 -3.714969456195831299e-01
1.372569203376770020e-01 1.891184151172637939e-01 -5.454657673835754395e-01
1.281960904598236084e-01 1.931432634592056274e-01 -6.063225865364074707e-01
1.181844994425773621e-01 1.897886097431182861e-01 -5.736796259880065918e-01
1.207737028598785400e-01 1.880864799022674561e-01 -4.074492454528808594e-01
7.117928564548492432e-02 1.928279846906661987e-01 -5.722605586051940918e-01
1.113173887133598328e-01 1.892345696687698364e-01 -5.631056427955627441e-01
1.806523501873016357e-01 1.925041675567626953e-01 -3.741104304790496826e-01
1.415548920631408691e-01 2.123734354972839355e-01 -4.121436476707458496e-01
1.621813178062438965e-01 2.084022015333175659e-01 -3.611874878406524658e-01
7.889234274625778198e-02 2.121819406747817993e-01 -4.286715686321258545e-01
1.340994387865066528e-01 2.088570296764373779e-01 -3.293511867523193359e-01
9.073498845100402832e-02 2.115668505430221558e-01 -3.916179239749908447e-01
9.899556636810302734e-02 1.884770095348358154e-01 -4.626361727714538574e-01
6.004137918353080750e-02 2.107139676809310913e-01 -5.671827197074890137e-01
1.330639272928237915e-01 2.129400223493576050e-01 -5.017066597938537598e-01
1.862145960330963135e-01 1.988321542739868164e-01 -3.506297469139099121e-01
4.678333550691604614e-02 1.999585628509521484e-01 -5.698167681694030762e-01
1.568371057510375977e-01 2.107805311679840088e-01 -4.380646347999572754e-01
8.564797043800354004e-02 2.114764750003814697e-01 -5.959878563880920410e-01
1.771070659160614014e-01 2.048197388648986816e-01 -4.807341098785400391e-01
9.530318528413772583e-02 1.954833716154098511e-01 -3.465973734855651855e-01
1.599405556917190552e-01 2.096034437417984009e-01 -3.839094340801239014e-01
1.658609509468078613e-01 1.889214366674423218e-01 -4.198306798934936523e-01
7.197329401969909668e-02 2.070525437593460083e-01 -3.871007561683654785e-01
1.538497358560562134e-01 1.934346258640289307e-01 -5.685300827026367188e-01
9.270198643207550049e-02 2.138621062040328979e-01 -4.415731430053710938e-01
7.974378764629364014e-02 1.928343921899795532e-01 -5.968119502067565918e-01
1.898476183414459229e-01 1.992595642805099487e-01 -3.809502124786376953e-01
1.753113269805908203e-01 1.910447776317596436e-01 -3.805650472640991211e-01
1.104524359107017517e-01 2.078316211700439453e-01 -6.247612237930297852e-01
1.265699267387390137e-01 2.135108411312103271e-01 -4.212433993816375732e-01
1.666891872882843018e-01 1.913690567016601562e-01 -3.471342027187347412e-01
1.453763395547866821e-01 2.116583287715911865e-01 -4.949262440204620361e-01
7.648150622844696045e-02 2.121301144361495972e-01 -5.769624710083007812e-01
1.508769541978836060e-01 1.880423724651336670e-01 -4.008142352104187012e-01
9.538657963275909424e-02 2.093677371740341187e-01 -6.212891936302185059e-01
1.250680983066558838e-01 1.890684068202972412e-01 -3.765681385993957520e-01
1.890269815921783447e-01 1.995954960584640503e-01 -4.437590241432189941e-01
7.660417258739471436e-02 1.980665773153305054e-01 -6.424582004547119141e-01
5.766493827104568481e-02 1.947918832302093506e-01 -5.224376916885375977e-01
1.544158458709716797e-01 2.108285874128341675e-01 -4.713381826877593994e-01
1.672775149345397949e-01 1.894541382789611816e-01 -4.642136693000793457e-01
5.416987836360931396e-02 1.964206099510192871e-01 -4.922012686729431152e-01
1.631758809089660645e-01 2.048612833023071289e-01 -3.172829151153564453e-01
1.170945391058921814e-01 2.132345885038375854e-01 -5.380004048347473145e-01
7.503157109022140503e-02 1.951240301132202148e-01 -6.188286542892456055e-01
1.287620067596435547e-01 1.990875154733657837e-01 -6.310129165649414062e-01
8.067469298839569092e-02 2.139140218496322632e-01 -4.986628592014312744e-01
9.564277529716491699e-02 1.891576200723648071e-01 -4.444311559200286865e-01
1.567730307579040527e-01 2.072692066431045532e-01 -3.308517932891845703e-01
1.511822342872619629e-01 1.876170188188552856e-01 -4.575483500957489014e-01
1.826612055301666260e-01 2.045482397079467773e-01 -3.965690732002258301e-01
1.611011773347854614e-01 2.061185389757156372e-01 -5.389117002487182617e-01
1.700609624385833740e-01 2.072095870971679688e-01 -3.671705722808837891e-01
1.122622489929199219e-01 1.922679692506790161e-01 -6.090499758720397949e-01
9.816696494817733765e-02 2.123536169528961182e-01 -5.795651078224182129e-01
1.673202067613601685e-01 1.931987851858139038e-01 -5.311090946197509766e-01
1.114981621503829956e-01 2.129129767417907715e-01 -3.938658237457275391e-01
8.334591984748840332e-02 2.000002861022949219e-01 -3.503864109516143799e-01
8.890274167060852051e-02 2.027121335268020630e-01 -6.554657816886901855e-01
1.205421537160873413e-01 2.141616940498352051e-01 -4.532588422298431396e-01
1.345792412757873535e-01 2.087284773588180542e-01 -5.820980668067932129e-01
7.965180277824401855e-02 2.086150646209716797e-01 -3.796266317367553711e-01
1.328594684600830078e-01 1.877653449773788452e-01 -4.038878977298736572e-01
1.181607693433761597e-01 2.137455940246582031e-01 -5.176213383674621582e-01
6.897042691707611084e-02 2.082590013742446899e-01 -6.223231554031372070e-01
5.020803213119506836e-02 2.085282355546951294e-01 -5.616604089736938477e-01
1.183639019727706909e-01 2.041176557540893555e-01 -3.034009635448455811e-01
7.526059448719024658e-02 2.133359163999557495e-01 -4.825669229030609131e-01
6.902509927749633789e-02 1.932380050420761108e-01 -4.576531350612640381e-01
1.760655492544174194e-01 2.060683667659759521e-01 -4.628454744815826416e-01
1.750634312629699707e-01 1.951456964015960693e-01 -3.250609040260314941e-01
5.863882973790168762e-02 1.955867707729339600e-01 -5.762853026390075684e-01
1.016669794917106628e-01 2.017047405242919922e-01 -6.537992954254150391e-01
1.384854316711425781e-01 2.119868248701095581e-01 -5.146210789680480957e-01
8.608024567365646362e-02 1.901227980852127075e-01 -5.465773344039916992e-01
1.548105329275131226e-01 2.109850049018859863e-01 -4.561287164688110352e-01
6.790853291749954224e-02 1.943053603172302246e-01 -4.410019814968109131e-01
9.626778215169906616e-02 1.895040720701217651e-01 -5.548008084297180176e-01
5.638947337865829468e-02 2.107390612363815308e-01 -5.129117369651794434e-01
1.185093149542808533e-01 1.872950494289398193e-01 -4.529396891593933105e-01
1.110870912671089172e-01 1.895644962787628174e-01 -3.879479467868804932e-01
1.129424422979354858e-01 1.939326077699661255e-01 -6.236896514892578125e-01
1.492307186126708984e-01 2.117881029844284058e-01 -4.282149672508239746e-01
1.076303794980049133e-01 2.139583826065063477e-01 -4.268905222415924072e-01
1.379622519016265869e-01 1.995051056146621704e-01 -6.185809373855590820e-01
7.615645974874496460e-02 2.110940217971801758e-01 -4.164211750030517578e-01
9.918841719627380371e-02 2.139573544263839722e-01 -5.367594957351684570e-01
1.323333978652954102e-01 2.102887630462646484e-01 -5.667481422424316406e-01
6.656379997730255127e-02 2.105959653854370117e-01 -4.397150874137878418e-01
1.406075358390808105e-01 2.117066234350204468e-01 -3.837120532989501953e-01
1.034916341304779053e-01 2.071015238761901855e-01 -6.351909041404724121e-01
9.898488223552703857e-02 2.142528891563415527e-01 -4.480974674224853516e-01
1.647033989429473877e-01 2.089487761259078979e-01 -4.685302078723907471e-01
1.712149232625961304e-01 1.932545304298400879e-01 -3.323214650154113770e-01
6.043538078665733337e-02 2.077204287052154541e-01 -4.282504916191101074e-01
6.672331690788269043e-02 1.926669031381607056e-01 -5.074668526649475098e-01
1.285843104124069214e-01 2.128745615482330322e-01 -5.205926299095153809e-01
1.625392436981201172e-01 2.091947793960571289e-01 -4.767683446407318115e-01
1.017591208219528198e-01 2.071788460016250610e-01 -3.329516649246215820e-01
1.334336698055267334e-01 1.891219317913055420e-01 -3.682339787483215332e-01
1.283035576343536377e-01 1.878766566514968872e-01 -5.242378711700439453e-01
1.502966582775115967e-01 1.922673881053924561e-01 -3.217689096927642822e-01
1.393269300460815430e-01 2.092715352773666382e-01 -3.365787863731384277e-01
1.397112309932708740e-01 1.881332248449325562e-01 -5.182222723960876465e-01
5.195554345846176147e-02 2.085639238357543945e-01 -4.823453426361083984e-01
1.384215354919433594e-01 1.879153102636337280e-01 -3.966722488403320312e-01
1.161124557256698608e-01 2.143190652132034302e-01 -4.863464236259460449e-01
7.914698123931884766e-02 2.071796953678131104e-01 -3.706179261207580566e-01
1.373783200979232788e-01 1.958152651786804199e-01 -6.111528277397155762e-01
1.599805355072021484e-01 1.889204680919647217e-01 -4.843135476112365723e-01
1.703244745731353760e-01 1.974529176950454712e-01 -3.074604570865631104e-01
8.605210483074188232e-02 2.136529088020324707e-01 -4.500361979007720947e-01
6.109436973929405212e-02 2.111153304576873779e-01 -4.788786470890045166e-01
1.372978091239929199e-01 2.110861539840698242e-01 -3.639475107192993164e-01
1.401547491550445557e-01 2.121142148971557617e-01 -3.957405090332031250e-01
1.103339791297912598e-01 2.141959071159362793e-01 -4.376173019409179688e-01
5.761984735727310181e-02 1.948201060295104980e-01 -5.324097275733947754e-01
1.197685673832893372e-01 1.875919848680496216e-01 -4.288433790206909180e-01
1.185097545385360718e-01 1.954821795225143433e-01 -3.128404617309570312e-01
1.412517279386520386e-01 2.125568240880966187e-01 -4.222950339317321777e-01
1.840979903936386108e-01 2.028814703226089478e-01 -3.674609065055847168e-01
1.864807903766632080e-01 1.955081075429916382e-01 -4.586003124713897705e-01
5.629156157374382019e-02 2.076655626296997070e-01 -4.453606009483337402e-01
1.594170778989791870e-01 1.885755360126495361e-01 -4.733612537384033203e-01
1.256929636001586914e-01 2.107540369033813477e-01 -3.521194756031036377e-01
1.076468005776405334e-01 1.905923485755920410e-01 -3.759163618087768555e-01
1.290281713008880615e-01 2.057128846645355225e-01 -6.162072420120239258e-01
1.851980984210968018e-01 2.012641876935958862e-01 -4.671802520751953125e-01
5.446145310997962952e-02 1.992113441228866577e-01 -6.063477993011474609e-01
1.782987713813781738e-01 2.047985941171646118e-01 -4.726942479610443115e-01
8.245520293712615967e-02 2.137524485588073730e-01 -4.677250981330871582e-01
1.063130125403404236e-01 1.928077787160873413e-01 -3.495977222919464111e-01
1.147800013422966003e-01 2.126006782054901123e-01 -3.857656121253967285e-01
1.668778359889984131e-01 1.900715231895446777e-01 -3.727682232856750488e-01
-4.918707162141799927e-02 1.694100350141525269e-01 -5.605028271675109863e-01
-1.339058578014373779e-01 1.756945252418518066e-01 -5.030575990676879883e-01
-3.295471519231796265e-02 2.179407775402069092e-01 -6.182116866111755371e-01
-1.303336620330810547e-01 1.750029623508453369e-01 -5.867850184440612793e-01
-6.670549511909484863e-02 2.300828993320465088e-01 -5.001236796379089355e-01
-9.146992862224578857e-02 2.264356613159179688e-01 -5.471133589744567871e-01
-1.762430667877197266e-01 1.976248472929000854e-01 -4.649318456649780273e-01
-1.854638755321502686e-01 2.044796794652938843e-01 -5.463165044784545898e-01
-2.624857239425182343e-02 1.712158322334289551e-01 -4.876991212368011475e-01
-6.381423771381378174e-02 1.868277341127395630e-01 -3.856637179851531982e-01
8.993826806545257568e-03 1.810539662837982178e-01 -4.167615771293640137e-01
-4.562427848577499390e-02 1.756951808929443359e-01 -6.285793781280517578e-01
-1.117390990257263184e-01 1.910735964775085449e-01 -3.960397839546203613e-01
-1.713095419108867645e-02 2.240475118160247803e-01 -5.794309377670288086e-01
5.893006175756454468e-02 1.805652678012847900e-01 -4.984275698661804199e-01
4.378415644168853760e-02 2.215674519538879395e-01 -4.079710841178894043e-01
3.753208369016647339e-02 1.810006946325302124e-01 -5.913982987403869629e-01
-7.352308183908462524e-02 1.812993437051773071e-01 -4.104844629764556885e-01
-3.476860374212265015e-02 1.798489093780517578e-01 -6.437677741050720215e-01
-3.200092911720275879e-02 1.701813936233520508e-01 -5.047136545181274414e-01
-3.242991864681243896e-02 1.969930231571197510e-01 -3.574519157409667969e-01
1.114069297909736633e-02 2.293270379304885864e-01 -4.844218790531158447e-01
-7.109109312295913696e-02 1.694167852401733398e-01 -5.265636444091796875e-01
-7.740008831024169922e-02 2.078600376844406128e-01 -6.530505418777465820e-01
1.773897558450698853e-02 1.881144642829895020e-01 -6.359069347381591797e-01
-5.515827238559722900e-02 2.306841611862182617e-01 -4.834679663181304932e-01
6.986538320779800415e-02 2.154260873794555664e-01 -5.442271232604980469e-01
-5.802575871348381042e-02 2.304410040378570557e-01 -4.683424234390258789e-01
4.851200431585311890e-02 2.178995460271835327e-01 -5.650181770324707031e-01
-1.964313536882400513e-02 1.732201874256134033e-01 -5.992185473442077637e-01
-1.411644965410232544e-01 1.753856986761093140e-01 -5.385819077491760254e-01
-1.380681395530700684e-01 2.161344438791275024e-01 -5.884460806846618652e-01
-1.566510796546936035e-01 1.995268613100051880e-01 -6.259599328041076660e-01
-1.639108657836914062e-01 1.824599653482437134e-01 -5.859107971191406250e-01
5.069043487310409546e-02 1.824975311756134033e-01 -5.779196619987487793e-01
4.013472050428390503e-02 2.254291772842407227e-01 -4.401342272758483887e-01
-1.299121379852294922e-01 1.830090880393981934e-01 -4.399488568305969238e-01
3.226251900196075439e-02 2.164260447025299072e-01 -3.768632709980010986e-01
-8.927664905786514282e-02 2.213858962059020996e-01 -3.986598849296569824e-01
8.603878319263458252e-03 2.249410003423690796e-01 -4.005011618137359619e-01
-3.992120921611785889e-02 1.826733946800231934e-01 -6.536678671836853027e-01
-9.197609126567840576e-02 1.700763255357742310e-01 -5.507439970970153809e-01
-1.386378407478332520e-01 1.937890201807022095e-01 -4.131826162338256836e-01
-2.057274989783763885e-02 2.190930247306823730e-01 -6.096731424331665039e-01
7.915063947439193726e-02 1.887769401073455811e-01 -5.450936555862426758e-01
-1.257067620754241943e-01 2.226720899343490601e-01 -5.473490357398986816e-01
-4.686638712882995605e-03 1.796260327100753784e-01 -6.281790137290954590e-01
4.447104036808013916e-02 1.797640025615692139e-01 -5.696198344230651855e-01
3.646200895309448242e-02 1.786856502294540405e-01 -4.605146646499633789e-01
-1.485954374074935913e-01 2.120913416147232056e-01 -5.980194211006164551e-01
2.946522831916809082e-02 2.272124886512756348e-01 -4.993567168712615967e-01
-4.278949648141860962e-02 2.302782684564590454e-01 -5.137815475463867188e-01
-1.000597178936004639e-01 2.038032412528991699e-01 -3.727378249168395996e-01
-1.349214017391204834e-01 2.106932848691940308e-01 -6.189094781875610352e-01
-3.649757802486419678e-02 2.078186273574829102e-01 -3.514953851699829102e-01
-7.245004922151565552e-02 2.146153897047042847e-01 -3.679349422454833984e-01
-1.193294227123260498e-01 1.818149238824844360e-01 -6.404875516891479492e-01
-3.225465118885040283e-02 1.840819120407104492e-01 -3.918426930904388428e-01
3.839268535375595093e-02 2.265253961086273193e-01 -4.829914569854736328e-01
-7.228721678256988525e-02 1.710372716188430786e-01 -4.900910258293151855e-01
5.318149924278259277e-02 2.203027755022048950e-01 -5.414116382598876953e-01
-1.013114303350448608e-01 2.108258306980133057e-01 -6.387938857078552246e-01
-1.351483538746833801e-02 1.790320426225662231e-01 -4.195141494274139404e-01
3.148454427719116211e-02 1.760953068733215332e-01 -5.566279888153076172e-01
-8.907127380371093750e-02 2.233805656433105469e-01 -4.093283712863922119e-01
-2.433084324002265930e-02 1.864331215620040894e-01 -6.566215753555297852e-01
-8.017519116401672363e-02 1.759510338306427002e-01 -4.445149600505828857e-01
4.391063004732131958e-02 1.865279972553253174e-01 -4.138234853744506836e-01
1.744279265403747559e-02 1.775683611631393433e-01 -4.475481510162353516e-01
-9.795562177896499634e-02 2.220754772424697876e-01 -5.847589969635009766e-01
3.812741488218307495e-02 2.124465554952621460e-01 -6.006234288215637207e-01
-5.392802879214286804e-02 1.901600211858749390e-01 -3.736985325813293457e-01
-1.243633255362510681e-01 1.728899329900741577e-01 -5.513314604759216309e-01
4.531439393758773804e-03 1.729472726583480835e-01 -4.894974827766418457e-01
6.569988280534744263e-02 2.215902507305145264e-01 -4.829335212707519531e-01
-2.625756524503231049e-02 2.130715399980545044e-01 -3.552420139312744141e-01
-1.698998212814331055e-01 1.937492489814758301e-01 -4.577985703945159912e-01
8.354366570711135864e-02 2.037158906459808350e-01 -5.584118962287902832e-01
-9.838843345642089844e-02 2.254939377307891846e-01 -4.360909461975097656e-01
-1.240840256214141846e-01 1.747959852218627930e-01 -5.949578285217285156e-01
-3.302858769893646240e-02 1.763079911470413208e-01 -6.278483271598815918e-01
-3.224151954054832458e-02 2.247056365013122559e-01 -3.914191424846649170e-01
-1.077398210763931274e-01 2.265237271785736084e-01 -5.168165564537048340e-01
-8.134463429450988770e-02 2.264906615018844604e-01 -4.263439774513244629e-01
4.284549504518508911e-02 1.788402050733566284e-01 -4.708516299724578857e-01
3.026954084634780884e-02 2.275130003690719604e-01 -4.622485637664794922e-01
-8.442316949367523193e-02 2.160736024379730225e-01 -6.246553659439086914e-01
6.105861067771911621e-02 2.136434167623519897e-01 -5.688791871070861816e-01
-7.297774404287338257e-02 1.698834002017974854e-01 -5.125457644462585449e-01
-3.932892531156539917e-02 1.926789134740829468e-01 -6.668146848678588867e-01
-1.648083627223968506e-01 1.872387975454330444e-01 -6.083216071128845215e-01
2.064935863018035889e-02 2.244195342063903809e-01 -4.045314490795135498e-01
-1.444013565778732300e-01 2.186649143695831299e-01 -4.573982357978820801e-01
6.083086133003234863e-03 2.240860909223556519e-01 -5.665798187255859375e-01
1.445678249001502991e-02 2.285347431898117065e-01 -5.040127635002136230e-01
6.005547940731048584e-02 2.163471877574920654e-01 -5.568855404853820801e-01
-1.649287939071655273e-01 1.830342561006546021e-01 -4.993283748626708984e-01
-1.330781877040863037e-01 1.815639585256576538e-01 -4.512543678283691406e-01
-1.490324139595031738e-01 1.895298808813095093e-01 -4.361150264739990234e-01
-1.204445883631706238e-01 1.764443814754486084e-01 -4.727215170860290527e-01
-1.099766641855239868e-01 1.760630011558532715e-01 -4.644991159439086914e-01
-1.577228754758834839e-01 2.134103327989578247e-01 -5.751350522041320801e-01
-7.426032423973083496e-02 2.263629734516143799e-01 -5.603663921356201172e-01
-1.565023362636566162e-01 1.825230270624160767e-01 -6.033808588981628418e-01
-1.057781577110290527e-01 1.752683967351913452e-01 -6.170567870140075684e-01
7.169852405786514282e-02 2.201297283172607422e-01 -4.740160703659057617e-01
-6.604659557342529297e-02 1.750092506408691406e-01 -4.462520480155944824e-01
5.001809448003768921e-02 1.946268379688262939e-01 -3.901644647121429443e-01
-1.520681977272033691e-01 2.090198397636413574e-01 -4.271471500396728516e-01
-3.991641104221343994e-02 2.298801839351654053e-01 -4.403321146965026855e-01
-1.093153730034828186e-01 2.245810329914093018e-01 -4.430728554725646973e-01
3.289990127086639404e-03 1.920732259750366211e-01 -6.501227617263793945e-01
5.620530247688293457e-02 1.825102865695953369e-01 -4.581248760223388672e-01
6.324236840009689331e-02 2.091080844402313232e-01 -5.819724798202514648e-01
-3.552806377410888672e-02 1.696465909481048584e-01 -5.183070898056030273e-01
-1.131778806447982788e-01 1.740232110023498535e-01 -4.885477125644683838e-01
-8.354932814836502075e-02 1.701553612947463989e-01 -5.714682936668395996e-01
1.520374417304992676e-02 2.262195497751235962e-01 -5.389716625213623047e-01
-1.495792269706726074e-01 2.096168994903564453e-01 -6.080005168914794922e-01
-1.741463840007781982e-01 2.080366760492324829e-01 -5.709635019302368164e-01
-3.186813741922378540e-02 1.998909860849380493e-01 -6.630316972732543945e-01
6.053315848112106323e-02 2.224045395851135254e-01 -4.952234327793121338e-01
-1.164630278944969177e-01 1.887225806713104248e-01 -4.058589041233062744e-01
9.801708906888961792e-02 1.992475986480712891e-01 -5.046796798706054688e-01
1.244318112730979919e-02 1.727790683507919312e-01 -5.167863965034484863e-01
5.489058047533035278e-02 2.180602103471755981e-01 -4.029030799865722656e-01
-5.116256326436996460e-02 1.777400672435760498e-01 -6.396634578704833984e-01
-9.026481211185455322e-02 1.726756095886230469e-01 -6.044208407402038574e-01
8.472732454538345337e-02 1.942910403013229370e-01 -4.415130913257598877e-01
-8.999420702457427979e-02 1.715304702520370483e-01 -5.912998318672180176e-01
-1.014036163687705994e-01 1.707255244255065918e-01 -5.554296374320983887e-01
-5.476911738514900208e-02 1.715180873870849609e-01 -5.986747145652770996e-01
2.996046096086502075e-03 1.772901564836502075e-01 -4.386931061744689941e-01
-5.779981613159179688e-02 2.278594374656677246e-01 -4.221155345439910889e-01
-3.515675663948059082e-03 2.253886014223098755e-01 -5.623604059219360352e-01
4.746084660291671753e-02 2.030258774757385254e-01 -6.129684448242187500e-01
1.568441838026046753e-02 1.849147826433181763e-01 -4.005884230136871338e-01
6.147574633359909058e-03 2.218699902296066284e-01 -5.819374322891235352e-01
6.018694490194320679e-02 2.207517176866531372e-01 -4.288107752799987793e-01
