3.721096217632293701e-01 -1.892710626125335693e-01 -1.072573363780975342e-01
4.050624370574951172e-01 -1.807366311550140381e-01 1.008602678775787354e-01
3.735648095607757568e-01 -1.147315874695777893e-01 -2.506116330623626709e-01
1.457211673259735107e-01 -1.209943443536758423e-01 -1.819624900817871094e-01
2.954770028591156006e-01 -1.003197282552719116e-01 -3.726572543382644653e-02
1.011637002229690552e-01 -1.858303844928741455e-01 -2.190849334001541138e-01
8.151701092720031738e-02 -1.348839253187179565e-01 -1.141829788684844971e-01
1.313128024339675903e-01 -1.193577870726585388e-01 -5.170349031686782837e-04
1.644400060176849365e-01 -1.995351761579513550e-01 -1.034420281648635864e-01
1.163820922374725342e-01 -1.776526272296905518e-01 1.728135347366333008e-01
5.606989562511444092e-02 -1.462575942277908325e-01 -7.548331469297409058e-02
2.536758184432983398e-01 -1.994063258171081543e-01 -1.503675431013107300e-01
3.265269100666046143e-01 -1.045649871230125427e-01 1.629165858030319214e-01
3.684616684913635254e-01 -1.005458012223243713e-01 2.469369955360889435e-02
4.559342861175537109e-01 -1.109111085534095764e-01 -8.129823952913284302e-03
2.278459370136260986e-01 -1.903985738754272461e-01 1.814571022987365723e-01
4.425563216209411621e-01 -1.608048081398010254e-01 -2.283666878938674927e-01
2.630592584609985352e-01 -1.098692119121551514e-01 -2.224224060773849487e-01
1.843158900737762451e-01 -2.007952332496643066e-01 -6.884524226188659668e-02
5.751921236515045166e-02 -1.463031470775604248e-01 -7.425138726830482483e-03
3.174864649772644043e-01 -1.157102361321449280e-01 2.703151702880859375e-01
2.134553790092468262e-01 -2.012562751770019531e-01 -2.988700754940509796e-02
3.539682030677795410e-01 -1.927334368228912354e-01 -5.872132256627082825e-02
3.178402781486511230e-01 -1.953719705343246460e-01 -1.389155685901641846e-01
9.489706158638000488e-02 -1.456833928823471069e-01 1.622847467660903931e-01
4.872207939624786377e-01 -1.268815845251083374e-01 1.127634346485137939e-01
4.295301437377929688e-01 -1.671942919492721558e-01 1.871058046817779541e-01
2.025833874940872192e-01 -1.206556707620620728e-01 -2.789550721645355225e-01
3.013523519039154053e-01 -9.997087717056274414e-02 -1.322860270738601685e-02
1.222757846117019653e-01 -1.953793764114379883e-01 -1.058412939310073853e-01
2.017348110675811768e-01 -1.997034400701522827e-01 -1.575616449117660522e-01
1.837196350097656250e-01 -1.176111772656440735e-01 -2.235574275255203247e-01
3.988303542137145996e-01 -1.077337116003036499e-01 1.623945534229278564e-01
1.698685884475708008e-01 -1.931088119745254517e-01 -2.484625130891799927e-01
4.437381029129028320e-01 -1.097441986203193665e-01 -6.373023986816406250e-02
4.061209559440612793e-01 -1.547498106956481934e-01 2.843380570411682129e-01
3.030892312526702881e-01 -1.663328111171722412e-01 3.195446729660034180e-01
3.940319120883941650e-01 -1.858178526163101196e-01 -9.151902794837951660e-02
1.215880215167999268e-01 -1.222161501646041870e-01 2.437197230756282806e-02
4.537342786788940430e-01 -1.691840738058090210e-01 8.294454962015151978e-02
1.719517707824707031e-01 -1.134482473134994507e-01 -1.261596828699111938e-01
1.654143482446670532e-01 -1.165468990802764893e-01 -1.684160083532333374e-01
2.218790203332901001e-01 -1.460662037134170532e-01 -4.025155305862426758e-01
1.521824002265930176e-01 -1.218955218791961670e-01 1.473535746335983276e-01
2.302125394344329834e-01 -2.008622288703918457e-01 -4.277262836694717407e-03
3.799511492252349854e-01 -1.035883426666259766e-01 -1.068680584430694580e-01
2.946453988552093506e-01 -1.034751981496810913e-01 -1.420650631189346313e-01
3.116059899330139160e-01 -1.856931895017623901e-01 -2.878659963607788086e-01
1.548490822315216064e-01 -1.772010028362274170e-01 2.270560860633850098e-01
2.002049386501312256e-01 -1.937299668788909912e-01 -2.577205002307891846e-01
1.360523998737335205e-01 -1.902132034301757812e-01 1.071436405181884766e-01
3.490885496139526367e-01 -1.882294863462448120e-01 1.254066973924636841e-01
2.794839143753051758e-01 -1.997214555740356445e-01 -6.601225584745407104e-02
2.122228145599365234e-01 -1.086484789848327637e-01 -1.373424977064132690e-01
3.524673283100128174e-01 -1.078067868947982788e-01 -1.995141506195068359e-01
8.650581538677215576e-02 -1.820453405380249023e-01 7.427988201379776001e-02
1.982963979244232178e-01 -1.136348247528076172e-01 1.535134017467498779e-01
2.718456089496612549e-01 -1.848312318325042725e-01 2.282880842685699463e-01
3.077115416526794434e-01 -1.268422454595565796e-01 3.228331804275512695e-01
2.645000517368316650e-01 -1.961452811956405640e-01 1.021505296230316162e-01
1.315851062536239624e-01 -1.680760383605957031e-01 2.321504056453704834e-01
2.585229575634002686e-01 -1.238341927528381348e-01 2.968978881835937500e-01
3.691352009773254395e-01 -1.812232285737991333e-01 1.789288222789764404e-01
2.230282127857208252e-01 -1.781081408262252808e-01 2.681486308574676514e-01
4.348549246788024902e-01 -1.067950129508972168e-01 7.109453901648521423e-03
8.861464262008666992e-02 -1.323702931404113770e-01 2.618111111223697662e-02
1.040362715721130371e-01 -1.272487938404083252e-01 -1.096729114651679993e-01
2.958728671073913574e-01 -1.001437231898307800e-01 1.142874918878078461e-02
2.422499358654022217e-01 -2.011341601610183716e-01 -8.249271661043167114e-02
1.834320724010467529e-01 -1.134306639432907104e-01 1.147793084383010864e-01
1.841572821140289307e-01 -1.096312999725341797e-01 -1.784393563866615295e-02
4.368161559104919434e-01 -1.765481978654861450e-01 2.080443687736988068e-02
2.178555130958557129e-01 -1.963316798210144043e-01 -2.268036752939224243e-01
2.639713287353515625e-01 -1.889947503805160522e-01 -2.954234480857849121e-01
4.136656522750854492e-01 -1.681841462850570679e-01 -2.561338841915130615e-01
4.147658944129943848e-01 -1.735699325799942017e-01 1.662054508924484253e-01
2.793830931186676025e-01 -1.563155949115753174e-01 3.458881676197052002e-01
1.269558072090148926e-01 -1.240151375532150269e-01 9.335225075483322144e-02
4.389154314994812012e-01 -7.802762389183044434e-01 3.514536619186401367e-01
4.416116476058959961e-01 -6.705811023712158203e-01 3.951351046562194824e-01
4.569739103317260742e-01 -6.579586863517761230e-01 3.908078074455261230e-01
4.535713195800781250e-01 -5.682962536811828613e-01 3.426050543785095215e-01
4.213492572307586670e-01 -7.026656270027160645e-01 3.437374830245971680e-01
4.272395372390747070e-01 -5.508490800857543945e-01 3.774043619632720947e-01
4.565414190292358398e-01 -5.837381482124328613e-01 3.425018787384033203e-01
4.542613327503204346e-01 -5.240083932876586914e-01 3.731109201908111572e-01
4.275658130645751953e-01 -6.527760028839111328e-01 3.915825486183166504e-01
4.679643511772155762e-01 -5.933224558830261230e-01 3.741042315959930420e-01
4.601844847202301025e-01 -5.649338364601135254e-01 3.809171319007873535e-01
4.446547925472259521e-01 -7.835683226585388184e-01 3.793289959430694580e-01
4.171440601348876953e-01 -6.641761660575866699e-01 3.461328744888305664e-01
4.248319566249847412e-01 -5.820541381835937500e-01 3.828994035720825195e-01
4.659911692142486572e-01 -6.201489567756652832e-01 3.495508134365081787e-01
4.402298331260681152e-01 -7.549575567245483398e-01 3.447650969028472900e-01
4.371558725833892822e-01 -5.677037239074707031e-01 3.403924107551574707e-01
4.330570995807647705e-01 -6.123391389846801758e-01 3.917256891727447510e-01
4.110400676727294922e-01 -6.605076789855957031e-01 3.681177794933319092e-01
4.240807592868804932e-01 -6.137856245040893555e-01 3.868365585803985596e-01
4.425814747810363770e-01 -6.440194845199584961e-01 3.949174582958221436e-01
4.230992197990417480e-01 -6.817455887794494629e-01 3.889408111572265625e-01
4.285563528537750244e-01 -7.807691693305969238e-01 3.784802556037902832e-01
4.326412081718444824e-01 -6.445528864860534668e-01 3.934700489044189453e-01
4.177773296833038330e-01 -6.973912715911865234e-01 3.832925856113433838e-01
4.304935038089752197e-01 -7.718628644943237305e-01 3.826492428779602051e-01
4.675416052341461182e-01 -5.805276632308959961e-01 3.717270791530609131e-01
4.321099817752838135e-01 -5.513226985931396484e-01 3.453140556812286377e-01
4.552918672561645508e-01 -7.238190770149230957e-01 3.456698954105377197e-01
4.383878111839294434e-01 -6.064392924308776855e-01 3.363687098026275635e-01
4.381721317768096924e-01 -5.162962675094604492e-01 3.547682166099548340e-01
4.238950312137603760e-01 -7.191401720046997070e-01 3.875138163566589355e-01
4.604802429676055908e-01 -7.451111078262329102e-01 3.755816817283630371e-01
4.643908143043518066e-01 -5.715448856353759766e-01 3.767921626567840576e-01
4.323221445083618164e-01 -7.502167224884033203e-01 3.879536092281341553e-01
4.164774417877197266e-01 -6.319477558135986328e-01 3.801502287387847900e-01
4.270477890968322754e-01 -5.469013452529907227e-01 3.510285913944244385e-01
4.463026225566864014e-01 -5.820552110671997070e-01 3.901980221271514893e-01
4.113570749759674072e-01 -6.410697698593139648e-01 3.640714287757873535e-01
4.648871421813964844e-01 -6.084680557250976562e-01 3.485378623008728027e-01
4.151298999786376953e-01 -6.612815260887145996e-01 3.800303936004638672e-01
4.430861473083496094e-01 -5.144804716110229492e-01 3.726473450660705566e-01
4.333398342132568359e-01 -6.826734542846679688e-01 3.938924074172973633e-01
4.254465997219085693e-01 -6.838039159774780273e-01 3.397240042686462402e-01
4.428024590015411377e-01 -5.678347349166870117e-01 3.398532867431640625e-01
4.549833834171295166e-01 -5.486723184585571289e-01 3.469236493110656738e-01
4.293235838413238525e-01 -6.646672487258911133e-01 3.926280736923217773e-01
4.348452687263488770e-01 -6.013273000717163086e-01 3.373059034347534180e-01
4.552277624607086182e-01 -6.741562485694885254e-01 3.402010500431060791e-01
4.704881906509399414e-01 -6.610616445541381836e-01 3.672697842121124268e-01
4.645962715148925781e-01 -5.517392754554748535e-01 3.664654791355133057e-01
4.421703219413757324e-01 -7.750992178916931152e-01 3.503330945968627930e-01
4.159516394138336182e-01 -7.218482494354248047e-01 3.780971765518188477e-01
4.324732124805450439e-01 -7.695026993751525879e-01 3.487672209739685059e-01
4.492395818233489990e-01 -5.450543165206909180e-01 3.831719756126403809e-01
4.452277421951293945e-01 -5.543307065963745117e-01 3.421010076999664307e-01
4.169337451457977295e-01 -7.556414604187011719e-01 3.681627511978149414e-01
4.626301229000091553e-01 -7.108942270278930664e-01 3.515602648258209229e-01
4.230312407016754150e-01 -6.440777778625488281e-01 3.407142162322998047e-01
4.243998229503631592e-01 -7.856990098953247070e-01 3.664304018020629883e-01
4.546783864498138428e-01 -7.548688054084777832e-01 3.813792765140533447e-01
4.410361647605895996e-01 -7.698435783386230469e-01 3.484782874584197998e-01
4.674855470657348633e-01 -6.788910627365112305e-01 3.774748444557189941e-01
4.670531749725341797e-01 -5.688283443450927734e-01 3.672902882099151611e-01
4.116414487361907959e-01 -6.971837282180786133e-01 3.599799871444702148e-01
4.694324731826782227e-01 -6.398921012878417969e-01 3.750730454921722412e-01
4.690870940685272217e-01 -6.858646273612976074e-01 3.694804608821868896e-01
4.135183691978454590e-01 -6.507070660591125488e-01 3.763098418712615967e-01
4.143906533718109131e-01 -7.343349456787109375e-01 3.603756129741668701e-01
4.698723852634429932e-01 -6.202183365821838379e-01 3.586394190788269043e-01
4.684685766696929932e-01 -6.495108008384704590e-01 3.543101847171783447e-01
4.579385817050933838e-01 -5.865671038627624512e-01 3.863510489463806152e-01
4.140988886356353760e-01 -7.144938707351684570e-01 3.550046980381011963e-01
4.539335668087005615e-01 -6.391755342483520508e-01 3.922569453716278076e-01
4.201207458972930908e-01 -7.652605175971984863e-01 3.735099136829376221e-01
4.612294733524322510e-01 -6.150335669517517090e-01 3.439801037311553955e-01
4.224925935268402100e-01 -7.802188396453857422e-01 3.659397959709167480e-01
4.435381293296813965e-01 -6.838667392730712891e-01 3.947559893131256104e-01
4.315220713615417480e-01 -7.378963828086853027e-01 3.894751071929931641e-01
4.550844728946685791e-01 -7.343376278877258301e-01 3.474742472171783447e-01
4.471817910671234131e-01 -7.366977930068969727e-01 3.431096971035003662e-01
4.155399799346923828e-01 -6.040537357330322266e-01 3.732292950153350830e-01
4.262509047985076904e-01 -5.351918339729309082e-01 3.655445873737335205e-01
4.416404068470001221e-01 -5.876501202583312988e-01 3.910099565982818604e-01
4.357494115829467773e-01 -7.400668263435363770e-01 3.420462608337402344e-01
4.186807572841644287e-01 -6.730073094367980957e-01 3.850061893463134766e-01
4.611413478851318359e-01 -5.356203317642211914e-01 3.665619194507598877e-01
4.365424215793609619e-01 -7.819582223892211914e-01 3.814195990562438965e-01
4.562445878982543945e-01 -6.923909187316894531e-01 3.899491429328918457e-01
4.623649716377258301e-01 -6.826885342597961426e-01 3.470071554183959961e-01
4.139243066310882568e-01 -6.258144974708557129e-01 3.740434050559997559e-01
4.604541957378387451e-01 -6.070105433464050293e-01 3.436626791954040527e-01
4.673800766468048096e-01 -5.715004801750183105e-01 3.624730408191680908e-01
4.242105185985565186e-01 -6.232753396034240723e-01 3.407079577445983887e-01
4.692499935626983643e-01 -6.843354701995849609e-01 3.639367222785949707e-01
4.211962521076202393e-01 -5.636859536170959473e-01 3.543868660926818848e-01
4.268622398376464844e-01 -5.443332195281982422e-01 3.743021190166473389e-01
4.233972430229187012e-01 -7.113133072853088379e-01 3.430045545101165771e-01
4.325573444366455078e-01 -6.185309886932373047e-01 3.920395374298095703e-01
4.419500827789306641e-01 -7.282350659370422363e-01 3.918609917163848877e-01
4.314602017402648926e-01 -6.935137510299682617e-01 3.929933905601501465e-01
4.434379041194915771e-01 -5.279974937438964844e-01 3.789396882057189941e-01
4.463150799274444580e-01 -7.699946165084838867e-01 3.503907322883605957e-01
4.615629613399505615e-01 -6.321096420288085938e-01 3.870696127414703369e-01
4.173196852207183838e-01 -6.878432035446166992e-01 3.831495344638824463e-01
4.116098284721374512e-01 -6.557669043540954590e-01 3.708562552928924561e-01
4.595392048358917236e-01 -6.872480511665344238e-01 3.878044784069061279e-01
4.379028677940368652e-01 -6.830207109451293945e-01 3.361822664737701416e-01
4.320722222328186035e-01 -7.522379159927368164e-01 3.448542058467864990e-01
4.210637509822845459e-01 -6.330059766769409180e-01 3.859057426452636719e-01
4.250445365905761719e-01 -7.739806771278381348e-01 3.777665793895721436e-01
4.698585271835327148e-01 -6.457664966583251953e-01 3.735738396644592285e-01
4.229460060596466064e-01 -5.812262296676635742e-01 3.466485738754272461e-01
4.312912225723266602e-01 -6.747118234634399414e-01 3.369227051734924316e-01
4.264195561408996582e-01 -5.958932042121887207e-01 3.864722549915313721e-01
4.108283519744873047e-01 -6.648073792457580566e-01 3.623326420783996582e-01
4.459363222122192383e-01 -7.924450635910034180e-01 3.726952075958251953e-01
4.434421062469482422e-01 -6.977455615997314453e-01 3.374530673027038574e-01
4.151626527309417725e-01 -6.917376518249511719e-01 3.798217475414276123e-01
4.271205961704254150e-01 -5.871697068214416504e-01 3.857021629810333252e-01
4.197016954421997070e-01 -5.781703591346740723e-01 3.521574139595031738e-01
4.522243440151214600e-01 -5.224350690841674805e-01 3.534023463726043701e-01
4.297439157962799072e-01 -5.395272374153137207e-01 3.759949803352355957e-01
4.492016732692718506e-01 -7.364052534103393555e-01 3.890301287174224854e-01
4.628961980342864990e-01 -5.548099279403686523e-01 3.546755313873291016e-01
4.270641803741455078e-01 -6.858008503913879395e-01 3.913560211658477783e-01
4.210652112960815430e-01 -7.749283909797668457e-01 3.641316294670104980e-01
4.637025296688079834e-01 -6.272627711296081543e-01 3.847135305404663086e-01
4.212287366390228271e-01 -6.306573748588562012e-01 3.426872789859771729e-01
4.176518619060516357e-01 -5.744597911834716797e-01 3.617417216300964355e-01
4.443572461605072021e-01 -7.505501508712768555e-01 3.447056114673614502e-01
4.114392995834350586e-01 -6.693707108497619629e-01 3.709790110588073730e-01
4.334550499916076660e-01 -7.315487265586853027e-01 3.411244153976440430e-01
4.612151980400085449e-01 -6.769471764564514160e-01 3.451997637748718262e-01
4.706611335277557373e-01 -6.550616621971130371e-01 3.672522008419036865e-01
4.412004351615905762e-01 -7.209346890449523926e-01 3.926468491554260254e-01
4.398269653320312500e-01 -6.193276643753051758e-01 3.356418609619140625e-01
4.639145135879516602e-01 -5.598757266998291016e-01 3.741389513015747070e-01
4.160307347774505615e-01 -6.785371303558349609e-01 3.816040754318237305e-01
4.329212307929992676e-01 -5.273965597152709961e-01 3.737700581550598145e-01
4.612434804439544678e-01 -6.533589363098144531e-01 3.438693583011627197e-01
4.495725631713867188e-01 -5.514321327209472656e-01 3.845312893390655518e-01
4.665459394454956055e-01 -6.329248547554016113e-01 3.501623272895812988e-01
4.158575534820556641e-01 -5.881003141403198242e-01 3.666200339794158936e-01
4.359923899173736572e-01 -7.120783329010009766e-01 3.384840190410614014e-01
4.697078764438629150e-01 -6.223450303077697754e-01 3.733497560024261475e-01
4.350581765174865723e-01 -5.634933114051818848e-01 3.860035836696624756e-01
4.375751316547393799e-01 -5.834457278251647949e-01 3.899277150630950928e-01
4.374102056026458740e-01 -6.770262122154235840e-01 3.359248638153076172e-01
4.656339883804321289e-01 -5.686931014060974121e-01 3.562640249729156494e-01
4.441088140010833740e-01 -6.645840406417846680e-01 3.950543105602264404e-01
4.464809000492095947e-01 -7.563111782073974609e-01 3.467374742031097412e-01
4.470418691635131836e-01 -6.328324079513549805e-01 3.941355645656585693e-01
4.500240981578826904e-01 -7.474339604377746582e-01 3.867570161819458008e-01
4.663003683090209961e-01 -5.941984057426452637e-01 3.522165119647979736e-01
4.547179043292999268e-01 -6.472205519676208496e-01 3.920367658138275146e-01
4.372377097606658936e-01 -7.703413367271423340e-01 3.848826289176940918e-01
4.220027625560760498e-01 -6.445420384407043457e-01 3.874869644641876221e-01
4.137455821037292480e-01 -6.780073046684265137e-01 3.517333567142486572e-01
4.518979191780090332e-01 -6.334708929061889648e-01 3.375307023525238037e-01
4.415968954563140869e-01 -7.461230158805847168e-01 3.895496428012847900e-01
4.548087418079376221e-01 -7.709175944328308105e-01 3.601735532283782959e-01
4.194675385951995850e-01 -7.368307113647460938e-01 3.502894639968872070e-01
4.255259037017822266e-01 -5.524078607559204102e-01 3.510447442531585693e-01
4.150094091892242432e-01 -5.954614877700805664e-01 3.669749200344085693e-01
4.161996245384216309e-01 -6.467932462692260742e-01 3.810077309608459473e-01
4.200260341167449951e-01 -5.610198974609375000e-01 3.609745800495147705e-01
4.632678329944610596e-01 -7.182692885398864746e-01 3.788656294345855713e-01
4.590255618095397949e-01 -7.479086518287658691e-01 3.563283383846282959e-01
4.230174124240875244e-01 -5.947970747947692871e-01 3.443689048290252686e-01
4.202337265014648438e-01 -6.571766734123229980e-01 3.428317904472351074e-01
4.469356834888458252e-01 -7.794756889343261719e-01 3.542989194393157959e-01
4.124209582805633545e-01 -6.389245986938476562e-01 3.565864264965057373e-01
4.221997559070587158e-01 -7.476866841316223145e-01 3.820670247077941895e-01
4.148550033569335938e-01 -6.557524800300598145e-01 3.793270289897918701e-01
4.490773975849151611e-01 -5.638695359230041504e-01 3.414003252983093262e-01
4.608059823513031006e-01 -6.116164922714233398e-01 3.866392076015472412e-01
4.181199967861175537e-01 -6.013230085372924805e-01 3.781304061412811279e-01
4.579299092292785645e-01 -6.201731562614440918e-01 3.893410563468933105e-01
4.503720998764038086e-01 -7.247999310493469238e-01 3.426495790481567383e-01
4.122059047222137451e-01 -7.128236293792724609e-01 3.682388365268707275e-01
4.281952083110809326e-01 -7.108863592147827148e-01 3.403362631797790527e-01
4.212500751018524170e-01 -7.404292821884155273e-01 3.824312090873718262e-01
4.547186195850372314e-01 -7.170662879943847656e-01 3.886260390281677246e-01
4.501796066761016846e-01 -5.868963003158569336e-01 3.390902578830718994e-01
4.274147748947143555e-01 -7.219774723052978516e-01 3.418755531311035156e-01
4.290711879730224609e-01 -6.009014248847961426e-01 3.888039290904998779e-01
4.660357534885406494e-01 -5.630806684494018555e-01 3.690393567085266113e-01
4.491227269172668457e-01 -6.387956142425537109e-01 3.365047574043273926e-01
4.491505324840545654e-01 -5.408504009246826172e-01 3.457076251506805420e-01
4.656527638435363770e-01 -6.665388345718383789e-01 3.500342667102813721e-01
4.703875184059143066e-01 -6.157808303833007812e-01 3.688760995864868164e-01
4.669603407382965088e-01 -5.879878997802734375e-01 3.754970133304595947e-01
4.694894552230834961e-01 -6.534278988838195801e-01 3.745089173316955566e-01
4.301656186580657959e-01 -7.168716788291931152e-01 3.911474943161010742e-01
4.504102468490600586e-01 -7.102339267730712891e-01 3.915980756282806396e-01
4.306838810443878174e-01 -5.664784312248229980e-01 3.844035267829895020e-01
4.253146350383758545e-01 -5.761909484863281250e-01 3.451917469501495361e-01
4.448785185813903809e-01 -5.391163229942321777e-01 3.823607861995697021e-01
4.296351671218872070e-01 -5.719524621963500977e-01 3.848098516464233398e-01
4.578583836555480957e-01 -7.540929317474365234e-01 3.568075299263000488e-01
4.447568655014038086e-01 -6.020547747611999512e-01 3.924658000469207764e-01
4.532694518566131592e-01 -5.775077342987060547e-01 3.412969112396240234e-01
4.135740101337432861e-01 -6.196625828742980957e-01 3.714643120765686035e-01
4.303472340106964111e-01 -7.068483233451843262e-01 3.919287323951721191e-01
4.589722454547882080e-01 -6.911593079566955566e-01 3.443574309349060059e-01
4.553730785846710205e-01 -5.907884836196899414e-01 3.411118388175964355e-01
4.128379523754119873e-01 -6.667094230651855469e-01 3.755114078521728516e-01
4.467145502567291260e-01 -6.063958406448364258e-01 3.367931842803955078e-01
4.271956682205200195e-01 -6.677594184875488281e-01 3.382719159126281738e-01
4.619045853614807129e-01 -7.280049920082092285e-01 3.546481430530548096e-01
4.537991285324096680e-01 -7.147229313850402832e-01 3.431959152221679688e-01
4.310920238494873047e-01 -6.080952882766723633e-01 3.379850089550018311e-01
4.288325309753417969e-01 -7.458963990211486816e-01 3.447985947132110596e-01
4.654489457607269287e-01 -6.466603279113769531e-01 3.486307859420776367e-01
4.557249248027801514e-01 -5.607832074165344238e-01 3.450578451156616211e-01
4.549979269504547119e-01 -7.710335850715637207e-01 3.734648525714874268e-01
4.393227696418762207e-01 -5.107038617134094238e-01 3.589796423912048340e-01
4.112976193428039551e-01 -6.479237079620361328e-01 3.676328957080841064e-01
4.471656978130340576e-01 -5.249822139739990234e-01 3.497595489025115967e-01
4.593250453472137451e-01 -5.490404963493347168e-01 3.777646124362945557e-01
4.682178199291229248e-01 -6.242598295211791992e-01 3.535442352294921875e-01
4.385472238063812256e-01 -6.430199742317199707e-01 3.352001309394836426e-01
4.220169782638549805e-01 -7.542271018028259277e-01 3.804034888744354248e-01
4.514878392219543457e-01 -6.736361980438232422e-01 3.932347595691680908e-01
4.194872677326202393e-01 -7.684367299079895020e-01 3.636223673820495605e-01
4.589103162288665771e-01 -7.524533867835998535e-01 3.757146000862121582e-01
4.169713556766510010e-01 -7.508213520050048828e-01 3.722143173217773438e-01
4.250279664993286133e-01 -6.507712006568908691e-01 3.392927944660186768e-01
4.389189779758453369e-01 -5.707530975341796875e-01 3.883639872074127197e-01
4.184140563011169434e-01 -5.864206552505493164e-01 3.749198615550994873e-01
4.215197265148162842e-01 -6.928761005401611328e-01 3.428545594215393066e-01
4.244709610939025879e-01 -6.991211175918579102e-01 3.893230855464935303e-01
4.648292958736419678e-01 -5.888479948043823242e-01 3.504025340080261230e-01
4.183838665485382080e-01 -7.637119293212890625e-01 3.676433563232421875e-01
4.662201404571533203e-01 -7.163671851158142090e-01 3.634618222713470459e-01
4.352144300937652588e-01 -7.023839354515075684e-01 3.377045392990112305e-01
4.506134688854217529e-01 -5.936697125434875488e-01 3.386804163455963135e-01
4.177289009094238281e-01 -7.183419466018676758e-01 3.492529690265655518e-01
4.296995103359222412e-01 -7.889327406883239746e-01 3.577346801757812500e-01
4.300695955753326416e-01 -6.624756455421447754e-01 3.369938433170318604e-01
4.609402716159820557e-01 -5.575834512710571289e-01 3.782834708690643311e-01
4.464235305786132812e-01 -7.642049789428710938e-01 3.487285375595092773e-01
4.208524227142333984e-01 -6.007170081138610840e-01 3.458338677883148193e-01
4.542263150215148926e-01 -6.975578069686889648e-01 3.414439260959625244e-01
4.122448265552520752e-01 -6.925776600837707520e-01 3.566329777240753174e-01
4.531286358833312988e-01 -5.792754888534545898e-01 3.880485296249389648e-01
4.398624300956726074e-01 -6.500763893127441406e-01 3.351671397686004639e-01
4.187937378883361816e-01 -5.673962235450744629e-01 3.648414909839630127e-01
4.482121765613555908e-01 -6.521782279014587402e-01 3.943769335746765137e-01
4.675447344779968262e-01 -6.993183493614196777e-01 3.605167269706726074e-01
4.152378737926483154e-01 -6.564244627952575684e-01 3.488759994506835938e-01
4.587613642215728760e-01 -5.332121849060058594e-01 3.719321787357330322e-01
4.507712423801422119e-01 -6.961976289749145508e-01 3.925153017044067383e-01
4.399203360080718994e-01 -6.294758915901184082e-01 3.942973017692565918e-01
4.594139754772186279e-01 -6.646943092346191406e-01 3.889863789081573486e-01
4.375300109386444092e-01 -5.453885793685913086e-01 3.443806171417236328e-01
4.215001165866851807e-01 -5.603183507919311523e-01 3.714506626129150391e-01
4.345285892486572266e-01 -5.922654271125793457e-01 3.381427824497222900e-01
4.320872426033020020e-01 -6.230203509330749512e-01 3.368147015571594238e-01
4.417898058891296387e-01 -7.587928771972656250e-01 3.872899711132049561e-01
4.668312668800354004e-01 -6.922780275344848633e-01 3.559836149215698242e-01
4.209397435188293457e-01 -6.059902310371398926e-01 3.828456699848175049e-01
4.596614241600036621e-01 -5.959289669990539551e-01 3.437368869781494141e-01
4.193008244037628174e-01 -6.755760312080383301e-01 3.439708650112152100e-01
4.546013772487640381e-01 -7.296749949455261230e-01 3.869534730911254883e-01
4.272144734859466553e-01 -7.810871005058288574e-01 3.557354807853698730e-01
4.136098027229309082e-01 -7.113440632820129395e-01 3.746018111705780029e-01
4.618591070175170898e-01 -6.578609347343444824e-01 3.869924247264862061e-01
4.600476622581481934e-01 -6.223037838935852051e-01 3.426771163940429688e-01
4.371224045753479004e-01 -5.778874158859252930e-01 3.890531659126281738e-01
4.269915819168090820e-01 -5.401803255081176758e-01 3.541501760482788086e-01
4.117498993873596191e-01 -6.510843038558959961e-01 3.576445579528808594e-01
4.441261291503906250e-01 -6.594578623771667480e-01 3.356027305126190186e-01
4.118498563766479492e-01 -6.323747038841247559e-01 3.619183897972106934e-01
4.204463958740234375e-01 -7.298416495323181152e-01 3.478938341140747070e-01
4.208759069442749023e-01 -5.737875699996948242e-01 3.757541179656982422e-01
4.692168235778808594e-01 -6.039329767227172852e-01 3.583273291587829590e-01
4.199116230010986328e-01 -7.205753326416015625e-01 3.838149011135101318e-01
4.210007190704345703e-01 -7.047970294952392578e-01 3.862781524658203125e-01
4.540680348873138428e-01 -7.578704357147216797e-01 3.527047932147979736e-01
4.696487188339233398e-01 -6.072947382926940918e-01 3.712568283081054688e-01
4.358151257038116455e-01 -7.197684049606323242e-01 3.924441039562225342e-01
4.525268375873565674e-01 -6.335164308547973633e-01 3.926704525947570801e-01
4.320990443229675293e-01 -5.247423648834228516e-01 3.553501069545745850e-01
4.415136575698852539e-01 -5.203048586845397949e-01 3.755382001399993896e-01
4.474451541900634766e-01 -7.924934625625610352e-01 3.655248284339904785e-01
4.630454182624816895e-01 -6.179943084716796875e-01 3.849369883537292480e-01
4.667083024978637695e-01 -6.376426815986633301e-01 3.809609413146972656e-01
4.322904348373413086e-01 -6.713863015174865723e-01 3.937445878982543945e-01
4.522283971309661865e-01 -7.773941159248352051e-01 3.594208061695098877e-01
4.159320592880249023e-01 -6.737124323844909668e-01 3.478982150554656982e-01
4.187911450862884521e-01 -7.149122953414916992e-01 3.831464648246765137e-01
4.676601886749267578e-01 -6.207218170166015625e-01 3.785192966461181641e-01
4.113568663597106934e-01 -6.845394372940063477e-01 3.592995703220367432e-01
4.363412857055664062e-01 -7.587901353836059570e-01 3.454867005348205566e-01
4.531128704547882080e-01 -6.217799186706542969e-01 3.382667005062103271e-01
4.337633848190307617e-01 -6.470557451248168945e-01 3.358430266380310059e-01
4.171431064605712891e-01 -5.939956307411193848e-01 3.743647933006286621e-01
4.537293910980224609e-01 -6.161910295486450195e-01 3.913510739803314209e-01
4.259684085845947266e-01 -6.397197842597961426e-01 3.901624977588653564e-01
4.563540518283843994e-01 -5.215107202529907227e-01 3.673555254936218262e-01
4.600537419319152832e-01 -5.424253940582275391e-01 3.743759989738464355e-01
4.419909417629241943e-01 -5.586770176887512207e-01 3.412067294120788574e-01
4.687014222145080566e-01 -6.278290748596191406e-01 3.766851723194122314e-01
4.660924077033996582e-01 -7.053455114364624023e-01 3.574381470680236816e-01
4.520432949066162109e-01 -7.058474421501159668e-01 3.410703539848327637e-01
4.436488747596740723e-01 -7.642070651054382324e-01 3.857552409172058105e-01
4.263598918914794922e-01 -7.314355373382568359e-01 3.878553807735443115e-01
4.465420544147491455e-01 -5.345715880393981934e-01 3.465984463691711426e-01
4.502449333667755127e-01 -6.462256312370300293e-01 3.369013369083404541e-01
4.269458949565887451e-01 -6.568826436996459961e-01 3.382423818111419678e-01
4.237258732318878174e-01 -6.278972625732421875e-01 3.878402113914489746e-01
4.574913382530212402e-01 -6.729447841644287109e-01 3.901413679122924805e-01
4.493870139122009277e-01 -5.745970010757446289e-01 3.886434435844421387e-01
4.345166087150573730e-01 -8.003654479980468750e-01 3.672726452350616455e-01
4.563724994659423828e-01 -6.794968247413635254e-01 3.412922322750091553e-01
4.427915513515472412e-01 -7.216048240661621094e-01 3.397485315799713135e-01
4.402889311313629150e-01 -7.908415198326110840e-01 3.775591552257537842e-01
4.519565701484680176e-01 -7.466618418693542480e-01 3.476620912551879883e-01
4.434034526348114014e-01 -5.594126582145690918e-01 3.868871927261352539e-01
4.450027942657470703e-01 -7.151736617088317871e-01 3.927317857742309570e-01
4.686936140060424805e-01 -6.398500204086303711e-01 3.545112013816833496e-01
4.185308814048767090e-01 -7.420294880867004395e-01 3.527813255786895752e-01
4.131017327308654785e-01 -7.252252101898193359e-01 3.627205491065979004e-01
4.248805046081542969e-01 -5.570761561393737793e-01 3.765221834182739258e-01
4.677860736846923828e-01 -6.563860774040222168e-01 3.531868159770965576e-01
4.329173266887664795e-01 -5.192488431930541992e-01 3.673260807991027832e-01
4.495156109333038330e-01 -7.816762924194335938e-01 3.761903941631317139e-01
4.565591514110565186e-01 -5.700238347053527832e-01 3.848486542701721191e-01
4.606277048587799072e-01 -5.733433961868286133e-01 3.821262419223785400e-01
4.181088209152221680e-01 -6.093307733535766602e-01 3.482254147529602051e-01
4.648655951023101807e-01 -6.892850995063781738e-01 3.513599038124084473e-01
4.444724023342132568e-01 -6.101291775703430176e-01 3.931442797183990479e-01
4.494196772575378418e-01 -5.241189002990722656e-01 3.765182197093963623e-01
4.224238693714141846e-01 -5.872519612312316895e-01 3.813629150390625000e-01
4.686013758182525635e-01 -6.628594398498535156e-01 3.764409422874450684e-01
4.612537622451782227e-01 -7.389459609985351562e-01 3.764639496803283691e-01
4.229291081428527832e-01 -7.766031622886657715e-01 3.593100607395172119e-01
4.659292697906494141e-01 -5.617938041687011719e-01 3.607721328735351562e-01
4.634173214435577393e-01 -6.905084252357482910e-01 3.833049237728118896e-01
4.577380716800689697e-01 -6.992948651313781738e-01 3.883179724216461182e-01
4.512246251106262207e-01 -5.378695726394653320e-01 3.805729746818542480e-01
4.659327268600463867e-01 -7.067279815673828125e-01 3.757607042789459229e-01
4.228922128677368164e-01 -7.682257890701293945e-01 3.772418200969696045e-01
4.631207287311553955e-01 -7.377454042434692383e-01 3.706761598587036133e-01
4.602233469486236572e-01 -7.337439060211181641e-01 3.534231483936309814e-01
4.501631855964660645e-01 -7.301727533340454102e-01 3.433749973773956299e-01
4.319814741611480713e-01 -6.270881295204162598e-01 3.924110233783721924e-01
4.513205885887145996e-01 -7.623199224472045898e-01 3.823451399803161621e-01
4.226279258728027344e-01 -5.875468254089355469e-01 3.458640575408935547e-01
4.484568536281585693e-01 -5.679730176925659180e-01 3.878570199012756348e-01
4.570261538028717041e-01 -7.677431702613830566e-01 3.658151328563690186e-01
4.624330103397369385e-01 -5.637097358703613281e-01 3.513160943984985352e-01
4.378024041652679443e-01 -5.502465963363647461e-01 3.841660320758819580e-01
4.224207103252410889e-01 -5.508302450180053711e-01 3.591252267360687256e-01
4.508653879165649414e-01 -6.681968569755554199e-01 3.935749232769012451e-01
4.620286226272583008e-01 -5.476126670837402344e-01 3.557191193103790283e-01
4.168369770050048828e-01 -6.898390054702758789e-01 3.474246859550476074e-01
4.132275581359863281e-01 -6.362248659133911133e-01 3.739016950130462646e-01
4.648842513561248779e-01 -6.695238351821899414e-01 3.830303847789764404e-01
4.629768729209899902e-01 -5.433199405670166016e-01 3.623859882354736328e-01
4.573556780815124512e-01 -5.231305360794067383e-01 3.622296154499053955e-01
4.298958778381347656e-01 -5.917936563491821289e-01 3.881305754184722900e-01
4.583013057708740234e-01 -6.394608020782470703e-01 3.411272466182708740e-01
4.179967343807220459e-01 -6.825054287910461426e-01 3.456124663352966309e-01
4.704282879829406738e-01 -6.414806246757507324e-01 3.605859577655792236e-01
4.595391452312469482e-01 -6.518040299415588379e-01 3.890622854232788086e-01
4.198077321052551270e-01 -6.550038456916809082e-01 3.858801722526550293e-01
4.405349195003509521e-01 -5.817019939422607422e-01 3.382282257080078125e-01
4.661929607391357422e-01 -6.316697001457214355e-01 3.816203474998474121e-01
4.372605979442596436e-01 -5.218173861503601074e-01 3.521664142608642578e-01
4.154298305511474609e-01 -6.166913509368896484e-01 3.518715798854827881e-01
4.184023439884185791e-01 -7.443092465400695801e-01 3.777804076671600342e-01
4.612160921096801758e-01 -7.410328984260559082e-01 3.581454753875732422e-01
4.256779551506042480e-01 -7.847073078155517578e-01 3.598987162113189697e-01
4.357040226459503174e-01 -7.563176155090332031e-01 3.876978158950805664e-01
4.623234868049621582e-01 -7.028155326843261719e-01 3.832457363605499268e-01
4.423850476741790771e-01 -6.700777411460876465e-01 3.357140123844146729e-01
4.494943320751190186e-01 -6.261990666389465332e-01 3.367680311203002930e-01
4.555535614490509033e-01 -5.935151576995849609e-01 3.886027634143829346e-01
4.454100430011749268e-01 -5.097486972808837891e-01 3.579775989055633545e-01
4.665186107158660889e-01 -6.874430179595947266e-01 3.784418106079101562e-01
4.516060948371887207e-01 -5.119117498397827148e-01 3.624286949634552002e-01
4.369915127754211426e-01 -6.637763381004333496e-01 3.355161547660827637e-01
4.357616007328033447e-01 -7.881306409835815430e-01 3.789014816284179688e-01
4.704106748104095459e-01 -6.329857110977172852e-01 3.603868484497070312e-01
4.559633135795593262e-01 -7.363273501396179199e-01 3.846446573734283447e-01
4.136228263378143311e-01 -6.496063470840454102e-01 3.521607220172882080e-01
4.113548398017883301e-01 -6.983703970909118652e-01 3.671211302280426025e-01
4.133222103118896484e-01 -7.277726531028747559e-01 3.677499890327453613e-01
4.686421155929565430e-01 -5.951750278472900391e-01 3.580252528190612793e-01
4.381577074527740479e-01 -5.248935222625732422e-01 3.764307796955108643e-01
4.412451386451721191e-01 -7.009211778640747070e-01 3.941326737403869629e-01
4.589603245258331299e-01 -7.225297093391418457e-01 3.842015862464904785e-01
4.310153126716613770e-01 -6.814522147178649902e-01 3.372795581817626953e-01
4.450474679470062256e-01 -7.878754138946533203e-01 3.571163713932037354e-01
4.308054149150848389e-01 -5.410486459732055664e-01 3.491137325763702393e-01
4.632680416107177734e-01 -6.945717930793762207e-01 3.496534824371337891e-01
4.283725023269653320e-01 -6.748606562614440918e-01 3.921906650066375732e-01
4.351418018341064453e-01 -7.743371725082397461e-01 3.495942354202270508e-01
4.117975831031799316e-01 -7.061395645141601562e-01 3.680496215820312500e-01
4.676579833030700684e-01 -6.498299241065979004e-01 3.792460560798645020e-01
4.554937779903411865e-01 -6.092590093612670898e-01 3.900461196899414062e-01
4.186112582683563232e-01 -6.400741338729858398e-01 3.448756039142608643e-01
4.147282242774963379e-01 -7.314085960388183594e-01 3.730297982692718506e-01
4.293201565742492676e-01 -7.388932108879089355e-01 3.434047102928161621e-01
4.374116957187652588e-01 -5.379541516304016113e-01 3.808025717735290527e-01
4.528087377548217773e-01 -6.596990823745727539e-01 3.382378220558166504e-01
4.251238107681274414e-01 -7.352194786071777344e-01 3.449570834636688232e-01
4.684815108776092529e-01 -6.894266009330749512e-01 3.609892725944519043e-01
4.502678811550140381e-01 -7.412729263305664062e-01 3.454146981239318848e-01
4.297428429126739502e-01 -6.387606263160705566e-01 3.371518552303314209e-01
4.218296706676483154e-01 -5.561999678611755371e-01 3.568091690540313721e-01
4.532746970653533936e-01 -6.062894463539123535e-01 3.389565348625183105e-01
4.134307503700256348e-01 -6.845181584358215332e-01 3.527400195598602295e-01
4.248933196067810059e-01 -7.379345893859863281e-01 3.860442340373992920e-01
4.133350849151611328e-01 -6.997750997543334961e-01 3.754743933677673340e-01
4.176026284694671631e-01 -5.882264375686645508e-01 3.536215722560882568e-01
4.575355947017669678e-01 -7.620240449905395508e-01 3.607387542724609375e-01
4.408368766307830811e-01 -6.896778941154479980e-01 3.365879654884338379e-01
4.235571920871734619e-01 -6.633578538894653320e-01 3.402527272701263428e-01
4.289152622222900391e-01 -7.053689360618591309e-01 3.395468592643737793e-01
4.405657052993774414e-01 -6.350315213203430176e-01 3.352227210998535156e-01
4.328142702579498291e-01 -7.006813287734985352e-01 3.930878043174743652e-01
4.658040106296539307e-01 -6.074700951576232910e-01 3.805771768093109131e-01
4.175293147563934326e-01 -7.544109821319580078e-01 3.594742715358734131e-01
4.484894871711730957e-01 -7.698235511779785156e-01 3.821244239807128906e-01
4.199062883853912354e-01 -6.244721412658691406e-01 3.443858921527862549e-01
4.652406871318817139e-01 -7.211365699768066406e-01 3.723210692405700684e-01
4.172906577587127686e-01 -6.104974150657653809e-01 3.784676492214202881e-01
4.668125808238983154e-01 -7.119777798652648926e-01 3.691149652004241943e-01
4.449288547039031982e-01 -5.914262533187866211e-01 3.375070691108703613e-01
4.671833515167236328e-01 -5.805742144584655762e-01 3.569913208484649658e-01
4.158345758914947510e-01 -7.495815157890319824e-01 3.654721081256866455e-01
4.563083946704864502e-01 -7.416643500328063965e-01 3.503741025924682617e-01
4.498094320297241211e-01 -7.866025567054748535e-01 3.716095983982086182e-01
4.576495885848999023e-01 -7.621481418609619141e-01 3.729333579540252686e-01
4.657490253448486328e-01 -7.110754251480102539e-01 3.583508729934692383e-01
4.351501464843750000e-01 -5.980364084243774414e-01 3.910369575023651123e-01
4.559279382228851318e-01 -7.455556392669677734e-01 3.826054334640502930e-01
4.279679358005523682e-01 -5.597980022430419922e-01 3.462720513343811035e-01
4.235499501228332520e-01 -7.660176157951354980e-01 3.533917963504791260e-01
4.146467745304107666e-01 -7.258139848709106445e-01 3.744022548198699951e-01
4.298519492149353027e-01 -5.819485783576965332e-01 3.866778612136840820e-01
4.692484140396118164e-01 -6.713408231735229492e-01 3.591712415218353271e-01
4.516007602214813232e-01 -6.884207129478454590e-01 3.392276763916015625e-01
4.373569190502166748e-01 -6.074585914611816406e-01 3.924737572669982910e-01
4.699219167232513428e-01 -6.620973944664001465e-01 3.603865206241607666e-01
4.473057985305786133e-01 -6.836283206939697266e-01 3.373017907142639160e-01
4.531964659690856934e-01 -6.125572323799133301e-01 3.386220932006835938e-01
4.121446609497070312e-01 -7.130224108695983887e-01 3.626918792724609375e-01
4.163439273834228516e-01 -5.973492860794067383e-01 3.540321588516235352e-01
4.461077451705932617e-01 -7.029030919075012207e-01 3.384591341018676758e-01
4.430033266544342041e-01 -5.407829284667968750e-01 3.446932435035705566e-01
4.696732163429260254e-01 -6.756338477134704590e-01 3.628253936767578125e-01
4.209822714328765869e-01 -7.463662624359130859e-01 3.506089448928833008e-01
4.512218236923217773e-01 -5.874730944633483887e-01 3.897733688354492188e-01
4.592693448066711426e-01 -7.106100916862487793e-01 3.471803069114685059e-01
4.542140662670135498e-01 -5.467095971107482910e-01 3.814465403556823730e-01
4.514725506305694580e-01 -7.837994098663330078e-01 3.641979396343231201e-01
4.371764063835144043e-01 -7.372033596038818359e-01 3.907866179943084717e-01
4.476132094860076904e-01 -6.679995656013488770e-01 3.365990519523620605e-01
4.396165311336517334e-01 -7.920913696289062500e-01 3.568584322929382324e-01
4.168700873851776123e-01 -7.090393304824829102e-01 3.491639494895935059e-01
4.354677796363830566e-01 -5.762704014778137207e-01 3.396364450454711914e-01
4.376476705074310303e-01 -7.874794602394104004e-01 3.542545735836029053e-01
4.647833704948425293e-01 -5.955483317375183105e-01 3.806717097759246826e-01
4.107810258865356445e-01 -6.745923757553100586e-01 3.662077486515045166e-01
4.152966141700744629e-01 -6.073511838912963867e-01 3.541132807731628418e-01
4.556282162666320801e-01 -5.271971821784973145e-01 3.545631170272827148e-01
4.475965797901153564e-01 -7.233231663703918457e-01 3.913002014160156250e-01
4.438248276710510254e-01 -6.584299206733703613e-01 3.950771689414978027e-01
4.275842905044555664e-01 -7.431514263153076172e-01 3.869982957839965820e-01
4.429363310337066650e-01 -7.323577404022216797e-01 3.412194550037384033e-01
4.123414754867553711e-01 -6.843957901000976562e-01 3.739604949951171875e-01
4.587183296680450439e-01 -6.686330437660217285e-01 3.423406481742858887e-01
4.159913063049316406e-01 -5.864230394363403320e-01 3.613201677799224854e-01
4.142052531242370605e-01 -6.291883587837219238e-01 3.527459800243377686e-01
4.114026129245758057e-01 -6.894213557243347168e-01 3.697849214076995850e-01
4.292906522750854492e-01 -7.240431904792785645e-01 3.901536464691162109e-01
4.627568721771240234e-01 -7.310824394226074219e-01 3.759665489196777344e-01
4.474554359912872314e-01 -6.139011979103088379e-01 3.365964293479919434e-01
4.490394890308380127e-01 -6.453437209129333496e-01 3.940814137458801270e-01
4.533298909664154053e-01 -5.343103408813476562e-01 3.495852649211883545e-01
4.692706167697906494e-01 -6.134508848190307617e-01 3.571133911609649658e-01
4.603099524974822998e-01 -5.790574550628662109e-01 3.460974395275115967e-01
4.273289442062377930e-01 -7.885802984237670898e-01 3.727898895740509033e-01
4.587917327880859375e-01 -5.314847826957702637e-01 3.574330806732177734e-01
4.645486176013946533e-01 -5.746629834175109863e-01 3.523447215557098389e-01
4.580874443054199219e-01 -5.440263152122497559e-01 3.508979976177215576e-01
4.628862738609313965e-01 -5.856871604919433594e-01 3.817216157913208008e-01
4.652315676212310791e-01 -5.991809964179992676e-01 3.498153984546661377e-01
4.188576042652130127e-01 -7.320087552070617676e-01 3.809921145439147949e-01
4.529516994953155518e-01 -7.692521214485168457e-01 3.781737387180328369e-01
4.554415047168731689e-01 -6.025524139404296875e-01 3.895310759544372559e-01
4.511427581310272217e-01 -7.688398957252502441e-01 3.535838127136230469e-01
4.389059841632843018e-01 -6.399371623992919922e-01 3.946414291858673096e-01
4.265856444835662842e-01 -7.513589262962341309e-01 3.470194637775421143e-01
4.316709935665130615e-01 -5.816419720649719238e-01 3.402832448482513428e-01
-2.252656668424606323e-01 -5.358566641807556152e-01 -3.016884624958038330e-02
-1.824035048484802246e-01 -5.607474446296691895e-01 -2.673287987709045410e-01
-2.205443382263183594e-01 -6.563901305198669434e-01 -4.799388349056243896e-02
-1.791534274816513062e-01 -5.430359840393066406e-01 -1.266171336174011230e-01
-2.119256108999252319e-01 -5.764381885528564453e-01 -4.264795780181884766e-01
-1.944375485181808472e-01 -6.873326897621154785e-01 -4.337815046310424805e-01
-1.812071651220321655e-01 -5.368773937225341797e-01 9.635017812252044678e-02
-2.258064448833465576e-01 -6.103175282478332520e-01 -4.184133410453796387e-01
-1.790024638175964355e-01 -6.167289614677429199e-01 -4.269487410783767700e-02
-1.830596029758453369e-01 -6.386556029319763184e-01 -3.800393640995025635e-01
-2.259284108877182007e-01 -6.237182617187500000e-01 -4.387293457984924316e-01
-2.291551232337951660e-01 -5.972877740859985352e-01 -2.449661493301391602e-03
-2.266591787338256836e-01 -6.800569295883178711e-01 -3.065345287322998047e-01
-1.817266196012496948e-01 -6.311296224594116211e-01 -4.561765491962432861e-02
-1.783283203840255737e-01 -5.822243690490722656e-01 3.732042014598846436e-02
-2.328740358352661133e-01 -5.942609310150146484e-01 -1.218152940273284912e-01
-1.899610608816146851e-01 -5.368414521217346191e-01 -2.578295171260833740e-01
-2.336104214191436768e-01 -6.202170848846435547e-01 -2.366406917572021484e-01
-1.885045319795608521e-01 -6.564759612083435059e-01 -6.731655448675155640e-02
-1.838661134243011475e-01 -5.159944891929626465e-01 6.867641210556030273e-02
-2.269876301288604736e-01 -5.852543711662292480e-01 -3.408711850643157959e-01
-2.299038618803024292e-01 -5.975010395050048828e-01 -1.810596883296966553e-02
-1.988874673843383789e-01 -4.997756481170654297e-01 -8.528440445661544800e-02
-2.175933271646499634e-01 -6.921200752258300781e-01 -2.157953083515167236e-01
-1.835975348949432373e-01 -5.509765148162841797e-01 1.442248076200485229e-01
-1.871420741081237793e-01 -6.765567660331726074e-01 -3.035395145416259766e-01
-2.227693945169448853e-01 -6.380885243415832520e-01 -4.843188524246215820e-01
-2.092281430959701538e-01 -6.014808416366577148e-01 -4.896376729011535645e-01
-2.257189154624938965e-01 -5.834156870841979980e-01 6.589204072952270508e-02
-2.331307530403137207e-01 -6.020963191986083984e-01 -2.357726991176605225e-01
-2.270327359437942505e-01 -5.555233359336853027e-01 2.711397409439086914e-02
-2.267393916845321655e-01 -6.025179028511047363e-01 -3.909229040145874023e-01
-1.844213306903839111e-01 -5.179708600044250488e-01 -8.158646523952484131e-02
-2.059736698865890503e-01 -4.951627552509307861e-01 -7.458493113517761230e-03
-1.780838817358016968e-01 -6.218843460083007812e-01 -9.518261253833770752e-02
-2.281202822923660278e-01 -5.650632381439208984e-01 1.803672313690185547e-02
-2.068649381399154663e-01 -4.953000545501708984e-01 5.789056420326232910e-03
-1.909338235855102539e-01 -6.837165951728820801e-01 -2.306610643863677979e-01
-2.237898856401443481e-01 -6.506158113479614258e-01 -4.803064465522766113e-01
-2.149572670459747314e-01 -5.290907621383666992e-01 -2.304045110940933228e-01
-1.860262751579284668e-01 -6.608344316482543945e-01 -3.946022987365722656e-01
-1.850206702947616577e-01 -6.414021253585815430e-01 -4.108197093009948730e-01
-1.911291331052780151e-01 -6.500155925750732422e-01 -1.246812939643859863e-02
-2.292123883962631226e-01 -6.526065468788146973e-01 -3.995351791381835938e-01
-2.073816955089569092e-01 -7.071935534477233887e-01 -3.682871758937835693e-01
-2.039796262979507446e-01 -6.429710984230041504e-01 -5.402419567108154297e-01
-2.243230193853378296e-01 -5.923649668693542480e-01 7.542786002159118652e-02
-2.335517704486846924e-01 -6.249927878379821777e-01 -2.217184305191040039e-01
-2.155346423387527466e-01 -5.860081315040588379e-01 1.565900593996047974e-01
-2.332445234060287476e-01 -6.003859043121337891e-01 -1.425768733024597168e-01
-2.280828952789306641e-01 -6.641044616699218750e-01 -1.908366084098815918e-01
