5.877606943249702454e-02 -7.852502167224884033e-04 -2.663828246295452118e-02
1.070660352706909180e-02 -3.836234286427497864e-02 -1.309761106967926025e-01
1.198316663503646851e-01 -4.128417372703552246e-02 1.569480597972869873e-01
-2.192795276641845703e-03 -3.980251401662826538e-02 -1.277872771024703979e-01
-2.807974815368652344e-02 -2.213901653885841370e-02 -7.705241441726684570e-02
1.538874953985214233e-02 -1.097423285245895386e-01 -3.377858549356460571e-02
2.619869709014892578e-01 -4.967609420418739319e-02 7.054124772548675537e-02
1.289186775684356689e-01 -1.082101017236709595e-01 -5.607030540704727173e-02
2.658913284540176392e-02 -4.058256745338439941e-03 5.477878451347351074e-02
-1.001007109880447388e-02 -2.056270092725753784e-02 -8.648404479026794434e-02
1.730291247367858887e-01 -3.463268280029296875e-03 1.181221846491098404e-02
2.275728583335876465e-01 -9.228225797414779663e-02 1.671257242560386658e-02
5.497312918305397034e-02 -9.010933339595794678e-03 9.772785007953643799e-02
-5.627252161502838135e-02 -5.272606015205383301e-02 -1.053360998630523682e-01
-1.018480062484741211e-01 -6.731292605400085449e-02 -1.200213655829429626e-02
2.132339626550674438e-01 -8.983516693115234375e-02 6.856490671634674072e-02
1.860257685184478760e-01 -5.514040589332580566e-03 1.686061546206474304e-02
4.786122962832450867e-02 -1.090801060199737549e-01 -6.392587721347808838e-02
2.003242075443267822e-01 -8.222687244415283203e-02 1.040128767490386963e-01
1.293871700763702393e-01 -6.878273189067840576e-02 -1.436053067445755005e-01
1.418293118476867676e-01 -8.108515292406082153e-02 -1.294895559549331665e-01
1.404351294040679932e-01 -1.105630248785018921e-01 2.628030022606253624e-03
1.017630323767662048e-01 -1.796067878603935242e-02 -1.058229357004165649e-01
-3.772439062595367432e-02 -8.393861353397369385e-02 8.726316690444946289e-02
8.704428374767303467e-02 -1.088162511587142944e-01 -6.859642267227172852e-02
4.873834922909736633e-02 -1.130452752113342285e-01 -1.496563479304313660e-02
1.982744783163070679e-02 -3.257253766059875488e-02 1.361491829156875610e-01
1.547328084707260132e-01 -2.423968166112899780e-03 -1.464676484465599060e-02
2.147378772497177124e-01 -8.442424237728118896e-02 8.557094633579254150e-02
-6.911414861679077148e-02 -7.407071441411972046e-02 7.201501727104187012e-02
-6.550924479961395264e-02 -9.191177785396575928e-02 1.067966874688863754e-02
1.842437684535980225e-02 -1.162958145141601562e-02 -7.210904359817504883e-02
1.016461998224258423e-01 -9.909459948539733887e-02 -1.054778695106506348e-01
2.467523515224456787e-02 -2.048116177320480347e-03 2.554742619395256042e-02
9.609570354223251343e-02 -3.592230379581451416e-03 8.132697641849517822e-02
1.082204729318618774e-01 -1.621648669242858887e-03 6.838519871234893799e-02
1.078953668475151062e-01 -9.011162817478179932e-02 -1.250862032175064087e-01
-3.242135047912597656e-02 -4.221610724925994873e-02 -1.145948320627212524e-01
-3.851729631423950195e-02 -5.583428964018821716e-02 -1.201534271240234375e-01
4.328387975692749023e-02 -1.562837883830070496e-02 -9.587773680686950684e-02
1.972945332527160645e-01 -9.374167770147323608e-03 -1.544324494898319244e-02
1.555030792951583862e-01 -6.121236830949783325e-03 7.725420594215393066e-02
1.532890200614929199e-01 -9.548217058181762695e-04 1.710889302194118500e-02
-2.622783929109573364e-02 -1.200328394770622253e-02 -2.580582909286022186e-02
6.716386973857879639e-02 1.312792301177978516e-03 2.748284023255109787e-04
1.653211414813995361e-01 -1.013266742229461670e-01 -6.664331257343292236e-02
5.303766950964927673e-02 -4.190217703580856323e-03 -5.077878758311271667e-02
-7.667085528373718262e-02 -2.977208606898784637e-02 -2.836585417389869690e-02
2.559699863195419312e-02 -4.597194492816925049e-03 -3.718326240777969360e-02
-5.496424436569213867e-02 -1.951703056693077087e-02 -1.830443926155567169e-02
1.987727731466293335e-01 -8.004866540431976318e-03 1.719735935330390930e-02
2.088882327079772949e-01 -1.053621619939804077e-02 7.135612424463033676e-03
-7.871530950069427490e-03 -7.373864203691482544e-02 -1.320240050554275513e-01
1.597068011760711670e-01 -1.063798964023590088e-01 3.600396588444709778e-02
6.452351063489913940e-02 -4.409033805131912231e-03 8.035910129547119141e-02
1.765197813510894775e-01 -5.310207605361938477e-03 -1.381855830550193787e-02
5.348917469382286072e-02 -8.272493630647659302e-02 -1.387501657009124756e-01
1.943388581275939941e-01 -2.644084021449089050e-02 -8.824385702610015869e-02
-8.048613369464874268e-02 -4.429461807012557983e-02 -6.831134855747222900e-02
1.206079125404357910e-01 -2.055009454488754272e-02 -1.088647246360778809e-01
1.469447612762451172e-01 -1.648986339569091797e-02 -9.038761258125305176e-02
-5.289229750633239746e-02 -3.683774545788764954e-02 -9.034878015518188477e-02
7.214542478322982788e-02 -1.362016797065734863e-02 1.166947036981582642e-01
6.890960037708282471e-03 -1.110266521573066711e-02 -6.218568608164787292e-02
3.000684082508087158e-03 -2.290310710668563843e-02 -1.005672216415405273e-01
-2.414411306381225586e-02 -1.675755903124809265e-02 7.156062126159667969e-02
1.382748484611511230e-01 -1.104121059179306030e-01 1.482965610921382904e-02
5.872800201177597046e-02 -6.884720921516418457e-02 1.508325487375259399e-01
-6.338886916637420654e-02 -2.197222784161567688e-02 1.284322235733270645e-02
4.319963976740837097e-02 -9.147822856903076172e-05 2.279177494347095490e-02
2.121839523315429688e-01 -1.763113215565681458e-02 7.847513258457183838e-02
1.773523092269897461e-01 -1.325593516230583191e-02 -6.203445419669151306e-02
3.290214389562606812e-02 -1.107492372393608093e-01 2.428719401359558105e-02
2.190600186586380005e-01 -1.951959729194641113e-02 -4.235918074846267700e-02
5.439803749322891235e-02 -5.333825573325157166e-02 -1.507552415132522583e-01
1.104854345321655273e-01 -4.167194291949272156e-02 -1.421967893838882446e-01
4.814785346388816833e-02 -9.505246579647064209e-02 1.066382825374603271e-01
4.186803847551345825e-02 -2.681209333240985870e-02 -1.219917684793472290e-01
2.275688499212265015e-01 -8.848392218351364136e-02 5.140300467610359192e-02
1.498031318187713623e-01 -1.083583682775497437e-01 -3.307586908340454102e-02
2.086918354034423828e-01 -7.675748318433761597e-02 -9.604954719543457031e-02
1.684039235115051270e-01 -1.032917350530624390e-01 -5.226780101656913757e-02
1.852029263973236084e-01 -7.894463837146759033e-03 -2.422333136200904846e-02
-5.068887770175933838e-02 -2.338508144021034241e-02 -5.455813184380531311e-02
7.084388285875320435e-02 -1.047466248273849487e-01 7.763119041919708252e-02
-3.306016325950622559e-02 -9.945690631866455078e-02 3.405409306287765503e-02
-7.793256640434265137e-02 -8.338911831378936768e-02 3.028977662324905396e-02
-2.204456925392150879e-02 -8.711003512144088745e-02 9.291540086269378662e-02
-2.664195001125335693e-02 -3.445585817098617554e-02 1.122086048126220703e-01
2.893911674618721008e-02 -6.715845316648483276e-03 7.450573146343231201e-02
1.778368204832077026e-01 -1.006876230239868164e-01 5.729940906167030334e-02
4.469136893749237061e-02 -5.127958953380584717e-03 7.567422091960906982e-02
8.305408060550689697e-02 -7.448647171258926392e-03 9.813058376312255859e-02
1.271813511848449707e-01 -7.626967132091522217e-02 1.436218321323394775e-01
1.608283817768096924e-01 -1.965537667274475098e-03 2.905641868710517883e-02
-4.580838978290557861e-02 -7.207659631967544556e-02 -1.110347956418991089e-01
2.147851735353469849e-01 -5.745298415422439575e-02 -1.038959473371505737e-01
1.127935349941253662e-01 -8.159469813108444214e-03 1.009335666894912720e-01
6.840184330940246582e-03 -1.094879508018493652e-01 -1.274314895272254944e-02
4.113487899303436279e-03 -9.386099874973297119e-03 6.759087741374969482e-02
-5.234377086162567139e-02 -2.954310178756713867e-02 -7.416507601737976074e-02
1.523221135139465332e-01 -2.134465053677558899e-02 -1.006918698549270630e-01
1.881525367498397827e-01 -1.792471110820770264e-02 1.024139970541000366e-01
2.311764806509017944e-01 -4.586371034383773804e-02 1.106709241867065430e-01
9.441048651933670044e-02 -8.488453924655914307e-02 1.336338520050048828e-01
2.851614356040954590e-02 -8.828207850456237793e-02 -1.265878826379776001e-01
6.216539442539215088e-02 -1.065635681152343750e-01 6.763702630996704102e-02
2.758416160941123962e-02 -1.087371110916137695e-01 -5.661994218826293945e-02
1.933300495147705078e-01 -1.012133806943893433e-02 6.428791582584381104e-02
1.098791807889938354e-01 -1.100043356418609619e-01 4.428611695766448975e-02
4.255166649818420410e-02 -9.252499788999557495e-03 9.380097687244415283e-02
2.258395552635192871e-01 -1.556177809834480286e-02 3.399099782109260559e-02
1.978865861892700195e-01 -1.010327413678169250e-01 -8.269422687590122223e-03
9.722542017698287964e-02 -1.555651426315307617e-03 -3.960643708705902100e-02
-7.034213840961456299e-02 -4.388172179460525513e-02 7.925729453563690186e-02
8.649991452693939209e-02 -7.690799236297607422e-02 1.454115658998489380e-01
2.138841003179550171e-01 -4.003012552857398987e-02 1.216120570898056030e-01
2.161835283041000366e-01 -1.359074562788009644e-02 -1.015813183039426804e-02
-4.880769550800323486e-02 -4.925032332539558411e-02 1.064724177122116089e-01
-2.368606626987457275e-02 -9.437745809555053711e-02 -8.751951158046722412e-02
2.185024321079254150e-01 -4.559865593910217285e-02 -9.647087752819061279e-02
8.417464047670364380e-02 -1.099818199872970581e-01 4.935343191027641296e-02
-8.024905622005462646e-02 -3.932120651006698608e-02 5.603886768221855164e-02
2.213690578937530518e-01 -9.413817524909973145e-02 -1.391437277197837830e-02
-1.013092398643493652e-01 -5.807453766465187073e-02 2.199351042509078979e-02
-6.358468532562255859e-02 -9.311553835868835449e-02 -2.456445991992950439e-02
9.344126284122467041e-02 -1.135997027158737183e-01 -5.233386531472206116e-03
1.447734236717224121e-01 -5.355209857225418091e-02 1.554625779390335083e-01
9.263009577989578247e-02 -1.127918586134910583e-01 -3.247615694999694824e-02
1.283596456050872803e-01 -1.032034754753112793e-01 -8.301018178462982178e-02
-8.877734839916229248e-02 -5.239918828010559082e-02 5.592050030827522278e-02
1.673206537961959839e-01 -5.968134850263595581e-03 6.684413552284240723e-02
2.058300673961639404e-01 -9.823742508888244629e-02 2.688466943800449371e-02
6.287604570388793945e-02 -8.370274305343627930e-02 1.335851848125457764e-01
2.052658498287200928e-01 -9.682288765907287598e-02 4.228316619992256165e-02
-5.842201411724090576e-03 -2.154543250799179077e-02 1.036259680986404419e-01
1.418155729770660400e-01 -2.799194306135177612e-03 -3.115985170006752014e-02
1.199702173471450806e-01 -3.657118976116180420e-02 -1.354761123657226562e-01
1.675742864608764648e-01 -8.684758096933364868e-03 -4.891146719455718994e-02
1.371695995330810547e-01 -1.069630533456802368e-01 5.278242379426956177e-02
1.300320923328399658e-01 -2.835020050406455994e-02 1.443398445844650269e-01
1.446241140365600586e-02 -4.473716020584106445e-03 4.294653609395027161e-02
1.306244283914566040e-01 -1.255238056182861328e-02 -8.420276641845703125e-02
1.042287349700927734e-01 7.858872413635253906e-05 -2.423665858805179596e-02
8.190534263849258423e-02 4.687905311584472656e-05 5.395540595054626465e-02
1.252350807189941406e-01 -2.988550812005996704e-03 -4.208809882402420044e-02
-7.882939279079437256e-02 -8.665696531534194946e-02 -1.067675184458494186e-03
9.359666705131530762e-02 2.002522349357604980e-03 7.537541911005973816e-03
-1.265147328376770020e-02 -1.639131829142570496e-02 -6.982077658176422119e-02
1.302849948406219482e-01 -4.917823895812034607e-02 -1.432550549507141113e-01
-2.640685439109802246e-02 -2.517570182681083679e-02 9.578578174114227295e-02
2.516195178031921387e-01 -2.609627507627010345e-02 5.796319339424371719e-03
1.131304204463958740e-01 -9.527091681957244873e-02 -1.130430549383163452e-01
1.271180361509323120e-01 -1.107776686549186707e-01 -3.344458341598510742e-02
-7.530304789543151855e-02 -3.242058306932449341e-02 4.703441262245178223e-02
-7.651720941066741943e-02 -8.210521191358566284e-02 -5.715310201048851013e-02
4.829533398151397705e-03 -2.499274723231792450e-02 1.177474111318588257e-01
9.140901267528533936e-02 -1.079588159918785095e-01 6.205808743834495544e-02
6.730352342128753662e-02 -2.943426370620727539e-04 5.210128799080848694e-02
1.539985239505767822e-01 -2.606153488159179688e-03 5.209854990243911743e-02
1.070022210478782654e-01 1.657575368881225586e-03 9.920112788677215576e-04
-2.209008485078811646e-02 -3.490939363837242126e-02 -1.110973805189132690e-01
6.746993213891983032e-02 -2.893866784870624542e-02 1.449964940547943115e-01
1.885102093219757080e-01 -6.394823640584945679e-02 1.362003535032272339e-01
3.314267098903656006e-02 -1.067666411399841309e-01 5.623750761151313782e-02
8.230939507484436035e-03 -1.709657162427902222e-02 1.013337969779968262e-01
9.020126610994338989e-02 -3.916226327419281006e-02 1.566170752048492432e-01
1.452322006225585938e-01 -8.980683982372283936e-02 -1.142130494117736816e-01
2.383876144886016846e-01 -5.338907241821289062e-02 -8.057790994644165039e-02
1.609292626380920410e-01 -9.319466352462768555e-02 1.001674383878707886e-01
5.864337459206581116e-02 -1.132162362337112427e-01 -2.304567024111747742e-02
1.379028558731079102e-01 3.038980066776275635e-04 2.667593769729137421e-02
1.796171516180038452e-01 -2.995910868048667908e-02 -1.045324951410293579e-01
2.611986398696899414e-01 -3.627955913543701172e-02 5.250206962227821350e-02
1.226542741060256958e-01 -1.073299422860145569e-01 5.816903337836265564e-02
2.570743560791015625e-01 -6.195310130715370178e-02 7.457201182842254639e-02
1.613200306892395020e-01 -9.061282873153686523e-02 -1.045900434255599976e-01
1.956194341182708740e-01 -9.060747176408767700e-02 8.486437797546386719e-02
-6.620886921882629395e-02 -7.926463335752487183e-02 -8.144265413284301758e-02
2.510220408439636230e-01 -8.145426213741302490e-02 -1.057482790201902390e-02
9.516381472349166870e-02 8.354038000106811523e-04 4.689281806349754333e-02
-1.025686115026473999e-01 -5.338441580533981323e-02 -2.168532460927963257e-02
7.320340722799301147e-02 -1.137663573026657104e-01 -4.627131856977939606e-03
-2.092161029577255249e-02 -6.870813667774200439e-02 -1.290007829666137695e-01
-3.940366953611373901e-02 -1.560242846608161926e-02 3.858095407485961914e-02
2.431990802288055420e-01 -5.257993936538696289e-02 9.928591549396514893e-02
6.234142929315567017e-02 -1.049722060561180115e-01 -8.781261742115020752e-02
1.144123226404190063e-01 -1.114319935441017151e-01 2.770802378654479980e-02
7.858548313379287720e-02 -8.423585444688796997e-02 1.343403905630111694e-01
1.249407529830932617e-01 -1.100478395819664001e-01 3.572040423750877380e-02
2.937629818916320801e-03 -1.654541492462158203e-02 -8.181822299957275391e-02
1.928052008152008057e-01 -1.023115068674087524e-01 3.737151855602860451e-03
1.329621970653533936e-01 -1.994585618376731873e-02 -1.042896509170532227e-01
6.078126281499862671e-02 -1.018070429563522339e-01 8.800230920314788818e-02
-5.651660263538360596e-03 -3.073461540043354034e-02 1.211947500705718994e-01
1.043953448534011841e-01 1.714285463094711304e-03 3.009550273418426514e-02
3.920931741595268250e-02 -2.051273360848426819e-02 -1.080331653356552124e-01
9.852945804595947266e-02 -9.291663765907287598e-03 1.058084219694137573e-01
1.898756921291351318e-01 -1.790891587734222412e-02 -6.882619857788085938e-02
2.372837811708450317e-01 -8.124658465385437012e-02 -5.162402242422103882e-02
2.513232827186584473e-01 -2.731983363628387451e-02 -8.785093203186988831e-03
1.802474558353424072e-01 -1.037106364965438843e-01 -2.923011034727096558e-02
-5.495971441268920898e-02 -8.769112825393676758e-02 5.762303620576858521e-02
-6.738439202308654785e-03 -5.574515089392662048e-02 -1.368331611156463623e-01
8.315935730934143066e-02 -3.216695040464401245e-02 -1.340229958295822144e-01
1.857092231512069702e-02 -1.026107370853424072e-01 6.936688721179962158e-02
2.158499509096145630e-01 -1.324389874935150146e-02 4.392885044217109680e-02
2.593522667884826660e-01 -6.596644967794418335e-02 -4.284648969769477844e-02
5.201950669288635254e-02 -9.689655154943466187e-03 -7.755623757839202881e-02
2.387194633483886719e-01 -7.123745977878570557e-02 8.837330341339111328e-02
-1.028765588998794556e-01 -5.275609716773033142e-02 7.755044847726821899e-03
-6.578841805458068848e-02 -4.099370166659355164e-02 -8.349478244781494141e-02
1.508256942033767700e-01 -1.150041818618774414e-03 -1.418204046785831451e-03
2.498757839202880859e-01 -3.871807456016540527e-02 -5.144897475838661194e-02
3.595942258834838867e-02 -1.029763370752334595e-03 -7.146201096475124359e-03
1.611869931221008301e-01 -4.271473735570907593e-03 -2.556033805012702942e-02
-5.618551373481750488e-02 -3.467622399330139160e-02 8.427253365516662598e-02
-7.609523832798004150e-03 -8.506719022989273071e-03 -2.926266193389892578e-02
5.032609403133392334e-02 -2.217227220535278320e-02 1.310668885707855225e-01
1.792364567518234253e-02 -1.065019071102142334e-01 4.805291444063186646e-02
2.020382285118103027e-01 -3.832530975341796875e-02 1.282620877027511597e-01
-7.135999202728271484e-02 -7.972262799739837646e-02 5.673198774456977844e-02
1.131684854626655579e-01 -1.603125035762786865e-02 -9.905886650085449219e-02
-9.952387213706970215e-02 -4.528263956308364868e-02 -7.414754480123519897e-03
-4.959604144096374512e-02 -9.811745584011077881e-02 -1.611471734941005707e-02
1.703243255615234375e-01 -3.931067883968353271e-02 -1.219376325607299805e-01
-4.000164568424224854e-02 -2.298962697386741638e-02 -6.755064427852630615e-02
1.486364752054214478e-01 -1.490306481719017029e-02 1.142430603504180908e-01
6.999944150447845459e-02 -8.786091208457946777e-02 -1.323823332786560059e-01
3.709400817751884460e-02 -4.694961011409759521e-03 -4.634980857372283936e-02
1.278869658708572388e-01 -9.561794996261596680e-02 -1.077725440263748169e-01
5.215709283947944641e-02 -3.056663461029529572e-02 1.440130919218063354e-01
1.454969793558120728e-01 -1.098695695400238037e-01 -1.525247655808925629e-02
-9.287160634994506836e-02 -7.783465087413787842e-02 -7.666043005883693695e-03
2.912517637014389038e-02 -3.741466253995895386e-02 1.442878395318984985e-01
5.357643589377403259e-02 -9.052141010761260986e-02 1.189099252223968506e-01
-3.692790865898132324e-02 -1.316281035542488098e-02 1.053739525377750397e-02
-6.491824984550476074e-03 -9.359402954578399658e-02 8.667640388011932373e-02
8.765291422605514526e-02 -6.797618418931961060e-02 -1.506477296352386475e-01
2.043212652206420898e-01 -2.839592471718788147e-02 1.144220829010009766e-01
1.329669803380966187e-01 -5.580510944128036499e-03 -5.422769859433174133e-02
-7.467962801456451416e-02 -5.867692828178405762e-02 7.916432619094848633e-02
2.070890367031097412e-01 -4.158306121826171875e-02 -1.021615564823150635e-01
1.207771599292755127e-01 9.241215884685516357e-04 3.699469938874244690e-02
1.951414048671722412e-01 -9.789717197418212891e-02 -4.904816672205924988e-02
1.517173051834106445e-01 -2.631828188896179199e-02 1.367165446281433105e-01
1.024269685149192810e-01 -7.371255755424499512e-02 1.490478664636611938e-01
1.466176062822341919e-01 -9.863165020942687988e-02 8.890248835086822510e-02
1.784600019454956055e-01 -8.491866290569305420e-03 7.196253538131713867e-02
1.287821829319000244e-01 -8.939051628112792969e-02 1.209423542022705078e-01
-9.089475870132446289e-02 -6.725716590881347656e-02 4.508487135171890259e-02
-4.630193114280700684e-03 -6.442610174417495728e-02 1.336914896965026855e-01
1.045106947422027588e-01 -1.032937467098236084e-01 -9.096920490264892578e-02
2.476215660572052002e-01 -4.485301673412322998e-02 -6.355664134025573730e-02
5.951257422566413879e-02 -1.583888754248619080e-02 1.198552250862121582e-01
6.997944116592407227e-01 1.062442660331726074e-01 -2.411577664315700531e-02
8.199501633644104004e-01 2.251047641038894653e-02 2.150165662169456482e-02
7.473129034042358398e-01 -4.339267313480377197e-02 4.608094692230224609e-02
7.032751441001892090e-01 6.187691353261470795e-03 6.864021718502044678e-02
7.651859521865844727e-01 -6.784198433160781860e-02 6.429983302950859070e-03
6.872152686119079590e-01 -9.147541224956512451e-02 -7.125785946846008301e-02
7.660831809043884277e-01 -2.383652143180370331e-02 5.114576965570449829e-02
6.718209981918334961e-01 8.865027129650115967e-02 -4.065530747175216675e-02
6.496714949607849121e-01 -8.157348632812500000e-02 -7.464854419231414795e-02
6.600324511528015137e-01 -7.730124890804290771e-02 1.485130935907363892e-02
7.475138902664184570e-01 -1.930237747728824615e-02 5.985660851001739502e-02
8.194633722305297852e-01 6.499652564525604248e-02 4.296345636248588562e-03
7.025429606437683105e-01 -6.409998517483472824e-03 6.615514308214187622e-02
7.785483598709106445e-01 -6.434071063995361328e-02 -2.714009396731853485e-02
6.055369377136230469e-01 -1.053686719387769699e-03 -5.110949277877807617e-04
7.038968801498413086e-01 -1.264178752899169922e-02 -1.057356074452400208e-01
6.124886274337768555e-01 -3.164403140544891357e-02 7.807310670614242554e-03
6.775960326194763184e-01 -9.078047424554824829e-02 2.832107245922088623e-03
6.636868119239807129e-01 5.481411516666412354e-02 -7.584612071514129639e-02
7.284788489341735840e-01 1.052796244621276855e-01 3.608766198158264160e-02
6.005917787551879883e-01 -3.655506297945976257e-02 -2.831110544502735138e-02
6.542079448699951172e-01 1.947469823062419891e-02 -9.161104261875152588e-02
7.789910435676574707e-01 -1.809036359190940857e-02 4.739796370267868042e-02
6.057597994804382324e-01 1.925329118967056274e-02 -3.186669945716857910e-02
7.680913209915161133e-01 1.973043940961360931e-02 6.543660908937454224e-02
7.905577421188354492e-01 5.301895085722208023e-03 5.061094462871551514e-02
6.247300505638122559e-01 5.115862563252449036e-02 9.787976741790771484e-04
7.299895882606506348e-01 3.332791477441787720e-02 -9.484082460403442383e-02
7.718518376350402832e-01 -6.975529342889785767e-02 -1.550330687314271927e-02
6.606846451759338379e-01 -7.636218518018722534e-02 -8.414896577596664429e-02
6.833103299140930176e-01 -2.732122130692005157e-02 5.611237138509750366e-02
7.459070682525634766e-01 1.050149649381637573e-01 -3.568655997514724731e-02
6.938205957412719727e-01 -1.017951145768165588e-01 -3.181382268667221069e-02
8.171237111091613770e-01 6.728316843509674072e-02 1.429850794374942780e-02
6.499232649803161621e-01 7.961355894804000854e-02 4.594493657350540161e-03
7.789928317070007324e-01 7.796675711870193481e-02 -5.295237153768539429e-02
7.290846109390258789e-01 -7.678899914026260376e-02 1.941571012139320374e-02
6.274873614311218262e-01 3.960027918219566345e-02 2.020606026053428650e-02
7.406850457191467285e-01 1.156804338097572327e-01 -3.514997661113739014e-04
6.253870129585266113e-01 4.976429045200347900e-02 -4.148839414119720459e-02
6.080175638198852539e-01 -1.139511913061141968e-02 5.530592054128646851e-03
6.915900111198425293e-01 6.073772534728050232e-02 -8.108752220869064331e-02
7.558706998825073242e-01 1.854051277041435242e-02 -9.119056910276412964e-02
6.605757474899291992e-01 8.958593010902404785e-02 -2.576503902673721313e-03
6.904873251914978027e-01 -6.830162554979324341e-02 3.257128596305847168e-02
6.368035078048706055e-01 -1.121616549789905548e-02 3.858185559511184692e-02
6.318224072456359863e-01 -2.393002808094024658e-02 3.171464800834655762e-02
7.019062042236328125e-01 -3.731698542833328247e-02 -1.036513149738311768e-01
6.436708569526672363e-01 -8.423764258623123169e-03 -9.431036561727523804e-02
6.394607424736022949e-01 5.908534675836563110e-02 2.090930938720703125e-02
7.373210191726684570e-01 6.859056651592254639e-02 -7.621070742607116699e-02
6.276676058769226074e-01 -7.294574379920959473e-02 -6.558045744895935059e-02
6.764364242553710938e-01 9.073159843683242798e-02 2.640495821833610535e-02
7.405658960342407227e-01 -5.072117224335670471e-02 4.268608987331390381e-02
6.819803118705749512e-01 8.347033709287643433e-02 -5.633550137281417847e-02
7.838672399520874023e-01 4.711741954088211060e-02 -6.858670711517333984e-02
7.519957423210144043e-01 -6.940786540508270264e-02 -6.681566685438156128e-02
8.061308264732360840e-01 -2.506297640502452850e-02 9.455144405364990234e-03
6.182903647422790527e-01 -4.513481631875038147e-02 -7.450540363788604736e-02
6.787165999412536621e-01 3.979187086224555969e-02 6.113344430923461914e-02
7.703152894973754883e-01 -3.700259327888488770e-02 -7.664740085601806641e-02
6.735658049583435059e-01 1.460688747465610504e-02 6.131111085414886475e-02
7.659759521484375000e-01 6.718131154775619507e-02 -6.818777322769165039e-02
7.297117710113525391e-01 -9.187815338373184204e-02 -1.277446094900369644e-02
6.995085477828979492e-01 -8.228135854005813599e-02 1.796022057533264160e-02
6.404485106468200684e-01 -1.193365547806024551e-03 4.249041154980659485e-02
7.084763050079345703e-01 9.583186358213424683e-02 -4.967338591814041138e-02
6.880408525466918945e-01 1.032168716192245483e-01 1.167684420943260193e-02
7.859367132186889648e-01 -3.950886428356170654e-02 -5.888875573873519897e-02
6.038269400596618652e-01 -3.269337490200996399e-02 -5.498272553086280823e-02
7.899845242500305176e-01 -2.076316811144351959e-02 3.728614374995231628e-02
7.016608715057373047e-01 1.093606129288673401e-01 -1.228470914065837860e-02
6.362834572792053223e-01 -3.243007883429527283e-02 3.230170905590057373e-02
6.733426451683044434e-01 -2.488223835825920105e-04 -1.027659326791763306e-01
6.620798110961914062e-01 -6.911390274763107300e-02 2.413012087345123291e-02
6.428383588790893555e-01 -1.846515759825706482e-02 4.134955629706382751e-02
7.933735847473144531e-01 4.522132501006126404e-02 -6.209901347756385803e-02
6.902945041656494141e-01 -1.086306199431419373e-02 6.291811913251876831e-02
7.718698978424072266e-01 -6.746042519807815552e-02 -4.094208776950836182e-02
6.818604469299316406e-01 -9.978916496038436890e-02 -5.308437347412109375e-02
8.178309798240661621e-01 4.897328838706016541e-02 -2.891884371638298035e-02
6.443598270416259766e-01 -8.046404272317886353e-02 5.288496613502502441e-04
7.183458805084228516e-01 -6.966972351074218750e-02 3.077160194516181946e-02
7.154783606529235840e-01 1.134738251566886902e-01 2.237189561128616333e-03
7.596935629844665527e-01 7.393208891153335571e-02 6.111083179712295532e-02
6.555609703063964844e-01 -8.186473697423934937e-02 6.748415529727935791e-03
6.141438484191894531e-01 2.976167760789394379e-02 2.239173278212547302e-03
6.620323657989501953e-01 -4.941549152135848999e-02 3.864495083689689636e-02
7.371741533279418945e-01 2.561375498771667480e-02 7.200890034437179565e-02
6.721428632736206055e-01 6.681080907583236694e-02 4.709935933351516724e-02
6.911718845367431641e-01 4.613677039742469788e-02 6.444407999515533447e-02
6.952269077301025391e-01 7.322597503662109375e-02 5.536251515150070190e-02
6.131488084793090820e-01 -5.232779681682586670e-02 -5.042807199060916901e-03
6.388920545578002930e-01 1.503201760351657867e-02 4.105810821056365967e-02
7.718162536621093750e-01 9.498526901006698608e-02 -3.922194987535476685e-02
7.541787624359130859e-01 5.058582872152328491e-03 6.657826900482177734e-02
7.557585835456848145e-01 -1.407747156918048859e-02 5.986032634973526001e-02
7.677170038223266602e-01 7.896773517131805420e-02 5.650704354047775269e-02
7.697002291679382324e-01 1.100859493017196655e-01 -6.124006584286689758e-03
6.445985436439514160e-01 4.710394144058227539e-02 3.634865954518318176e-02
6.242073178291320801e-01 -4.908158630132675171e-02 1.290842331945896149e-02
7.440140843391418457e-01 1.145998015999794006e-01 1.387292891740798950e-02
7.097394466400146484e-01 6.899934262037277222e-02 6.216246634721755981e-02
7.965543270111083984e-01 -3.158902376890182495e-02 1.932031661272048950e-02
7.234016656875610352e-01 4.428147338330745697e-03 -1.023604869842529297e-01
6.294828057289123535e-01 -8.093061298131942749e-02 -5.469170957803726196e-02
8.051827549934387207e-01 8.690803498029708862e-02 1.335030607879161835e-02
7.357257604598999023e-01 -5.393620580434799194e-02 -8.939114958047866821e-02
6.698921918869018555e-01 2.691690810024738312e-02 5.919769406318664551e-02
7.637684941291809082e-01 1.094018146395683289e-01 -1.681153476238250732e-02
8.167534470558166504e-01 -5.695826839655637741e-03 7.680172100663185120e-03
8.194944262504577637e-01 5.580091848969459534e-02 -1.929975114762783051e-02
7.452434301376342773e-01 1.121576130390167236e-01 2.317028865218162537e-02
7.825434803962707520e-01 -4.826217144727706909e-02 -5.500317737460136414e-02
7.565484642982482910e-01 6.468066573143005371e-02 6.520091742277145386e-02
7.761406898498535156e-01 -5.530647560954093933e-02 -5.590971186757087708e-02
6.632518768310546875e-01 8.922049403190612793e-02 -2.649452537298202515e-02
7.838136553764343262e-01 1.039376780390739441e-01 1.415716484189033508e-02
7.800086736679077148e-01 -4.984687641263008118e-02 1.803731173276901245e-02
7.557864785194396973e-01 -1.165021210908889771e-02 -9.244551509618759155e-02
8.115662336349487305e-01 7.105141878128051758e-02 -2.202081307768821716e-02
6.501138210296630859e-01 4.455126076936721802e-02 -7.579728960990905762e-02
7.957922220230102539e-01 -3.384203184396028519e-03 4.273049905896186829e-02
6.024731397628784180e-01 -4.405364766716957092e-02 -3.933945298194885254e-02
7.383071184158325195e-01 -6.283387541770935059e-02 -8.263508230447769165e-02
6.124436855316162109e-01 -3.637057542800903320e-02 -6.982369720935821533e-02
6.920291781425476074e-01 -1.010294482111930847e-01 -4.635002464056015015e-02
6.033015251159667969e-01 -1.925252936780452728e-02 -5.499125644564628601e-02
8.182817101478576660e-01 6.666479259729385376e-02 -6.445175968110561371e-03
7.898424863815307617e-01 -3.984695672988891602e-02 1.871093735098838806e-02
6.996097564697265625e-01 9.610024094581604004e-02 3.744207322597503662e-02
8.037586808204650879e-01 -1.847421936690807343e-02 2.266297861933708191e-02
6.592181324958801270e-01 -8.889966458082199097e-02 -7.001278549432754517e-02
6.159113049507141113e-01 2.689247392117977142e-02 -5.354533717036247253e-02
8.041514754295349121e-01 8.346845209598541260e-02 2.423651888966560364e-02
7.497333288192749023e-01 3.059029206633567810e-02 7.083026319742202759e-02
8.218252062797546387e-01 3.582833567634224892e-03 -1.023685187101364136e-02
7.240266799926757812e-01 -9.520951658487319946e-02 -2.054704353213310242e-02
7.900118231773376465e-01 -2.958256565034389496e-02 -6.094374135136604309e-02
8.004656434059143066e-01 -9.716585278511047363e-03 3.430290520191192627e-02
7.290482521057128906e-01 -2.363937720656394958e-02 6.103735417127609253e-02
8.103929162025451660e-01 2.014157176017761230e-02 3.676730394363403320e-02
7.107798457145690918e-01 7.741423696279525757e-02 -7.072520256042480469e-02
7.584233880043029785e-01 2.297621592879295349e-02 6.864693015813827515e-02
6.991639733314514160e-01 7.282029837369918823e-02 -7.315878570079803467e-02
6.954146623611450195e-01 -5.450917780399322510e-02 -9.919914603233337402e-02
6.088668704032897949e-01 2.784664370119571686e-02 -1.892252452671527863e-02
8.214783072471618652e-01 4.451993852853775024e-02 1.915216445922851562e-02
7.538509368896484375e-01 -2.110571600496768951e-02 -9.208301454782485962e-02
7.004568576812744141e-01 8.834562450647354126e-02 4.642191529273986816e-02
8.253730535507202148e-01 2.708215825259685516e-02 -9.515821933746337891e-03
6.576042771339416504e-01 7.784427702426910400e-02 2.324650809168815613e-02
6.767645478248596191e-01 -3.239734098315238953e-02 -1.041296049952507019e-01
7.379687428474426270e-01 1.066497266292572021e-01 3.514232113957405090e-02
6.616310477256774902e-01 -1.501510851085186005e-02 -1.017131060361862183e-01
6.439538002014160156e-01 -9.248957037925720215e-02 -4.531485959887504578e-02
7.009024024009704590e-01 3.850095346570014954e-02 -9.463736414909362793e-02
8.004593253135681152e-01 9.288753569126129150e-02 1.721836626529693604e-03
6.874810457229614258e-01 -2.550063468515872955e-02 -1.055918261408805847e-01
6.211564540863037109e-01 -6.590843945741653442e-02 -7.014058530330657959e-03
7.293791770935058594e-01 1.061631664633750916e-01 -3.549873828887939453e-02
6.138380765914916992e-01 -6.103704124689102173e-02 -1.447134558111429214e-02
7.546529173851013184e-01 3.623180091381072998e-02 -8.733413368463516235e-02
8.177729845046997070e-01 6.814951542764902115e-03 1.802323758602142334e-02
6.392011046409606934e-01 -5.217450112104415894e-02 -8.857969939708709717e-02
7.202298045158386230e-01 -9.680763632059097290e-02 -3.896403685212135315e-02
7.604386806488037109e-01 -4.892934579402208328e-03 6.190622597932815552e-02
8.237835168838500977e-01 1.543154567480087280e-02 3.493780270218849182e-03
7.904032468795776367e-01 9.073021262884140015e-02 -2.850106731057167053e-02
8.075905442237854004e-01 -2.930220030248165131e-02 -1.908475533127784729e-02
6.196945905685424805e-01 3.542359918355941772e-03 -7.381829619407653809e-02
6.287609338760375977e-01 -7.532319426536560059e-02 -9.374340996146202087e-03
6.524536609649658203e-01 -6.289401650428771973e-02 2.475623413920402527e-02
7.317689061164855957e-01 4.603711515665054321e-02 -8.964317291975021362e-02
7.261753678321838379e-01 -8.945444226264953613e-02 -1.861816272139549255e-03
7.112939357757568359e-01 -3.918987885117530823e-02 -1.020271033048629761e-01
6.463903188705444336e-01 -7.342676818370819092e-02 -8.062514662742614746e-02
6.376936435699462891e-01 -2.364976704120635986e-02 -9.242278337478637695e-02
7.615677714347839355e-01 5.462036281824111938e-02 -7.722819596529006958e-02
8.225514292716979980e-01 1.632013358175754547e-02 -2.205866947770118713e-02
8.142827749252319336e-01 2.153059002012014389e-03 -3.929962962865829468e-02
6.371294260025024414e-01 6.977441906929016113e-02 -1.081303693354129791e-02
7.711597681045532227e-01 1.015003323554992676e-01 3.466233238577842712e-02
8.049738407135009766e-01 8.699311316013336182e-02 -7.062672637403011322e-03
6.002144813537597656e-01 -3.203837946057319641e-02 -4.134836047887802124e-02
6.391659975051879883e-01 -8.475261926651000977e-02 -1.263830345124006271e-02
6.270332336425781250e-01 1.702842675149440765e-02 2.941127121448516846e-02
7.164973020553588867e-01 -4.742673132568597794e-03 6.775847822427749634e-02
6.537122726440429688e-01 -9.686975181102752686e-02 -3.429239243268966675e-02
7.201504707336425781e-01 7.830914109945297241e-02 -7.033459842205047607e-02
6.504946351051330566e-01 6.396901607513427734e-02 -5.783380195498466492e-02
6.027715802192687988e-01 -2.715483866631984711e-02 -9.826574474573135376e-03
6.205587983131408691e-01 4.042882099747657776e-02 6.404899060726165771e-03
6.821516156196594238e-01 -4.465425014495849609e-02 -1.023787856101989746e-01
8.133592009544372559e-01 5.795017629861831665e-02 3.126620128750801086e-02
6.471571922302246094e-01 -2.134618721902370453e-02 -9.698308259248733521e-02
6.446008682250976562e-01 1.883431337773799896e-03 -9.272536635398864746e-02
6.894699335098266602e-01 2.271190658211708069e-02 6.670910120010375977e-02
7.381074428558349609e-01 9.865628182888031006e-02 -4.718938469886779785e-02
7.527066469192504883e-01 -8.242218196392059326e-02 -1.601897180080413818e-02
7.122472524642944336e-01 3.786751255393028259e-02 -9.501193463802337646e-02
7.267885208129882812e-01 -8.296053856611251831e-02 1.096552424132823944e-02
6.354313492774963379e-01 -6.367197632789611816e-02 -8.077307790517807007e-02
7.589721679687500000e-01 -5.079683661460876465e-02 3.470413386821746826e-02
7.537122964859008789e-01 1.140739694237709045e-01 1.164969988167285919e-02
7.803373336791992188e-01 -3.646485041826963425e-03 -7.852859795093536377e-02
7.748518586158752441e-01 -1.428718119859695435e-02 -8.090309053659439087e-02
8.093454241752624512e-01 2.543188445270061493e-02 -5.025488883256912231e-02
7.516083121299743652e-01 -7.263681292533874512e-02 1.222149655222892761e-02
6.612704992294311523e-01 3.017996437847614288e-02 5.430704355239868164e-02
7.264240980148315430e-01 7.184517383575439453e-02 -7.528279721736907959e-02
6.878613233566284180e-01 4.981631040573120117e-02 -8.735140413045883179e-02
7.099300622940063477e-01 -7.668437063694000244e-02 2.421438694000244141e-02
7.396832108497619629e-01 -7.645041495561599731e-02 -6.870892643928527832e-02
8.240196108818054199e-01 4.726831614971160889e-02 -8.451371453702449799e-03
6.096192598342895508e-01 -2.279611304402351379e-02 6.407165899872779846e-03
6.686799526214599609e-01 3.857022523880004883e-02 -8.845897763967514038e-02
7.858895063400268555e-01 1.011578366160392761e-01 -1.251985039561986923e-02
8.042944669723510742e-01 -3.414787352085113525e-02 -7.114575244486331940e-03
7.099944353103637695e-01 -9.502902626991271973e-02 -7.075048983097076416e-03
8.164701461791992188e-01 -4.316675011068582535e-03 -2.928600832819938660e-02
6.264476180076599121e-01 2.852023579180240631e-02 2.501683682203292847e-02
8.098701238632202148e-01 -6.344262976199388504e-03 2.364130690693855286e-02
7.814488410949707031e-01 3.750368207693099976e-02 -7.360099256038665771e-02
7.142716646194458008e-01 8.804751187562942505e-02 5.171281844377517700e-02
6.836237311363220215e-01 1.017490699887275696e-01 -1.883647404611110687e-02
6.346910595893859863e-01 2.431877888739109039e-02 3.566024824976921082e-02
6.092070341110229492e-01 -5.804147571325302124e-02 -4.790913313627243042e-02
7.366068959236145020e-01 2.015045657753944397e-02 -9.705689549446105957e-02
7.335519194602966309e-01 -7.157069444656372070e-02 -7.810491323471069336e-02
7.632392644882202148e-01 9.966515004634857178e-02 -3.759622573852539062e-02
7.270569205284118652e-01 3.176811337471008301e-02 7.228060811758041382e-02
6.403181552886962891e-01 -4.075505211949348450e-02 -9.226310253143310547e-02
7.160570025444030762e-01 5.765678733587265015e-02 6.752535700798034668e-02
7.928503751754760742e-01 3.151148557662963867e-02 -6.672708690166473389e-02
7.522913813591003418e-01 -5.394555628299713135e-04 -9.440516680479049683e-02
7.522720098495483398e-01 8.045341819524765015e-02 -6.356877088546752930e-02
6.923841238021850586e-01 9.431193768978118896e-02 -4.593882709741592407e-02
6.019617319107055664e-01 -1.525999978184700012e-02 -9.078384377062320709e-03
6.444226503372192383e-01 2.924814447760581970e-02 -8.192244917154312134e-02
8.066447377204895020e-01 -5.341571290045976639e-03 -5.018746852874755859e-02
7.731153368949890137e-01 1.507709734141826630e-03 -8.377925306558609009e-02
7.113292813301086426e-01 -1.869133859872817993e-02 6.335446983575820923e-02
7.333446741104125977e-01 9.772180020809173584e-02 4.648813605308532715e-02
6.811226010322570801e-01 9.602839499711990356e-02 -3.413197025656700134e-02
6.167036890983581543e-01 -2.511862851679325104e-02 -7.617272436618804932e-02
7.038247585296630859e-01 1.032799705862998962e-01 2.881753444671630859e-02
8.104136586189270020e-01 -2.138263359665870667e-02 -2.761989645659923553e-02
7.882028818130493164e-01 -4.916628822684288025e-02 6.078595295548439026e-03
6.740834712982177734e-01 5.501473695039749146e-02 -8.019836992025375366e-02
8.246287703514099121e-01 3.808656334877014160e-02 8.578455075621604919e-03
7.124170660972595215e-01 5.673047900199890137e-02 -8.576231449842453003e-02
6.838070154190063477e-01 1.692475378513336182e-02 -1.006614640355110168e-01
7.756593823432922363e-01 -5.853634327650070190e-02 9.810337796807289124e-03
7.389123439788818359e-01 -2.413286827504634857e-02 5.947116762399673462e-02
7.850009202957153320e-01 9.886838495731353760e-02 2.715441957116127014e-02
8.055282831192016602e-01 4.813688993453979492e-02 -4.870599880814552307e-02
6.440795063972473145e-01 -9.018735587596893311e-02 -5.534680932760238647e-02
7.724578976631164551e-01 8.646155148744583130e-02 -4.900575801730155945e-02
6.916731595993041992e-01 4.035563766956329346e-02 -9.294489026069641113e-02
7.835569381713867188e-01 2.826661802828311920e-02 -7.454699277877807617e-02
8.040204048156738281e-01 -3.356250375509262085e-02 -2.681674435734748840e-02
7.814671993255615234e-01 -5.689899623394012451e-02 -4.375310242176055908e-02
6.181674003601074219e-01 -5.606751143932342529e-02 -6.893465667963027954e-02
7.259290814399719238e-01 1.104447394609451294e-01 2.528667822480201721e-02
6.374710202217102051e-01 -7.405769824981689453e-02 2.915393561124801636e-03
7.336887121200561523e-01 9.280329197645187378e-02 -5.515998601913452148e-02
6.591206192970275879e-01 -9.831545501947402954e-02 -4.358799010515213013e-02
6.371765136718750000e-01 5.370756611227989197e-02 -5.573221668601036072e-02
6.889888048171997070e-01 -5.475803837180137634e-02 4.297043010592460632e-02
6.769964098930358887e-01 -4.820842295885086060e-02 4.449668526649475098e-02
7.317854762077331543e-01 1.239721104502677917e-02 -9.962486475706100464e-02
6.780481338500976562e-01 9.782956540584564209e-02 1.249671913683414459e-02
6.335778832435607910e-01 3.640443831682205200e-02 3.011324256658554077e-02
6.589761376380920410e-01 5.457637831568717957e-02 4.481495916843414307e-02
7.405087947845458984e-01 7.911314070224761963e-02 -6.766973435878753662e-02
6.129367947578430176e-01 -7.829848676919937134e-03 1.390257291495800018e-02
7.340958714485168457e-01 -5.229550879448652267e-03 -1.006372421979904175e-01
7.094779014587402344e-01 -6.653010845184326172e-02 3.482329100370407104e-02
6.582133769989013672e-01 6.612860132008790970e-03 -9.728858619928359985e-02
7.894120216369628906e-01 1.885863393545150757e-02 5.515813082456588745e-02
6.284472346305847168e-01 4.425167664885520935e-02 -5.521386861801147461e-02
7.262544035911560059e-01 -8.658072352409362793e-02 -6.398625671863555908e-02
8.239380717277526855e-01 2.617120929062366486e-02 -1.879380457103252411e-02
7.801734209060668945e-01 2.993999235332012177e-02 6.170586496591567993e-02
7.211949825286865234e-01 1.006236821413040161e-01 4.088724032044410706e-02
6.956272721290588379e-01 -7.348609715700149536e-02 -8.896677196025848389e-02
6.634913682937622070e-01 8.120539039373397827e-02 -4.582886397838592529e-02
6.503584980964660645e-01 -9.351215511560440063e-02 -2.127035148441791534e-02
6.528704762458801270e-01 1.303902640938758850e-02 5.105393379926681519e-02
8.118823170661926270e-01 4.801898077130317688e-02 -4.020874947309494019e-02
8.197755217552185059e-01 2.488198503851890564e-02 -3.194427490234375000e-02
7.022690176963806152e-01 8.196041733026504517e-02 -6.517553329467773438e-02
6.485468149185180664e-01 5.755506455898284912e-02 3.368870541453361511e-02
7.351924180984497070e-01 6.096039433032274246e-03 6.978124380111694336e-02
7.148442864418029785e-01 1.044294610619544983e-01 -3.674934059381484985e-02
6.344722509384155273e-01 -8.691641688346862793e-02 -2.931446209549903870e-02
6.173065304756164551e-01 -6.843725591897964478e-02 -1.939045451581478119e-02
6.805594563484191895e-01 7.683175615966320038e-03 -1.024911403656005859e-01
6.555353403091430664e-01 8.290311694145202637e-02 -3.041110374033451080e-02
6.399714946746826172e-01 4.682449996471405029e-02 -6.601783633232116699e-02
7.729248404502868652e-01 -4.454007372260093689e-02 -6.985909491777420044e-02
6.245578527450561523e-01 3.569309040904045105e-02 -5.880800634622573853e-02
6.930999755859375000e-01 -8.920682966709136963e-02 7.764982059597969055e-03
6.279011368751525879e-01 -3.485698252916336060e-02 2.434778586030006409e-02
7.627578377723693848e-01 -5.602625012397766113e-02 2.671254426240921021e-02
8.104642629623413086e-01 8.151005208492279053e-02 4.974117502570152283e-03
6.688328981399536133e-01 2.366297133266925812e-02 -9.526445716619491577e-02
7.309074401855468750e-01 -6.136888265609741211e-02 3.622954338788986206e-02
7.252954840660095215e-01 1.012696251273155212e-01 -4.395119845867156982e-02
7.494283914566040039e-01 8.800407499074935913e-02 5.475132167339324951e-02
6.595583558082580566e-01 6.930290162563323975e-02 -5.929445847868919373e-02
7.769742012023925781e-01 6.319934129714965820e-02 5.965328216552734375e-02
6.054128408432006836e-01 1.440298929810523987e-02 -1.005867216736078262e-02
7.775145173072814941e-01 5.960866808891296387e-03 5.853626132011413574e-02
6.180462837219238281e-01 -6.590609997510910034e-02 -5.949702486395835876e-02
6.679655313491821289e-01 -9.586565196514129639e-02 -1.174825616180896759e-02
6.304704546928405762e-01 6.057430803775787354e-02 -2.392315305769443512e-03
6.230328679084777832e-01 -3.787696361541748047e-02 -8.109840005636215210e-02
8.256380558013916016e-01 3.581891953945159912e-02 -1.329547725617885590e-03
7.041009664535522461e-01 -9.280414879322052002e-02 -6.543654203414916992e-02
8.152853250503540039e-01 4.452448710799217224e-02 3.209572285413742065e-02
7.176564335823059082e-01 4.917088896036148071e-02 -8.972115814685821533e-02
6.467244625091552734e-01 -6.771083176136016846e-02 1.711800694465637207e-02
7.457280755043029785e-01 2.134607173502445221e-02 -9.427641332149505615e-02
6.544528007507324219e-01 8.541118353605270386e-02 -1.064951159060001373e-02
6.311287879943847656e-01 3.530550748109817505e-02 -6.713333725929260254e-02
6.491553187370300293e-01 -4.235108196735382080e-02 3.622639551758766174e-02
6.521923542022705078e-01 7.038099318742752075e-02 -5.096930637955665588e-02
7.603346109390258789e-01 8.774058520793914795e-02 5.304895341396331787e-02
6.543483734130859375e-01 -4.092390835285186768e-02 -9.804108738899230957e-02
7.609624862670898438e-01 7.499839365482330322e-02 -6.485192477703094482e-02
7.829033732414245605e-01 9.138897806406021118e-02 3.978411108255386353e-02
6.767479181289672852e-01 6.004191190004348755e-02 5.356156080961227417e-02
6.072145104408264160e-01 -4.558159410953521729e-02 -1.116572879254817963e-02
7.450386881828308105e-01 5.283289030194282532e-02 -8.365265280008316040e-02
7.221896052360534668e-01 1.129813045263290405e-01 1.527949050068855286e-02
6.492857933044433594e-01 6.503310054540634155e-02 2.807343006134033203e-02
7.222538590431213379e-01 1.114426851272583008e-01 -2.124541625380516052e-02
7.497757077217102051e-01 1.197435334324836731e-02 -9.448257833719253540e-02
6.913220882415771484e-01 -3.353627026081085205e-02 5.521497875452041626e-02
6.160999536514282227e-01 4.139501228928565979e-02 -1.236815471202135086e-02
7.985810637474060059e-01 9.107468277215957642e-02 -1.437240187078714371e-02
6.273644566535949707e-01 -1.123798545449972153e-03 -8.248941600322723389e-02
8.188201785087585449e-01 -5.373903084546327591e-03 -3.329218365252017975e-03
7.174777388572692871e-01 -9.779210388660430908e-02 -2.779881842434406281e-02
7.078556418418884277e-01 6.874500215053558350e-02 -7.756781578063964844e-02
7.384376525878906250e-01 4.037502035498619080e-02 7.171472907066345215e-02
6.700418591499328613e-01 -5.269078537821769714e-02 -9.877344965934753418e-02
7.482101917266845703e-01 -8.091266453266143799e-02 -5.222704261541366577e-02
7.027840018272399902e-01 1.084123179316520691e-01 1.438379287719726562e-02
7.605453729629516602e-01 4.492256417870521545e-02 -8.194897323846817017e-02
7.420272827148437500e-01 -7.099530100822448730e-02 2.127395197749137878e-02
7.869831919670104980e-01 -5.401633307337760925e-02 -3.399347886443138123e-03
7.646252512931823730e-01 -5.042983219027519226e-02 -7.327520847320556641e-02
6.076897382736206055e-01 1.955517195165157318e-02 -4.144044965505599976e-02
7.722234725952148438e-01 1.001057326793670654e-01 -3.103826008737087250e-02
6.086947321891784668e-01 6.235606502741575241e-03 4.677006974816322327e-03
7.404641509056091309e-01 7.375986874103546143e-02 6.342850625514984131e-02
7.917578220367431641e-01 -4.916962981224060059e-02 -3.282047808170318604e-02
7.152684926986694336e-01 -9.370420128107070923e-02 -5.751187354326248169e-02
7.500165104866027832e-01 9.437671303749084473e-02 -5.010908842086791992e-02
8.176274895668029785e-01 5.819845199584960938e-02 2.264428883790969849e-02
7.734065055847167969e-01 1.067719832062721252e-01 2.183898165822029114e-02
7.914645671844482422e-01 -1.073590666055679321e-02 -6.755034625530242920e-02
6.958600282669067383e-01 1.760800369083881378e-03 -1.048014536499977112e-01
6.843386292457580566e-01 -6.327400356531143188e-02 -9.566777944564819336e-02
6.346406340599060059e-01 6.374216824769973755e-02 -3.382540866732597351e-02
7.997249364852905273e-01 -1.819441653788089752e-02 -5.456620827317237854e-02
7.448810338973999023e-01 -8.676414191722869873e-02 -3.818266093730926514e-02
6.588162779808044434e-01 -2.805788256227970123e-02 -1.009509116411209106e-01
7.584995031356811523e-01 1.131376549601554871e-01 -6.084886379539966583e-03
7.431538701057434082e-01 -4.648927971720695496e-02 -8.951938897371292114e-02
6.849232316017150879e-01 3.176157549023628235e-02 -9.571550786495208740e-02
