-6.747011840343475342e-02 -4.433984309434890747e-02 6.936156749725341797e-02
-1.204143911600112915e-01 -4.939710721373558044e-02 2.634644974023103714e-03
-1.115861311554908752e-01 -1.013627871870994568e-01 -5.016812123358249664e-03
8.469074219465255737e-02 -2.005679905414581299e-02 -3.016778267920017242e-02
7.831577956676483154e-02 -8.694438636302947998e-02 -7.393523305654525757e-02
-1.311776489019393921e-01 -7.037425041198730469e-02 5.431432276964187622e-03
7.196318358182907104e-02 -5.236253514885902405e-02 -8.518745005130767822e-02
-4.735646396875381470e-02 -1.113665699958801270e-01 -5.575321987271308899e-02
1.071319505572319031e-01 -9.914472699165344238e-02 4.921031184494495392e-03
2.368998154997825623e-02 -1.202861517667770386e-01 2.323161438107490540e-02
-1.237951144576072693e-01 -5.460393056273460388e-02 1.145016215741634369e-02
1.263667941093444824e-01 -8.498824387788772583e-02 1.118852384388446808e-02
8.918897062540054321e-02 -5.466771125793457031e-02 7.311731576919555664e-02
1.136416122317314148e-01 -8.845850080251693726e-02 3.361571952700614929e-02
-1.986763812601566315e-02 -1.018601432442665100e-01 -7.868289202451705933e-02
6.514919549226760864e-02 -1.037745699286460876e-01 -5.710319802165031433e-02
-7.678062655031681061e-03 -8.599162101745605469e-02 -9.437683969736099243e-02
-4.915551096200942993e-02 -1.074950248003005981e-01 5.936437845230102539e-02
-9.968344867229461670e-02 -9.525710344314575195e-02 -4.946463555097579956e-02
-4.415962100028991699e-02 -1.635862514376640320e-02 -1.995000056922435760e-02
3.726623719558119774e-03 -3.264576941728591919e-02 -8.108019828796386719e-02
4.265858232975006104e-02 -3.486257418990135193e-02 -8.096817880868911743e-02
-6.380751729011535645e-02 -1.096547096967697144e-01 4.778650775551795959e-02
2.913426794111728668e-02 -1.198803409934043884e-01 -2.596056461334228516e-02
-9.435966610908508301e-02 -1.043078526854515076e-01 3.362934663891792297e-02
-7.277666777372360229e-02 -1.088148653507232666e-01 4.367367550730705261e-02
8.650107681751251221e-02 -3.828684240579605103e-02 -6.786826252937316895e-02
8.871590346097946167e-02 -8.423114567995071411e-02 6.540419161319732666e-02
1.385554820299148560e-01 -5.251793190836906433e-02 -5.392214283347129822e-03
8.550351113080978394e-02 -1.064625903964042664e-01 -2.709334529936313629e-02
-9.051161818206310272e-03 -1.583121716976165771e-02 3.998942300677299500e-02
-1.141374781727790833e-01 -4.824578762054443359e-02 -2.813990227878093719e-02
-1.095897555351257324e-01 -4.442087560892105103e-02 2.485796622931957245e-02
-5.754493921995162964e-02 -1.199392154812812805e-01 4.933865740895271301e-03
2.681892551481723785e-02 -1.908240094780921936e-02 5.250175297260284424e-02
-5.136825144290924072e-02 -8.576379716396331787e-02 8.303797990083694458e-02
4.425386339426040649e-02 -1.067118719220161438e-02 8.911635726690292358e-03
-6.781263276934623718e-03 -7.075889408588409424e-02 9.578029066324234009e-02
9.634166210889816284e-02 -1.032198965549468994e-01 1.571667194366455078e-02
1.081768423318862915e-03 -1.270896941423416138e-02 2.978147752583026886e-02
4.768361896276473999e-02 -1.072931140661239624e-01 -5.954786390066146851e-02
1.371074020862579346e-01 -5.081899836659431458e-02 8.395390585064888000e-03
-1.291917860507965088e-01 -8.008823543787002563e-02 -1.451957598328590393e-02
-1.270324736833572388e-01 -7.467821240425109863e-02 -2.668040804564952850e-02
-7.788064330816268921e-02 -2.733863890171051025e-02 2.475193515419960022e-02
-2.213886938989162445e-03 -4.002232849597930908e-02 8.463715761899948120e-02
-6.421885453164577484e-03 -5.146995186805725098e-02 -9.628952294588088989e-02
-1.286776922643184662e-02 -2.337094023823738098e-02 5.954022333025932312e-02
-1.152839809656143188e-01 -4.730913788080215454e-02 1.864786818623542786e-02
-5.978284031152725220e-02 -8.039040863513946533e-02 8.274427056312561035e-02
1.311898678541183472e-01 -4.123238474130630493e-02 -9.463524445891380310e-03
5.671894550323486328e-02 -1.158379316329956055e-01 -2.076194621622562408e-02
7.683443278074264526e-02 -7.211737334728240967e-02 7.950084656476974487e-02
-4.472885280847549438e-02 -1.786769181489944458e-02 -2.930407598614692688e-02
6.903596222400665283e-03 -9.757556021213531494e-03 9.222267195582389832e-03
-9.781912714242935181e-02 -1.086224168539047241e-01 1.603948650881648064e-03
-3.636389970779418945e-02 -1.224388778209686279e-01 -1.288901828229427338e-02
4.686950147151947021e-02 -1.179768145084381104e-01 1.529666967689990997e-02
-2.116374671459197998e-02 -1.511152461171150208e-02 -3.566594794392585754e-02
-7.639342546463012695e-02 -2.826735004782676697e-02 -3.471943363547325134e-02
9.172513149678707123e-03 -7.687763124704360962e-02 9.451974928379058838e-02
3.373781591653823853e-02 -1.109637469053268433e-01 5.288635566830635071e-02
7.925197482109069824e-03 -1.227132603526115417e-01 -1.812417805194854736e-02
-2.220522798597812653e-02 -5.095453932881355286e-02 -9.398663789033889771e-02
3.538136184215545654e-02 -5.425926297903060913e-02 9.169169515371322632e-02
8.227886259555816650e-02 -7.774702459573745728e-02 -7.870166748762130737e-02
-1.238885000348091125e-01 -7.048890739679336548e-02 3.088346309959888458e-02
1.001253649592399597e-01 -2.809597924351692200e-02 3.445949405431747437e-02
5.840215831995010376e-02 -1.149872466921806335e-01 1.990101672708988190e-02
-5.211362987756729126e-02 -5.984009057283401489e-02 -8.994998782873153687e-02
-3.402201086282730103e-02 -1.372435688972473145e-02 -1.140863634645938873e-02
1.013414934277534485e-01 -1.012729108333587646e-01 -1.766527071595191956e-02
1.224877089262008667e-01 -8.511240035295486450e-02 2.369479276239871979e-02
1.043101623654365540e-01 -5.219259113073348999e-02 -6.646885722875595093e-02
5.597016960382461548e-02 -3.660502284765243530e-02 7.516667246818542480e-02
-7.500911504030227661e-02 -2.488987520337104797e-02 1.668578200042247772e-02
-9.799358993768692017e-02 -3.481813892722129822e-02 -1.943540386855602264e-02
-1.900995895266532898e-02 -1.138684153556823730e-02 -6.300103385001420975e-03
-3.307764232158660889e-02 -4.473454505205154419e-02 -8.741796016693115234e-02
-5.602902919054031372e-02 -6.021026894450187683e-02 8.487890660762786865e-02
1.197154000401496887e-01 -5.197959393262863159e-02 -5.136972293257713318e-02
-8.598621189594268799e-02 -1.010318249464035034e-01 4.953514784574508667e-02
-3.195352107286453247e-02 -4.357100650668144226e-02 8.285786956548690796e-02
8.834070712327957153e-02 -2.003425359725952148e-02 2.007347717881202698e-02
1.151153221726417542e-01 -8.227670192718505859e-02 -4.678860306739807129e-02
5.780297517776489258e-02 -5.250611156225204468e-02 -9.022649377584457397e-02
-2.859783731400966644e-02 -1.000505760312080383e-01 7.586393505334854126e-02
-2.585380896925926208e-02 -1.158955618739128113e-01 -5.046752095222473145e-02
-1.098490953445434570e-01 -9.587442874908447266e-02 -3.473802283406257629e-02
-5.627196282148361206e-02 -1.939984411001205444e-02 1.804466545581817627e-02
-8.301487192511558533e-03 -1.183517575263977051e-01 4.040994495153427124e-02
-6.308113783597946167e-02 -1.025185883045196533e-01 6.184288486838340759e-02
9.960002452135086060e-02 -2.562058344483375549e-02 -3.189315274357795715e-02
-2.420125156641006470e-02 -4.371926560997962952e-02 -8.869878947734832764e-02
3.180192410945892334e-02 -9.461490809917449951e-02 -8.416415005922317505e-02
1.536252349615097046e-02 -1.597414910793304443e-02 4.431045055389404297e-02
9.854237735271453857e-02 -1.032193899154663086e-01 6.989875342696905136e-03
-8.066455833613872528e-03 -1.063806414604187012e-01 6.879796832799911499e-02
2.104315534234046936e-02 -1.215764507651329041e-02 2.903381548821926117e-02
5.564331263303756714e-02 -1.000894159078598022e-01 6.485527753829956055e-02
-2.948299609124660492e-02 -1.430755108594894409e-02 -2.455460093915462494e-02
5.885785818099975586e-02 -9.803599119186401367e-02 -7.080104947090148926e-02
4.644001275300979614e-02 -3.549712151288986206e-02 7.655289769172668457e-02
1.078537404537200928e-01 -2.745959162712097168e-02 -2.424571104347705841e-02
2.077097445726394653e-02 -3.826600313186645508e-02 8.315002918243408203e-02
1.761067286133766174e-02 -1.487632840871810913e-02 -4.475755617022514343e-02
-6.648966670036315918e-02 -6.721910089254379272e-02 8.199822157621383667e-02
-2.067983150482177734e-02 -2.786210551857948303e-02 -7.013624906539916992e-02
5.723110586404800415e-02 -1.116855889558792114e-01 3.693033382296562195e-02
6.778389215469360352e-03 -9.703915566205978394e-03 -1.241456903517246246e-02
8.695645630359649658e-02 -5.548474937677383423e-02 -7.914686203002929688e-02
-6.052625179290771484e-02 -4.857220128178596497e-02 7.679348438978195190e-02
6.869994103908538818e-02 -1.140280887484550476e-01 -1.148768351413309574e-03
-2.796948514878749847e-02 -1.086998432874679565e-01 6.288073211908340454e-02
-2.723124437034130096e-02 -8.364453911781311035e-02 8.978957682847976685e-02
5.412746220827102661e-02 -2.787417173385620117e-02 -6.850755214691162109e-02
1.216206848621368408e-01 -9.019199758768081665e-02 -7.431439589709043503e-04
8.444748073816299438e-02 -2.855800464749336243e-02 5.022235587239265442e-02
-1.033030673861503601e-01 -4.110435023903846741e-02 -3.207961469888687134e-02
-1.383543573319911957e-02 -9.681300818920135498e-02 -8.518679440021514893e-02
1.941430382430553436e-02 -1.080820485949516296e-01 6.329000741243362427e-02
1.704541221261024475e-02 -3.963460028171539307e-02 -8.876337856054306030e-02
-8.889566175639629364e-03 -8.294193446636199951e-02 9.199985116720199585e-02
-5.955705046653747559e-02 -2.527280896902084351e-02 4.030035436153411865e-02
8.982161432504653931e-02 -1.071861237287521362e-01 -5.876972572878003120e-04
1.063535660505294800e-01 -7.528168708086013794e-02 -6.305100768804550171e-02
1.679533347487449646e-02 -1.225965172052383423e-01 7.606125902384519577e-03
8.208949863910675049e-02 -1.042899787425994873e-01 -4.075451940298080444e-02
5.901926010847091675e-02 -9.313958883285522461e-02 7.271746546030044556e-02
7.120994478464126587e-02 -1.445912569761276245e-02 9.166298434138298035e-03
-9.309244900941848755e-02 -1.104604601860046387e-01 -7.827286608517169952e-03
-2.396825514733791351e-02 -1.204101294279098511e-01 -3.419591486454010010e-02
1.297582536935806274e-01 -4.979575425386428833e-02 2.966730855405330658e-02
3.945174813270568848e-02 -2.118054777383804321e-02 5.537657439708709717e-02
-6.613344699144363403e-02 -3.219111636281013489e-02 -5.588556826114654541e-02
-7.157607376575469971e-02 -2.275885641574859619e-02 7.073414977639913559e-03
-2.325522340834140778e-02 -4.522572085261344910e-02 8.615270256996154785e-02
7.697998732328414917e-02 -3.408757597208023071e-02 -6.810173392295837402e-02
-1.919879205524921417e-02 -3.402608260512351990e-02 7.573178410530090332e-02
-1.197564601898193359e-01 -9.498350322246551514e-02 -7.983593270182609558e-03
5.547074973583221436e-02 -1.123267263174057007e-01 -4.045237600803375244e-02
-8.094780147075653076e-02 -1.081326380372047424e-01 3.834471851587295532e-02
-2.249971963465213776e-02 -9.559796750545501709e-02 8.163805305957794189e-02
5.065280944108963013e-02 -1.742397993803024292e-02 -4.626204445958137512e-02
9.965398162603378296e-02 -9.356155991554260254e-02 -4.726589098572731018e-02
1.911381259560585022e-02 -4.973162338137626648e-02 -9.573558717966079712e-02
-3.577386029064655304e-03 -1.123525202274322510e-02 -2.300790697336196899e-02
2.283519692718982697e-02 -1.037478744983673096e-01 -7.424312829971313477e-02
3.105407580733299255e-02 -7.960791885852813721e-02 9.112127870321273804e-02
2.646932937204837799e-02 -1.701385155320167542e-02 -5.110658332705497742e-02
1.305009704083204269e-02 -9.667887538671493530e-02 -8.493831753730773926e-02
3.008043393492698669e-02 -5.409389734268188477e-02 -9.662067145109176636e-02
-3.049570135772228241e-03 -1.083299890160560608e-02 1.583734899759292603e-02
1.148482412099838257e-01 -6.258394569158554077e-02 5.469318479299545288e-02
7.831421494483947754e-02 -2.189681679010391235e-02 3.884590044617652893e-02
-1.085015460848808289e-01 -5.035303533077239990e-02 3.937885165214538574e-02
3.527760878205299377e-02 -4.782792180776596069e-02 -9.301869571208953857e-02
3.713463246822357178e-02 -8.575744926929473877e-02 8.641695231199264526e-02
-1.114489696919918060e-02 -7.162716984748840332e-02 -9.939115494489669800e-02
3.489586990326642990e-03 -9.747390449047088623e-02 -8.473898470401763916e-02
-1.931625418365001678e-03 -1.187718361616134644e-01 -4.261370003223419189e-02
-1.025766059756278992e-01 -1.053603291511535645e-01 -1.689626276493072510e-02
-2.037169411778450012e-03 -1.781272143125534058e-02 -5.217562243342399597e-02
4.080311208963394165e-02 -7.631544768810272217e-02 9.052100032567977905e-02
1.107378825545310974e-01 -9.342870116233825684e-02 2.571540325880050659e-02
-7.180299609899520874e-02 -3.960958868265151978e-02 -6.448473781347274780e-02
-7.558639347553253174e-02 -1.161228120326995850e-01 3.454244229942560196e-03
-1.114300638437271118e-01 -6.541522592306137085e-02 4.874457791447639465e-02
-3.865122795104980469e-02 -1.202895045280456543e-01 -2.887973003089427948e-02
1.490059588104486465e-02 -1.147470325231552124e-01 -5.296787619590759277e-02
4.593581706285476685e-02 -6.860398501157760620e-02 9.118463099002838135e-02
7.728351652622222900e-02 -1.113019883632659912e-01 6.011951249092817307e-03
-1.083194315433502197e-01 -5.025962740182876587e-02 -4.298750683665275574e-02
-1.088092476129531860e-01 -4.025171324610710144e-02 -1.096365973353385925e-02
-7.329319417476654053e-02 -9.872561693191528320e-02 -6.554267555475234985e-02
-8.347384631633758545e-02 -8.668358623981475830e-02 -7.143484801054000854e-02
-4.100121557712554932e-02 -1.202359646558761597e-01 2.389487065374851227e-02
3.582928329706192017e-04 -1.095575615763664246e-01 6.294998526573181152e-02
-1.289353370666503906e-01 -6.811667233705520630e-02 -1.973388902842998505e-02
3.662799298763275146e-02 -1.146863326430320740e-01 -4.507233202457427979e-02
-8.106429129838943481e-02 -5.129922181367874146e-02 6.739882379770278931e-02
7.325866818428039551e-02 -4.614390805363655090e-02 7.693694531917572021e-02
-3.668062388896942139e-02 -2.058832347393035889e-02 -4.694706574082374573e-02
6.867956370115280151e-02 -2.980544045567512512e-02 -6.595944613218307495e-02
-6.847415864467620850e-02 -3.898268565535545349e-02 6.216006353497505188e-02
1.044151037931442261e-01 -8.089518547058105469e-02 5.578564852476119995e-02
-2.572164125740528107e-02 -1.652549952268600464e-02 3.516326844692230225e-02
-7.121212035417556763e-02 -9.015115350484848022e-02 -7.574114203453063965e-02
-8.977256715297698975e-02 -5.494318529963493347e-02 -6.742425262928009033e-02
-9.437736123800277710e-03 -4.735176265239715576e-02 8.967438340187072754e-02
3.496282920241355896e-02 -1.471351087093353271e-02 -4.209026694297790527e-02
-1.121427789330482483e-01 -6.060748547315597534e-02 -4.879014566540718079e-02
-8.333185315132141113e-02 -7.709282636642456055e-02 7.247198373079299927e-02
-6.357193738222122192e-02 -1.062224209308624268e-01 -5.895918607711791992e-02
-8.350455015897750854e-02 -1.113397330045700073e-01 2.382166124880313873e-02
1.387518178671598434e-02 -1.272140443325042725e-02 -3.595586866140365601e-02
-4.961409419775009155e-02 -1.041439026594161987e-01 -6.871262937784194946e-02
2.615398913621902466e-02 -1.215231418609619141e-01 1.004664041101932526e-02
-1.980562880635261536e-02 -1.883719116449356079e-02 4.606369510293006897e-02
-1.305830925703048706e-01 -6.540085375308990479e-02 -3.013329580426216125e-03
-2.461206726729869843e-02 -5.632717907428741455e-02 9.205703437328338623e-02
-5.329624563455581665e-02 -9.855216741561889648e-02 7.129171490669250488e-02
-7.361239939928054810e-02 -6.588859111070632935e-02 -8.210930228233337402e-02
1.321450769901275635e-01 -6.069627031683921814e-02 3.065803088247776031e-02
7.210779935121536255e-02 -1.119732409715652466e-01 1.574267260730266571e-02
2.116900309920310974e-02 -8.753596246242523193e-02 -9.219164401292800903e-02
-8.066953718662261963e-02 -1.128836125135421753e-01 -2.416107431054115295e-02
-4.669641703367233276e-02 -1.208306849002838135e-01 1.459472812712192535e-02
5.811201781034469604e-02 -1.076138466596603394e-01 4.847665876150131226e-02
4.814859479665756226e-02 -1.027804464101791382e-01 -6.809511035680770874e-02
-5.457652360200881958e-02 -1.784619316458702087e-02 -9.577008895576000214e-03
-8.472464047372341156e-03 -1.228048205375671387e-01 -2.166176214814186096e-02
7.818013429641723633e-03 -2.957206964492797852e-02 7.300284504890441895e-02
1.218164861202239990e-01 -7.281326502561569214e-02 4.281864315271377563e-02
-1.034264918416738510e-02 -1.013913601636886597e-01 7.603685557842254639e-02
6.540513783693313599e-02 -4.494424164295196533e-02 -8.365981280803680420e-02
-6.562986224889755249e-02 -2.159773558378219604e-02 1.482297293841838837e-02
-8.956141769886016846e-02 -3.342196717858314514e-02 -3.266724571585655212e-02
-7.709446549415588379e-02 -4.982683807611465454e-02 -7.242802530527114868e-02
9.553781151771545410e-02 -1.025457009673118591e-01 -2.616149932146072388e-02
3.124463744461536407e-02 -1.207131817936897278e-01 -1.664011366665363312e-02
1.370414942502975464e-01 -5.846294760704040527e-02 1.776126027107238770e-02
-8.035223186016082764e-02 -3.401086479425430298e-02 -4.685683548450469971e-02
1.034151166677474976e-01 -3.060375526547431946e-02 -4.146078228950500488e-02
-1.062570586800575256e-01 -7.669419050216674805e-02 5.472276732325553894e-02
-1.058135107159614563e-01 -7.859206199645996094e-02 -5.802873149514198303e-02
1.075601577758789062e-02 -8.994442969560623169e-02 -9.141074120998382568e-02
-1.234889253973960876e-01 -8.523523807525634766e-02 2.301877178251743317e-02
-6.081873178482055664e-02 -1.125513017177581787e-01 -4.573465511202812195e-02
1.095632612705230713e-01 -2.818328887224197388e-02 1.903019286692142487e-02
-1.189979836344718933e-01 -6.184548512101173401e-02 -3.930281102657318115e-02
-8.281566947698593140e-02 -7.016568630933761597e-02 -7.729367911815643311e-02
-6.402020156383514404e-02 -6.934577226638793945e-02 -8.686912804841995239e-02
-1.242304965853691101e-02 -1.209216862916946411e-01 2.950395084917545319e-02
2.181206457316875458e-02 -3.065435960888862610e-02 7.431856542825698853e-02
1.141599863767623901e-01 -5.462491884827613831e-02 -5.871655419468879700e-02
-4.741588234901428223e-02 -1.215761899948120117e-01 -5.252280272543430328e-03
6.014801561832427979e-02 -6.579713523387908936e-02 -9.173575788736343384e-02
-3.699195384979248047e-02 -2.995683252811431885e-02 -6.828913092613220215e-02
1.125820912420749664e-02 -1.210891753435134888e-01 2.492143400013446808e-02
-1.865222118794918060e-02 -8.128949254751205444e-02 -9.596392512321472168e-02
2.532579563558101654e-02 -6.408307701349258423e-02 9.499231725931167603e-02
4.271234571933746338e-02 -4.583600908517837524e-02 8.623830229043960571e-02
3.718841075897216797e-02 -6.137337535619735718e-02 -9.727977216243743896e-02
-5.439370125532150269e-02 -1.787111908197402954e-02 7.082755211740732193e-03
-7.018551230430603027e-02 -2.940354496240615845e-02 4.207317903637886047e-02
9.601282328367233276e-02 -2.186006680130958557e-02 1.580127701163291931e-02
-3.806816786527633667e-02 -1.166819483041763306e-01 4.070315137505531311e-02
-8.925829082727432251e-02 -4.245359450578689575e-02 5.052413791418075562e-02
1.177310012280941010e-02 -4.210232943296432495e-02 8.686463534832000732e-02
9.534668922424316406e-02 -2.961604669690132141e-02 4.334221780300140381e-02
-1.222213283181190491e-01 -7.925342023372650146e-02 3.202446177601814270e-02
-9.472092986106872559e-02 -4.918278008699417114e-02 -5.786320939660072327e-02
1.873646862804889679e-02 -7.828106731176376343e-02 -9.749371558427810669e-02
1.140302419662475586e-01 -9.538602828979492188e-02 -5.115550011396408081e-03
7.291019894182682037e-03 -1.503830775618553162e-02 4.066483303904533386e-02
1.294503957033157349e-01 -4.323493689298629761e-02 -2.464288286864757538e-02
-6.876543164253234863e-02 -2.873956784605979919e-02 -4.535100981593132019e-02
-4.763410240411758423e-02 -4.741851612925529480e-02 -8.496762812137603760e-02
-1.011091023683547974e-01 -9.502485394477844238e-02 4.473591223359107971e-02
3.100776299834251404e-02 -2.743191644549369812e-02 -7.289817184209823608e-02
-7.641336321830749512e-02 -1.123329252004623413e-01 2.918056771159172058e-02
1.080224476754665375e-02 -1.136379465460777283e-01 5.267237871885299683e-02
9.357377141714096069e-02 -9.884797036647796631e-02 3.784898295998573303e-02
5.057459324598312378e-02 -4.325756430625915527e-02 8.265060186386108398e-02
4.859657585620880127e-02 -1.302848011255264282e-02 -2.915504761040210724e-02
-9.747185558080673218e-02 -4.690624028444290161e-02 4.854835942387580872e-02
1.055801957845687866e-01 -9.318204969167709351e-02 -4.018051922321319580e-02
-8.621011860668659210e-03 -1.085920035839080811e-01 -6.894408911466598511e-02
-4.594450443983078003e-02 -2.887413278222084045e-02 -6.218751147389411926e-02
-1.310392320156097412e-01 -7.204571366310119629e-02 -1.074742153286933899e-02
-4.263613373041152954e-02 -2.023088932037353516e-02 3.780030086636543274e-02
3.133233636617660522e-03 -9.371978789567947388e-02 8.450116217136383057e-02
-5.393202602863311768e-02 -8.319949358701705933e-02 -8.734969049692153931e-02
2.901753596961498260e-02 -1.167528331279754639e-01 3.731922432780265808e-02
-1.146116666495800018e-02 -2.009669318795204163e-02 -5.624182149767875671e-02
1.041818484663963318e-01 -6.383987516164779663e-02 -6.880823522806167603e-02
1.320027410984039307e-01 -7.154120504856109619e-02 -3.038053400814533234e-02
1.121333241462707520e-01 -2.724466845393180847e-02 -3.023029770702123642e-03
-1.978327985852956772e-03 -2.446465194225311279e-02 6.370215862989425659e-02
1.160743758082389832e-01 -3.375408798456192017e-02 2.573364600539207458e-02
1.397536396980285645e-01 -6.443402916193008423e-02 -2.991694025695323944e-03
-8.065053075551986694e-02 -2.726623043417930603e-02 -2.218515425920486450e-02
-2.207405865192413330e-02 -1.175070554018020630e-02 2.050350420176982880e-03
9.167610853910446167e-02 -1.060371026396751404e-01 -1.285921037197113037e-02
-8.056753315031528473e-03 -3.157830610871315002e-02 7.443971186876296997e-02
-6.389433890581130981e-02 -2.364699169993400574e-02 2.968483231961727142e-02
-5.161664634943008423e-02 -4.381543397903442383e-02 7.655737549066543579e-02
-1.029570251703262329e-01 -7.062895596027374268e-02 -6.215345486998558044e-02
4.411449655890464783e-03 -1.197492927312850952e-01 3.370945900678634644e-02
-2.650091983377933502e-02 -5.964438989758491516e-02 -9.666601568460464478e-02
-3.903112560510635376e-02 -3.082662820816040039e-02 6.507992744445800781e-02
9.346808493137359619e-02 -8.918140083551406860e-02 5.616797506809234619e-02
1.028323993086814880e-01 -9.444437921047210693e-02 3.654183447360992432e-02
6.809821724891662598e-02 -1.667539775371551514e-02 2.841594815254211426e-02
-1.022504344582557678e-01 -3.858813643455505371e-02 2.228898555040359497e-02
-1.259332895278930664e-01 -6.226422265172004700e-02 2.066210657358169556e-02
2.731303870677947998e-02 -3.458614647388458252e-02 -8.296060562133789062e-02
4.457590728998184204e-02 -7.270488888025283813e-02 -9.503594785928726196e-02
-7.047655433416366577e-02 -1.110636591911315918e-01 -4.300585761666297913e-02
-8.536552637815475464e-02 -1.132650598883628845e-01 3.223725128918886185e-03
2.589380927383899689e-02 -1.172150894999504089e-01 -4.120786860585212708e-02
8.537431806325912476e-02 -1.084082648158073425e-01 8.591683581471443176e-03
7.947990298271179199e-02 -1.027124375104904175e-01 4.354921728372573853e-02
-6.444320082664489746e-02 -2.035924792289733887e-02 -6.552985403686761856e-03
7.474092394113540649e-02 -1.112792789936065674e-01 -1.944931969046592712e-02
1.085563004016876221e-02 -1.232297047972679138e-01 -7.216812111437320709e-03
1.922154054045677185e-02 -8.673466742038726807e-02 8.883263915777206421e-02
2.004686510190367699e-03 -1.219596192240715027e-01 2.241491340100765228e-02
3.559534251689910889e-02 -1.475007832050323486e-02 3.782702982425689697e-02
-3.587400168180465698e-02 -1.052730903029441833e-01 6.715194135904312134e-02
1.270842254161834717e-01 -6.305532902479171753e-02 3.943543881177902222e-02
6.276496499776840210e-02 -1.657761260867118835e-02 -3.666129708290100098e-02
-4.996469616889953613e-02 -1.171089559793472290e-01 3.333323448896408081e-02
-3.013094700872898102e-02 -8.203285187482833862e-02 -9.397485852241516113e-02
-8.429559320211410522e-02 -3.292857855558395386e-02 3.557807952165603638e-02
5.187091231346130371e-02 -9.470001608133316040e-02 -7.814864814281463623e-02
-1.649380475282669067e-02 -1.234195455908775330e-01 1.057491451501846313e-02
3.302882239222526550e-02 -1.032840907573699951e-01 -7.252959907054901123e-02
-2.869850955903530121e-02 -9.817348420619964600e-02 -8.193772286176681519e-02
-2.993462793529033661e-02 -1.472876965999603271e-02 2.299880608916282654e-02
-9.457208961248397827e-02 -3.173243999481201172e-02 -5.827877670526504517e-03
-1.765845343470573425e-02 -1.183789074420928955e-01 -4.374098777770996094e-02
1.052209082990884781e-02 -1.175482124090194702e-01 4.103866964578628540e-02
-2.791416086256504059e-02 -1.202182471752166748e-01 3.010383434593677521e-02
-9.838205575942993164e-02 -1.063016951084136963e-01 1.964406296610832214e-02
-2.757108397781848907e-02 -2.302704378962516785e-02 -5.809697508811950684e-02
-1.141239404678344727e-01 -9.939599037170410156e-02 5.597950890660285950e-03
-9.897045791149139404e-02 -8.110646903514862061e-02 5.978389456868171692e-02
-3.589891642332077026e-02 -5.776197463274002075e-02 -9.409195929765701294e-02
-8.105431497097015381e-02 -9.902150928974151611e-02 -6.015522405505180359e-02
-2.319017238914966583e-02 -1.235086321830749512e-01 -9.390888735651969910e-03
-5.999595671892166138e-02 -2.029251307249069214e-02 -2.105784416198730469e-02
-3.025617450475692749e-02 9.285076856613159180e-01 1.544051431119441986e-02
-8.098562248051166534e-03 8.252453804016113281e-01 3.005364164710044861e-02
-9.281573444604873657e-02 8.129085302352905273e-01 -6.492361892014741898e-03
5.230648815631866455e-02 8.559373617172241211e-01 -3.549333196133375168e-04
-1.076454073190689087e-01 9.097416400909423828e-01 -2.262314315885305405e-03
-2.340741828083992004e-02 7.423454523086547852e-01 3.054931014776229858e-02
1.671784371137619019e-02 6.699357032775878906e-01 -1.396669447422027588e-02
9.722653776407241821e-02 7.021357417106628418e-01 5.213790107518434525e-03
8.358824066817760468e-03 9.044419527053833008e-01 1.057754270732402802e-02
4.945788532495498657e-03 7.242370843887329102e-01 2.973588183522224426e-02
-6.220682710409164429e-02 8.805177807807922363e-01 -1.822009496390819550e-02
4.114564508199691772e-02 8.720275163650512695e-01 -6.259127985686063766e-03
5.140254274010658264e-02 7.261276245117187500e-01 2.444008551537990570e-02
-1.000291630625724792e-01 8.396537899971008301e-01 2.231519855558872223e-02
-7.528616487979888916e-02 8.375944495201110840e-01 2.889516949653625488e-02
-4.644187167286872864e-02 6.972671151161193848e-01 1.476487144827842712e-02
3.068332001566886902e-02 7.521786689758300781e-01 2.813485823571681976e-02
-6.905261427164077759e-02 7.797247767448425293e-01 -1.224290207028388977e-02
7.334759831428527832e-02 7.253729104995727539e-01 -1.906575076282024384e-02
-3.096017986536026001e-02 8.900994062423706055e-01 2.508499100804328918e-02
-2.348248381167650223e-03 6.615726351737976074e-01 -6.511260289698839188e-03
1.081271097064018250e-03 7.932118773460388184e-01 -2.546941861510276794e-02
-6.195999681949615479e-03 8.582658767700195312e-01 2.636018022894859314e-02
-9.947241097688674927e-02 8.235107064247131348e-01 -4.130598157644271851e-03
4.361188039183616638e-02 6.288457512855529785e-01 -1.973529811948537827e-03
6.544973701238632202e-02 8.076757788658142090e-01 1.162449084222316742e-02
-2.137304842472076416e-02 9.017467498779296875e-01 -1.798135228455066681e-02
-5.181186646223068237e-02 7.947486042976379395e-01 3.118465654551982880e-02
-6.334279477596282959e-02 8.348951935768127441e-01 -1.857426017522811890e-02
4.689587280154228210e-02 8.624356985092163086e-01 3.328535938635468483e-03
3.662840649485588074e-02 8.626378774642944336e-01 -1.444542035460472107e-02
-5.487358197569847107e-03 8.810730576515197754e-01 2.241325378417968750e-02
-4.570515081286430359e-02 7.595926523208618164e-01 -1.681983470916748047e-02
-7.422358542680740356e-02 9.521843194961547852e-01 -3.353824838995933533e-03
6.483437120914459229e-02 6.390389800071716309e-01 -7.628322113305330276e-03
-6.405141204595565796e-02 8.399560451507568359e-01 3.020552732050418854e-02
-7.821103185415267944e-02 8.838673830032348633e-01 -1.493143104016780853e-02
-6.566736847162246704e-02 8.557177782058715820e-01 -1.832707971334457397e-02
9.696266613900661469e-03 6.425452828407287598e-01 1.191778294742107391e-02
5.074946209788322449e-02 6.806251406669616699e-01 -1.815585233271121979e-02
-5.896530300378799438e-02 7.427067756652832031e-01 2.462813444435596466e-02
-4.831251129508018494e-02 8.370082974433898926e-01 -2.138909138739109039e-02
6.936208158731460571e-02 6.916507482528686523e-01 -1.786637306213378906e-02
-8.785260468721389771e-02 9.237186312675476074e-01 1.958441548049449921e-02
-4.053788725286722183e-03 9.232046604156494141e-01 -6.784708704799413681e-03
1.042057480663061142e-02 8.968782424926757812e-01 -1.346278004348278046e-02
7.557854056358337402e-02 7.168849706649780273e-01 -1.831444911658763885e-02
1.661674305796623230e-02 8.263171315193176270e-01 2.608253248035907745e-02
-2.869636565446853638e-02 6.858435869216918945e-01 1.941808871924877167e-02
-9.916061908006668091e-02 7.928958535194396973e-01 1.281590759754180908e-02
9.753709286451339722e-02 7.323687076568603516e-01 -3.846590407192707062e-04
4.762656614184379578e-02 8.388870954513549805e-01 -1.624986715614795685e-02
-2.309600077569484711e-02 6.916794776916503906e-01 2.295379340648651123e-02
-2.797278016805648804e-02 7.957168817520141602e-01 -2.325738035142421722e-02
-6.279241293668746948e-03 7.714389562606811523e-01 -2.441619336605072021e-02
8.898703008890151978e-02 7.500619888305664062e-01 -1.152060925960540771e-02
-9.079130738973617554e-02 9.413309097290039062e-01 1.397337950766086578e-02
-1.010427623987197876e-01 9.196511507034301758e-01 -4.486705642193555832e-03
-6.408251821994781494e-02 9.318690896034240723e-01 -1.154556125402450562e-02
-5.545068159699440002e-02 9.150316715240478516e-01 2.261518687009811401e-02
8.816483430564403534e-03 6.435815095901489258e-01 -1.091851387172937393e-03
-1.319454982876777649e-02 8.104470372200012207e-01 -2.493498474359512329e-02
3.784099593758583069e-02 7.783747911453247070e-01 -2.444330230355262756e-02
-5.814066901803016663e-02 8.024517893791198730e-01 -1.811475865542888641e-02
-2.837675437331199646e-02 6.993710398674011230e-01 -1.012770645320415497e-02
-3.966375812888145447e-02 8.333855867385864258e-01 3.138509765267372131e-02
2.493506297469139099e-02 6.933935880661010742e-01 2.633025497198104858e-02
-4.873652383685112000e-02 8.422791361808776855e-01 3.090718202292919159e-02
-3.025144711136817932e-02 6.738691329956054688e-01 9.792542085051536560e-03
-5.944536998867988586e-02 9.452055692672729492e-01 1.412931829690933228e-02
-4.036059603095054626e-02 9.353918433189392090e-01 -1.092958636581897736e-02
6.136238202452659607e-02 7.908751964569091797e-01 1.712235622107982635e-02
7.052256166934967041e-02 6.771600842475891113e-01 1.770691946148872375e-02
-5.645715817809104919e-02 7.099188566207885742e-01 2.737053669989109039e-03
-1.022059023380279541e-01 9.289249777793884277e-01 -1.893642358481884003e-03
-8.948218077421188354e-02 8.183023333549499512e-01 2.492573857307434082e-02
7.219894230365753174e-02 6.951266527175903320e-01 1.843148283660411835e-02
4.474486783146858215e-02 8.556138873100280762e-01 9.546481072902679443e-03
-3.454311564564704895e-02 8.245786428451538086e-01 3.171229362487792969e-02
-8.488012105226516724e-02 7.805760502815246582e-01 -4.616054240614175797e-03
3.329090401530265808e-02 8.712410926818847656e-01 -1.308263838291168213e-02
-8.489906787872314453e-02 8.101657032966613770e-01 2.577761374413967133e-02
-1.590146496891975403e-02 7.119429111480712891e-01 2.788969129323959351e-02
8.717919886112213135e-02 6.960833668708801270e-01 -1.373929902911186218e-02
4.456302896142005920e-02 6.326552629470825195e-01 1.195777207612991333e-02
5.293246358633041382e-02 7.038064002990722656e-01 -2.078736387193202972e-02
-6.019698083400726318e-02 7.406037449836730957e-01 -8.028503507375717163e-03
1.596556976437568665e-02 7.674852609634399414e-01 2.993593178689479828e-02
-5.271801725029945374e-02 9.186510443687438965e-01 -1.508918218314647675e-02
6.670981645584106445e-02 8.142912387847900391e-01 -1.276027597486972809e-02
5.573149397969245911e-02 7.315610647201538086e-01 -2.225049026310443878e-02
-8.254297077655792236e-02 8.110632300376892090e-01 -1.116505265235900879e-02
-1.135364025831222534e-01 8.486196994781494141e-01 5.072452593594789505e-03
-8.587028831243515015e-02 7.629101276397705078e-01 3.225934226065874100e-03
-5.201337486505508423e-02 7.042208313941955566e-01 1.440698280930519104e-02
2.882577851414680481e-02 8.911017179489135742e-01 2.317384351044893265e-04
6.402602046728134155e-02 7.521801590919494629e-01 2.024291642010211945e-02
1.505413744598627090e-02 6.945864558219909668e-01 2.682958357036113739e-02
-1.987057179212570190e-02 8.927326798439025879e-01 -1.942755654454231262e-02
8.697363547980785370e-03 8.091810345649719238e-01 -2.538653649389743805e-02
-2.348612528294324875e-03 7.362763285636901855e-01 3.061684407293796539e-02
5.468104407191276550e-02 6.679572463035583496e-01 2.015803009271621704e-02
9.153948724269866943e-02 6.534271240234375000e-01 -1.274489797651767731e-03
-5.136626213788986206e-02 7.608377933502197266e-01 2.905291132628917694e-02
-3.432094305753707886e-02 7.560894489288330078e-01 -1.910991035401821136e-02
-3.338269516825675964e-02 7.702632546424865723e-01 -2.076438441872596741e-02
4.677910357713699341e-02 7.911207675933837891e-01 -2.276511117815971375e-02
-5.747536197304725647e-02 7.616701126098632812e-01 -1.355992071330547333e-02
-2.146109379827976227e-02 9.346168637275695801e-01 9.398195892572402954e-03
8.015014976263046265e-02 7.301548123359680176e-01 -1.716475188732147217e-02
8.196365833282470703e-02 6.420630216598510742e-01 5.751457065343856812e-03
4.148256033658981323e-02 7.462228536605834961e-01 -2.399307116866111755e-02
7.805235683917999268e-02 7.793626189231872559e-01 1.004397496581077576e-02
-9.366052597761154175e-02 8.773270845413208008e-01 -1.052720658481121063e-02
3.727540746331214905e-02 6.624723672866821289e-01 -1.452955417335033417e-02
2.055177092552185059e-02 7.769277691841125488e-01 2.905948646366596222e-02
-3.934310749173164368e-02 6.916673183441162109e-01 1.675637811422348022e-02
2.274787053465843201e-02 6.814630031585693359e-01 -1.723477244377136230e-02
-1.014779359102249146e-01 8.687327504158020020e-01 -7.135494146496057510e-03
-7.149228453636169434e-02 7.793983817100524902e-01 2.663230523467063904e-02
-2.841258421540260315e-02 7.334886193275451660e-01 -1.735408231616020203e-02
-5.338266864418983459e-02 8.643770217895507812e-01 2.941022440791130066e-02
-3.892553597688674927e-02 8.720981478691101074e-01 2.830287627875804901e-02
9.664237499237060547e-02 7.224094271659851074e-01 -7.967427372932434082e-03
8.891733735799789429e-02 7.717950344085693359e-01 -1.922065392136573792e-03
4.612468555569648743e-02 7.763082981109619141e-01 -2.353486232459545135e-02
-9.040097147226333618e-02 8.217521309852600098e-01 -8.963501080870628357e-03
7.336082868278026581e-03 8.717918395996093750e-01 2.113345824182033539e-02
1.132011134177446365e-02 7.126407027244567871e-01 -2.092191018164157867e-02
-6.979382038116455078e-02 8.142316341400146484e-01 2.946265414357185364e-02
-2.732967026531696320e-03 8.123759031295776367e-01 -2.532222494482994080e-02
-1.100112050771713257e-01 8.305475711822509766e-01 5.152350291609764099e-03
4.978587105870246887e-02 7.521606087684631348e-01 2.434793300926685333e-02
-5.204278603196144104e-02 9.472367763519287109e-01 -6.919200997799634933e-03
-1.021988317370414734e-01 8.129935264587402344e-01 1.735646091401576996e-02
6.529412418603897095e-02 6.289613246917724609e-01 6.018020678311586380e-03
3.077429533004760742e-02 7.540288567543029785e-01 -2.473209425806999207e-02
-4.330001026391983032e-02 8.240274190902709961e-01 3.170917928218841553e-02
8.855766057968139648e-02 7.624858617782592773e-01 -9.346529841423034668e-03
2.812006324529647827e-02 7.368714213371276855e-01 -2.398796565830707550e-02
-1.224474236369132996e-02 9.220251441001892090e-01 -1.099521853029727936e-02
-4.432815313339233398e-02 7.123900651931762695e-01 2.236806228756904602e-02
-6.224687024950981140e-02 8.311888575553894043e-01 3.053817339241504669e-02
4.190633445978164673e-02 8.514232039451599121e-01 -1.543437689542770386e-02
-4.505580756813287735e-03 8.262483477592468262e-01 -2.495933882892131805e-02
6.900145113468170166e-02 7.499706745147705078e-01 -2.000234834849834442e-02
-6.816998124122619629e-02 7.469568252563476562e-01 -5.537049379199743271e-03
-9.720207750797271729e-02 8.703300356864929199e-01 2.367363311350345612e-02
-6.787122786045074463e-02 9.141384363174438477e-01 2.300260215997695923e-02
2.802954055368900299e-03 8.588491082191467285e-01 2.457890100777149200e-02
7.507859915494918823e-02 7.938751578330993652e-01 -1.270008645951747894e-02
-1.483531575649976730e-02 7.741858363151550293e-01 3.207745403051376343e-02
5.998903140425682068e-02 7.727151513099670410e-01 -2.121110446751117706e-02
2.984424680471420288e-02 6.879576444625854492e-01 -1.891762204468250275e-02
-5.711441487073898315e-02 8.218394517898559570e-01 -1.946693658828735352e-02
6.560651957988739014e-02 6.846746802330017090e-01 1.966058090329170227e-02
-4.135804623365402222e-02 7.511427402496337891e-01 -1.678971201181411743e-02
-8.006428927183151245e-02 8.973329663276672363e-01 -1.370144635438919067e-02
-1.121370047330856323e-01 8.521504998207092285e-01 1.538277044892311096e-02
-5.716576799750328064e-02 8.883017897605895996e-01 2.696441672742366791e-02
-3.557353839278221130e-02 6.936513185501098633e-01 -4.910189192742109299e-03
6.642852723598480225e-02 7.070811390876770020e-01 2.051836065948009491e-02
8.198457956314086914e-02 7.338397502899169922e-01 1.412062905728816986e-02
9.077240526676177979e-02 7.363145947456359863e-01 8.289187215268611908e-03
9.537201374769210815e-02 7.443482279777526855e-01 -4.437987692654132843e-03
-9.304475970566272736e-04 6.482217311859130859e-01 1.461059902794659138e-03
-1.474123355001211166e-02 6.585177183151245117e-01 9.730204939842224121e-03
9.242239408195018768e-03 7.822654843330383301e-01 -2.551969699561595917e-02
-3.523069247603416443e-02 6.820794939994812012e-01 1.340243406593799591e-02
-4.483068361878395081e-02 7.848691940307617188e-01 -1.976064033806324005e-02
1.704701036214828491e-02 7.361420392990112305e-01 -2.368403971195220947e-02
-6.560398638248443604e-02 7.307853698730468750e-01 1.802816614508628845e-02
5.518782511353492737e-02 6.452503204345703125e-01 -1.045347750186920166e-02
4.847775399684906006e-02 7.060475349426269531e-01 2.452398277819156647e-02
-3.131332248449325562e-02 8.467819690704345703e-01 -2.317936345934867859e-02
-1.864983700215816498e-03 6.738019585609436035e-01 2.232621423900127411e-02
-6.431138515472412109e-02 7.849090695381164551e-01 2.886079065501689911e-02
4.151831194758415222e-02 6.506823897361755371e-01 1.846271753311157227e-02
-8.021710067987442017e-02 7.538017034530639648e-01 1.634470745921134949e-02
3.641603887081146240e-02 8.104386925697326660e-01 -2.310209162533283234e-02
7.488724589347839355e-02 7.746111154556274414e-01 -1.631060056388378143e-02
4.127005860209465027e-02 7.528051137924194336e-01 2.622518874704837799e-02
2.781659364700317383e-03 8.162558078765869141e-01 2.939141169190406799e-02
-2.267570793628692627e-02 8.213232159614562988e-01 -2.428667433559894562e-02
5.262686870992183685e-03 8.814371824264526367e-01 1.955325342714786530e-02
-3.148801624774932861e-05 8.958551287651062012e-01 -1.653502508997917175e-02
-1.062227971851825714e-02 8.569551110267639160e-01 -2.324589528143405914e-02
5.451429262757301331e-02 8.081927895545959473e-01 -1.938771083950996399e-02
6.481926143169403076e-02 7.042181491851806641e-01 -1.963136531412601471e-02
7.714425027370452881e-02 7.413763403892517090e-01 1.588222198188304901e-02
-1.476055476814508438e-03 7.499102950096130371e-01 3.118574433028697968e-02
-4.480661451816558838e-02 7.347618341445922852e-01 -1.294055581092834473e-02
8.453975431621074677e-03 8.012955188751220703e-01 2.961374074220657349e-02
2.572775818407535553e-03 6.483094096183776855e-01 1.311559416353702545e-02
-7.402456551790237427e-02 8.198159337043762207e-01 -1.501880958676338196e-02
-4.312998428940773010e-02 8.604541420936584473e-01 2.964775077998638153e-02
-1.338606979697942734e-02 9.271377921104431152e-01 1.001321710646152496e-02
-4.233371838927268982e-02 7.882395386695861816e-01 3.176647797226905823e-02
4.218189418315887451e-02 7.321729063987731934e-01 -2.339158207178115845e-02
1.039842609316110611e-02 8.856819868087768555e-01 -1.678106188774108887e-02
-5.087258666753768921e-02 8.979048728942871094e-01 -1.816595159471035004e-02
-8.184266090393066406e-02 7.889966368675231934e-01 -8.198475465178489685e-03
2.814811468124389648e-02 6.540108919143676758e-01 1.962443254888057709e-02
5.079750716686248779e-02 8.521151542663574219e-01 -9.778926149010658264e-03
-2.788447961211204529e-02 7.863681316375732422e-01 3.227095305919647217e-02
-9.422078728675842285e-02 8.869744539260864258e-01 -1.010979525744915009e-02
-1.479445025324821472e-02 6.819179058074951172e-01 2.219387330114841461e-02
-1.156382486224174500e-01 8.694069385528564453e-01 4.221907351166009903e-03
4.374469816684722900e-02 7.021078467369079590e-01 -2.101730555295944214e-02
3.119779750704765320e-02 7.888553738594055176e-01 2.650400064885616302e-02
-2.090466395020484924e-02 8.370779752731323242e-01 3.036355972290039062e-02
-2.775168791413307190e-02 6.911126971244812012e-01 -7.741732988506555557e-03
-4.738975688815116882e-02 7.417371273040771484e-01 2.746884897351264954e-02
2.420153841376304626e-02 7.481651306152343750e-01 -2.459270320832729340e-02
1.522878464311361313e-02 7.506941556930541992e-01 -2.456450834870338440e-02
-1.991755794733762741e-03 6.989432573318481445e-01 -1.696872152388095856e-02
7.727113366127014160e-02 7.505776882171630859e-01 -1.749494113028049469e-02
-6.591773033142089844e-02 8.447359204292297363e-01 -1.821778714656829834e-02
3.440863266587257385e-02 7.025447487831115723e-01 2.632635273039340973e-02
6.208505854010581970e-02 8.364545702934265137e-01 -6.444076541811227798e-03
-6.326262652873992920e-02 8.682659268379211426e-01 2.882819995284080505e-02
9.086842089891433716e-02 7.636470198631286621e-01 -1.582945697009563446e-05
-4.118727147579193115e-02 7.791836261749267578e-01 3.153680264949798584e-02
3.784574940800666809e-02 6.526057720184326172e-01 -1.201882585883140564e-02
-3.244357928633689880e-02 6.954706907272338867e-01 2.142254635691642761e-02
-5.283511802554130554e-02 9.011435508728027344e-01 2.503248117864131927e-02
2.648369409143924713e-03 7.080909013748168945e-01 -1.925755664706230164e-02
1.778644323348999023e-02 6.383582949638366699e-01 1.181072741746902466e-02
1.095794141292572021e-05 9.232453107833862305e-01 1.762952189892530441e-03
8.596372604370117188e-02 7.806219458580017090e-01 -4.657606128603219986e-03
-3.037215024232864380e-02 8.682735562324523926e-01 2.813144400715827942e-02
3.419117256999015808e-02 8.840680122375488281e-01 -9.495718404650688171e-04
2.399722859263420105e-02 6.964229345321655273e-01 -1.980536989867687225e-02
7.495006173849105835e-02 6.324035525321960449e-01 5.106218159198760986e-04
9.137327782809734344e-03 9.142623543739318848e-01 1.039521070197224617e-03
3.839009627699851990e-02 6.884197592735290527e-01 -1.932856440544128418e-02
2.649651467800140381e-02 8.271260261535644531e-01 -2.310306392610073090e-02
2.145334705710411072e-02 7.060983180999755859e-01 -2.093195356428623199e-02
3.561674430966377258e-02 8.741271495819091797e-01 7.632181979715824127e-03
-8.271408081054687500e-02 7.827867269515991211e-01 2.317300252616405487e-02
-2.155996672809123993e-02 8.667765259742736816e-01 -2.247482165694236755e-02
6.363404542207717896e-02 6.973435878753662109e-01 2.092746458947658539e-02
5.631420388817787170e-02 7.624933123588562012e-01 2.201127260923385620e-02
8.781186491250991821e-02 6.797645688056945801e-01 -1.184456422924995422e-02
-3.189449012279510498e-02 7.044924497604370117e-01 2.401721477508544922e-02
9.696984291076660156e-02 7.090094685554504395e-01 -8.362727239727973938e-03
-9.741850197315216064e-03 9.180451035499572754e-01 1.297513023018836975e-02
6.601583957672119141e-02 7.258250713348388672e-01 2.068478614091873169e-02
6.915060430765151978e-02 6.576941609382629395e-01 -1.265788637101650238e-02
-9.671299159526824951e-02 8.051888346672058105e-01 -2.367372158914804459e-03
-9.833566844463348389e-02 8.322967290878295898e-01 -6.111378315836191177e-03
8.568533509969711304e-02 6.605319976806640625e-01 9.697278961539268494e-03
2.459156140685081482e-02 6.811937689781188965e-01 2.487324737012386322e-02
-7.045148313045501709e-02 7.987175583839416504e-01 -1.423562131822109222e-02
-1.097576022148132324e-01 8.667776584625244141e-01 -2.006443217396736145e-03
-9.839389473199844360e-03 7.581565380096435547e-01 3.166108205914497375e-02
-7.213521748781204224e-03 7.113195657730102539e-01 2.842314913868904114e-02
-9.363339096307754517e-02 9.352287054061889648e-01 -4.326388239860534668e-03
-1.903704553842544556e-02 6.665912866592407227e-01 1.424857787787914276e-02
-1.902293786406517029e-02 7.571185827255249023e-01 3.162116557359695435e-02
-9.689790196716785431e-03 6.765672564506530762e-01 -9.598271921277046204e-03
-2.086552232503890991e-02 7.008949518203735352e-01 2.546281926333904266e-02
1.819917932152748108e-02 9.032983779907226562e-01 -4.535123240202665329e-03
5.017124861478805542e-02 8.086876273155212402e-01 1.887397654354572296e-02
5.699763074517250061e-02 6.957054734230041504e-01 -1.970642618834972382e-02
-3.921717405319213867e-02 9.375444650650024414e-01 1.400224864482879639e-02
-4.980314522981643677e-02 7.297359108924865723e-01 2.480300515890121460e-02
-2.712054178118705750e-02 8.143399953842163086e-01 3.192798420786857605e-02
4.460040852427482605e-02 6.918199658393859863e-01 2.424856275320053101e-02
-3.724826872348785400e-02 8.017779588699340820e-01 -2.221114374697208405e-02
5.293557420372962952e-03 8.269588947296142578e-01 2.810799889266490936e-02
-4.932178929448127747e-02 9.552404284477233887e-01 2.952177077531814575e-03
-5.705010145902633667e-02 8.489598631858825684e-01 -1.997570879757404327e-02
-2.750575169920921326e-02 8.810219168663024902e-01 -2.106991037726402283e-02
-6.434692069888114929e-03 7.174433469772338867e-01 -1.927386410534381866e-02
-4.205874726176261902e-02 9.507014751434326172e-01 -2.646975219249725342e-03
3.106401860713958740e-02 7.278047800064086914e-01 2.791814506053924561e-02
-8.258388191461563110e-02 8.443923592567443848e-01 2.759868837893009186e-02
-4.675231873989105225e-02 8.027925491333007812e-01 -2.062133699655532837e-02
-8.573572337627410889e-02 8.354317545890808105e-01 -1.216117851436138153e-02
-4.112118855118751526e-02 8.104019165039062500e-01 3.201508522033691406e-02
3.234195709228515625e-02 7.802181243896484375e-01 2.683499827980995178e-02
1.343128550797700882e-02 8.326445817947387695e-01 -2.400945313274860382e-02
2.272641658782958984e-02 7.587098479270935059e-01 -2.502167969942092896e-02
-4.482326656579971313e-02 8.882716298103332520e-01 -1.962631754577159882e-02
7.097148895263671875e-02 8.045242428779602051e-01 -1.269334368407726288e-02
5.694597586989402771e-02 8.254905343055725098e-01 -1.532383449375629425e-02
-6.720434129238128662e-02 8.847371339797973633e-01 2.716228365898132324e-02
-1.190155558288097382e-02 8.867600560188293457e-01 2.264025621116161346e-02
-9.127310663461685181e-02 7.820262908935546875e-01 1.781044900417327881e-02
7.327632606029510498e-02 7.074829936027526855e-01 -1.840824633836746216e-02
-4.839914664626121521e-02 7.118759751319885254e-01 -5.052163731306791306e-03
-4.764829203486442566e-02 9.387829303741455078e-01 1.519027352333068848e-02
