-3.540598750114440918e-01 -2.750308811664581299e-01 -8.913334608078002930e-01
-1.696165204048156738e-01 -4.326817393302917480e-02 -3.861024379730224609e-01
-8.134854584932327271e-02 -1.850204765796661377e-01 -9.307752847671508789e-01
-4.397577345371246338e-01 -3.886154294013977051e-01 -1.374596953392028809e-01
1.340366303920745850e-01 -1.160183548927307129e-01 -6.045726537704467773e-01
-2.184781134128570557e-01 -7.398955523967742920e-02 2.732549011707305908e-01
1.648235619068145752e-01 -3.013902306556701660e-01 2.488789856433868408e-01
-3.104402422904968262e-01 -2.239499390125274658e-01 -8.946224451065063477e-01
-2.253656983375549316e-01 -3.146013617515563965e-01 4.190575182437896729e-01
-9.108419716358184814e-02 -4.022677242755889893e-02 2.252650260925292969e-01
-7.554636895656585693e-02 -4.634083807468414307e-01 -5.585138797760009766e-01
-3.492197394371032715e-02 -4.625738859176635742e-01 -4.334652721881866455e-01
-1.653913855552673340e-01 -2.032558321952819824e-01 -9.558092355728149414e-01
-5.923576653003692627e-03 -2.231079339981079102e-02 4.367360472679138184e-02
-2.967442572116851807e-01 -6.219246983528137207e-02 -1.671685278415679932e-01
-1.749255806207656860e-01 -4.677218198776245117e-01 -6.002979278564453125e-01
1.186233982443809509e-01 -3.985316455364227295e-01 -6.366761028766632080e-02
-4.423471987247467041e-01 -1.470779925584793091e-01 -2.041910588741302490e-01
5.133188515901565552e-02 -1.290122568607330322e-01 -7.485800981521606445e-01
-4.975385367870330811e-01 -2.347521334886550903e-01 -1.213727369904518127e-01
-2.919368147850036621e-01 -6.734974682331085205e-02 4.333052039146423340e-02
1.352600008249282837e-02 -2.578038275241851807e-01 -9.556410312652587891e-01
1.980457007884979248e-01 -3.569814860820770264e-01 -4.359882473945617676e-01
-1.255761533975601196e-01 -4.160042405128479004e-01 1.706716418266296387e-01
-7.261998951435089111e-02 -3.082218766212463379e-02 -3.433573246002197266e-01
-2.789923846721649170e-01 -2.300434112548828125e-01 -9.320428371429443359e-01
2.793651223182678223e-01 -2.490894496440887451e-01 -3.244979381561279297e-01
-5.133055448532104492e-01 -2.798227369785308838e-01 -2.812970280647277832e-01
-1.043438166379928589e-02 -2.544623613357543945e-01 5.114935636520385742e-01
-8.876518905162811279e-02 -2.341000735759735107e-02 -2.409608364105224609e-01
-6.072904542088508606e-02 -1.673976182937622070e-01 -8.960931301116943359e-01
-2.467927932739257812e-01 -8.792856335639953613e-02 -5.796091556549072266e-01
5.310431867837905884e-02 -2.644753456115722656e-02 -3.900417685508728027e-02
-1.042988225817680359e-01 -9.884345531463623047e-02 -7.208443284034729004e-01
2.885086834430694580e-01 -2.251189202070236206e-01 -2.325992733240127563e-01
2.458871155977249146e-02 -4.389096200466156006e-01 -1.263708472251892090e-01
-1.621311306953430176e-01 -3.667968511581420898e-01 -9.735536575317382812e-01
-3.109117448329925537e-01 -8.237929642200469971e-02 -4.033542871475219727e-01
-2.411094605922698975e-01 -5.521801114082336426e-02 1.098860502243041992e-01
6.086423248052597046e-02 -4.156458973884582520e-01 -1.650826632976531982e-02
3.047912567853927612e-02 -9.522418677806854248e-02 4.183247387409210205e-01
2.673754841089248657e-02 -3.634683191776275635e-01 -8.727915287017822266e-01
-1.374560743570327759e-01 -4.516333937644958496e-01 -7.171663045883178711e-01
2.208839058876037598e-01 -1.299432516098022461e-01 1.846770048141479492e-01
-1.911108195781707764e-02 -1.634991466999053955e-01 -8.734427690505981445e-01
-2.387848496437072754e-01 -3.541915118694305420e-01 3.337315022945404053e-01
-4.415869712829589844e-01 -2.053465694189071655e-01 -6.107359528541564941e-01
-3.298007845878601074e-01 -4.033873081207275391e-01 -8.077567815780639648e-01
2.509736418724060059e-01 -1.184736788272857666e-01 -9.774506092071533203e-02
-1.183145120739936829e-01 -2.290412783622741699e-02 -1.882221400737762451e-01
3.824082762002944946e-02 -3.349008262157440186e-01 3.491065204143524170e-01
-2.729605138301849365e-01 -4.477511346340179443e-01 -6.935488581657409668e-01
-3.828711211681365967e-01 -3.972167968750000000e-01 9.736075997352600098e-03
-2.222697138786315918e-01 -4.220669865608215332e-01 1.213340759277343750e-01
-3.871202170848846436e-01 -3.349050879478454590e-01 1.941435039043426514e-01
-8.640883862972259521e-02 -4.269389212131500244e-01 1.072143614292144775e-01
-5.777306854724884033e-02 -5.355544388294219971e-02 3.073419034481048584e-01
-2.563461065292358398e-01 -1.278517842292785645e-01 3.867488205432891846e-01
2.792131304740905762e-01 -1.631369888782501221e-01 -9.159636497497558594e-02
-1.887988299131393433e-02 -4.422515630722045898e-01 -5.851976573467254639e-02
1.542192995548248291e-01 -3.554644286632537842e-01 8.865255117416381836e-02
-1.138026937842369080e-01 -2.066119015216827393e-02 -9.740585088729858398e-02
-4.558985233306884766e-01 -1.640350967645645142e-01 -3.195018768310546875e-01
-3.406143486499786377e-01 -3.395608663558959961e-01 -9.013574123382568359e-01
-9.391815215349197388e-02 -4.722239971160888672e-01 -3.433731198310852051e-01
1.083235666155815125e-01 -4.019156694412231445e-01 -5.733599662780761719e-01
1.137220785021781921e-01 -2.547988891601562500e-01 4.122168719768524170e-01
-2.026439607143402100e-01 -1.612417697906494141e-01 4.876681864261627197e-01
9.578045457601547241e-02 -1.397747695446014404e-01 -7.276085615158081055e-01
-2.975144386291503906e-01 -4.208784997463226318e-01 5.563044548034667969e-02
-2.839433252811431885e-01 -6.123374402523040771e-02 -2.687306702136993408e-01
2.364903390407562256e-01 -1.896309256553649902e-01 -5.333431959152221680e-01
-3.792778253555297852e-01 -3.804000616073608398e-01 8.519336581230163574e-02
-1.098516359925270081e-01 -3.675339519977569580e-01 3.373512327671051025e-01
-2.289874851703643799e-01 -6.802134215831756592e-02 2.265008091926574707e-01
-2.885250747203826904e-01 -4.532036185264587402e-01 -1.443060934543609619e-01
2.739368677139282227e-01 -2.767184972763061523e-01 -1.772148609161376953e-01
-4.203813374042510986e-01 -2.725396156311035156e-01 2.068803906440734863e-01
-1.483360528945922852e-01 -1.505558490753173828e-01 -8.626273870468139648e-01
5.007877200841903687e-02 -3.929534554481506348e-01 -7.633351087570190430e-01
-3.293451964855194092e-01 -4.169200360774993896e-01 -7.642509937286376953e-01
-3.096518516540527344e-01 -8.845645189285278320e-02 1.494040489196777344e-01
1.626612991094589233e-02 -5.882568657398223877e-02 3.114819228649139404e-01
-3.489986062049865723e-01 -1.342003941535949707e-01 2.362403869628906250e-01
2.329859137535095215e-01 -3.169990479946136475e-01 -4.507805705070495605e-01
2.467873692512512207e-01 -1.476040184497833252e-01 -3.904131054878234863e-01
5.852543562650680542e-02 -3.486412763595581055e-02 1.094594895839691162e-01
-3.448299467563629150e-01 -2.371500283479690552e-01 -8.706234693527221680e-01
-3.299953341484069824e-01 -7.575929164886474609e-02 -1.461264789104461670e-01
-2.501963675022125244e-01 -3.892707228660583496e-01 -9.137815237045288086e-01
-3.619633913040161133e-01 -2.097957283258438110e-01 3.286751806735992432e-01
1.624555587768554688e-01 -2.600745856761932373e-01 -7.630032300949096680e-01
-3.392738997936248779e-01 -4.511468410491943359e-01 -5.023179054260253906e-01
-3.251550197601318359e-01 -3.267118036746978760e-01 3.072800934314727783e-01
-1.974856108427047729e-02 -4.488564729690551758e-01 -1.198539733886718750e-01
-2.756587564945220947e-01 -4.624340832233428955e-01 -5.634221434593200684e-01
2.830706536769866943e-01 -2.517449855804443359e-01 -1.390018165111541748e-01
-1.581395268440246582e-01 -5.983819067478179932e-02 -5.208604335784912109e-01
2.599608600139617920e-01 -2.979254722595214844e-01 -3.116941750049591064e-01
-1.156064793467521667e-01 -2.336445450782775879e-02 2.427071332931518555e-02
2.181498706340789795e-01 -3.472753167152404785e-01 -2.089268863201141357e-01
7.891914993524551392e-02 -1.155976057052612305e-01 4.219721853733062744e-01
-4.560470581054687500e-01 -3.852553665637969971e-01 -2.115992307662963867e-01
-2.244565635919570923e-01 -4.406563043594360352e-01 -7.699235677719116211e-01
-1.339651644229888916e-02 -2.475172281265258789e-02 -2.520480453968048096e-01
-2.628724575042724609e-01 -4.610359072685241699e-01 -6.031196713447570801e-01
1.896387040615081787e-01 -3.332523703575134277e-01 7.832023501396179199e-02
7.286202162504196167e-02 -4.813361167907714844e-02 1.969366073608398438e-01
-1.493600308895111084e-01 -7.679998874664306641e-02 3.594662249088287354e-01
-9.094773232936859131e-02 -2.699192464351654053e-01 5.142489671707153320e-01
2.039107978343963623e-01 -8.164024353027343750e-02 -1.536157727241516113e-02
-1.851823031902313232e-01 -4.761867523193359375e-01 -4.466654658317565918e-01
-4.730029404163360596e-01 -1.821948587894439697e-01 -1.522131860256195068e-01
-1.957487165927886963e-01 -4.573730528354644775e-01 -6.860822439193725586e-01
-6.429971754550933838e-02 -2.055628597736358643e-02 3.231623768806457520e-02
-8.284904062747955322e-02 -4.548748135566711426e-01 -8.228632807731628418e-02
1.325803399085998535e-01 -3.371590375900268555e-01 2.119338810443878174e-01
-1.603437960147857666e-01 -3.335751891136169434e-01 4.130520522594451904e-01
-1.089266389608383179e-01 -2.038112729787826538e-01 -9.610929489135742188e-01
2.250105887651443481e-02 -4.301691353321075439e-01 -6.421029567718505859e-01
-1.200642138719558716e-01 -3.429824411869049072e-01 3.985711634159088135e-01
2.428993582725524902e-01 -1.323265880346298218e-01 -3.447880446910858154e-01
-1.925997585058212280e-01 -3.983402848243713379e-01 2.305757403373718262e-01
-1.931645572185516357e-01 -7.235266268253326416e-02 -5.617524385452270508e-01
-7.473034411668777466e-02 -4.022443890571594238e-01 -8.789402246475219727e-01
-2.393946051597595215e-03 -4.484520852565765381e-02 2.524817287921905518e-01
-3.184074759483337402e-01 -1.170999854803085327e-01 -5.998016595840454102e-01
1.442957222461700439e-01 -9.302423894405364990e-02 -4.961215257644653320e-01
2.041657865047454834e-01 -3.055714964866638184e-01 -6.165825128555297852e-01
-2.110776007175445557e-01 -4.757724106311798096e-01 -4.014461636543273926e-01
6.294291466474533081e-02 -4.311598539352416992e-01 -4.953141212463378906e-01
1.066388711333274841e-01 -7.664035260677337646e-02 2.873421013355255127e-01
9.379593282938003540e-02 -3.440791368484497070e-01 2.571048140525817871e-01
-1.458061337471008301e-01 -2.994383573532104492e-01 4.736982285976409912e-01
-4.280462265014648438e-01 -1.558162569999694824e-01 -4.588153958320617676e-01
-2.001975774765014648e-01 -1.784306466579437256e-01 -9.031794071197509766e-01
-2.547239363193511963e-01 -1.472049951553344727e-01 -7.940365076065063477e-01
-4.755952954292297363e-02 -3.911923468112945557e-01 2.423570454120635986e-01
-4.167192578315734863e-01 -1.755620986223220825e-01 -5.945538878440856934e-01
-2.855845093727111816e-01 -2.114454060792922974e-01 4.397724568843841553e-01
-2.733806073665618896e-01 -1.214961707592010498e-01 -6.908460259437561035e-01
-4.972796514630317688e-02 -9.991079568862915039e-02 4.534800946712493896e-01
-4.856169223785400391e-01 -2.128454893827438354e-01 -4.190017580986022949e-01
6.044634431600570679e-02 -2.590881884098052979e-01 -9.134253263473510742e-01
-4.621684253215789795e-01 -3.339581191539764404e-01 -5.492299795150756836e-03
-2.627175748348236084e-01 -5.018092691898345947e-02 -1.326868236064910889e-01
-2.437728345394134521e-01 -4.621622562408447266e-01 -1.610562652349472046e-01
2.434613555669784546e-02 -4.121285676956176758e-02 2.113329172134399414e-01
-3.752454221248626709e-01 -2.540681064128875732e-01 3.092177808284759521e-01
-3.711861670017242432e-01 -1.413160264492034912e-01 1.990723609924316406e-01
-1.598770022392272949e-01 -4.104089140892028809e-01 1.936037838459014893e-01
2.455604374408721924e-01 -1.160978078842163086e-01 -2.027120888233184814e-01
8.916749805212020874e-02 -9.664921462535858154e-02 -6.053503751754760742e-01
1.131504550576210022e-01 -5.042824149131774902e-02 -2.944235205650329590e-01
-2.918412089347839355e-01 -4.520487785339355469e-01 -6.355947256088256836e-01
-4.571062326431274414e-01 -1.619530022144317627e-01 -2.562761604785919189e-01
3.297162801027297974e-02 -4.284133315086364746e-01 -4.834645986557006836e-02
-1.286978423595428467e-01 -4.282742142677307129e-01 1.136555969715118408e-01
1.645101904869079590e-01 -1.789732873439788818e-01 -6.993700265884399414e-01
-3.399437069892883301e-01 -8.591157197952270508e-02 -3.076173067092895508e-01
2.501662969589233398e-01 -2.894505262374877930e-01 -2.297386527061462402e-03
-2.612218558788299561e-01 -4.440064430236816406e-01 -3.096602857112884521e-02
-2.762523889541625977e-01 -3.658309876918792725e-01 2.751591503620147705e-01
-5.004827380180358887e-01 -2.261172980070114136e-01 -3.171068131923675537e-01
-4.901748597621917725e-01 -2.440021038055419922e-01 -5.001278519630432129e-01
2.589284181594848633e-01 -1.556932628154754639e-01 7.995307445526123047e-02
1.479754745960235596e-01 -2.222209423780441284e-01 -7.781744003295898438e-01
-5.102120637893676758e-01 -2.592918276786804199e-01 -2.253405749797821045e-01
2.447337210178375244e-01 -2.748131752014160156e-01 7.826414704322814941e-02
-5.101559162139892578e-01 -2.735818326473236084e-01 -3.885822296142578125e-01
-4.437942504882812500e-01 -1.946343928575515747e-01 -5.692780017852783203e-01
1.279262304306030273e-01 -2.816632688045501709e-01 3.547315895557403564e-01
-5.466624721884727478e-02 -7.851557433605194092e-02 -6.398407220840454102e-01
-1.396890282630920410e-01 -2.449375241994857788e-01 -1.003144860267639160e+00
-5.727745965123176575e-02 -4.415398836135864258e-02 -4.552289247512817383e-01
1.882390677928924561e-01 -3.575723171234130859e-01 -4.966642558574676514e-01
-2.280582934617996216e-01 -4.680393338203430176e-01 -2.124741822481155396e-01
-4.309178590774536133e-01 -3.540250658988952637e-01 4.312297701835632324e-02
-1.658457070589065552e-01 -1.951088607311248779e-01 5.286581516265869141e-01
-3.794616162776947021e-01 -1.054746508598327637e-01 -4.624883830547332764e-02
-1.292871534824371338e-01 -2.183750271797180176e-01 5.414748191833496094e-01
9.284772723913192749e-02 -3.297656774520874023e-01 2.997225821018218994e-01
1.373594105243682861e-01 -6.009210646152496338e-02 1.323110759258270264e-01
-1.802139878273010254e-01 -3.748082816600799561e-01 3.093295395374298096e-01
2.026095092296600342e-01 -1.075066626071929932e-01 -4.007210731506347656e-01
2.907215803861618042e-02 -5.798223614692687988e-02 -4.950249493122100830e-01
-1.473062932491302490e-01 -3.828524053096771240e-02 1.600241959095001221e-01
-4.787754714488983154e-01 -3.548040688037872314e-01 -1.661802083253860474e-01
-4.272448420524597168e-01 -2.119501978158950806e-01 -6.712862253189086914e-01
-1.107182130217552185e-01 -4.726842045783996582e-01 -4.695287942886352539e-01
1.658352017402648926e-01 -1.707271188497543335e-01 3.691469728946685791e-01
-9.160311520099639893e-02 -4.710676670074462891e-01 -3.017734885215759277e-01
-2.310616672039031982e-01 -3.366204202175140381e-01 3.765278756618499756e-01
2.731508016586303711e-01 -2.258609384298324585e-01 3.553199768066406250e-02
1.343720853328704834e-01 -4.043986499309539795e-01 -3.772591948509216309e-01
2.071934342384338379e-01 -3.025030493736267090e-01 1.358339488506317139e-01
2.800770103931427002e-03 -1.856062710285186768e-01 5.313016176223754883e-01
-2.759494185447692871e-01 -1.055383384227752686e-01 -6.216949820518493652e-01
-1.078098192811012268e-01 -2.068097889423370361e-02 -1.412862837314605713e-01
-2.229330539703369141e-01 -5.043248832225799561e-02 -3.558272123336791992e-01
1.414292752742767334e-01 -5.509158968925476074e-02 -2.363639026880264282e-01
-3.880067914724349976e-02 -6.945504248142242432e-02 3.702371418476104736e-01
1.655230522155761719e-01 -3.490589261054992676e-01 -6.306427121162414551e-01
-1.640672832727432251e-01 -2.748998999595642090e-02 -4.456438124179840088e-02
-3.949903547763824463e-01 -2.909469306468963623e-01 2.467795312404632568e-01
6.575008481740951538e-02 -4.296132922172546387e-01 -1.700829565525054932e-01
-3.115048706531524658e-01 -1.046680659055709839e-01 -5.523279905319213867e-01
-9.846445173025131226e-02 -3.889811635017395020e-01 -9.228229522705078125e-01
-1.856007874011993408e-01 -8.184428513050079346e-02 -6.169474124908447266e-01
-2.977129817008972168e-01 -1.681348681449890137e-01 -8.032865524291992188e-01
7.173085957765579224e-02 -3.967365324497222900e-01 -7.061116099357604980e-01
-1.743696033954620361e-01 -3.391648828983306885e-02 -2.670177519321441650e-01
2.564720511436462402e-01 -1.764681637287139893e-01 -4.286721348762512207e-01
-2.748497575521469116e-02 -4.116964340209960938e-01 -8.096292018890380859e-01
-3.916085064411163330e-01 -1.807015836238861084e-01 2.351645529270172119e-01
1.840732097625732422e-01 -1.118970215320587158e-01 -4.798098802566528320e-01
-1.076829731464385986e-01 -1.328821182250976562e-01 -8.247308731079101562e-01
-2.305497974157333374e-01 -1.652368307113647461e-01 -8.585494756698608398e-01
-9.881652146577835083e-02 -6.107966601848602295e-02 3.298028409481048584e-01
-3.863723576068878174e-02 -4.504340589046478271e-01 -6.207768917083740234e-01
-3.570761680603027344e-01 -4.356145858764648438e-01 -1.602260619401931763e-01
3.201929479837417603e-02 -3.185762465000152588e-02 -2.853415310382843018e-01
-4.427283257246017456e-02 -2.546641230583190918e-02 -2.804321050643920898e-01
-1.768458634614944458e-01 -2.754803597927093506e-01 -1.014937281608581543e+00
2.644923031330108643e-01 -2.822959423065185547e-01 -3.624190688133239746e-01
2.241138815879821777e-01 -3.081514239311218262e-01 5.205735564231872559e-02
-3.738520741462707520e-01 -1.796309351921081543e-01 -7.143609523773193359e-01
2.843276262283325195e-01 -1.750869452953338623e-01 -1.333490908145904541e-01
2.853986322879791260e-01 -2.083636820316314697e-01 -2.845285236835479736e-01
1.352061331272125244e-01 -3.678912520408630371e-01 -6.575707197189331055e-01
-3.693948686122894287e-01 -1.469800025224685669e-01 -6.156877279281616211e-01
-3.646071553230285645e-01 -1.065143644809722900e-01 -4.004955291748046875e-01
1.171576157212257385e-01 -4.123670160770416260e-01 -2.343321442604064941e-01
1.005548909306526184e-01 -4.190751910209655762e-01 -4.313337802886962891e-01
2.067881077527999878e-02 -4.484694898128509521e-01 -2.624799311161041260e-01
-9.638297557830810547e-02 -4.514114856719970703e-01 -4.175424575805664062e-02
4.087515920400619507e-02 -3.492302596569061279e-01 3.082168400287628174e-01
-1.905537545680999756e-01 -4.752827882766723633e-01 -3.090156018733978271e-01
1.445559263229370117e-01 -3.892868161201477051e-01 -5.045910477638244629e-01
-2.618504762649536133e-01 -7.015618681907653809e-02 1.685801744461059570e-01
7.255404442548751831e-02 -4.403653740882873535e-02 -3.362726569175720215e-01
1.777505576610565186e-01 -6.700918078422546387e-02 -1.737267971038818359e-01
2.944519370794296265e-02 -2.341160178184509277e-02 -1.335525810718536377e-01
-4.136657118797302246e-01 -2.341775298118591309e-01 -7.477399110794067383e-01
-1.997352093458175659e-01 -3.615914881229400635e-01 1.346870809793472290e-01
-1.879916489124298096e-01 -3.726394772529602051e-01 -4.972624033689498901e-02
-1.077691465616226196e-01 -3.773335218429565430e-01 -1.011866033077239990e-01
-3.933503478765487671e-02 -3.585327565670013428e-01 -3.253577053546905518e-01
-1.639407277107238770e-01 -3.749010860919952393e-01 1.037407591938972473e-01
2.818874642252922058e-02 -3.555808663368225098e-01 -6.398076564073562622e-02
7.079135626554489136e-02 -3.814658522605895996e-01 3.550359606742858887e-02
2.245860695838928223e-01 -3.750883340835571289e-01 -4.113483726978302002e-01
-2.116951793432235718e-01 -3.703003227710723877e-01 1.112778335809707642e-01
-1.364316344261169434e-01 -3.595066666603088379e-01 -1.997077316045761108e-01
-5.138063430786132812e-02 -3.607493937015533447e-01 -4.074859023094177246e-01
3.143100142478942871e-01 -3.691824376583099365e-01 1.542799323797225952e-01
2.185335196554660797e-02 -3.801022171974182129e-01 -2.033369988203048706e-01
-1.199195086956024170e-01 -3.597477972507476807e-01 -2.583509981632232666e-01
2.573123574256896973e-01 -3.612967729568481445e-01 3.386718779802322388e-02
2.644209563732147217e-01 -3.752148747444152832e-01 -3.235541284084320068e-01
2.268661744892597198e-02 -3.797674179077148438e-01 2.805578112602233887e-01
1.700559556484222412e-01 -3.618016242980957031e-01 -4.175947010517120361e-01
2.512131333351135254e-01 -3.630560636520385742e-01 -2.924910783767700195e-01
-1.592563986778259277e-01 -3.731630146503448486e-01 3.104040026664733887e-01
1.436949372291564941e-01 -3.577675819396972656e-01 -2.050961256027221680e-01
2.281888425350189209e-01 -3.797114491462707520e-01 -3.040630556643009186e-02
-2.179253846406936646e-02 -3.756568431854248047e-01 -4.163647890090942383e-01
8.702307939529418945e-02 -3.559123873710632324e-01 -6.965925917029380798e-03
-2.028863579034805298e-01 -3.638359308242797852e-01 2.539955675601959229e-01
2.237483486533164978e-02 -3.781681358814239502e-01 3.943091332912445068e-01
-5.654881149530410767e-02 -3.645564317703247070e-01 5.621634721755981445e-01
1.545695215463638306e-02 -3.809767365455627441e-01 -5.770588293671607971e-03
1.544048190116882324e-01 -3.794167637825012207e-01 2.839403748512268066e-01
2.749161720275878906e-01 -3.776019811630249023e-01 -1.030685007572174072e-01
1.067437380552291870e-01 -3.562462329864501953e-01 5.931861698627471924e-02
2.874033525586128235e-02 -3.809356987476348877e-01 -8.871504664421081543e-02
-9.866058826446533203e-02 -3.573392331600189209e-01 -1.338704973459243774e-01
2.521666139364242554e-02 -3.555070459842681885e-01 8.538825809955596924e-02
-3.956560790538787842e-02 -3.799694776535034180e-01 1.155651733279228210e-02
1.972487866878509521e-01 -3.586193025112152100e-01 6.905012577772140503e-02
1.041967570781707764e-01 -3.598333597183227539e-01 -4.026017189025878906e-01
-9.943297505378723145e-02 -3.766840994358062744e-01 -2.048041522502899170e-01
2.160100787878036499e-01 -3.795575499534606934e-01 -1.643537729978561401e-01
2.548479437828063965e-01 -3.785796463489532471e-01 5.382130295038223267e-02
2.214810848236083984e-01 -3.596313595771789551e-01 -1.100563555955886841e-01
-2.725005149841308594e-02 -3.597134351730346680e-01 4.567794203758239746e-01
1.306731253862380981e-03 -3.554671406745910645e-01 -1.926448754966259003e-02
2.671352028846740723e-01 -3.689358532428741455e-01 -3.982908129692077637e-01
-8.184137940406799316e-02 -3.701102137565612793e-01 5.455262064933776855e-01
-9.387260675430297852e-02 -3.566915988922119141e-01 -5.110655725002288818e-02
-4.084888100624084473e-02 -3.782945573329925537e-01 3.141196072101593018e-01
3.220471143722534180e-01 -3.733291029930114746e-01 -7.931541651487350464e-02
1.272769421339035034e-01 -3.801833987236022949e-01 -2.485261857509613037e-01
1.373380869626998901e-01 -3.611912727355957031e-01 -4.322225153446197510e-01
-3.510981798171997070e-02 -3.582576811313629150e-01 3.829578757286071777e-01
2.324891239404678345e-01 -3.605268001556396484e-01 -1.747019588947296143e-01
1.685894727706909180e-01 -3.778344392776489258e-01 -3.759274184703826904e-01
-4.282396286725997925e-02 -3.563287258148193359e-01 2.152422368526458740e-01
-5.120929330587387085e-02 -3.772786855697631836e-01 -2.943252027034759521e-01
3.083748817443847656e-01 -3.655751645565032959e-01 -1.115018427371978760e-01
-7.520720362663269043e-03 -3.648096919059753418e-01 -5.295835733413696289e-01
3.270203471183776855e-01 -3.723320960998535156e-01 -3.913895040750503540e-02
2.429717034101486206e-01 -3.627119064331054688e-01 2.608029842376708984e-01
-8.442349731922149658e-02 -3.563549220561981201e-01 1.004056259989738464e-01
2.751668728888034821e-02 -3.660914599895477295e-01 6.018118858337402344e-01
-1.271076202392578125e-01 -3.632257878780364990e-01 -3.591908216476440430e-01
2.023769319057464600e-01 -3.767353594303131104e-01 -3.871796429157257080e-01
1.264604926109313965e-02 -3.783194124698638916e-01 -3.328805565834045410e-01
1.260637864470481873e-02 -3.807677924633026123e-01 1.220692098140716553e-01
1.982947736978530884e-01 -3.668851256370544434e-01 -5.014691352844238281e-01
2.472320944070816040e-01 -3.618687391281127930e-01 1.884747445583343506e-01
2.738408744335174561e-01 -3.774602115154266357e-01 -1.375562399625778198e-01
4.296566545963287354e-02 -3.787940144538879395e-01 -3.329023718833923340e-01
2.340548336505889893e-01 -3.652248382568359375e-01 3.775156140327453613e-01
2.188676148653030396e-01 -3.610832095146179199e-01 -2.808929085731506348e-01
8.462926000356674194e-02 -3.814029097557067871e-01 -6.959263980388641357e-02
-1.424928754568099976e-02 -3.555827140808105469e-01 1.059442833065986633e-01
1.386008113622665405e-01 -3.571546077728271484e-01 -1.325616836547851562e-01
2.152121216058731079e-01 -3.790031671524047852e-01 1.957425177097320557e-01
-1.237828284502029419e-02 -3.574995696544647217e-01 -2.837479412555694580e-01
-8.534824848175048828e-02 -3.568075001239776611e-01 -1.072710230946540833e-01
5.256384611129760742e-05 -3.556281626224517822e-01 -7.495889812707901001e-02
9.948322176933288574e-02 -3.746920824050903320e-01 5.233474373817443848e-01
7.741846889257431030e-02 -3.735556006431579590e-01 -5.337489843368530273e-01
-2.876907587051391602e-02 -3.555861115455627441e-01 -3.271142020821571350e-03
8.407064527273178101e-02 -3.566160202026367188e-01 -1.864754855632781982e-01
2.246698141098022461e-01 -3.789899349212646484e-01 -2.028246223926544189e-01
1.719344556331634521e-01 -3.578781187534332275e-01 9.624052792787551880e-02
-5.542653799057006836e-02 -3.578599989414215088e-01 3.433136045932769775e-01
-4.520844668149948120e-03 -3.806006908416748047e-01 9.406681358814239502e-02
-1.978230029344558716e-01 -3.639655113220214844e-01 -1.526269316673278809e-01
-5.737153440713882446e-02 -3.735111653804779053e-01 -4.351094365119934082e-01
-1.530304104089736938e-01 -3.586194217205047607e-01 1.510500758886337280e-01
-7.526461780071258545e-02 -3.777687251567840576e-01 2.772691845893859863e-01
-1.500941812992095947e-03 -3.554622828960418701e-01 6.862528622150421143e-02
-4.313363879919052124e-02 -3.796582520008087158e-01 -7.481435686349868774e-02
1.315380334854125977e-01 -3.813249468803405762e-01 -6.508534401655197144e-02
-5.915798246860504150e-04 -3.807519972324371338e-01 1.863792352378368378e-02
-9.149659425020217896e-03 -3.792541921138763428e-01 -2.327938079833984375e-01
-1.344951242208480835e-02 -3.796126842498779297e-01 -1.874380856752395630e-01
-1.220547258853912354e-01 -3.583586513996124268e-01 2.638730406761169434e-01
-1.381044834852218628e-02 -3.554741442203521729e-01 2.123900316655635834e-02
3.640794381499290466e-02 -3.584648370742797852e-01 -3.580470383167266846e-01
-5.709047615528106689e-02 -3.572756648063659668e-01 -2.196990102529525757e-01
1.481455564498901367e-01 -3.812677264213562012e-01 -5.990069359540939331e-03
1.569080054759979248e-01 -3.787413537502288818e-01 3.261382877826690674e-01
-1.595491617918014526e-01 -3.727751374244689941e-01 -2.129206508398056030e-01
-1.593351513147354126e-01 -3.683148026466369629e-01 4.331150650978088379e-01
-1.426484584808349609e-01 -3.752766251564025879e-01 2.396812438964843750e-01
2.112314850091934204e-01 -3.795040845870971680e-01 1.557977199554443359e-01
6.725470721721649170e-02 -3.582707941532135010e-01 -3.406203091144561768e-01
1.226867586374282837e-01 -3.808792233467102051e-01 -1.708758920431137085e-01
3.021242618560791016e-01 -3.757357001304626465e-01 2.671456336975097656e-02
1.274472773075103760e-01 -3.601312935352325439e-01 4.015410840511322021e-01
8.213993906974792480e-02 -3.814563453197479248e-01 6.401434540748596191e-02
-1.145864278078079224e-02 -3.802612423896789551e-01 -9.821674972772598267e-02
1.087585985660552979e-01 -3.632737398147583008e-01 -5.139515995979309082e-01
2.227220088243484497e-01 -3.652473986148834229e-01 4.042747020721435547e-01
3.756468743085861206e-02 -3.570112884044647217e-01 2.998302578926086426e-01
9.202182292938232422e-02 -3.796836137771606445e-01 3.103322386741638184e-01
1.030890345573425293e-01 -3.644841313362121582e-01 -5.400164723396301270e-01
2.763266861438751221e-01 -3.770781457424163818e-01 -1.666835695505142212e-01
7.754627615213394165e-03 -3.606277108192443848e-01 4.967195093631744385e-01
1.938805282115936279e-01 -3.597909510135650635e-01 2.392586618661880493e-01
-2.230415493249893188e-02 -3.803534209728240967e-01 4.308955371379852295e-02
6.293645501136779785e-02 -3.744782507419586182e-01 -5.112578868865966797e-01
5.115540325641632080e-02 -3.813593685626983643e-01 2.321321517229080200e-04
-1.125608682632446289e-01 -3.572918176651000977e-01 -7.190384715795516968e-02
-1.367094516754150391e-01 -3.729412853717803955e-01 -2.859617173671722412e-01
5.210262537002563477e-02 -3.778671920299530029e-01 4.206762909889221191e-01
-1.083195358514785767e-01 -3.589781522750854492e-01 3.403700888156890869e-01
1.964099407196044922e-01 -3.596942424774169922e-01 -2.446846663951873779e-01
1.964606940746307373e-01 -3.584596216678619385e-01 8.647228591144084930e-03
2.301574945449829102e-01 -3.606456816196441650e-01 1.649277806282043457e-01
-9.533819556236267090e-02 -3.725936710834503174e-01 -3.949125111103057861e-01
7.083552330732345581e-02 -3.557890057563781738e-01 7.465419173240661621e-02
1.934279799461364746e-01 -3.587870597839355469e-01 1.317379325628280640e-01
-7.243609428405761719e-02 -3.790759742259979248e-01 1.477197371423244476e-02
-1.564662009477615356e-01 -3.715192973613739014e-01 3.839824795722961426e-01
2.690843343734741211e-01 -3.619298934936523438e-01 -2.372743748128414154e-02
1.710924878716468811e-02 -3.565208911895751953e-01 2.623765766620635986e-01
-1.258105635643005371e-01 -3.725663721561431885e-01 -3.283472955226898193e-01
1.224486976861953735e-01 -3.576676547527313232e-01 2.479701191186904907e-01
2.882482111454010010e-01 -3.697223663330078125e-01 -3.422063887119293213e-01
-7.786756753921508789e-02 -3.784809112548828125e-01 1.841757297515869141e-01
1.287744343280792236e-01 -3.721042871475219727e-01 5.519716143608093262e-01
1.985169947147369385e-01 -3.797137737274169922e-01 -1.991680711507797241e-01
2.815654575824737549e-01 -3.632978498935699463e-01 9.294023364782333374e-02
-1.039880514144897461e-02 -3.580424785614013672e-01 -3.202453851699829102e-01
-1.329545825719833374e-01 -3.591185808181762695e-01 2.921513319015502930e-01
3.128271922469139099e-02 -3.811400234699249268e-01 6.740896403789520264e-02
1.211993545293807983e-01 -3.798288404941558838e-01 -2.818223237991333008e-01
-1.717259734869003296e-01 -3.742430806159973145e-01 -1.656447537243366241e-02
-9.026437997817993164e-02 -3.783014416694641113e-01 1.394050121307373047e-01
4.097621515393257141e-02 -3.555178940296173096e-01 5.602563172578811646e-02
7.387250661849975586e-02 -3.810976445674896240e-01 1.550995707511901855e-01
-6.283140927553176880e-02 -3.576141893863677979e-01 3.179659545421600342e-01
7.082878053188323975e-02 -3.812802135944366455e-01 1.141570657491683960e-01
1.978023797273635864e-01 -3.804614841938018799e-01 -5.715494602918624878e-02
-4.370491951704025269e-03 -3.560717701911926270e-01 2.096471488475799561e-01
8.069640398025512695e-02 -3.605491816997528076e-01 4.674772918224334717e-01
-1.030813604593276978e-01 -3.657668828964233398e-01 5.305185317993164062e-01
3.291768953204154968e-02 -3.573157191276550293e-01 3.265489935874938965e-01
2.336037904024124146e-01 -3.794981539249420166e-01 -6.266202777624130249e-02
-2.529179304838180542e-02 -3.778867423534393311e-01 -3.057223856449127197e-01
6.148367747664451599e-02 -3.813444375991821289e-01 8.166702836751937866e-02
9.797786176204681396e-02 -3.813191354274749756e-01 1.106248572468757629e-01
1.530383378267288208e-01 -3.571571409702301025e-01 1.825975254178047180e-02
2.438201457262039185e-01 -3.776073753833770752e-01 2.160333395004272461e-01
-3.130063414573669434e-03 -3.744291067123413086e-01 5.273751020431518555e-01
-4.024196416139602661e-03 -3.590593338012695312e-01 -3.775243759155273438e-01
-3.624520450830459595e-02 -3.768477439880371094e-01 -3.454181551933288574e-01
2.383464425802230835e-01 -3.630709350109100342e-01 -3.336569070816040039e-01
3.746426850557327271e-02 -3.585679233074188232e-01 4.040025174617767334e-01
1.579866409301757812e-01 -3.794305324554443359e-01 -2.893425822257995605e-01
1.065991595387458801e-01 -3.586989343166351318e-01 3.532696664333343506e-01
1.357365548610687256e-01 -3.750059902667999268e-01 4.936772882938385010e-01
2.137950807809829712e-01 -3.669976294040679932e-01 4.512665271759033203e-01
-7.502427697181701660e-02 -3.788978755474090576e-01 -3.246885538101196289e-02
2.216608226299285889e-01 -3.776126801967620850e-01 -3.140854537487030029e-01
3.341846168041229248e-03 -3.614337742328643799e-01 -4.682092070579528809e-01
-4.932656139135360718e-02 -3.562518358230590820e-01 -1.197265684604644775e-01
-1.578952372074127197e-02 -3.731372058391571045e-01 5.513724088668823242e-01
5.339806154370307922e-02 -3.559908866882324219e-01 1.671728044748306274e-01
7.836841046810150146e-02 -3.572586178779602051e-01 -2.602100670337677002e-01
5.908488482236862183e-02 -3.568774759769439697e-01 -2.392397224903106689e-01
1.935601979494094849e-02 -3.558970689773559570e-01 -1.342501640319824219e-01
1.767250597476959229e-01 -3.802489340305328369e-01 -1.842336058616638184e-01
-6.547283381223678589e-02 -3.786129653453826904e-01 -1.420027613639831543e-01
4.052958264946937561e-02 -3.787477612495422363e-01 3.690882623195648193e-01
1.234198659658432007e-01 -3.792778551578521729e-01 -3.215003013610839844e-01
-7.914315909147262573e-03 -3.558439910411834717e-01 -1.139958500862121582e-01
-4.215130954980850220e-02 -3.766924142837524414e-01 4.114751815795898438e-01
-1.481772363185882568e-01 -3.608507513999938965e-01 3.480975627899169922e-01
2.879417128860950470e-02 -3.773680627346038818e-01 -3.976987898349761963e-01
1.031279414892196655e-01 -3.784773051738739014e-01 -3.726333677768707275e-01
2.862678170204162598e-01 -3.664728701114654541e-01 2.421727180480957031e-01
-6.858862191438674927e-02 -3.760743141174316406e-01 -3.240146040916442871e-01
1.138081550598144531e-01 -3.786191642284393311e-01 3.703127205371856689e-01
1.039388254284858704e-01 -3.814010322093963623e-01 8.388202637434005737e-02
6.192437186837196350e-02 -3.791383206844329834e-01 3.500592708587646484e-01
2.700478211045265198e-02 -3.805830776691436768e-01 1.909501552581787109e-01
-1.095982939004898071e-01 -3.748216629028320312e-01 -2.859258055686950684e-01
2.385698556900024414e-01 -3.788893222808837891e-01 1.164814084768295288e-01
1.339335590600967407e-01 -3.573468923568725586e-01 -1.787413358688354492e-01
1.734012067317962646e-01 -3.577665388584136963e-01 -6.125523895025253296e-02
-1.028314977884292603e-02 -3.567519485950469971e-01 2.843393087387084961e-01
-1.332514733076095581e-01 -3.763065934181213379e-01 1.773699671030044556e-01
4.758473858237266541e-02 -3.565466701984405518e-01 2.484133988618850708e-01
7.938846945762634277e-02 -3.563059568405151367e-01 -1.493751853704452515e-01
1.318262964487075806e-01 -3.809189796447753906e-01 1.565878391265869141e-01
-2.167065590620040894e-01 -3.676292300224304199e-01 1.963964104652404785e-01
4.877336695790290833e-02 -3.644703030586242676e-01 -5.454406142234802246e-01
2.135841846466064453e-01 -3.603814542293548584e-01 2.162541151046752930e-01
-1.556328833103179932e-01 -3.599448204040527344e-01 -1.596792340278625488e-01
4.716511815786361694e-02 -3.801831603050231934e-01 -2.278795689344406128e-01
-2.224210947751998901e-01 -3.679539859294891357e-01 7.591919600963592529e-02
-6.108877807855606079e-02 -3.794188201427459717e-01 5.146560072898864746e-02
-4.904001206159591675e-02 -3.788430094718933105e-01 2.445679754018783569e-01
1.890443861484527588e-01 -3.612213432788848877e-01 3.417963683605194092e-01
-1.077160686254501343e-01 -3.733215630054473877e-01 4.433971345424652100e-01
6.009265407919883728e-02 -3.581829667091369629e-01 3.694497942924499512e-01
1.315611898899078369e-01 -3.804605007171630859e-01 -2.178531736135482788e-01
-1.318939775228500366e-02 -3.732104599475860596e-01 -4.938066601753234863e-01
3.256251811981201172e-01 -3.726373612880706787e-01 -1.078325696289539337e-02
-1.253699809312820435e-01 -3.629858791828155518e-01 4.612367153167724609e-01
5.222534015774726868e-02 -3.809759020805358887e-01 -1.302375048398971558e-01
8.734473586082458496e-02 -3.815011382102966309e-01 -2.474647574126720428e-02
-1.546475142240524292e-01 -3.670988678932189941e-01 -3.347061872482299805e-01
-3.541652858257293701e-02 -3.800117075443267822e-01 -2.447454817593097687e-02
4.879705980420112610e-02 -3.574603199958801270e-01 -2.925339937210083008e-01
-1.239867508411407471e-02 -3.779020607471466064e-01 3.813299238681793213e-01
1.214882284402847290e-01 -3.764526247978210449e-01 -4.569639861583709717e-01
1.589827239513397217e-03 -3.804309070110321045e-01 1.620940268039703369e-01
-7.465048134326934814e-02 -3.783756494522094727e-01 2.139868140220642090e-01
2.186792045831680298e-01 -3.628652989864349365e-01 3.420478701591491699e-01
3.092778921127319336e-01 -3.736107945442199707e-01 -2.004162669181823730e-01
1.199253350496292114e-01 -3.794757425785064697e-01 3.127427399158477783e-01
1.629005968570709229e-01 -3.587423264980316162e-01 2.459744811058044434e-01
7.435768097639083862e-02 -3.809584677219390869e-01 -1.570632457733154297e-01
-1.971747130155563354e-01 -3.689695596694946289e-01 2.976338267326354980e-01
1.056416481733322144e-01 -3.567412495613098145e-01 1.784372776746749878e-01
8.321580290794372559e-02 -3.615204393863677979e-01 4.986340403556823730e-01
5.982019007205963135e-03 -3.586410582065582275e-01 4.141666889190673828e-01
1.591455340385437012e-01 -3.789630830287933350e-01 -3.209573626518249512e-01
1.033601164817810059e-01 -3.802889287471771240e-01 2.550107836723327637e-01
1.829145550727844238e-01 -3.624103367328643799e-01 4.041066467761993408e-01
2.104522883892059326e-01 -3.589842617511749268e-01 -3.699038922786712646e-02
1.373426169157028198e-01 -3.603354692459106445e-01 -3.960835039615631104e-01
6.694126874208450317e-02 -3.612231612205505371e-01 -4.713051021099090576e-01
-6.238818168640136719e-04 -3.646322786808013916e-01 5.854400396347045898e-01
2.250941246747970581e-01 -3.796265423297882080e-01 6.871689856052398682e-02
9.831211715936660767e-02 -3.563349545001983643e-01 1.284243315458297729e-01
6.298970431089401245e-03 -3.765739500522613525e-01 -4.120044112205505371e-01
6.254046410322189331e-02 -3.557996749877929688e-01 1.075374931097030640e-01
-1.880480796098709106e-01 -3.654061555862426758e-01 3.492282330989837646e-01
-8.406405150890350342e-02 -3.566074669361114502e-01 -7.887130975723266602e-02
2.165264785289764404e-01 -3.800472915172576904e-01 -4.059910774230957031e-03
2.341333925724029541e-01 -3.779464066028594971e-01 -2.643724381923675537e-01
-1.185769736766815186e-01 -3.755021393299102783e-01 3.191850781440734863e-01
-1.167539805173873901e-01 -3.774300217628479004e-01 8.880565315485000610e-02
-1.581597924232482910e-01 -3.753187060356140137e-01 7.791171222925186157e-02
1.113957762718200684e-01 -3.616809844970703125e-01 4.799944758415222168e-01
-8.800846338272094727e-02 -3.563981950283050537e-01 2.617583610117435455e-03
-1.291691660881042480e-01 -3.585402965545654297e-01 -1.520631462335586548e-01
-1.116193681955337524e-01 -3.765705823898315430e-01 -1.667718738317489624e-01
1.320979595184326172e-01 -3.812198638916015625e-01 -9.746155142784118652e-02
-1.442943811416625977e-01 -3.760533928871154785e-01 -1.192213967442512512e-03
1.880556792020797729e-01 -3.653801977634429932e-01 4.718891680240631104e-01
1.074945330619812012e-01 -3.570461869239807129e-01 -2.012321799993515015e-01
1.690101027488708496e-01 -3.810070753097534180e-01 1.204857602715492249e-02
2.257992178201675415e-01 -3.597066700458526611e-01 4.612372815608978271e-02
2.719268202781677246e-03 -3.792247176170349121e-01 -2.562188506126403809e-01
2.602849602699279785e-01 -3.679046332836151123e-01 3.566895127296447754e-01
1.523099690675735474e-01 -3.641198277473449707e-01 -5.042052268981933594e-01
2.775389552116394043e-01 -3.773305416107177734e-01 6.742195785045623779e-02
2.537460438907146454e-02 -3.810537457466125488e-01 -3.777851909399032593e-02
2.380697801709175110e-02 -3.556157648563385010e-01 1.225713416934013367e-01
7.541938126087188721e-02 -3.558322787284851074e-01 -4.556029289960861206e-02
1.525733917951583862e-01 -3.807319700717926025e-01 -1.604846715927124023e-01
1.686506569385528564e-01 -3.810146749019622803e-01 -2.445511333644390106e-02
-4.830673336982727051e-03 -3.560906648635864258e-01 -1.546645909547805786e-01
1.422582864761352539e-01 -3.765060007572174072e-01 4.434361755847930908e-01
-7.636755704879760742e-02 -3.574145734310150146e-01 -1.976525783538818359e-01
-1.905928105115890503e-01 -3.606239557266235352e-01 9.667790681123733521e-02
1.486677676439285278e-02 -3.733732998371124268e-01 -5.126879215240478516e-01
1.870483011007308960e-01 -3.619125485420227051e-01 3.770324587821960449e-01
1.034737080335617065e-01 -3.606908619403839111e-01 4.532171785831451416e-01
-1.135441064834594727e-01 -3.770840764045715332e-01 1.963949650526046753e-01
-1.636690646409988403e-01 -3.700895607471466064e-01 -2.807517647743225098e-01
1.096175462007522583e-01 -3.789421617984771729e-01 -3.457702398300170898e-01
1.688419282436370850e-01 -3.798997998237609863e-01 2.212772369384765625e-01
-5.799794197082519531e-02 -3.757536709308624268e-01 4.335244596004486084e-01
2.164482474327087402e-01 -3.799479901790618896e-01 -8.484843373298645020e-02
2.649054527282714844e-01 -3.775726258754730225e-01 1.286476552486419678e-01
8.373634517192840576e-02 -3.728513419628143311e-01 5.658245086669921875e-01
-2.279913425445556641e-02 -3.569857478141784668e-01 -2.360701262950897217e-01
9.282155334949493408e-02 -3.713840842247009277e-01 -5.648681521415710449e-01
1.219621300697326660e-02 -3.777046799659729004e-01 -3.663878738880157471e-01
-1.781533509492874146e-01 -3.597088158130645752e-01 6.039075553417205811e-02
1.743337512016296387e-01 -3.808369040489196777e-01 -7.807918637990951538e-02
7.066088169813156128e-02 -3.557225167751312256e-01 2.802142128348350525e-02
3.172531351447105408e-02 -3.763850033283233643e-01 4.792149662971496582e-01
4.171603173017501831e-02 -3.753604292869567871e-01 -4.796452224254608154e-01
-1.033089309930801392e-01 -3.569415509700775146e-01 1.506261080503463745e-01
-1.144438385963439941e-01 -3.588477075099945068e-01 -2.197213917970657349e-01
-2.673453092575073242e-02 -3.737597763538360596e-01 -4.676898717880249023e-01
-1.543045192956924438e-01 -3.752696216106414795e-01 -4.598829150199890137e-02
1.016491204500198364e-01 -3.561939597129821777e-01 -5.770312994718551636e-02
-5.895937234163284302e-02 -3.783803880214691162e-01 -1.910794973373413086e-01
-2.186738401651382446e-01 -3.683630824089050293e-01 1.517802625894546509e-01
1.766124069690704346e-01 -3.584354221820831299e-01 1.658563762903213501e-01
2.719435840845108032e-02 -3.811362683773040771e-01 2.872910723090171814e-02
-7.640258967876434326e-02 -3.765679001808166504e-01 -2.799789309501647949e-01
1.861380338668823242e-01 -3.705548644065856934e-01 5.059486031532287598e-01
-1.128452271223068237e-01 -3.576099872589111328e-01 2.160665243864059448e-01
-2.093105763196945190e-01 -3.681098818778991699e-01 -1.104416847229003906e-01
-2.151007801294326782e-01 -3.635544180870056152e-01 1.073804311454296112e-02
1.038475632667541504e-01 -3.807817697525024414e-01 -1.903743594884872437e-01
1.349608302116394043e-01 -3.810718655586242676e-01 1.246473640203475952e-01
-7.023416459560394287e-02 -3.790390491485595703e-01 1.145738437771797180e-01
2.721677720546722412e-01 -3.692323267459869385e-01 3.330638706684112549e-01
7.139118015766143799e-02 -3.594689965248107910e-01 -4.026690423488616943e-01
2.638903073966503143e-02 -3.565202951431274414e-01 -2.141006439924240112e-01
2.442875951528549194e-01 -3.605068027973175049e-01 4.901047796010971069e-04
-8.425687253475189209e-02 -3.766880333423614502e-01 -2.519887983798980713e-01
1.312270462512969971e-01 -3.568002581596374512e-01 -8.678350597620010376e-02
-2.146776467561721802e-01 -3.676287829875946045e-01 -7.667133957147598267e-02
-1.326702535152435303e-03 -3.789021968841552734e-01 3.269889950752258301e-01
-2.704067528247833252e-02 -3.659853637218475342e-01 5.916923284530639648e-01
1.561645120382308960e-01 -3.616523444652557373e-01 4.226393997669219971e-01
-1.821287423372268677e-01 -3.735550343990325928e-01 1.436836458742618561e-02
-4.863420128822326660e-02 -3.559229075908660889e-01 1.321974098682403564e-01
7.573093473911285400e-02 -3.560132980346679688e-01 -1.007479205727577209e-01
1.001443713903427124e-01 -3.571837544441223145e-01 -2.285122424364089966e-01
1.499962210655212402e-01 -3.758346736431121826e-01 -4.656825065612792969e-01
2.567933797836303711e-01 -3.613074123859405518e-01 -9.220828115940093994e-02
-3.069837391376495361e-02 -3.764195442199707031e-01 -3.740357160568237305e-01
1.456052660942077637e-01 -3.812400102615356445e-01 4.839401692152023315e-02
-1.931453049182891846e-01 -3.685523569583892822e-01 -1.941328644752502441e-01
2.026105672121047974e-01 -3.650726675987243652e-01 -4.669077098369598389e-01
-1.733540743589401245e-02 -3.558663427829742432e-01 1.707928031682968140e-01
-9.981925785541534424e-02 -3.766045272350311279e-01 3.004319369792938232e-01
-1.386825889348983765e-01 -3.755957186222076416e-01 -1.237006932497024536e-01
1.317076086997985840e-01 -3.754480481147766113e-01 -4.849751591682434082e-01
4.789844900369644165e-02 -3.555712401866912842e-01 -2.714669518172740936e-02
1.778567433357238770e-01 -3.804916441440582275e-01 1.262424439191818237e-01
2.199310362339019775e-01 -3.621135652065277100e-01 3.053660094738006592e-01
-6.485637277364730835e-02 -3.741176426410675049e-01 4.842172563076019287e-01
-3.738346695899963379e-02 -3.558058440685272217e-01 -5.948980897665023804e-02
1.329500377178192139e-01 -3.800327777862548828e-01 2.579141259193420410e-01
-1.631428003311157227e-01 -3.750031590461730957e-01 3.808329999446868896e-02
-1.822156906127929688e-01 -3.656342923641204834e-01 -2.456365823745727539e-01
1.462855339050292969e-01 -3.571013510227203369e-01 7.626949995756149292e-02
-2.086056619882583618e-01 -3.623871803283691406e-01 4.257855564355850220e-02
9.263039380311965942e-02 -3.813189566135406494e-01 -9.778357297182083130e-02
1.283385753631591797e-01 -3.573168814182281494e-01 1.944788545370101929e-01
-1.062091737985610962e-01 -3.567865788936614990e-01 2.776178531348705292e-02
2.827105224132537842e-01 -3.688185513019561768e-01 2.964476943016052246e-01
-1.058593094348907471e-01 -3.670195043087005615e-01 -4.370319247245788574e-01
8.407553285360336304e-02 -3.699301779270172119e-01 5.950207710266113281e-01
-8.164137601852416992e-03 -3.555633425712585449e-01 -4.773706197738647461e-02
2.294931933283805847e-02 -3.592093884944915771e-01 4.398606419563293457e-01
1.598667949438095093e-01 -3.632891476154327393e-01 4.686104059219360352e-01
-5.697874724864959717e-02 -3.602375090122222900e-01 4.606946408748626709e-01
7.859472930431365967e-02 -3.588680624961853027e-01 -3.697164356708526611e-01
-1.461688727140426636e-01 -3.731042146682739258e-01 -2.491251230239868164e-01
2.502026557922363281e-01 -3.756540715694427490e-01 2.967565357685089111e-01
3.200657963752746582e-01 -3.719043433666229248e-01 1.043357253074645996e-01
1.688523739576339722e-01 -3.808962106704711914e-01 6.923880428075790405e-02
9.841753542423248291e-02 -3.612586855888366699e-01 -4.624230265617370605e-01
-5.832570046186447144e-02 -3.596590459346771240e-01 -3.589720129966735840e-01
-1.595897078514099121e-01 -3.745985925197601318e-01 -8.932979404926300049e-02
2.313896715641021729e-01 -3.602040112018585205e-01 -1.356694847345352173e-01
1.058231666684150696e-02 -3.598442673683166504e-01 4.681834578514099121e-01
1.735074520111083984e-01 -3.742154538631439209e-01 -4.913973808288574219e-01
2.584107220172882080e-01 -3.620827198028564453e-01 -1.914533227682113647e-01
2.877093553543090820e-01 -3.648464381694793701e-01 -2.295811027288436890e-01
1.763367503881454468e-01 -3.596819043159484863e-01 2.830106914043426514e-01
1.341549605131149292e-01 -3.583659529685974121e-01 2.842281460762023926e-01
9.126561880111694336e-02 -3.603579103946685791e-01 -4.327541589736938477e-01
1.633467078208923340e-01 -3.577587008476257324e-01 1.245555877685546875e-01
