-1.586849093437194824e-01 3.380113244056701660e-01 -1.527432948350906372e-01
-2.733754813671112061e-01 3.919686675071716309e-01 -9.888621419668197632e-02
-1.661683320999145508e-01 2.310913205146789551e-01 -1.339093446731567383e-01
-2.545295357704162598e-01 4.211979508399963379e-01 2.628180682659149170e-01
-2.581622898578643799e-01 3.242595791816711426e-01 -9.013410657644271851e-02
-2.008194178342819214e-01 5.677759647369384766e-01 -2.229316681623458862e-01
-1.783305108547210693e-01 4.889744520187377930e-01 2.285880148410797119e-01
-2.126393169164657593e-01 2.088592648506164551e-01 -9.159895777702331543e-02
-2.644976973533630371e-01 3.902754187583923340e-01 -1.766183078289031982e-01
-1.545037329196929932e-01 3.528608083724975586e-01 -1.164190843701362610e-01
-2.839768528938293457e-01 5.083271265029907227e-01 1.787709444761276245e-01
-3.007836043834686279e-01 6.597869396209716797e-01 -2.777205035090446472e-02
-2.472665011882781982e-01 7.378196120262145996e-01 -1.038036346435546875e-01
-2.336084693670272827e-01 4.740900993347167969e-01 3.245002031326293945e-01
-2.329863756895065308e-01 7.039898633956909180e-01 -1.414487957954406738e-01
-2.669076323509216309e-01 4.562218785285949707e-01 2.384392023086547852e-01
-1.651104986667633057e-01 4.870112538337707520e-01 -8.744645118713378906e-02
-2.170567810535430908e-01 6.707509756088256836e-01 1.799751669168472290e-01
-1.957544088363647461e-01 2.574625611305236816e-01 2.289062291383743286e-01
-1.818224340677261353e-01 5.145388841629028320e-01 2.243957668542861938e-01
-2.965103983879089355e-01 6.967493295669555664e-01 7.067065685987472534e-02
-2.442106008529663086e-01 2.735182642936706543e-01 -6.892801076173782349e-02
-2.910173833370208740e-01 6.317800283432006836e-01 1.675614863634109497e-01
-2.710418105125427246e-01 3.644715249538421631e-01 -1.490180101245641708e-02
-2.573375403881072998e-01 3.095937371253967285e-01 -1.427176315337419510e-02
-2.007248252630233765e-01 6.525681018829345703e-01 -6.215175986289978027e-02
-2.967989444732666016e-01 7.011172771453857422e-01 -3.569035977125167847e-02
-2.223489731550216675e-01 6.266168355941772461e-01 -2.280022799968719482e-01
-2.258165776729583740e-01 2.680993676185607910e-01 -1.806802302598953247e-01
-2.152403742074966431e-01 6.977773904800415039e-01 -3.534269332885742188e-02
-2.461255788803100586e-01 6.761430501937866211e-01 -2.117686718702316284e-01
-1.658440232276916504e-01 4.519086480140686035e-01 1.806784272193908691e-01
-2.376271188259124756e-01 4.252907335758209229e-01 3.071268200874328613e-01
-1.594200432300567627e-01 4.126491546630859375e-01 1.605062931776046753e-01
-1.701596081256866455e-01 4.505211710929870605e-01 -1.779031455516815186e-01
-2.832008302211761475e-01 6.148517131805419922e-01 2.132770121097564697e-01
-1.872758567333221436e-01 5.620681047439575195e-01 1.996712237596511841e-01
-2.419482916593551636e-01 3.721857666969299316e-01 -2.538792788982391357e-01
-2.746131420135498047e-01 3.863786160945892334e-01 6.060031801462173462e-02
-2.730500102043151855e-01 5.976082682609558105e-01 -2.356780022382736206e-01
-1.478048413991928101e-01 3.345869481563568115e-01 -1.953510195016860962e-02
-2.993067204952239990e-01 6.807265281677246094e-01 -3.071280196309089661e-02
-2.832798957824707031e-01 5.265050530433654785e-01 1.958660185337066650e-01
-2.646296918392181396e-01 3.937897980213165283e-01 1.871726959943771362e-01
-2.729165852069854736e-01 6.297925710678100586e-01 2.460263520479202271e-01
-2.112103849649429321e-01 5.227273702621459961e-01 -2.819661200046539307e-01
-2.052564918994903564e-01 6.668099761009216309e-01 9.938373416662216187e-02
-2.814413905143737793e-01 5.559239983558654785e-01 2.183825671672821045e-01
-2.838647961616516113e-01 7.266865968704223633e-01 -1.003892347216606140e-01
-1.643254309892654419e-01 1.959645450115203857e-01 -5.034405365586280823e-02
-2.435204386711120605e-01 2.660752236843109131e-01 -2.753476053476333618e-02
-2.405588924884796143e-01 3.267444372177124023e-01 -2.128224223852157593e-01
-2.263610064983367920e-01 2.309678494930267334e-01 -8.009268343448638916e-02
-2.968436479568481445e-01 6.624872088432312012e-01 1.072373911738395691e-01
-2.465220093727111816e-01 2.737933397293090820e-01 1.315115019679069519e-03
-1.679096072912216187e-01 2.917053997516632080e-01 2.134207636117935181e-01
-1.646194756031036377e-01 3.758909404277801514e-01 2.132493406534194946e-01
-3.009084761142730713e-01 6.429883241653442383e-01 -4.071867093443870544e-02
-1.618472337722778320e-01 3.492496609687805176e-01 -1.718577146530151367e-01
-2.644962668418884277e-01 3.410634398460388184e-01 -5.520647764205932617e-02
-2.873130142688751221e-01 5.059303641319274902e-01 -1.400924772024154663e-01
-1.742351651191711426e-01 2.993001937866210938e-01 2.368699908256530762e-01
-2.555691897869110107e-01 3.176285028457641602e-01 1.035945788025856018e-01
-1.697709709405899048e-01 3.212557733058929443e-01 -2.070176899433135986e-01
-1.767492592334747314e-01 3.427703678607940674e-01 -2.345586568117141724e-01
-2.883266806602478027e-01 4.641256630420684814e-01 5.481914430856704712e-02
-3.018786013126373291e-01 6.385237574577331543e-01 1.499592605978250504e-02
-2.819518446922302246e-01 4.689856171607971191e-01 1.551733314990997314e-01
-2.470076829195022583e-01 2.889432311058044434e-01 -9.891816973686218262e-02
-2.900487780570983887e-01 5.631473064422607422e-01 -1.551343947649002075e-01
-2.964088022708892822e-01 5.245864987373352051e-01 -1.320654805749654770e-02
-1.880049407482147217e-01 4.819909632205963135e-01 -2.422828823328018188e-01
-2.188650816679000854e-01 6.518426537513732910e-01 2.204405516386032104e-01
-2.522256970405578613e-01 3.139275610446929932e-01 1.277800649404525757e-01
-2.903130650520324707e-01 7.289158701896667480e-01 7.154603302478790283e-02
-2.761009931564331055e-01 5.552983283996582031e-01 2.426689416170120239e-01
-2.388209551572799683e-01 2.520135343074798584e-01 4.316648934036493301e-03
-2.965227365493774414e-01 6.303392648696899414e-01 1.231038048863410950e-01
-1.577485203742980957e-01 2.535327076911926270e-01 1.368080526590347290e-01
-2.604304254055023193e-01 4.400058984756469727e-01 2.543510198593139648e-01
-1.667242944240570068e-01 5.200879573822021484e-01 2.172077447175979614e-02
-2.466810643672943115e-01 7.253837585449218750e-01 1.674672067165374756e-01
-1.791666746139526367e-01 5.196995139122009277e-01 -1.669301688671112061e-01
-2.599992454051971436e-01 6.529717445373535156e-01 -2.331020683050155640e-01
-2.862271666526794434e-01 6.764883399009704590e-01 1.733689755201339722e-01
-2.784603238105773926e-01 5.259068608283996582e-01 2.231102436780929565e-01
-1.479490399360656738e-01 3.498578369617462158e-01 3.251632675528526306e-02
-2.784906029701232910e-01 6.665039062500000000e-01 2.111232876777648926e-01
-2.636104226112365723e-01 3.333624601364135742e-01 -1.851776614785194397e-02
-2.907437980175018311e-01 4.752961695194244385e-01 -5.756887607276439667e-03
-2.155141234397888184e-01 2.017976939678192139e-01 -3.625812940299510956e-03
-2.326671034097671509e-01 5.207628011703491211e-01 3.243153691291809082e-01
-1.509966552257537842e-01 2.410271614789962769e-01 1.947294920682907104e-02
-2.942192256450653076e-01 5.228142738342285156e-01 8.324337005615234375e-02
-1.943908184766769409e-01 2.949554920196533203e-01 -2.461645752191543579e-01
-1.941342949867248535e-01 5.583382844924926758e-01 -2.050161212682723999e-01
-2.558709084987640381e-01 7.180469036102294922e-01 -1.600706279277801514e-01
-1.525589227676391602e-01 2.658534646034240723e-01 -7.968393713235855103e-02
-2.379003018140792847e-01 2.748098373413085938e-01 1.399350166320800781e-01
-2.389556020498275757e-01 2.913857400417327881e-01 1.710760593414306641e-01
-2.244218438863754272e-01 2.410540729761123657e-01 1.350930929183959961e-01
-2.840619087219238281e-01 4.513655006885528564e-01 1.016709357500076294e-01
-2.522352337837219238e-01 2.959257364273071289e-01 -5.389206111431121826e-02
-2.731139659881591797e-01 4.397879838943481445e-01 -1.813622415065765381e-01
-2.472737133502960205e-01 7.533468008041381836e-01 -4.024448990821838379e-02
-1.749036908149719238e-01 4.063634574413299561e-01 -2.243710160255432129e-01
-2.906590104103088379e-01 7.147299051284790039e-01 -8.050893247127532959e-02
-1.708472520112991333e-01 2.431063503026962280e-01 1.842596381902694702e-01
-3.018462657928466797e-01 6.157450675964355469e-01 -1.058051362633705139e-03
-1.726911813020706177e-01 5.484194159507751465e-01 -2.462611719965934753e-02
-1.520957052707672119e-01 3.163785338401794434e-01 -9.777314960956573486e-02
-2.559478282928466797e-01 5.006880164146423340e-01 -2.789352536201477051e-01
-2.844265699386596680e-01 4.383154809474945068e-01 -4.835319146513938904e-02
-2.301083207130432129e-01 3.723973929882049561e-01 2.918359935283660889e-01
-2.268856763839721680e-01 5.209127068519592285e-01 -2.997458577156066895e-01
-1.988478302955627441e-01 5.947690606117248535e-01 -1.819887161254882812e-01
-2.998864948749542236e-01 6.492943167686462402e-01 7.354313135147094727e-02
-1.941981762647628784e-01 5.232963562011718750e-01 2.701308727264404297e-01
-2.913608253002166748e-01 5.045506358146667480e-01 9.881811589002609253e-02
-1.527449488639831543e-01 2.442576140165328979e-01 -5.296732485294342041e-02
-2.566309273242950439e-01 4.126200675964355469e-01 -2.384904026985168457e-01
-1.838707029819488525e-01 4.192222952842712402e-01 2.813537120819091797e-01
-2.789736986160278320e-01 4.998277723789215088e-01 -1.956385225057601929e-01
-1.550556570291519165e-01 4.389296472072601318e-01 -1.000705175101757050e-03
-1.895296573638916016e-01 3.331158161163330078e-01 -2.602558135986328125e-01
-2.382843196392059326e-01 7.464525699615478516e-01 1.216628775000572205e-02
-1.972154378890991211e-01 1.845611929893493652e-01 -6.063111126422882080e-02
-2.438767403364181519e-01 3.840653300285339355e-01 2.687805891036987305e-01
-1.878628581762313843e-01 2.533349990844726562e-01 -2.067024856805801392e-01
-1.658881604671478271e-01 2.799559831619262695e-01 -1.757289618253707886e-01
-2.822389006614685059e-01 4.342768788337707520e-01 8.678810298442840576e-02
-2.475612461566925049e-01 7.548903226852416992e-01 6.661900132894515991e-02
-1.910857558250427246e-01 1.756426692008972168e-01 2.983802556991577148e-02
-2.393164932727813721e-01 7.348070144653320312e-01 -8.239251375198364258e-02
-1.658415049314498901e-01 5.029996037483215332e-01 -5.855506658554077148e-02
-1.513456404209136963e-01 2.530322670936584473e-01 7.210968434810638428e-02
-1.933008283376693726e-01 6.260755658149719238e-01 1.092285439372062683e-01
-1.872348785400390625e-01 6.039928197860717773e-01 1.070861145853996277e-01
-2.363407313823699951e-01 7.370240688323974609e-01 -5.318468809127807617e-02
-1.962542086839675903e-01 4.724987149238586426e-01 -2.713496685028076172e-01
-1.554388105869293213e-01 4.418390989303588867e-01 4.108931124210357666e-02
-2.976122796535491943e-01 6.972784399986267090e-01 4.787013307213783264e-02
-2.582486569881439209e-01 3.634355068206787109e-01 1.834352314472198486e-01
-1.580133438110351562e-01 3.328744769096374512e-01 1.771727353334426880e-01
-2.635977566242218018e-01 3.715266585350036621e-01 1.588593721389770508e-01
-2.445224523544311523e-01 4.582701027393341064e-01 -2.913050353527069092e-01
-2.719240486621856689e-01 3.998802602291107178e-01 -1.334962844848632812e-01
-2.443324476480484009e-01 3.156310915946960449e-01 1.865955591201782227e-01
-1.630149185657501221e-01 4.365779161453247070e-01 -1.371448040008544922e-01
-1.569830477237701416e-01 4.558249115943908691e-01 1.805594563484191895e-02
-1.531079262495040894e-01 4.172219932079315186e-01 5.639951676130294800e-02
-2.075867950916290283e-01 4.814334511756896973e-01 -2.910526990890502930e-01
-1.603081673383712769e-01 2.120308876037597656e-01 8.665481209754943848e-02
-1.563289761543273926e-01 3.722381889820098877e-01 1.573532670736312866e-01
-2.483969628810882568e-01 4.010889232158660889e-01 -2.571726143360137939e-01
-1.648350656032562256e-01 2.223222851753234863e-01 1.351598799228668213e-01
-1.993113607168197632e-01 6.516304612159729004e-01 8.441825211048126221e-02
-1.846774369478225708e-01 4.700716435909271240e-01 2.680952250957489014e-01
-2.010354399681091309e-01 5.056951045989990234e-01 2.986503541469573975e-01
-2.860550582408905029e-01 7.486017942428588867e-01 -3.661831840872764587e-03
-2.818282544612884521e-01 6.767464280128479004e-01 -1.707825064659118652e-01
-2.133784890174865723e-01 5.604228973388671875e-01 2.954150736331939697e-01
-2.641400098800659180e-01 4.841431975364685059e-01 2.656427323818206787e-01
-2.889672219753265381e-01 7.259209156036376953e-01 9.307043254375457764e-02
-2.106371819972991943e-01 4.941298663616180420e-01 3.186694979667663574e-01
-2.094364464282989502e-01 3.601692318916320801e-01 3.038192093372344971e-01
-2.950115799903869629e-01 5.270667076110839844e-01 -6.775479763746261597e-02
-2.652343809604644775e-01 7.558931112289428711e-01 -7.384131848812103271e-02
-1.706099063158035278e-01 3.932240307331085205e-01 2.390357106924057007e-01
-2.697442770004272461e-01 3.584828078746795654e-01 1.256056316196918488e-02
-1.981392204761505127e-01 5.820843577384948730e-01 2.313372641801834106e-01
-2.314288318157196045e-01 4.719713926315307617e-01 -3.056998848915100098e-01
-1.615015566349029541e-01 2.673158347606658936e-01 -1.473131477832794189e-01
-1.556121408939361572e-01 4.379934370517730713e-01 6.713797897100448608e-02
-2.599546611309051514e-01 4.202866256237030029e-01 2.410438060760498047e-01
-2.004445493221282959e-01 6.474335789680480957e-01 1.188911795616149902e-01
-2.018786817789077759e-01 6.649342179298400879e-01 3.237749636173248291e-02
-2.251622080802917480e-01 6.751057505607604980e-01 -1.697000861167907715e-01
-2.774699926376342773e-01 4.606725275516510010e-01 -1.737101376056671143e-01
-2.892490923404693604e-01 5.262662172317504883e-01 1.499752253293991089e-01
-2.671331763267517090e-01 7.230042219161987305e-01 1.777236610651016235e-01
-2.308695167303085327e-01 6.915266513824462891e-01 1.945203989744186401e-01
-1.582145988941192627e-01 4.626452028751373291e-01 5.122969672083854675e-02
-1.471862494945526123e-01 3.153141140937805176e-01 -2.902764827013015747e-03
-1.629962474107742310e-01 1.923131346702575684e-01 2.797918394207954407e-02
-2.857418954372406006e-01 4.420538246631622314e-01 2.255081385374069214e-02
-2.668038308620452881e-01 4.943459928035736084e-01 -2.475703805685043335e-01
-1.800573021173477173e-01 5.645622014999389648e-01 -9.560086578130722046e-02
-1.644492596387863159e-01 3.334344625473022461e-01 2.132697105407714844e-01
-2.870181798934936523e-01 6.306893825531005859e-01 1.914215832948684692e-01
-2.300021648406982422e-01 2.303640991449356079e-01 -6.141061894595623016e-03
-2.504111826419830322e-01 2.925205826759338379e-01 7.200974225997924805e-02
-1.546218991279602051e-01 3.089323043823242188e-01 1.488381922245025635e-01
-1.502455770969390869e-01 3.373287320137023926e-01 -7.149267196655273438e-02
-2.627247571945190430e-01 5.715864896774291992e-01 -2.650128304958343506e-01
-1.811966449022293091e-01 3.452677726745605469e-01 2.710459828376770020e-01
-2.899927496910095215e-01 4.815302193164825439e-01 7.281080633401870728e-02
-2.732882499694824219e-01 4.187330603599548340e-01 1.594290435314178467e-01
-2.270298451185226440e-01 7.270511388778686523e-01 3.557986393570899963e-02
-1.579421311616897583e-01 2.946941852569580078e-01 1.675307303667068481e-01
-1.873295307159423828e-01 6.126520633697509766e-01 6.450881808996200562e-02
-2.001828402280807495e-01 6.253772974014282227e-01 1.750415116548538208e-01
-2.935736477375030518e-01 6.105425357818603516e-01 1.507242172956466675e-01
-1.805767118930816650e-01 5.876811742782592773e-01 3.755888715386390686e-02
-2.493203580379486084e-01 3.595488965511322021e-01 2.253993451595306396e-01
-2.222131043672561646e-01 6.438096165657043457e-01 2.413091808557510376e-01
-1.775716990232467651e-01 5.747300982475280762e-01 9.392597712576389313e-03
-2.515561282634735107e-01 7.525001764297485352e-01 9.958364814519882202e-02
-2.781752645969390869e-01 7.516136169433593750e-01 8.909420669078826904e-02
-2.162956148386001587e-01 4.049967527389526367e-01 3.192780315876007080e-01
-2.793352603912353516e-01 4.946552813053131104e-01 1.999391317367553711e-01
-2.185327261686325073e-01 6.634637117385864258e-01 2.005252093076705933e-01
-2.688652575016021729e-01 4.316040277481079102e-01 2.068510055541992188e-01
-1.602009534835815430e-01 4.762579798698425293e-01 -1.832286641001701355e-02
-2.619863748550415039e-01 3.517885804176330566e-01 1.314640492200851440e-01
-2.216578871011734009e-01 6.977738738059997559e-01 1.385087072849273682e-01
-2.787888944149017334e-01 4.332889318466186523e-01 -1.255705058574676514e-01
-1.535263359546661377e-01 2.473352253437042236e-01 9.256572276353836060e-02
-2.900281846523284912e-01 5.508341789245605469e-01 1.607912033796310425e-01
-2.652073204517364502e-01 5.687131881713867188e-01 2.785218060016632080e-01
-2.487444877624511719e-01 2.926424741744995117e-01 9.629462659358978271e-02
-2.839188575744628906e-01 5.753289461135864258e-01 -1.955565512180328369e-01
-1.600315272808074951e-01 2.025599479675292969e-01 -2.956259250640869141e-02
-2.575065195560455322e-01 3.831837475299835205e-01 -2.071647047996520996e-01
-1.854140907526016235e-01 1.757588386535644531e-01 -3.788711130619049072e-02
-2.564285397529602051e-01 4.450821876525878906e-01 -2.597185075283050537e-01
-1.493324041366577148e-01 2.576540708541870117e-01 -4.101891070604324341e-03
-2.222136110067367554e-01 7.168714404106140137e-01 -4.132538102567195892e-03
-1.956021934747695923e-01 6.450886726379394531e-01 2.151873707771301270e-02
-2.135358303785324097e-01 2.016802132129669189e-01 5.285434797406196594e-02
-2.109239101409912109e-01 2.581947147846221924e-01 -2.036045938730239868e-01
-1.617805957794189453e-01 3.983730673789978027e-01 1.883929520845413208e-01
-1.477973759174346924e-01 2.950286269187927246e-01 -2.262714505195617676e-02
-2.002285122871398926e-01 6.597811579704284668e-01 5.953866057097911835e-03
-1.935928314924240112e-01 3.906521499156951904e-01 -2.782996892929077148e-01
-2.846208214759826660e-01 4.351938664913177490e-01 -1.863027364015579224e-02
-2.295606732368469238e-01 3.229817748069763184e-01 -2.414069622755050659e-01
-1.565906107425689697e-01 4.348021447658538818e-01 -6.182991713285446167e-02
-1.764341443777084351e-01 3.673161566257476807e-01 2.621023058891296387e-01
-2.807597219944000244e-01 6.331164836883544922e-01 -2.003590166568756104e-01
-1.746463179588317871e-01 5.173224210739135742e-01 1.730212271213531494e-01
-2.329504787921905518e-01 2.612205147743225098e-01 -1.321585029363632202e-01
-2.325708121061325073e-01 2.484470307826995850e-01 9.960126131772994995e-02
-1.777657419443130493e-01 4.680852591991424561e-01 2.407505512237548828e-01
-1.702585369348526001e-01 4.196590483188629150e-01 2.293467521667480469e-01
-2.996459305286407471e-01 5.709174871444702148e-01 4.344025626778602600e-02
-1.713058650493621826e-01 4.590611159801483154e-01 2.123897969722747803e-01
-1.581604927778244019e-01 3.933673202991485596e-01 -1.297635436058044434e-01
-2.583961188793182373e-01 5.524767041206359863e-01 -2.755359411239624023e-01
-2.788119316101074219e-01 5.257875323295593262e-01 -2.092367261648178101e-01
-1.493610441684722900e-01 3.064145445823669434e-01 -6.113927811384201050e-02
-1.519692242145538330e-01 3.776416778564453125e-01 -6.988006830215454102e-02
-2.494618296623229980e-01 6.306836605072021484e-01 -2.539208829402923584e-01
-2.340838909149169922e-01 4.514439404010772705e-01 3.202407956123352051e-01
-1.524536460638046265e-01 4.149957299232482910e-01 4.918249323964118958e-03
-2.905470132827758789e-01 4.765958189964294434e-01 -3.190054744482040405e-02
-1.941597163677215576e-01 4.719896912574768066e-01 2.954686880111694336e-01
-2.101783007383346558e-01 2.266368865966796875e-01 -1.515156179666519165e-01
-1.941919922828674316e-01 2.304779589176177979e-01 1.937345415353775024e-01
-1.796558946371078491e-01 4.944838285446166992e-01 -1.965793818235397339e-01
-2.086189240217208862e-01 6.834174394607543945e-01 4.957052320241928101e-02
-2.440591305494308472e-01 2.718018293380737305e-01 6.526304036378860474e-02
-1.544345319271087646e-01 2.762978374958038330e-01 -1.060842350125312805e-01
-2.782977819442749023e-01 4.196529388427734375e-01 -1.033654883503913879e-01
-1.844147294759750366e-01 5.709476470947265625e-01 1.637901663780212402e-01
-1.476284563541412354e-01 3.049121499061584473e-01 5.183568224310874939e-02
-2.195198088884353638e-01 6.538490653038024902e-01 -1.843995451927185059e-01
-2.661657631397247314e-01 3.529298603534698486e-01 -7.876773923635482788e-02
-1.874609291553497314e-01 1.928140223026275635e-01 1.202142760157585144e-01
-1.566248536109924316e-01 4.229006767272949219e-01 1.183856874704360962e-01
-2.550788819789886475e-01 5.113958120346069336e-01 2.988393008708953857e-01
-1.598203033208847046e-01 4.385386705398559570e-01 1.381687670946121216e-01
-1.693595945835113525e-01 3.629465401172637939e-01 -2.087311446666717529e-01
-1.983848214149475098e-01 6.516964435577392578e-01 -2.326270192861557007e-02
-1.609590351581573486e-01 4.522925019264221191e-01 -9.637857228517532349e-02
-2.742540836334228516e-01 7.629196643829345703e-01 -2.262939885258674622e-02
-2.554001808166503906e-01 5.527665615081787109e-01 2.998712062835693359e-01
-1.955437064170837402e-01 6.334702968597412109e-01 -7.098823040723800659e-02
-1.508004367351531982e-01 3.889911174774169922e-01 -2.642472833395004272e-02
-1.616679728031158447e-01 2.549543380737304688e-01 1.610510349273681641e-01
-1.659794002771377563e-01 3.749832510948181152e-01 -1.907780766487121582e-01
-2.707135081291198730e-01 3.685033321380615234e-01 -5.950540304183959961e-02
-2.930672466754913330e-01 5.500632524490356445e-01 1.316413283348083496e-01
-2.273515611886978149e-01 7.047194242477416992e-01 -1.148313507437705994e-01
-2.818195819854736328e-01 4.293964505195617676e-01 -7.457551360130310059e-02
-1.472657918930053711e-01 2.951323986053466797e-01 6.385570392012596130e-03
-2.963835000991821289e-01 5.729125738143920898e-01 -9.885764867067337036e-02
-1.603054702281951904e-01 3.800830841064453125e-01 -1.541727781295776367e-01
-1.530753970146179199e-01 3.374503850936889648e-01 1.367766410112380981e-01
-2.509176135063171387e-01 7.275036573410034180e-01 -1.372195482254028320e-01
-1.892763227224349976e-01 6.163388490676879883e-01 8.742133527994155884e-02
-2.049380540847778320e-01 4.709535539150238037e-01 3.161153793334960938e-01
-2.948675453662872314e-01 5.144810080528259277e-01 -3.933703899383544922e-02
-2.807713449001312256e-01 5.994653701782226562e-01 -2.091836929321289062e-01
-1.856953799724578857e-01 5.705948472023010254e-01 -1.368965953588485718e-01
-2.589237987995147705e-01 5.981900691986083984e-01 2.858946621417999268e-01
-1.618916392326354980e-01 4.882942736148834229e-01 5.296487361192703247e-02
-2.853068709373474121e-01 4.651533067226409912e-01 -1.067138314247131348e-01
-2.068701386451721191e-01 6.671248078346252441e-01 -7.802373915910720825e-02
-2.349721044301986694e-01 3.066700696945190430e-01 -2.070136517286300659e-01
-2.900672256946563721e-01 5.089830756187438965e-01 -1.148582920432090759e-01
-2.822084724903106689e-01 4.565730988979339600e-01 1.347983032464981079e-01
-2.887168526649475098e-01 4.803613126277923584e-01 -8.725672215223312378e-02
-1.495801806449890137e-01 3.750928044319152832e-01 5.090844258666038513e-02
-2.326615154743194580e-01 2.477020025253295898e-01 -9.108073264360427856e-02
-1.481334567070007324e-01 3.139292299747467041e-01 -3.776470944285392761e-02
-2.797254025936126709e-01 4.491975903511047363e-01 -1.417544335126876831e-01
-2.986216545104980469e-01 6.142497062683105469e-01 -8.520937711000442505e-02
-1.592922359704971313e-01 3.079546093940734863e-01 -1.538132280111312866e-01
-2.557621300220489502e-01 7.645654678344726562e-01 3.038256615400314331e-02
-1.477011144161224365e-01 3.295503854751586914e-01 5.109879374504089355e-02
-2.722667753696441650e-01 3.886763751506805420e-01 1.090860962867736816e-01
-2.940251231193542480e-01 7.230971455574035645e-01 2.381154336035251617e-02
-2.610068917274475098e-01 6.717829108238220215e-01 2.430523484945297241e-01
-1.979592740535736084e-01 6.269263625144958496e-01 -1.162630543112754822e-01
-2.009097337722778320e-01 3.035963773727416992e-01 2.709783017635345459e-01
-1.751988530158996582e-01 4.370046257972717285e-01 2.454020828008651733e-01
-3.007189631462097168e-01 5.993006825447082520e-01 5.130358412861824036e-02
-1.492970734834671021e-01 3.579593300819396973e-01 -3.884053230285644531e-02
-1.706245988607406616e-01 5.207561254501342773e-01 1.246673390269279480e-01
-1.525550484657287598e-01 4.157131314277648926e-01 3.414871916174888611e-02
-1.518910229206085205e-01 3.976052999496459961e-01 7.319265604019165039e-02
-2.738755941390991211e-01 4.920369088649749756e-01 2.287701219320297241e-01
-2.107485234737396240e-01 6.518062353134155273e-01 -1.483720839023590088e-01
-1.839852035045623779e-01 2.814082205295562744e-01 2.445991486310958862e-01
-1.983316540718078613e-01 5.449099540710449219e-01 2.680676579475402832e-01
-2.132023572921752930e-01 1.999363303184509277e-01 -3.579701110720634460e-02
-2.309146821498870850e-01 4.994592070579528809e-01 -3.046467006206512451e-01
-1.535109728574752808e-01 4.064791202545166016e-01 9.256303310394287109e-02
-1.765920370817184448e-01 1.749651730060577393e-01 -1.011051889508962631e-02
-2.160259634256362915e-01 2.433477044105529785e-01 1.767287850379943848e-01
-1.774325370788574219e-01 4.049068987369537354e-01 2.635193765163421631e-01
-2.193382233381271362e-01 6.851533055305480957e-01 -1.217504963278770447e-01
-2.107554823160171509e-01 3.841440677642822266e-01 3.132935762405395508e-01
-1.595412492752075195e-01 4.196987152099609375e-01 -1.213145330548286438e-01
-3.015224337577819824e-01 6.536281108856201172e-01 -1.798704266548156738e-03
-2.440345585346221924e-01 7.531953454017639160e-01 4.488537088036537170e-02
-1.869312673807144165e-01 5.468569993972778320e-01 2.174818068742752075e-01
-2.900699079036712646e-01 6.239003539085388184e-01 -1.592992991209030151e-01
-2.426679283380508423e-01 6.858346462249755859e-01 2.274061292409896851e-01
-2.712115645408630371e-01 6.039608716964721680e-01 2.582059502601623535e-01
-2.595080733299255371e-01 4.693263471126556396e-01 -2.615033686161041260e-01
-1.626572012901306152e-01 4.780940115451812744e-01 1.080106049776077271e-01
-2.616453468799591064e-01 3.967690169811248779e-01 2.089995443820953369e-01
-2.746738791465759277e-01 7.635610699653625488e-01 4.300023615360260010e-02
-2.986101806163787842e-01 5.530878901481628418e-01 -2.779353782534599304e-02
-2.664858698844909668e-01 3.516336679458618164e-01 7.072788476943969727e-02
-2.340948581695556641e-01 3.991886377334594727e-01 -2.862104475498199463e-01
-2.352921664714813232e-01 2.788041532039642334e-01 -1.593695878982543945e-01
-2.466246485710144043e-01 4.965304136276245117e-01 3.122439384460449219e-01
-1.811994016170501709e-01 2.127810716629028320e-01 -1.469805985689163208e-01
-2.667772769927978516e-01 5.200846195220947266e-01 2.692368030548095703e-01
-2.872772216796875000e-01 4.604465067386627197e-01 -6.261399388313293457e-02
-1.566630899906158447e-01 4.067083001136779785e-01 1.376183778047561646e-01
-1.793779134750366211e-01 5.513854026794433594e-01 1.567465662956237793e-01
-2.286344170570373535e-01 7.267691493034362793e-01 -3.497459366917610168e-02
-2.136418670415878296e-01 6.884646415710449219e-01 -6.503247469663619995e-02
-2.760223150253295898e-01 4.682761430740356445e-01 1.990571767091751099e-01
-2.099939286708831787e-01 6.142666339874267578e-01 -2.048234790563583374e-01
-2.707676589488983154e-01 4.500141739845275879e-01 -2.049892842769622803e-01
-2.513839006423950195e-01 5.211870670318603516e-01 -2.884081006050109863e-01
-2.992987632751464844e-01 5.797632336616516113e-01 -5.650062114000320435e-02
-1.676478534936904907e-01 5.232273936271667480e-01 -1.370824407786130905e-02
-1.501874774694442749e-01 3.544220328330993652e-01 9.317812323570251465e-02
-2.750234901905059814e-01 4.294629991054534912e-01 -1.546422839164733887e-01
-2.776683866977691650e-01 7.380606532096862793e-01 1.280220896005630493e-01
-2.554185986518859863e-01 6.946326494216918945e-01 -1.940615028142929077e-01
-2.715460956096649170e-01 6.897909641265869141e-01 2.111309170722961426e-01
-2.297317087650299072e-01 2.335962504148483276e-01 -5.356609821319580078e-02
-2.531291246414184570e-01 3.119260072708129883e-01 -1.089594960212707520e-01
-2.050031274557113647e-01 6.322766542434692383e-01 -1.538366973400115967e-01
-1.479225903749465942e-01 3.503308594226837158e-01 4.588746000081300735e-03
-1.812113672494888306e-01 2.005585432052612305e-01 -1.235707774758338928e-01
-2.230955511331558228e-01 3.768043518066406250e-01 -2.882114946842193604e-01
-2.849145829677581787e-01 5.427905321121215820e-01 -1.821649074554443359e-01
-2.867733836174011230e-01 6.917396187782287598e-01 -1.363229751586914062e-01
-1.881276816129684448e-01 6.090390682220458984e-01 -6.081347912549972534e-02
-1.556349694728851318e-01 3.225579261779785156e-01 -1.305551975965499878e-01
-1.601545810699462891e-01 4.790949523448944092e-01 2.023148909211158752e-02
-2.502123415470123291e-01 6.187317371368408203e-01 2.866961956024169922e-01
-1.805731356143951416e-01 4.282521009445190430e-01 -2.395620793104171753e-01
-1.983610987663269043e-01 4.290611445903778076e-01 3.110695779323577881e-01
-2.236620485782623291e-01 2.181445062160491943e-01 -3.144454210996627808e-02
-2.924033403396606445e-01 5.583910942077636719e-01 -1.333288699388504028e-01
-1.834024190902709961e-01 5.876124501228332520e-01 -7.023704051971435547e-02
-1.829885244369506836e-01 4.853097796440124512e-01 -2.201685905456542969e-01
-2.001930475234985352e-01 6.574504375457763672e-01 6.351855397224426270e-02
-2.301334589719772339e-01 3.457802236080169678e-01 -2.601750493049621582e-01
-1.698211431503295898e-01 2.595791518688201904e-01 1.974436640739440918e-01
-2.196269184350967407e-01 2.093094289302825928e-01 1.969985291361808777e-02
-2.370403856039047241e-01 7.429251670837402344e-01 -1.842549815773963928e-02
-1.618183702230453491e-01 2.017532885074615479e-01 6.790455430746078491e-02
-2.789718508720397949e-01 5.983102321624755859e-01 2.331512868404388428e-01
-2.094399333000183105e-01 6.627122163772583008e-01 -1.147637143731117249e-01
-2.468273043632507324e-01 3.201847076416015625e-01 -1.745706647634506226e-01
-2.070920169353485107e-01 5.727457404136657715e-01 2.723030149936676025e-01
-2.963440418243408203e-01 5.728340744972229004e-01 1.101607605814933777e-01
-1.528376638889312744e-01 3.660570085048675537e-01 -9.182202816009521484e-02
-2.028747498989105225e-01 4.088563024997711182e-01 -2.925482094287872314e-01
-2.221139222383499146e-01 5.945628285408020020e-01 -2.571036815643310547e-01
-1.752992570400238037e-01 5.052752494812011719e-01 1.940901875495910645e-01
-2.891097068786621094e-01 6.987265944480895996e-01 -1.157106384634971619e-01
-2.493282854557037354e-01 7.105593681335449219e-01 1.987861990928649902e-01
-1.669847518205642700e-01 4.891015887260437012e-01 1.439456641674041748e-01
-1.561611890792846680e-01 4.310527741909027100e-01 9.749057888984680176e-02
-1.476979702711105347e-01 2.874227166175842285e-01 3.848991915583610535e-02
-2.944862246513366699e-01 5.409437417984008789e-01 -9.635204821825027466e-02
-2.042424678802490234e-01 2.417199313640594482e-01 -1.898279786109924316e-01
-1.824378073215484619e-01 2.141872346401214600e-01 1.656363457441329956e-01
-1.992934197187423706e-01 2.447367161512374878e-01 2.111836373805999756e-01
-2.539368569850921631e-01 7.631720304489135742e-01 -9.449990466237068176e-04
-2.810159325599670410e-01 4.823203086853027344e-01 -1.692700386047363281e-01
-2.346903532743453979e-01 2.608394026756286621e-01 1.241843700408935547e-01
-2.250940203666687012e-01 7.139918208122253418e-01 -6.763492524623870850e-02
-2.999299764633178711e-01 5.672367811203002930e-01 8.966656401753425598e-03
-1.888186037540435791e-01 6.208177208900451660e-01 3.420050069689750671e-02
-1.901025027036666870e-01 6.005263924598693848e-01 1.503089666366577148e-01
-1.530143022537231445e-01 4.113943576812744141e-01 -3.585823252797126770e-02
-2.227672338485717773e-01 5.957490801811218262e-01 2.879206836223602295e-01
-1.705075949430465698e-01 3.547976911067962646e-01 2.410653829574584961e-01
-1.606069803237915039e-01 2.384657859802246094e-01 -1.150660738348960876e-01
-3.011814653873443604e-01 6.461750268936157227e-01 4.536131024360656738e-02
-3.003474175930023193e-01 6.673828959465026855e-01 4.503737390041351318e-02
-2.918671667575836182e-01 4.966499209403991699e-01 -6.635709106922149658e-02
-1.682989746332168579e-01 4.699410200119018555e-01 -1.462785303592681885e-01
-2.866720259189605713e-01 5.247691869735717773e-01 -1.607721894979476929e-01
-2.094906866550445557e-01 5.803322196006774902e-01 -2.396738082170486450e-01
-1.748736947774887085e-01 5.342825651168823242e-01 -1.073762997984886169e-01
-2.130350172519683838e-01 4.438710808753967285e-01 3.252536058425903320e-01
-1.686780005693435669e-01 5.195084810256958008e-01 9.771843999624252319e-02
-1.773604005575180054e-01 2.627047002315521240e-01 2.188180834054946899e-01
-2.113482654094696045e-01 6.901752948760986328e-01 -1.595188304781913757e-02
-1.838920414447784424e-01 6.012704372406005859e-01 -1.075418666005134583e-03
-1.622405052185058594e-01 4.850362837314605713e-01 7.974532246589660645e-02
-2.950963973999023438e-01 6.418411135673522949e-01 -1.181962564587593079e-01
-2.411031424999237061e-01 7.375781536102294922e-01 1.166837215423583984e-01
-1.543258726596832275e-01 2.589989006519317627e-01 1.158034875988960266e-01
-2.710621953010559082e-01 5.670484304428100586e-01 -2.453230470418930054e-01
-2.198804467916488647e-01 2.216704040765762329e-01 1.007367148995399475e-01
-2.095090299844741821e-01 1.989075243473052979e-01 7.377491891384124756e-02
-1.633982509374618530e-01 5.000787377357482910e-01 8.394774049520492554e-03
-2.141714543104171753e-01 3.176605403423309326e-01 -2.603641450405120850e-01
-2.163080424070358276e-01 6.020506620407104492e-01 -2.379948049783706665e-01
-1.489123702049255371e-01 2.720016837120056152e-01 -2.789765223860740662e-02
-1.974950432777404785e-01 4.307582080364227295e-01 -2.839820981025695801e-01
-2.323280870914459229e-01 7.350692152976989746e-01 5.853528901934623718e-02
-1.928841471672058105e-01 2.212049067020416260e-01 -1.665634214878082275e-01
-2.792229354381561279e-01 5.711148381233215332e-01 -2.167546302080154419e-01
-2.675128281116485596e-01 7.636388540267944336e-01 6.805095076560974121e-02
-1.923768818378448486e-01 5.884960889816284180e-01 1.914966404438018799e-01
-2.885219454765319824e-01 5.681750774383544922e-01 1.800309568643569946e-01
-2.580439746379852295e-01 6.419147253036499023e-01 2.675030231475830078e-01
-1.808758676052093506e-01 1.869130730628967285e-01 -8.744128793478012085e-02
3.392997384071350098e-01 -4.735622182488441467e-02 -1.642093956470489502e-01
2.618430256843566895e-01 -1.714584603905677795e-02 2.111202031373977661e-01
2.629326581954956055e-01 -7.168740034103393555e-02 -1.028522253036499023e-01
3.164013922214508057e-01 5.011011660099029541e-02 2.921356558799743652e-01
3.602913916110992432e-01 1.652841642498970032e-02 1.050764042884111404e-02
3.195356428623199463e-01 -1.718140020966529846e-02 2.196730524301528931e-01
2.471656501293182373e-01 -5.398531630635261536e-02 -2.787907049059867859e-02
3.594717085361480713e-01 1.719487830996513367e-02 -4.443247616291046143e-02
2.402809262275695801e-01 1.477677002549171448e-02 1.892390847206115723e-01
2.545941472053527832e-01 -6.109149381518363953e-02 3.723149653524160385e-03
3.244151771068572998e-01 1.104890853166580200e-01 2.159522846341133118e-02
2.452994436025619507e-01 -2.173107489943504333e-02 1.396364867687225342e-01
3.267827332019805908e-01 7.736466825008392334e-02 2.513560354709625244e-01
2.648342251777648926e-01 1.829658262431621552e-02 2.728646099567413330e-01
2.891923785209655762e-01 1.257948577404022217e-01 1.648617237806320190e-01
2.411843687295913696e-01 -2.545341849327087402e-02 1.015974059700965881e-01
2.265013307332992554e-01 4.660803079605102539e-02 5.169427394866943359e-02
3.575331568717956543e-01 4.664353281259536743e-02 6.337136495858430862e-03
3.110022544860839844e-01 -6.468082964420318604e-02 8.882008492946624756e-02
3.558511734008789062e-01 5.534232407808303833e-02 2.320192009210586548e-02
2.783223390579223633e-01 -2.352775633335113525e-02 2.251801043748855591e-01
2.282394766807556152e-01 -6.255835294723510742e-03 3.421976696699857712e-03
3.425040543079376221e-01 8.743005990982055664e-02 1.214730367064476013e-01
2.398328632116317749e-01 -4.150756821036338806e-02 -2.780344337224960327e-02
2.313593327999114990e-01 8.071032352745532990e-03 -1.082580760121345520e-01
2.350042760372161865e-01 -7.673120126128196716e-03 -1.321407556533813477e-01
2.801253199577331543e-01 -8.256554603576660156e-02 -8.833564817905426025e-02
3.368036746978759766e-01 -2.242693677544593811e-02 -2.206504195928573608e-01
3.291339278221130371e-01 -7.018259167671203613e-02 -4.591844603419303894e-02
2.275678217411041260e-01 5.249142646789550781e-02 1.813693344593048096e-02
2.538536787033081055e-01 -8.956128731369972229e-03 -2.322510331869125366e-01
2.447312474250793457e-01 1.753960177302360535e-02 -1.915549486875534058e-01
2.596461176872253418e-01 1.153419762849807739e-01 5.576229840517044067e-02
2.342462241649627686e-01 -2.096028998494148254e-02 5.146419629454612732e-02
3.199615478515625000e-01 -6.646244227886199951e-02 -1.941963434219360352e-01
2.265247702598571777e-01 8.934748359024524689e-03 -3.279622644186019897e-02
2.817283868789672852e-01 -4.632210358977317810e-02 -2.653196752071380615e-01
3.148877322673797607e-01 8.657945692539215088e-02 2.717538475990295410e-01
2.871877849102020264e-01 -6.470032036304473877e-02 1.019074842333793640e-01
3.510005176067352295e-01 -2.576475962996482849e-02 -1.230852007865905762e-01
3.464021682739257812e-01 -1.448316499590873718e-02 1.262552887201309204e-01
2.728827893733978271e-01 -7.004919648170471191e-02 -1.841812580823898315e-01
3.109291195869445801e-01 -8.196501433849334717e-02 -1.106494516134262085e-01
3.382318317890167236e-01 -3.300318121910095215e-02 1.201967373490333557e-01
3.308085203170776367e-01 2.871693857014179230e-02 -2.231499701738357544e-01
2.607905268669128418e-01 -6.692412495613098145e-02 -1.358860582113265991e-01
3.448671698570251465e-01 7.988543808460235596e-02 1.349117457866668701e-01
3.361729979515075684e-01 -6.093612685799598694e-02 -1.163867264986038208e-01
3.226690888404846191e-01 7.062806189060211182e-02 2.709056735038757324e-01
3.061981201171875000e-01 -8.279666304588317871e-02 -1.256902664899826050e-01
2.610875368118286133e-01 9.212609380483627319e-03 2.546457350254058838e-01
2.857085466384887695e-01 -3.882691636681556702e-02 1.931837201118469238e-01
3.235656023025512695e-01 3.286987543106079102e-02 2.727574408054351807e-01
2.452143877744674683e-01 8.488351106643676758e-02 -5.343990400433540344e-02
2.334811389446258545e-01 6.116397678852081299e-02 -4.871230199933052063e-02
2.269250899553298950e-01 3.619500994682312012e-02 -3.092813491821289062e-02
2.914845943450927734e-01 1.018503308296203613e-01 -1.076891496777534485e-01
3.315758109092712402e-01 -6.825613975524902344e-02 -6.144342944025993347e-02
3.131193816661834717e-01 -3.629288449883460999e-02 -2.715125083923339844e-01
2.849270701408386230e-01 3.639654070138931274e-02 3.087855875492095947e-01
2.619927227497100830e-01 1.065449565649032593e-01 -3.567923605442047119e-02
2.264557927846908569e-01 4.846917465329170227e-03 -1.003057789057493210e-02
2.369474768638610840e-01 -2.758083492517471313e-02 -1.086479350924491882e-01
3.283917009830474854e-01 5.151020735502243042e-02 2.637204527854919434e-01
3.532240986824035645e-01 -2.546763792634010315e-02 -9.101312607526779175e-02
2.829290330410003662e-01 9.147158265113830566e-02 -1.415565758943557739e-01
2.661076784133911133e-01 -4.376904293894767761e-02 -2.394617795944213867e-01
2.636892795562744141e-01 1.176975071430206299e-01 1.507034003734588623e-01
3.071970641613006592e-01 -6.356291472911834717e-03 2.573068737983703613e-01
2.621087729930877686e-01 -7.155704498291015625e-02 -5.266119167208671570e-02
2.340256422758102417e-01 7.809521257877349854e-02 6.972831487655639648e-02
3.464556336402893066e-01 8.087048679590225220e-02 1.014648154377937317e-01
3.445997834205627441e-01 7.649268209934234619e-02 1.521697342395782471e-01
3.178021907806396484e-01 -2.287140861153602600e-02 -2.728480398654937744e-01
2.257492095232009888e-01 3.355788439512252808e-02 6.027623265981674194e-02
3.417430520057678223e-01 -5.318676307797431946e-02 -1.402827817946672440e-02
2.891405224800109863e-01 -3.380206972360610962e-02 2.080150395631790161e-01
2.287542223930358887e-01 -5.467019975185394287e-03 3.348591551184654236e-02
3.396687805652618408e-01 7.571266591548919678e-02 1.936193406581878662e-01
3.452591896057128906e-01 6.079532206058502197e-02 -9.890366345643997192e-02
3.528238236904144287e-01 6.494189798831939697e-02 7.750399410724639893e-02
2.527648508548736572e-01 1.096518486738204956e-01 1.144775375723838806e-01
2.283024489879608154e-01 5.777631327509880066e-02 3.983468562364578247e-02
3.567744791507720947e-01 -1.402689889073371887e-02 1.022727601230144501e-02
2.761872112751007080e-01 1.243278831243515015e-01 1.527995616197586060e-01
2.373745441436767578e-01 4.617082327604293823e-02 -1.185134798288345337e-01
2.467070668935775757e-01 -5.175786837935447693e-02 -2.398314885795116425e-03
3.535067737102508545e-01 -2.161917462944984436e-02 3.617230430245399475e-02
2.408587038516998291e-01 -3.848427161574363708e-02 3.267576918005943298e-02
3.563323318958282471e-01 1.379291247576475143e-02 9.604878723621368408e-02
2.622329294681549072e-01 9.540379047393798828e-02 -8.968999981880187988e-02
2.418526113033294678e-01 9.347574412822723389e-02 1.175775527954101562e-01
3.206635713577270508e-01 1.149503886699676514e-01 1.429647952318191528e-01
2.918949723243713379e-01 -1.649910211563110352e-02 2.468077540397644043e-01
2.818538546562194824e-01 1.196213066577911377e-01 -8.845801465213298798e-03
3.517720103263854980e-01 6.943389773368835449e-02 3.576451912522315979e-02
2.936424314975738525e-01 4.989026859402656555e-02 -2.424092590808868408e-01
3.489779829978942871e-01 -4.034276306629180908e-02 -7.780074328184127808e-02
2.764615118503570557e-01 7.940223813056945801e-02 -1.706423759460449219e-01
2.481003254652023315e-01 -5.583621934056282043e-02 -4.555552452802658081e-02
2.432783246040344238e-01 8.931447565555572510e-02 1.650007367134094238e-01
3.353353738784790039e-01 2.293843589723110199e-02 2.324604988098144531e-01
2.407306730747222900e-01 8.640030398964881897e-03 -1.760067492723464966e-01
2.376917004585266113e-01 7.882638834416866302e-03 1.643600761890411377e-01
2.294346839189529419e-01 5.824771896004676819e-02 -9.840903803706169128e-04
2.549078762531280518e-01 1.500448398292064667e-02 -2.302831709384918213e-01
2.304842323064804077e-01 -1.518966630101203918e-02 -4.302968829870223999e-02
3.441537022590637207e-01 -1.536345109343528748e-03 -1.936874091625213623e-01
2.487180382013320923e-01 -5.587361380457878113e-02 -8.752492815256118774e-02
3.260316848754882812e-01 -4.863499477505683899e-02 1.168301030993461609e-01
2.902376055717468262e-01 -7.062342762947082520e-02 7.380291074514389038e-02
2.481192052364349365e-01 -4.728080704808235168e-02 5.113953724503517151e-02
2.386169731616973877e-01 3.388569504022598267e-02 -1.454072147607803345e-01
2.448621094226837158e-01 -2.437338232994079590e-02 -1.816743016242980957e-01
3.288774490356445312e-01 -5.745107308030128479e-02 6.624159961938858032e-02
3.285345733165740967e-01 1.034226566553115845e-01 -8.670703507959842682e-03
2.658723890781402588e-01 -7.283931970596313477e-02 -1.843433082103729248e-02
2.980794310569763184e-01 -8.125367760658264160e-02 -2.830306068062782288e-03
3.093569874763488770e-01 1.222232580184936523e-01 5.035660043358802795e-02
2.640639841556549072e-01 -5.507471039891242981e-02 -2.084092646837234497e-01
2.517886161804199219e-01 8.078576624393463135e-02 2.377603948116302490e-01
2.494266629219055176e-01 -4.382503405213356018e-02 -1.677950173616409302e-01
2.913679480552673340e-01 -4.054355621337890625e-02 -2.793011069297790527e-01
2.546105682849884033e-01 3.125674277544021606e-02 -2.152812778949737549e-01
2.524534761905670166e-01 -9.907882660627365112e-03 1.990882158279418945e-01
3.571833372116088867e-01 1.113967318087816238e-02 8.171685039997100830e-02
3.239820003509521484e-01 1.132760345935821533e-01 5.697287991642951965e-02
3.366152346134185791e-01 7.711827754974365234e-02 2.089895755052566528e-01
3.208842873573303223e-01 5.229130759835243225e-02 -2.114378958940505981e-01
3.033324778079986572e-01 1.032551229000091553e-01 -9.487858414649963379e-02
3.237068951129913330e-01 1.084647029638290405e-01 1.742568016052246094e-01
2.485064864158630371e-01 5.932419374585151672e-02 2.447093725204467773e-01
2.513582706451416016e-01 1.060902774333953857e-01 1.430575549602508545e-01
3.046994805335998535e-01 -4.645141586661338806e-02 1.678322702646255493e-01
3.407434523105621338e-01 9.334307909011840820e-02 8.366096019744873047e-02
2.324793785810470581e-01 6.291230022907257080e-02 -3.007699549198150635e-02
2.647703886032104492e-01 -6.872209906578063965e-02 1.775881461799144745e-02
3.505152165889739990e-01 -3.720654919743537903e-02 -2.842847257852554321e-02
3.234266042709350586e-01 9.251873195171356201e-02 -9.329371154308319092e-02
3.538607358932495117e-01 -2.693651989102363586e-02 -6.374408304691314697e-02
3.386997580528259277e-01 -5.523898079991340637e-02 -1.318837851285934448e-01
2.385665476322174072e-01 2.438742294907569885e-02 -1.552961170673370361e-01
2.961899638175964355e-01 9.593448042869567871e-02 -1.289823651313781738e-01
3.413692116737365723e-01 -4.995494708418846130e-02 2.089474536478519440e-02
2.888328135013580322e-01 -6.091817840933799744e-02 -2.444473803043365479e-01
2.857352197170257568e-01 1.246088594198226929e-01 3.094978258013725281e-02
3.090748786926269531e-01 4.888606444001197815e-02 -2.356853932142257690e-01
3.452883064746856689e-01 3.658333793282508850e-02 1.944685876369476318e-01
2.666670978069305420e-01 -2.656568586826324463e-02 -2.601495981216430664e-01
3.502205312252044678e-01 5.620887130498886108e-02 1.476889401674270630e-01
3.535257279872894287e-01 -6.189869716763496399e-03 8.978965878486633301e-02
3.341090679168701172e-01 -6.538984179496765137e-02 -8.453110605478286743e-02
2.486509829759597778e-01 8.803506195545196533e-02 2.081716805696487427e-01
3.228215575218200684e-01 1.140830814838409424e-01 1.276467442512512207e-01
3.116129338741302490e-01 1.156943738460540771e-01 -7.672053761780261993e-03
2.485560178756713867e-01 1.046865731477737427e-01 6.836812943220138550e-02
3.432753086090087891e-01 -5.207406356930732727e-02 -8.262716233730316162e-02
2.278935462236404419e-01 1.918816752731800079e-02 -6.636023521423339844e-02
2.334378957748413086e-01 2.367365919053554535e-02 1.562278568744659424e-01
2.320324629545211792e-01 4.197391122579574585e-02 1.528427600860595703e-01
3.338199555873870850e-01 1.416804827749729156e-02 -2.281451970338821411e-01
2.607379555702209473e-01 1.132047325372695923e-01 1.706463098526000977e-01
3.403723835945129395e-01 9.054133296012878418e-02 6.166315637528896332e-03
2.543247640132904053e-01 -5.605967715382575989e-02 -1.537937819957733154e-01
3.511854708194732666e-01 -1.973774284124374390e-02 7.296887040138244629e-02
3.118578493595123291e-01 1.177266687154769897e-01 1.788717955350875854e-01
3.207012712955474854e-01 6.842307746410369873e-02 -1.772006005048751831e-01
2.782941758632659912e-01 -7.052081823348999023e-02 5.811601132154464722e-02
2.419680058956146240e-01 8.242455124855041504e-02 1.783623397350311279e-01
3.280429542064666748e-01 1.004173904657363892e-01 -3.287059068679809570e-02
3.551504611968994141e-01 2.664123475551605225e-02 -9.784428775310516357e-02
3.479040265083312988e-01 -4.028396308422088623e-02 6.106620188802480698e-03
3.213882446289062500e-01 -5.515406653285026550e-02 1.058431565761566162e-01
2.425422221422195435e-01 -3.148712962865829468e-02 -1.524832546710968018e-01
2.760430276393890381e-01 3.800572082400321960e-02 -2.500076591968536377e-01
