-2.336498498916625977e-01 1.296239197254180908e-01 2.288648486137390137e-02
-6.608456373214721680e-01 -2.074167132377624512e-03 -3.217831254005432129e-02
-3.212535083293914795e-01 1.488154828548431396e-01 -1.012814283370971680e+00
-2.180587053298950195e-01 1.005496680736541748e-01 -1.006825566291809082e-01
-2.377019971609115601e-01 7.890279591083526611e-02 -1.302149891853332520e-01
-4.594486355781555176e-01 2.034635841846466064e-01 6.163650751113891602e-02
-3.401869237422943115e-01 1.949747502803802490e-01 -7.526046037673950195e-01
-3.744928240776062012e-01 2.199866622686386108e-01 -6.677302718162536621e-02
-2.008354663848876953e-01 5.462720245122909546e-02 -7.646064162254333496e-01
-5.618863105773925781e-01 6.966850161552429199e-02 -1.002361655235290527e+00
-6.751101016998291016e-01 1.128543168306350708e-02 -7.793543338775634766e-01
-6.011868119239807129e-01 1.584414243698120117e-01 -4.749458134174346924e-01
-4.014444351196289062e-01 2.209145724773406982e-01 -2.462762892246246338e-01
-3.244581222534179688e-01 2.198197543621063232e-01 -4.845100641250610352e-01
-1.257580518722534180e-01 1.319036632776260376e-01 -6.288205385208129883e-01
-6.264998316764831543e-01 -2.963644266128540039e-02 -6.974874734878540039e-01
-4.293835759162902832e-01 1.980473697185516357e-01 -6.069145202636718750e-01
-1.896240413188934326e-01 9.055611491203308105e-02 -2.626131176948547363e-01
-7.260994911193847656e-01 8.769147843122482300e-02 -4.115462005138397217e-01
-6.308512091636657715e-01 1.660012453794479370e-02 9.800127148628234863e-02
-5.050482749938964844e-01 1.304179728031158447e-01 3.323189318180084229e-01
-3.625041246414184570e-01 5.533398687839508057e-02 7.235881686210632324e-02
-7.542121410369873047e-01 5.933714658021926880e-02 -1.286275684833526611e-01
-3.138071298599243164e-01 5.994329974055290222e-02 -7.974743843078613281e-03
-3.708216547966003418e-01 -1.451192051172256470e-02 -6.440939903259277344e-01
-4.568750858306884766e-01 4.713939130306243896e-02 1.710045039653778076e-01
-2.369581758975982666e-01 2.192439287900924683e-01 -2.613678574562072754e-01
-6.689851284027099609e-01 1.403547227382659912e-01 -2.393969744443893433e-01
-5.781611204147338867e-01 -3.241676092147827148e-02 -3.000234961509704590e-01
-2.871806621551513672e-01 2.019468396902084351e-01 -7.138086557388305664e-01
-7.414224147796630859e-01 7.140242308378219604e-02 -3.573051095008850098e-02
-5.961413383483886719e-01 5.232363194227218628e-02 -9.651275873184204102e-01
-5.717427134513854980e-01 1.037254929542541504e-01 -8.990244865417480469e-01
-4.144473373889923096e-01 -2.430132031440734863e-02 -6.396817564964294434e-01
-4.972953498363494873e-01 -3.139959275722503662e-02 -3.903198540210723877e-01
-4.976714253425598145e-01 -2.425487339496612549e-02 -2.730185985565185547e-01
-4.644342958927154541e-01 1.525952517986297607e-01 3.084193170070648193e-01
-6.472344398498535156e-01 1.447380334138870239e-01 6.079584360122680664e-02
-3.930960893630981445e-01 1.008936241269111633e-01 2.555422484874725342e-01
-2.766347229480743408e-01 2.245019525289535522e-01 -3.420812487602233887e-01
-7.378957867622375488e-01 4.139297455549240112e-02 -5.311822295188903809e-01
-4.987946152687072754e-01 1.574194729328155518e-01 2.912215888500213623e-01
-6.114947199821472168e-01 1.627627015113830566e-01 4.599410295486450195e-02
-5.468309521675109863e-01 -3.870743513107299805e-02 -4.788667559623718262e-01
-3.529984652996063232e-01 2.212867885828018188e-02 -1.447333991527557373e-01
-6.108716726303100586e-01 1.031391769647598267e-01 -8.106487989425659180e-01
-4.815713763236999512e-01 -8.601881563663482666e-03 -1.301627755165100098e-01
-2.481739968061447144e-01 3.800451010465621948e-02 -4.074471294879913330e-01
-5.320937633514404297e-01 -2.943779528141021729e-02 -2.924416959285736084e-01
-6.186324954032897949e-01 1.486844867467880249e-01 1.491840183734893799e-01
-4.872063696384429932e-01 1.290269941091537476e-02 3.451713919639587402e-02
-3.393176198005676270e-01 2.193591594696044922e-01 -4.784435033798217773e-02
-6.686483621597290039e-01 1.359706968069076538e-01 2.177754044532775879e-02
-3.218137919902801514e-01 1.402708142995834351e-02 -3.249049186706542969e-01
-5.680879354476928711e-01 3.566971793770790100e-02 -1.017547845840454102e+00
-4.154814779758453369e-01 1.194148808717727661e-01 -1.064092874526977539e+00
-5.097446441650390625e-01 -7.307343184947967529e-03 -9.869467020034790039e-01
-6.883783936500549316e-01 1.132928356528282166e-01 -4.594496786594390869e-01
-7.088422179222106934e-01 3.709273412823677063e-02 7.140609622001647949e-02
-3.798779249191284180e-01 -6.758458912372589111e-03 -3.608489334583282471e-01
-5.755214095115661621e-01 -3.876969218254089355e-02 -4.505603015422821045e-01
-2.359349727630615234e-01 4.818051680922508240e-02 -3.605248332023620605e-01
-7.248024940490722656e-01 7.540005445480346680e-02 5.425587296485900879e-02
-2.212860584259033203e-01 4.278289899230003357e-02 -5.655822157859802246e-01
-2.867540717124938965e-01 1.724938899278640747e-01 -9.110310077667236328e-01
-5.304801464080810547e-01 -3.187538683414459229e-02 -3.339205384254455566e-01
-6.545771360397338867e-01 -2.463451027870178223e-02 -2.383248507976531982e-01
-7.096641659736633301e-01 1.152381226420402527e-01 -2.073549926280975342e-01
-2.891214489936828613e-01 1.559042930603027344e-02 -8.447638750076293945e-01
-4.050045907497406006e-01 2.063616812229156494e-01 8.957621455192565918e-02
-2.362064719200134277e-01 1.837893128395080566e-01 -8.263257145881652832e-01
-3.225266933441162109e-01 2.157918959856033325e-01 -1.395788788795471191e-02
-5.217826962471008301e-01 -3.296798467636108398e-02 -7.735941410064697266e-01
-7.016978859901428223e-01 -3.918334841728210449e-04 -9.398373961448669434e-02
-7.246683835983276367e-01 2.056035399436950684e-02 -6.051623821258544922e-01
-6.156822443008422852e-01 1.558050513267517090e-01 -4.310399889945983887e-01
-4.857631027698516846e-01 5.802519619464874268e-02 2.337442338466644287e-01
-4.570074379444122314e-01 1.032215878367424011e-01 -1.070280790328979492e+00
-4.478301703929901123e-01 1.926609873771667480e-01 1.692830622196197510e-01
-7.407662868499755859e-01 3.049258887767791748e-02 -6.011193990707397461e-02
-5.793709754943847656e-01 1.801399886608123779e-01 -7.093545794486999512e-02
-5.081689953804016113e-01 1.819000244140625000e-01 -5.766347646713256836e-01
-2.864664793014526367e-01 4.752710834145545959e-02 -1.552203595638275146e-01
-5.686258077621459961e-01 1.762470304965972900e-01 -4.052631556987762451e-01
-6.027160286903381348e-01 1.701611280441284180e-01 -2.458912134170532227e-02
-2.467648535966873169e-01 3.589976951479911804e-02 -4.467774033546447754e-01
-1.856399178504943848e-01 1.246191859245300293e-01 -9.586038589477539062e-01
-3.789359331130981445e-01 6.703808903694152832e-02 -1.153168797492980957e+00
-2.999837398529052734e-01 1.785607635974884033e-01 -8.783054351806640625e-01
-5.453661084175109863e-01 -6.730780005455017090e-04 -3.188818693161010742e-03
-2.591973543167114258e-01 1.413854211568832397e-01 -1.023442864418029785e+00
-1.828397214412689209e-01 7.441797107458114624e-02 -4.324457645416259766e-01
-3.585656881332397461e-01 4.582462087273597717e-02 1.887598633766174316e-02
-6.281571388244628906e-01 6.398443877696990967e-02 2.477908432483673096e-01
-1.701596975326538086e-01 2.014267593622207642e-01 -4.381942152976989746e-01
-4.860489368438720703e-01 -2.503200620412826538e-02 -3.066121637821197510e-01
-5.462602972984313965e-01 -7.552914321422576904e-03 -9.616827964782714844e-01
-2.244757562875747681e-01 1.719873100519180298e-01 -8.804076910018920898e-01
-7.347712516784667969e-01 6.216029077768325806e-02 -4.961289465427398682e-01
-2.853645086288452148e-01 1.990064382553100586e-01 5.791038274765014648e-02
-3.683369159698486328e-01 2.226114273071289062e-01 -1.258519291877746582e-01
-7.299386262893676758e-01 9.621863812208175659e-02 -2.671816647052764893e-01
-6.199976205825805664e-01 1.623610854148864746e-01 -2.892026305198669434e-01
-7.513275146484375000e-01 5.674180388450622559e-02 -3.824945986270904541e-01
-6.151593327522277832e-01 -2.925557643175125122e-02 -2.567354440689086914e-01
-2.758272886276245117e-01 9.056662768125534058e-02 -1.109832048416137695e+00
-1.866979897022247314e-01 2.070810496807098389e-01 -4.721898436546325684e-01
-3.704750239849090576e-01 2.075797617435455322e-01 8.357915282249450684e-02
-2.097077369689941406e-01 1.272778511047363281e-01 -1.002148270606994629e+00
-2.471902519464492798e-01 2.146644592285156250e-01 -1.344698667526245117e-01
-4.529653489589691162e-01 1.319512724876403809e-02 -1.077147841453552246e+00
-2.958925366401672363e-01 2.226578593254089355e-01 -4.363898634910583496e-01
-5.516242384910583496e-01 1.724006086587905884e-01 1.643575727939605713e-01
-1.664964854717254639e-01 1.811251938343048096e-01 -2.129951417446136475e-01
-5.618566870689392090e-01 1.825857013463973999e-01 -3.317037224769592285e-01
-3.541170060634613037e-01 4.411160200834274292e-02 -1.126510381698608398e+00
-4.625166058540344238e-01 2.490937709808349609e-03 -1.039557337760925293e+00
-1.616571545600891113e-01 1.964021772146224976e-01 -4.948065280914306641e-01
-3.465310037136077881e-01 1.782025992870330811e-01 2.029128968715667725e-01
-6.778122782707214355e-01 9.610408544540405273e-02 -6.257920265197753906e-01
-3.093386292457580566e-01 2.955733984708786011e-02 -2.166458964347839355e-01
-4.893511533737182617e-01 9.858857095241546631e-02 3.217823207378387451e-01
-1.980971246957778931e-01 5.873421579599380493e-02 -5.078324675559997559e-01
-4.242759943008422852e-01 1.809236407279968262e-01 -7.652336359024047852e-01
-3.611177504062652588e-01 1.749710142612457275e-01 -8.733034133911132812e-01
-3.962754309177398682e-01 2.050416469573974609e-01 -5.926030278205871582e-01
-7.060759067535400391e-01 1.178596913814544678e-02 -6.742144823074340820e-01
-5.744159817695617676e-01 1.071355044841766357e-01 3.177847564220428467e-01
-3.350005149841308594e-01 -4.630282521247863770e-03 -6.523859500885009766e-01
-5.106699466705322266e-01 1.057374924421310425e-01 -9.989763498306274414e-01
-5.387462377548217773e-01 2.683782577514648438e-02 -1.049718976020812988e+00
-6.256223320960998535e-01 -6.941556930541992188e-03 -3.844195604324340820e-02
-3.148980736732482910e-01 2.163521498441696167e-01 -5.469524860382080078e-01
-2.813342809677124023e-01 1.650961488485336304e-01 -9.457544088363647461e-01
-2.998297810554504395e-01 2.256658375263214111e-01 -2.459151297807693481e-01
-6.294043064117431641e-01 1.612460315227508545e-01 -1.695474684238433838e-01
-2.554957568645477295e-01 1.262280941009521484e-01 -1.056946992874145508e+00
-3.752668797969818115e-01 1.500349640846252441e-01 -9.865558147430419922e-01
-3.376932144165039062e-01 1.925314366817474365e-01 1.494921743869781494e-01
-1.679244637489318848e-01 8.349622786045074463e-02 -4.620451331138610840e-01
-2.215775102376937866e-01 5.920586362481117249e-02 -3.308610022068023682e-01
-6.652330160140991211e-01 1.378974616527557373e-01 -3.375962972640991211e-01
-7.134407162666320801e-01 -1.520629972219467163e-02 -4.291369318962097168e-01
-1.363331675529479980e-01 1.773479580879211426e-01 -4.612939059734344482e-01
-3.918328583240509033e-01 -1.820829510688781738e-02 -5.432952642440795898e-01
-2.052353173494338989e-01 5.565879121422767639e-02 -8.279393315315246582e-01
-5.893112421035766602e-01 1.524716913700103760e-01 2.042080461978912354e-01
-5.817859768867492676e-01 1.793621778488159180e-01 -2.217365205287933350e-01
-1.820387840270996094e-01 1.891081333160400391e-01 -1.735986918210983276e-01
-3.004122972488403320e-01 1.866388320922851562e-02 -3.656247258186340332e-01
-4.663604497909545898e-01 -1.880333572626113892e-02 -9.123387336730957031e-01
-4.483883082866668701e-01 2.082737684249877930e-01 -4.152745008468627930e-01
-7.607510089874267578e-01 3.960661217570304871e-02 -2.652427554130554199e-01
-7.576718330383300781e-01 5.284728854894638062e-02 -1.655908674001693726e-01
-3.790733218193054199e-01 2.001075148582458496e-01 1.367081701755523682e-01
-2.257463037967681885e-01 4.709289222955703735e-02 -8.731299638748168945e-01
-6.698592305183410645e-01 -1.413249969482421875e-02 -1.430755853652954102e-01
-5.196244716644287109e-01 -1.968969404697418213e-02 -1.862330734729766846e-01
-7.030916213989257812e-01 1.156051903963088989e-01 -3.144360184669494629e-01
-4.909018278121948242e-01 2.134753018617630005e-02 8.610892295837402344e-02
-4.631447196006774902e-01 -3.172646462917327881e-02 -5.376327633857727051e-01
-6.854189634323120117e-01 9.730745851993560791e-02 -5.866973996162414551e-01
-4.682121276855468750e-01 -2.323658764362335205e-02 -8.688920736312866211e-01
-3.137183189392089844e-01 2.260656952857971191e-01 -2.786458730697631836e-01
-4.143873453140258789e-01 3.139768168330192566e-02 -1.121353268623352051e+00
-3.684184849262237549e-01 -9.975947439670562744e-03 -4.752926528453826904e-01
-1.844778656959533691e-01 6.347199529409408569e-02 -6.200906634330749512e-01
-2.176155745983123779e-01 5.882711708545684814e-02 -9.266963005065917969e-01
-2.673225104808807373e-01 2.057394087314605713e-01 -6.743963956832885742e-01
-6.747825741767883301e-01 2.474471926689147949e-02 9.234544634819030762e-02
-3.455586135387420654e-01 2.121464610099792480e-01 3.694334626197814941e-02
-7.212994098663330078e-01 5.962520837783813477e-02 -5.813577175140380859e-01
-2.984623610973358154e-01 2.241107672452926636e-01 -3.950855433940887451e-01
-2.390083223581314087e-01 6.127320230007171631e-02 -2.323278039693832397e-01
-2.428978234529495239e-01 1.425324380397796631e-01 6.136968731880187988e-02
-4.658854603767395020e-01 1.631407886743545532e-01 -8.173665404319763184e-01
-4.331390559673309326e-01 2.163589000701904297e-03 -1.207982003688812256e-01
-5.713281035423278809e-01 1.791328042745590210e-01 2.411153912544250488e-02
-5.010737180709838867e-01 3.149691969156265259e-02 1.443941891193389893e-01
-2.031429857015609741e-01 2.099122554063796997e-01 -2.545000016689300537e-01
-6.976908445358276367e-01 1.169980466365814209e-01 -3.501539826393127441e-01
-4.151220619678497314e-01 2.176754474639892578e-01 -9.214225411415100098e-02
-5.169212222099304199e-01 -2.527032792568206787e-02 -8.669285774230957031e-01
-6.421463489532470703e-01 1.324779540300369263e-01 -5.379148721694946289e-01
-3.545656800270080566e-01 1.472163498401641846e-01 2.502800524234771729e-01
-7.491604089736938477e-01 7.154260575771331787e-02 -2.994828820228576660e-01
-5.415946841239929199e-01 1.926552951335906982e-01 -2.045012712478637695e-01
-6.253923177719116211e-01 -5.549117922782897949e-03 -8.572524785995483398e-01
-3.195137679576873779e-01 1.571852862834930420e-01 2.029435932636260986e-01
-6.891556978225708008e-01 9.812621027231216431e-02 1.455817520618438721e-01
-2.784996032714843750e-01 1.332314014434814453e-01 1.297884285449981689e-01
-6.598979234695434570e-01 1.003097593784332275e-01 2.172975242137908936e-01
-3.985210061073303223e-01 1.667408645153045654e-02 -1.077167510986328125e+00
-4.854108989238739014e-01 1.630761325359344482e-01 -7.825707197189331055e-01
-5.067396163940429688e-01 1.641345918178558350e-01 -7.309458255767822266e-01
-2.015436589717864990e-01 1.948173046112060547e-01 -7.001730799674987793e-01
-6.531492471694946289e-01 1.187280565500259399e-01 -5.935864448547363281e-01
-3.523647189140319824e-01 1.069027185440063477e-01 2.150606215000152588e-01
-2.915901243686676025e-01 1.736171245574951172e-01 1.437817513942718506e-01
-3.676073849201202393e-01 1.089648380875587463e-01 -1.113691329956054688e+00
-3.687200248241424561e-01 -2.537801861763000488e-03 -9.244740009307861328e-01
-7.295332551002502441e-01 7.899776101112365723e-02 -4.471027553081512451e-01
-1.976731121540069580e-01 5.724102258682250977e-02 -5.430819988250732422e-01
-6.821396946907043457e-01 -7.641419768333435059e-03 -6.987629532814025879e-01
-2.535272240638732910e-01 2.779887616634368896e-02 -7.954059243202209473e-01
-6.883211135864257812e-01 -2.479358017444610596e-02 -4.547085165977478027e-01
-7.124649286270141602e-01 -1.156087964773178101e-02 -2.528093457221984863e-01
-5.225864052772521973e-01 5.075479671359062195e-02 -1.074312329292297363e+00
-6.552668809890747070e-01 1.490488946437835693e-01 -1.312878727912902832e-01
-5.900770425796508789e-01 -2.252732962369918823e-02 -1.686843186616897583e-01
-5.637841820716857910e-01 1.571836769580841064e-01 -6.310676336288452148e-01
-7.297862768173217773e-01 -1.583471894264221191e-04 -4.973176121711730957e-01
-5.009118318557739258e-01 1.935164332389831543e-01 -4.596342444419860840e-01
-6.486812233924865723e-01 5.090065672993659973e-02 2.031516134738922119e-01
-4.632949233055114746e-01 1.927778422832489014e-01 -5.858138799667358398e-01
-2.375303655862808228e-01 1.904923915863037109e-01 -7.832272052764892578e-01
-7.286179065704345703e-01 -1.937083899974822998e-03 -2.227352559566497803e-01
-4.828394055366516113e-01 1.713142096996307373e-01 2.548752129077911377e-01
-5.796873569488525391e-01 -3.643870353698730469e-02 -6.869782209396362305e-01
-5.693401098251342773e-01 1.176571026444435120e-01 -8.501762151718139648e-01
-3.989916145801544189e-01 1.375036388635635376e-01 -1.018436193466186523e+00
-1.714491546154022217e-01 1.942523717880249023e-01 -6.117669343948364258e-01
-5.874207019805908203e-01 1.864995807409286499e-02 1.193806231021881104e-01
-4.246653616428375244e-01 1.738223135471343994e-01 2.569294273853302002e-01
-1.685973107814788818e-01 7.567725330591201782e-02 -7.036391496658325195e-01
-2.994021773338317871e-01 2.750220894813537598e-02 -9.971574544906616211e-01
-7.427952289581298828e-01 8.418366312980651855e-02 -2.126469463109970093e-01
-3.761388957500457764e-01 -1.205781847238540649e-02 -8.157597184181213379e-01
-4.815644025802612305e-01 -5.806982517242431641e-04 -6.386089324951171875e-02
-2.078872770071029663e-01 1.798433810472488403e-01 -5.057033896446228027e-02
-6.094882488250732422e-01 1.692719757556915283e-01 -8.815571665763854980e-02
-1.614447534084320068e-01 8.415546268224716187e-02 -5.315746665000915527e-01
-2.597285509109497070e-01 2.224184125661849976e-01 -3.934691548347473145e-01
-4.934208095073699951e-01 -1.948346197605133057e-02 -2.213044166564941406e-01
-6.696426868438720703e-01 3.835738077759742737e-02 -8.077076673507690430e-01
-6.854413747787475586e-01 1.221043244004249573e-01 4.993087053298950195e-02
-3.616667091846466064e-01 7.650688290596008301e-03 -9.949131011962890625e-01
-2.993978261947631836e-01 9.780011326074600220e-02 1.036778390407562256e-01
-1.993942558765411377e-01 9.185056388378143311e-02 -9.836179018020629883e-01
-4.470448791980743408e-01 2.136589735746383667e-01 -1.053908467292785645e-01
-3.531224429607391357e-01 2.124515920877456665e-02 -1.057332992553710938e+00
-4.282498955726623535e-01 2.049216181039810181e-01 -5.280407667160034180e-01
-1.594550311565399170e-01 1.514689624309539795e-01 -8.363938331604003906e-01
-4.477885961532592773e-01 9.820756316184997559e-02 3.000628054141998291e-01
-3.929792046546936035e-01 2.206099182367324829e-01 -3.229139745235443115e-01
-1.722427606582641602e-01 1.326100081205368042e-01 -1.756915152072906494e-01
-3.574408292770385742e-01 1.354089677333831787e-01 -1.049263358116149902e+00
-4.579511582851409912e-01 1.424112468957901001e-01 -9.375793933868408203e-01
-5.864256620407104492e-01 -1.821323484182357788e-02 -1.258506476879119873e-01
-3.146634101867675781e-01 1.021499708294868469e-01 1.442781388759613037e-01
-5.452131032943725586e-01 -3.018217533826828003e-02 -8.080834150314331055e-01
-5.431027412414550781e-01 -3.535954654216766357e-02 -7.339806556701660156e-01
-5.616883039474487305e-01 -3.979706764221191406e-02 -5.829983353614807129e-01
-6.203235983848571777e-01 1.052231192588806152e-01 -7.765262126922607422e-01
-3.587637543678283691e-01 2.161063253879547119e-01 -8.262991905212402344e-04
-3.338353633880615234e-01 2.229307144880294800e-01 -4.077003002166748047e-01
-5.139071345329284668e-01 5.466923117637634277e-03 -1.031914710998535156e+00
-2.299613058567047119e-01 4.074784368276596069e-02 -5.068227052688598633e-01
-6.912502050399780273e-01 1.026459410786628723e-01 -5.255870223045349121e-01
-2.273969650268554688e-01 2.027950584888458252e-01 -6.695297956466674805e-01
-4.807761013507843018e-01 2.070759832859039307e-01 -2.680076360702514648e-01
-2.541217505931854248e-01 2.529066801071166992e-02 -7.156786918640136719e-01
-1.581845581531524658e-01 8.386870473623275757e-02 -6.387242674827575684e-01
-5.858564376831054688e-01 -5.822815001010894775e-03 -2.413183450698852539e-02
-5.527293682098388672e-01 1.886303871870040894e-01 -2.410085499286651611e-01
-6.294366121292114258e-01 1.190985739231109619e-01 2.431024610996246338e-01
-6.708357334136962891e-01 4.867777228355407715e-03 -1.297593116760253906e-04
-6.821345686912536621e-01 6.661663204431533813e-02 1.808765828609466553e-01
-3.511683940887451172e-01 1.626595556735992432e-01 -9.445555210113525391e-01
-3.386074006557464600e-01 6.769880652427673340e-03 -9.387243986129760742e-01
-5.166153907775878906e-01 -1.283989846706390381e-02 -1.224704384803771973e-01
-4.463279247283935547e-01 1.843107640743255615e-01 -7.019450664520263672e-01
-3.079488277435302734e-01 1.910122036933898926e-01 -7.976014614105224609e-01
-2.503160834312438965e-01 2.000620216131210327e-01 -7.180340290069580078e-01
-4.321390390396118164e-01 2.167675495147705078e-01 -1.561770439147949219e-01
-3.051206767559051514e-01 1.061030551791191101e-01 -1.116630911827087402e+00
-2.236977517604827881e-01 4.000815376639366150e-02 -6.266907453536987305e-01
-2.861083745956420898e-01 8.560720831155776978e-02 3.576326370239257812e-02
-3.149640262126922607e-01 1.348763406276702881e-01 -1.058707714080810547e+00
-4.307858645915985107e-01 2.157543301582336426e-01 -3.047547638416290283e-01
-3.018648028373718262e-01 6.143108010292053223e-03 -6.776028871536254883e-01
-5.430244207382202148e-01 1.925658881664276123e-01 -1.526869237422943115e-01
-5.348612070083618164e-01 1.624096632003784180e-01 -6.742271780967712402e-01
-1.368632912635803223e-01 1.725355386734008789e-01 -3.906692266464233398e-01
-2.058470994234085083e-01 1.593925356864929199e-01 -9.121630191802978516e-01
-3.275042176246643066e-01 1.730687916278839111e-03 -4.865216910839080811e-01
-3.342807292938232422e-01 -4.329465329647064209e-03 -6.919612884521484375e-01
-6.030619144439697266e-01 -3.766241669654846191e-02 -4.258139729499816895e-01
-5.367930531501770020e-01 1.444136798381805420e-01 3.004306256771087646e-01
-2.721641659736633301e-01 1.776646822690963745e-02 -6.202970743179321289e-01
-7.026762366294860840e-01 6.201665103435516357e-02 -6.583902835845947266e-01
-3.843545019626617432e-01 1.567623317241668701e-01 -9.504534006118774414e-01
-4.028243422508239746e-01 -2.300038933753967285e-03 -2.315040081739425659e-01
-1.677691936492919922e-01 1.987073123455047607e-01 -3.508380651473999023e-01
-5.183230042457580566e-01 -3.820762038230895996e-02 -5.899327993392944336e-01
-6.024039387702941895e-01 3.904424235224723816e-02 1.991121470928192139e-01
-6.955003142356872559e-01 2.988635003566741943e-02 -7.294688224792480469e-01
-7.245818972587585449e-01 1.912958920001983643e-03 -1.568848490715026855e-01
-6.694858074188232422e-01 1.223250776529312134e-01 -4.891762733459472656e-01
-5.703011751174926758e-01 1.468991935253143311e-01 2.597469985485076904e-01
-7.026589512825012207e-01 1.185771301388740540e-01 -6.255567073822021484e-02
-2.403710633516311646e-01 3.237636387348175049e-02 -5.915629267692565918e-01
-2.574785053730010986e-01 5.730120837688446045e-02 -1.882228702306747437e-01
-1.318320930004119873e-01 1.678749024868011475e-01 -5.978882908821105957e-01
-6.095559597015380859e-01 2.524946630001068115e-02 1.454510986804962158e-01
-2.702453732490539551e-01 4.122806340456008911e-02 -2.627348899841308594e-01
-3.425500392913818359e-01 1.592864841222763062e-02 -2.285934239625930786e-01
-1.836789846420288086e-01 1.722783744335174561e-01 -8.156505823135375977e-01
-2.342716008424758911e-01 1.935635507106781006e-01 -2.122542262077331543e-02
-1.814600229263305664e-01 8.275583386421203613e-02 -8.913227319717407227e-01
-1.847662627696990967e-01 9.245194494724273682e-02 -9.384791851043701172e-01
-3.482050597667694092e-01 1.868839263916015625e-01 -8.069510459899902344e-01
-4.982516169548034668e-01 2.034743428230285645e-01 -8.975341916084289551e-02
-5.480917692184448242e-01 3.512665629386901855e-03 -9.979671239852905273e-01
-2.108478993177413940e-01 6.056039780378341675e-02 -3.803787827491760254e-01
-5.454977750778198242e-01 2.258766442537307739e-02 1.293847858905792236e-01
-4.020865559577941895e-01 1.919674575328826904e-01 -7.113447189331054688e-01
-6.125851273536682129e-01 8.270552754402160645e-02 -8.751128911972045898e-01
-4.450238049030303955e-01 2.067814767360687256e-01 -4.535321593284606934e-01
-3.148217797279357910e-01 2.105779945850372314e-03 -6.146699190139770508e-01
-5.225473046302795410e-01 1.957206130027770996e-01 -2.555388212203979492e-02
-4.876511991024017334e-01 1.803565770387649536e-01 -6.469977498054504395e-01
-3.934929370880126953e-01 1.765421032905578613e-01 -8.344957828521728516e-01
-4.038535952568054199e-01 2.206587791442871094e-01 -1.800362914800643921e-01
-2.720820009708404541e-01 2.159887254238128662e-01 -8.803164958953857422e-02
-3.947217166423797607e-01 6.109803915023803711e-03 -1.027569413185119629e+00
-4.548481702804565430e-01 1.230767890810966492e-01 -1.016158938407897949e+00
-6.963939070701599121e-01 -1.954910159111022949e-02 -5.269418954849243164e-01
-2.399481534957885742e-01 2.124186754226684570e-01 -5.728176832199096680e-01
-4.146856963634490967e-01 1.646167635917663574e-01 -8.812193870544433594e-01
-6.813008785247802734e-01 1.308009773492813110e-01 -1.619175076484680176e-02
-5.054810047149658203e-01 1.955496370792388916e-01 5.236202478408813477e-02
-4.360160231590270996e-01 1.731372028589248657e-01 -8.015507459640502930e-01
-4.936643540859222412e-01 4.368793591856956482e-02 -1.102528810501098633e+00
-6.684988141059875488e-01 3.701210394501686096e-02 1.436617076396942139e-01
-6.521342992782592773e-01 1.292650103569030762e-01 1.528554260730743408e-01
-2.168281674385070801e-01 1.515857428312301636e-01 -9.543758630752563477e-01
-4.570037722587585449e-01 2.127829790115356445e-01 -2.017506659030914307e-01
-2.477989643812179565e-01 9.930310398340225220e-02 -1.427629590034484863e-02
-1.522956192493438721e-01 1.048348248004913330e-01 -4.026635587215423584e-01
-3.161990046501159668e-01 2.304710447788238525e-03 -5.795019268989562988e-01
-2.709106504917144775e-01 1.965576708316802979e-01 -7.565832138061523438e-01
-4.527577757835388184e-01 -2.698668092489242554e-02 -7.894467115402221680e-01
-6.548955440521240234e-01 4.102624952793121338e-03 -8.195697665214538574e-01
-5.326629281044006348e-01 1.484833955764770508e-01 -7.745376825332641602e-01
-4.205382764339447021e-01 -9.807027876377105713e-03 -9.480810165405273438e-01
-5.137774348258972168e-01 -3.677518665790557861e-02 -4.916540384292602539e-01
-7.004477977752685547e-01 1.151443719863891602e-01 7.707566022872924805e-03
-7.045695781707763672e-01 2.311315387487411499e-02 3.263592720031738281e-02
-4.156226217746734619e-01 2.149183154106140137e-01 -2.766135334968566895e-02
-5.618649721145629883e-01 4.740722477436065674e-03 3.965726494789123535e-02
-3.835384547710418701e-01 -9.184330701828002930e-03 -8.867620229721069336e-01
-2.068370133638381958e-01 2.085969746112823486e-01 -5.534429550170898438e-01
-2.184885442256927490e-01 2.068071365356445312e-01 -6.096894145011901855e-01
-4.396843612194061279e-01 5.796145275235176086e-02 -1.138551235198974609e+00
-1.519197225570678711e-01 1.792705208063125610e-01 -6.645394563674926758e-01
-1.272451579570770264e-01 1.631786823272705078e-01 -4.955986738204956055e-01
-7.437368631362915039e-01 2.026490122079849243e-02 -1.251203715801239014e-01
-5.927107930183410645e-01 -3.462758660316467285e-02 -3.387652039527893066e-01
-4.200941622257232666e-01 1.837603002786636353e-02 -2.534261345863342285e-02
-3.734731078147888184e-01 2.039120346307754517e-01 -6.393663287162780762e-01
-2.444480955600738525e-01 2.192468643188476562e-01 -2.201638221740722656e-01
-5.863409638404846191e-01 1.699106097221374512e-01 8.060207962989807129e-02
-4.871452748775482178e-01 2.005531191825866699e-01 -4.009643793106079102e-01
-4.728063344955444336e-01 1.277776956558227539e-01 -9.777886867523193359e-01
-5.549796819686889648e-01 1.658814698457717896e-01 -5.842836499214172363e-01
-3.842023611068725586e-01 -1.222269237041473389e-02 -4.343833327293395996e-01
-6.276240944862365723e-01 2.532887458801269531e-02 -9.105458259582519531e-01
-3.376409709453582764e-01 -6.256178021430969238e-04 -8.428440690040588379e-01
-2.137174308300018311e-01 2.146791070699691772e-01 -2.880414724349975586e-01
-5.896462202072143555e-01 1.772850155830383301e-01 -1.619755625724792480e-01
-7.306728363037109375e-01 8.937819302082061768e-02 -3.535595238208770752e-01
-5.915412902832031250e-01 1.298941224813461304e-01 -7.341576218605041504e-01
-5.688219070434570312e-01 -2.977104485034942627e-02 -2.636698484420776367e-01
-3.429207205772399902e-01 2.136461436748504639e-03 -3.893527388572692871e-01
-3.023632168769836426e-01 8.483700454235076904e-03 -5.328098535537719727e-01
-5.748376250267028809e-01 -3.901346027851104736e-02 -6.207504272460937500e-01
-2.849669456481933594e-01 2.252454310655593872e-01 -3.002915680408477783e-01
-1.411344408988952637e-01 1.084795147180557251e-01 -4.868765473365783691e-01
-6.569827795028686523e-01 -3.243066370487213135e-02 -4.818024039268493652e-01
-4.546908438205718994e-01 -2.979804575443267822e-02 -7.239868640899658203e-01
-3.616147637367248535e-01 2.246143221855163574e-01 -2.443039715290069580e-01
-4.963242709636688232e-01 4.404231905937194824e-03 -1.010662317276000977e-02
-6.456175446510314941e-01 -3.301237523555755615e-02 -5.679236054420471191e-01
-5.984910726547241211e-01 1.454294770956039429e-01 -6.084533333778381348e-01
-6.738479137420654297e-01 -2.380707114934921265e-02 -2.746898829936981201e-01
-4.590993225574493408e-01 7.739192992448806763e-02 2.678700983524322510e-01
-3.160782456398010254e-01 8.643731474876403809e-03 -4.279387295246124268e-01
-2.389016896486282349e-01 2.189218997955322266e-01 -4.422053396701812744e-01
-6.101641654968261719e-01 -3.827598690986633301e-02 -4.831368327140808105e-01
-6.285911798477172852e-01 -2.045484632253646851e-02 -1.575173735618591309e-01
-7.474677562713623047e-01 1.377293467521667480e-02 -4.236402213573455811e-01
-2.055891901254653931e-01 5.613372102379798889e-02 -4.748972058296203613e-01
-4.318556189537048340e-01 9.900629520416259766e-03 -6.306546926498413086e-02
-2.649483680725097656e-01 3.905433788895606995e-02 -9.749636650085449219e-01
-3.825067281723022461e-01 1.240224838256835938e-01 -1.072080016136169434e+00
-7.571181654930114746e-01 2.306746691465377808e-02 -3.015315532684326172e-01
-5.915641784667968750e-01 1.572939455509185791e-01 -5.301743745803833008e-01
-4.243254363536834717e-01 3.018800169229507446e-02 5.173787474632263184e-02
-6.683812141418457031e-01 7.632224261760711670e-02 -7.403799295425415039e-01
-2.557373642921447754e-01 1.791577935218811035e-01 -8.664826154708862305e-01
-3.826199173927307129e-01 2.113321125507354736e-01 -5.377190113067626953e-01
-2.931486964225769043e-01 9.602814912796020508e-03 -7.196931242942810059e-01
-2.913025021553039551e-01 2.090790271759033203e-01 -6.438868045806884766e-01
-7.589086294174194336e-01 4.258400574326515198e-02 -3.295667171478271484e-01
-6.728307008743286133e-01 1.363761126995086670e-01 -2.865570187568664551e-01
-6.893165111541748047e-01 -1.918189972639083862e-02 -5.798217654228210449e-01
-3.886980414390563965e-01 1.813334822654724121e-01 2.232561409473419189e-01
-3.798748552799224854e-01 -1.659964770078659058e-02 -6.853258609771728516e-01
-2.906861901283264160e-01 2.245407700538635254e-01 -2.083680778741836548e-01
-1.595744490623474121e-01 1.287985146045684814e-01 -2.449495792388916016e-01
-2.216916680335998535e-01 4.093694314360618591e-02 -7.043920755386352539e-01
-6.782904863357543945e-01 8.589246124029159546e-02 -6.709984540939331055e-01
-2.750985026359558105e-01 1.045300960540771484e-01 6.963354349136352539e-02
-5.932542085647583008e-01 1.687335669994354248e-01 -3.789535164833068848e-01
-4.455598294734954834e-01 -2.076635509729385376e-02 -3.448760807514190674e-01
-6.840101480484008789e-01 -2.428128570318222046e-02 -3.323026001453399658e-01
-5.408207178115844727e-01 9.981851279735565186e-02 -9.691524505615234375e-01
-2.173261195421218872e-01 2.163689732551574707e-01 -4.012978672981262207e-01
-6.870827078819274902e-01 1.310444325208663940e-01 -1.270059943199157715e-01
-4.958011806011199951e-01 -3.502480685710906982e-02 -6.952927112579345703e-01
-4.347849786281585693e-01 1.406370997428894043e-01 -9.732041358947753906e-01
-4.826799035072326660e-01 -1.515278965234756470e-02 -9.471822977066040039e-01
-6.455565690994262695e-01 -3.245571255683898926e-02 -3.662768006324768066e-01
-3.138510286808013916e-01 6.083959341049194336e-02 -1.124840021133422852e+00
-6.566680073738098145e-01 -1.584742218255996704e-02 -7.347438335418701172e-01
-6.709129810333251953e-01 -1.904914528131484985e-02 -1.986312270164489746e-01
-7.474689483642578125e-01 4.331614077091217041e-02 -4.611434340476989746e-01
-6.869403719902038574e-01 -2.463997900485992432e-02 -3.698022365570068359e-01
-2.970832288265228271e-01 2.225552052259445190e-01 -1.402957141399383545e-01
-1.913611590862274170e-01 8.342024683952331543e-02 -2.992819547653198242e-01
-5.262079834938049316e-01 1.866134852170944214e-01 1.013453304767608643e-01
-4.332620501518249512e-01 1.998094022274017334e-01 1.282238662242889404e-01
-7.069393992424011230e-01 6.979955732822418213e-02 -6.159315109252929688e-01
-5.206568241119384766e-01 -3.810133039951324463e-02 -6.265748739242553711e-01
-5.636336803436279297e-01 1.701161414384841919e-01 -5.091162919998168945e-01
-6.298288106918334961e-01 1.563904881477355957e-01 -3.242465257644653320e-01
-3.412999510765075684e-01 2.098698467016220093e-01 -6.105148196220397949e-01
-5.437277555465698242e-01 1.677027642726898193e-01 2.089503109455108643e-01
-7.170540690422058105e-01 -1.200826466083526611e-02 -2.993270158767700195e-01
-3.531438112258911133e-01 -7.576592266559600830e-03 -7.869376540184020996e-01
-4.771265387535095215e-01 1.956515610218048096e-01 -5.133175849914550781e-01
-7.373318076133728027e-01 5.852687358856201172e-02 7.017880678176879883e-03
-2.568843066692352295e-01 1.767763048410415649e-01 7.628598809242248535e-02
-4.067268073558807373e-01 2.158676832914352417e-01 -4.051883220672607422e-01
-5.575965642929077148e-01 -3.985188901424407959e-02 -5.422242879867553711e-01
-3.876210153102874756e-01 1.569551974534988403e-02 -1.088343262672424316e-01
-3.777218163013458252e-01 2.168689072132110596e-01 -4.602231979370117188e-01
-1.972715556621551514e-01 5.476914718747138977e-02 -6.588857173919677734e-01
-3.975785672664642334e-01 4.458215087652206421e-02 8.303910493850708008e-02
-4.839703440666198730e-01 1.078507304191589355e-01 -1.028680682182312012e+00
-4.410663545131683350e-01 -2.905762940645217896e-02 -6.041792631149291992e-01
-5.192735195159912109e-01 1.325193047523498535e-01 -8.855890035629272461e-01
-6.161082386970520020e-01 1.569263041019439697e-01 9.138134121894836426e-02
-5.672827363014221191e-01 -1.338979601860046387e-02 -9.142589569091796875e-01
-5.235334634780883789e-01 1.910670101642608643e-01 -3.985187113285064697e-01
-1.797151267528533936e-01 1.113440543413162231e-01 -2.078188955783843994e-01
4.397054612636566162e-01 -2.538919150829315186e-01 7.451793551445007324e-02
4.486551284790039062e-01 -1.909213960170745850e-01 -4.023280739784240723e-02
3.603979647159576416e-01 -3.788834214210510254e-01 -4.254181385040283203e-01
4.742808938026428223e-01 -3.242805898189544678e-01 -3.209287226200103760e-01
3.431724309921264648e-01 -3.139771223068237305e-01 -5.773798227310180664e-01
3.862715065479278564e-01 -3.117551207542419434e-01 -5.090516209602355957e-01
2.116506248712539673e-01 -2.755309641361236572e-01 -6.885981559753417969e-01
4.592149853706359863e-01 -3.415555357933044434e-01 -3.258633017539978027e-01
4.962230324745178223e-01 -2.081489861011505127e-01 8.707377314567565918e-02
2.206908017396926880e-01 -2.380836904048919678e-01 -5.584253072738647461e-01
5.041459798812866211e-01 -2.278309017419815063e-01 -2.422865331172943115e-01
4.585998058319091797e-01 -3.705724477767944336e-01 -1.827221661806106567e-01
4.223955869674682617e-01 -1.935050040483474731e-01 -2.885552048683166504e-01
3.666908740997314453e-01 -1.904211938381195068e-01 -2.427773773670196533e-01
4.276898503303527832e-01 -3.136972486972808838e-01 -4.319085478782653809e-01
5.048738718032836914e-01 -2.574014067649841309e-01 -2.746390700340270996e-01
4.344524741172790527e-01 -2.212237119674682617e-01 3.130793571472167969e-02
2.809942364692687988e-01 -3.879731893539428711e-01 -4.234879612922668457e-01
3.551881313323974609e-01 -2.249720692634582520e-01 -1.057229489088058472e-01
2.537182569503784180e-01 -3.725943267345428467e-01 -3.766704797744750977e-01
3.654159307479858398e-01 -3.679202198982238770e-01 -1.549855768680572510e-01
2.957828938961029053e-01 -2.338126897811889648e-01 -5.632190108299255371e-01
1.654370576143264771e-01 -2.788955569267272949e-01 -6.084065437316894531e-01
3.276490867137908936e-01 -2.071797549724578857e-01 -2.276608049869537354e-01
2.655710577964782715e-01 -2.160243541002273560e-01 -4.476967155933380127e-01
3.473458886146545410e-01 -3.883078098297119141e-01 -3.724744617938995361e-01
5.250292420387268066e-01 -1.914577484130859375e-01 -5.437709391117095947e-02
2.234187573194503784e-01 -2.554023265838623047e-01 -6.451128721237182617e-01
3.359765410423278809e-01 -2.773309051990509033e-01 -5.836415886878967285e-01
3.825266957283020020e-01 -1.878624260425567627e-01 -2.252999842166900635e-01
1.782316863536834717e-01 -2.677167654037475586e-01 -5.527613759040832520e-01
1.723686158657073975e-01 -2.950291633605957031e-01 -5.078079700469970703e-01
2.399618625640869141e-01 -2.761693298816680908e-01 -6.795012950897216797e-01
5.079050660133361816e-01 -3.534893691539764404e-01 -1.144747287034988403e-01
1.613241583108901978e-01 -3.447325229644775391e-01 -6.320264339447021484e-01
3.252659738063812256e-01 -3.508143424987792969e-01 -5.681644678115844727e-01
2.816625535488128662e-01 -2.407132238149642944e-01 -5.902830362319946289e-01
4.026273488998413086e-01 -3.828761279582977295e-01 -2.366724461317062378e-01
2.101159691810607910e-01 -3.730820417404174805e-01 -5.230178236961364746e-01
4.290338754653930664e-01 -2.372708618640899658e-01 -4.018993973731994629e-01
5.180461406707763672e-01 -2.226070463657379150e-01 -2.010842114686965942e-01
5.972095727920532227e-01 -2.983236014842987061e-01 5.095282196998596191e-02
2.199562788009643555e-01 -2.959731519222259521e-01 -3.492614924907684326e-01
5.486289858818054199e-01 -3.093260526657104492e-01 -1.411272287368774414e-01
1.815458536148071289e-01 -3.600681126117706299e-01 -5.726646780967712402e-01
4.482500851154327393e-01 -3.555779755115509033e-01 -3.150857388973236084e-01
3.076184988021850586e-01 -2.085117399692535400e-01 -2.837360799312591553e-01
4.432026147842407227e-01 -3.746668696403503418e-01 -2.032341510057449341e-01
4.013210535049438477e-01 -2.264258116483688354e-01 -1.476797461509704590e-02
3.013477623462677002e-01 -3.522964417934417725e-01 -2.167972177267074585e-01
2.510204017162322998e-01 -2.581091523170471191e-01 -2.960343062877655029e-01
3.937170207500457764e-01 -3.590666353702545166e-01 -4.302016496658325195e-01
4.297728538513183594e-01 -1.993440836668014526e-01 -3.282132744789123535e-02
4.076377451419830322e-01 -2.178373336791992188e-01 -3.980805873870849609e-01
2.580206990242004395e-01 -3.703906834125518799e-01 -3.573513627052307129e-01
3.455618321895599365e-01 -2.552840709686279297e-01 -8.315569162368774414e-02
4.627541303634643555e-01 -2.911798357963562012e-01 -3.716592788696289062e-01
4.046338796615600586e-01 -3.649067878723144531e-01 -9.801411628723144531e-02
5.224919319152832031e-01 -3.489345312118530273e-01 -5.108232796192169189e-02
2.118181586265563965e-01 -2.887162268161773682e-01 -3.753172755241394043e-01
2.595491409301757812e-01 -3.528577089309692383e-01 -3.039082586765289307e-01
5.922266840934753418e-01 -2.155583500862121582e-01 8.671492338180541992e-02
3.674018085002899170e-01 -3.042709827423095703e-01 -4.028615355491638184e-02
5.447937250137329102e-01 -2.088922113180160522e-01 -9.601248800754547119e-02
2.422640025615692139e-01 -3.119989037513732910e-01 -2.938944101333618164e-01
5.348918437957763672e-01 -3.220896422863006592e-01 -1.587843298912048340e-01
3.031526803970336914e-01 -2.633650004863739014e-01 -1.638880521059036255e-01
5.847873091697692871e-01 -2.153608053922653198e-01 2.414244413375854492e-02
4.344465434551239014e-01 -3.678492903709411621e-01 -9.015154838562011719e-02
1.948688477277755737e-01 -3.361212611198425293e-01 -4.430310130119323730e-01
4.419710338115692139e-01 -2.449128329753875732e-01 -3.895120024681091309e-01
3.982255458831787109e-01 -2.698281705379486084e-01 -4.863964319229125977e-01
2.781341373920440674e-01 -2.312086820602416992e-01 -2.780937254428863525e-01
4.421325325965881348e-01 -1.855686008930206299e-01 -9.249781072139739990e-02
4.577945172786712646e-01 -2.022978365421295166e-01 -2.705715000629425049e-01
4.264135360717773438e-01 -2.172097265720367432e-01 1.081794500350952148e-02
3.803859651088714600e-01 -1.941322982311248779e-01 -1.591511666774749756e-01
5.323551893234252930e-01 -3.444120287895202637e-01 -2.748470008373260498e-02
2.424299865961074829e-01 -2.856646180152893066e-01 -2.929840385913848877e-01
1.968565136194229126e-01 -3.691686689853668213e-01 -5.648236274719238281e-01
3.872268497943878174e-01 -2.397197484970092773e-01 -4.717869460582733154e-01
4.762581288814544678e-01 -3.544186949729919434e-01 -1.097252964973449707e-02
3.907574713230133057e-01 -3.746716976165771484e-01 -1.557138562202453613e-01
5.323562026023864746e-01 -2.981406748294830322e-01 -2.040352672338485718e-01
1.931708157062530518e-01 -3.112485110759735107e-01 -4.278569817543029785e-01
4.366816878318786621e-01 -3.751784563064575195e-01 -1.528037041425704956e-01
5.828941464424133301e-01 -2.276795208454132080e-01 1.742992699146270752e-01
3.342238962650299072e-01 -2.191377580165863037e-01 -1.662424057722091675e-01
5.580491423606872559e-01 -2.090741693973541260e-01 1.283844113349914551e-01
3.797930479049682617e-01 -1.881947964429855347e-01 -2.653456628322601318e-01
1.697831153869628906e-01 -2.930757999420166016e-01 -6.971423625946044922e-01
3.804719448089599609e-01 -2.651140689849853516e-01 -1.367852091789245605e-02
5.574806928634643555e-01 -2.080708295106887817e-01 -5.289232730865478516e-02
3.094739317893981934e-01 -3.086869418621063232e-01 -6.259241104125976562e-01
5.460675358772277832e-01 -2.041235268115997314e-01 -7.246734201908111572e-02
3.733701109886169434e-01 -3.821870088577270508e-01 -3.755014836788177490e-01
5.725624561309814453e-01 -2.295584678649902344e-01 -6.773586571216583252e-02
5.174418091773986816e-01 -3.133090436458587646e-01 1.264830827713012695e-01
2.445135116577148438e-01 -3.820465207099914551e-01 -4.654330909252166748e-01
2.734853625297546387e-01 -3.119262456893920898e-01 -2.223688066005706787e-01
4.892985522747039795e-01 -2.797753214836120605e-01 -3.161974251270294189e-01
4.023505747318267822e-01 -3.233468532562255859e-01 -5.246162414550781250e-03
4.341502785682678223e-01 -3.064018487930297852e-01 5.601164698600769043e-02
5.727431774139404297e-01 -3.171560466289520264e-01 9.324914216995239258e-02
4.028140306472778320e-01 -3.740978837013244629e-01 -3.537562191486358643e-01
3.634501695632934570e-01 -3.231597542762756348e-01 -5.403852462768554688e-01
1.920840293169021606e-01 -2.696977555751800537e-01 -4.680557250976562500e-01
4.877269864082336426e-01 -3.598317801952362061e-01 -1.614797413349151611e-01
4.138384461402893066e-01 -2.301716208457946777e-01 -4.150640070438385010e-01
1.832657456398010254e-01 -2.615021169185638428e-01 -6.002921462059020996e-01
5.853571295738220215e-01 -3.037425577640533447e-01 -7.010787725448608398e-03
1.751279532909393311e-01 -3.567572534084320068e-01 -5.951510667800903320e-01
2.185414284467697144e-01 -2.392120361328125000e-01 -4.777787029743194580e-01
4.579820036888122559e-01 -1.920586973428726196e-01 -2.244253009557723999e-01
3.201651275157928467e-01 -3.435333669185638428e-01 -1.653903424739837646e-01
5.860319137573242188e-01 -3.075861632823944092e-01 1.641356945037841797e-02
3.083924651145935059e-01 -3.800365030765533447e-01 -5.101248025894165039e-01
2.215125858783721924e-01 -3.723470568656921387e-01 -6.148915290832519531e-01
2.169317156076431274e-01 -3.759931921958923340e-01 -5.787950158119201660e-01
5.030772686004638672e-01 -3.291876614093780518e-01 -2.385587990283966064e-01
5.227090120315551758e-01 -2.818964123725891113e-01 -2.379696369171142578e-01
5.554788112640380859e-01 -3.268429040908813477e-01 7.664588093757629395e-02
2.012777626514434814e-01 -2.494076043367385864e-01 -5.870899558067321777e-01
4.588481187820434570e-01 -1.892633438110351562e-01 -2.051940262317657471e-01
2.596838474273681641e-01 -2.635590434074401855e-01 -2.659631371498107910e-01
3.203933537006378174e-01 -3.273771405220031738e-01 -1.418723613023757935e-01
4.806222915649414062e-01 -2.315376996994018555e-01 1.108953952789306641e-01
3.284152746200561523e-01 -3.829496502876281738e-01 -2.786054015159606934e-01
4.575922191143035889e-01 -2.945675849914550781e-01 9.447792172431945801e-02
2.174939364194869995e-01 -3.499205112457275391e-01 -6.856498122215270996e-01
5.825260877609252930e-01 -3.134251236915588379e-01 3.971964120864868164e-02
3.507362902164459229e-01 -3.887879550457000732e-01 -3.454818725585937500e-01
5.669088363647460938e-01 -2.652582824230194092e-01 1.980198025703430176e-01
5.476092100143432617e-01 -2.939900457859039307e-01 1.695578396320343018e-01
3.104908466339111328e-01 -2.026294767856597900e-01 -3.975920975208282471e-01
4.290906786918640137e-01 -3.686620593070983887e-01 -3.124275207519531250e-01
4.609450995922088623e-01 -2.417727708816528320e-01 -3.506348729133605957e-01
2.962791919708251953e-01 -2.672491371631622314e-01 -6.225842237472534180e-01
5.143083333969116211e-01 -1.879685670137405396e-01 -3.637742996215820312e-02
3.374144732952117920e-01 -1.959210932254791260e-01 -2.890532314777374268e-01
5.765113234519958496e-01 -3.116501271724700928e-01 -2.312444150447845459e-02
4.112882018089294434e-01 -3.104683160781860352e-01 -4.651179909706115723e-01
6.053411960601806641e-01 -2.874186635017395020e-01 1.311853229999542236e-01
1.542715430259704590e-01 -2.996287345886230469e-01 -6.117702722549438477e-01
4.742360115051269531e-01 -3.632414638996124268e-01 -6.702502071857452393e-02
4.035772681236267090e-01 -2.406139522790908813e-01 -4.483581185340881348e-01
4.147790968418121338e-01 -1.844254732131958008e-01 -1.898329555988311768e-01
3.945653140544891357e-01 -2.005344331264495850e-01 -9.450888633728027344e-02
5.126034021377563477e-01 -2.905728816986083984e-01 -2.600261270999908447e-01
3.011063039302825928e-01 -3.641771078109741211e-01 -5.754353404045104980e-01
5.440731048583984375e-01 -2.409459054470062256e-01 1.811829507350921631e-01
3.661975264549255371e-01 -2.401031404733657837e-01 -5.915495753288269043e-02
2.878334224224090576e-01 -3.414404690265655518e-01 -6.328432559967041016e-01
5.083460211753845215e-01 -1.999474465847015381e-01 7.295569777488708496e-02
2.241236120462417603e-01 -3.787482082843780518e-01 -5.540115833282470703e-01
3.895519375801086426e-01 -2.272572666406631470e-01 -4.458018839359283447e-01
5.208345651626586914e-01 -2.582843303680419922e-01 1.710108220577239990e-01
4.750455021858215332e-01 -2.644489705562591553e-01 -3.424137830734252930e-01
2.712618410587310791e-01 -3.673768937587738037e-01 -3.167620301246643066e-01
4.693397879600524902e-01 -3.675587475299835205e-01 -1.644817441701889038e-01
5.511615276336669922e-01 -3.327680230140686035e-01 -4.180087149143218994e-02
3.739577829837799072e-01 -3.761867284774780273e-01 -4.105793535709381104e-01
4.595430195331573486e-01 -3.659965991973876953e-01 -2.313557416200637817e-01
1.622613370418548584e-01 -2.929614484310150146e-01 -5.626094341278076172e-01
2.829556167125701904e-01 -3.043715059757232666e-01 -1.986812949180603027e-01
2.249998301267623901e-01 -3.464013636112213135e-01 -3.743678331375122070e-01
