-4.198115766048431396e-01 -7.342571020126342773e-01 3.645162880420684814e-01
-3.047264218330383301e-01 -5.393593311309814453e-01 3.581639528274536133e-01
-4.175197184085845947e-01 -7.657051086425781250e-01 3.906539976596832275e-01
-2.954870164394378662e-01 -5.596931576728820801e-01 3.885092139244079590e-01
-3.221392035484313965e-01 -6.100251674652099609e-01 3.714442849159240723e-01
-4.109023511409759521e-01 -6.964560747146606445e-01 3.848239779472351074e-01
-3.832865655422210693e-01 -6.589679718017578125e-01 3.954913020133972168e-01
-2.842955589294433594e-01 -4.714236855506896973e-01 3.780288398265838623e-01
-2.985040247440338135e-01 -5.476715564727783203e-01 3.618073463439941406e-01
-2.771964371204376221e-01 -5.260753631591796875e-01 3.814244568347930908e-01
-4.131382405757904053e-01 -7.302057743072509766e-01 3.630464971065521240e-01
-3.370158672332763672e-01 -6.371284723281860352e-01 3.716863691806793213e-01
-3.331584632396697998e-01 -6.175403594970703125e-01 3.973330557346343994e-01
-2.808463573455810547e-01 -5.324646830558776855e-01 3.750126063823699951e-01
-3.598580956459045410e-01 -6.196395158767700195e-01 3.970091044902801514e-01
-2.964753210544586182e-01 -5.365909337997436523e-01 3.969652056694030762e-01
-2.905274629592895508e-01 -5.266204476356506348e-01 3.608846068382263184e-01
-3.307498693466186523e-01 -5.621378421783447266e-01 3.940823674201965332e-01
-3.115598857402801514e-01 -5.907868146896362305e-01 3.719569444656372070e-01
-3.422910571098327637e-01 -6.495323181152343750e-01 3.759967088699340820e-01
-3.418980538845062256e-01 -6.502595543861389160e-01 3.816566467285156250e-01
-2.555913925170898438e-01 -4.703913927078247070e-01 3.862854540348052979e-01
-3.192007243633270264e-01 -5.797365903854370117e-01 3.592824041843414307e-01
-2.702545523643493652e-01 -4.802572429180145264e-01 3.626150786876678467e-01
-2.891981601715087891e-01 -4.797474145889282227e-01 3.703321516513824463e-01
-3.121601343154907227e-01 -5.283353328704833984e-01 3.920147120952606201e-01
-3.148021996021270752e-01 -5.507143735885620117e-01 3.575603663921356201e-01
-3.321437239646911621e-01 -5.573936700820922852e-01 3.904211521148681641e-01
-4.047168791294097900e-01 -7.411537766456604004e-01 3.679837584495544434e-01
-2.784723639488220215e-01 -5.141276121139526367e-01 3.925722837448120117e-01
-3.817905783653259277e-01 -6.717014908790588379e-01 3.991596996784210205e-01
-3.258694708347320557e-01 -6.213753819465637207e-01 3.818357586860656738e-01
-3.539198040962219238e-01 -6.123227477073669434e-01 3.979110419750213623e-01
-3.617822229862213135e-01 -5.987328886985778809e-01 3.766590356826782227e-01
-3.778109550476074219e-01 -6.356030702590942383e-01 3.886732757091522217e-01
-3.088157176971435547e-01 -5.712330341339111328e-01 3.964463472366333008e-01
-3.236105740070343018e-01 -5.721943378448486328e-01 3.992170989513397217e-01
-3.110293149948120117e-01 -5.637113451957702637e-01 3.984747231006622314e-01
-3.681993186473846436e-01 -6.477319598197937012e-01 3.578039705753326416e-01
-3.164319097995758057e-01 -5.210389494895935059e-01 3.782046437263488770e-01
-3.193513751029968262e-01 -5.305379629135131836e-01 3.858071565628051758e-01
-2.651999592781066895e-01 -4.779693484306335449e-01 3.643966019153594971e-01
-4.446693658828735352e-01 -7.823779582977294922e-01 3.725833594799041748e-01
-2.965168356895446777e-01 -5.285308361053466797e-01 3.969858586788177490e-01
-3.898611068725585938e-01 -7.110771536827087402e-01 3.638963997364044189e-01
-3.687708079814910889e-01 -6.963703632354736328e-01 3.818686902523040771e-01
-2.761636972427368164e-01 -5.018997192382812500e-01 3.935099542140960693e-01
-3.756270408630371094e-01 -6.320857405662536621e-01 3.648411929607391357e-01
-4.135868549346923828e-01 -7.540405988693237305e-01 3.685956895351409912e-01
-3.123402297496795654e-01 -5.953105092048645020e-01 3.850723206996917725e-01
-4.291394948959350586e-01 -7.338191270828247070e-01 3.745900094509124756e-01
-2.526451349258422852e-01 -4.607559442520141602e-01 3.862117230892181396e-01
-2.653652727603912354e-01 -4.652478098869323730e-01 3.901114761829376221e-01
-3.433739840984344482e-01 -6.499606370925903320e-01 3.891479372978210449e-01
-3.400951027870178223e-01 -6.117685437202453613e-01 3.580266535282135010e-01
-2.925520539283752441e-01 -5.170388817787170410e-01 3.592255115509033203e-01
-2.667764425277709961e-01 -4.948341250419616699e-01 3.889552354812622070e-01
-3.701616227626800537e-01 -6.745290756225585938e-01 3.613535463809967041e-01
-2.590833306312561035e-01 -4.441553950309753418e-01 3.842733204364776611e-01
-4.006669223308563232e-01 -6.753470301628112793e-01 3.844006061553955078e-01
-3.306538760662078857e-01 -5.832550525665283203e-01 3.570020198822021484e-01
-3.787796497344970703e-01 -6.435220241546630859e-01 3.925589621067047119e-01
-3.224528133869171143e-01 -5.575181245803833008e-01 3.577780425548553467e-01
-3.805668056011199951e-01 -6.493132114410400391e-01 3.615224659442901611e-01
-4.313668012619018555e-01 -7.883530259132385254e-01 3.850070834159851074e-01
-3.603908121585845947e-01 -6.317472457885742188e-01 3.574199974536895752e-01
-3.544527292251586914e-01 -6.642844080924987793e-01 3.936023116111755371e-01
-4.263536036014556885e-01 -7.604779601097106934e-01 3.941789269447326660e-01
-2.919800877571105957e-01 -5.335698127746582031e-01 3.617507815361022949e-01
-4.109736382961273193e-01 -7.608457803726196289e-01 3.773483633995056152e-01
-3.078343272209167480e-01 -5.287688374519348145e-01 3.590704202651977539e-01
-3.715902864933013916e-01 -6.985889673233032227e-01 3.888297975063323975e-01
-3.308855593204498291e-01 -5.462026596069335938e-01 3.814230263233184814e-01
-3.031866550445556641e-01 -5.677179694175720215e-01 3.935247957706451416e-01
-4.015300869941711426e-01 -7.379268407821655273e-01 3.941730856895446777e-01
-2.707154750823974609e-01 -5.120848417282104492e-01 3.775870800018310547e-01
-4.308033585548400879e-01 -7.830217480659484863e-01 3.894139528274536133e-01
-4.190793633460998535e-01 -7.146829366683959961e-01 3.703627884387969971e-01
-2.446811795234680176e-01 -4.444262981414794922e-01 3.739202618598937988e-01
-3.844583928585052490e-01 -7.197865247726440430e-01 3.755013942718505859e-01
-2.939821481704711914e-01 -5.495041608810424805e-01 3.929163515567779541e-01
-3.911175131797790527e-01 -6.896978616714477539e-01 3.987175524234771729e-01
-4.385333657264709473e-01 -7.606690526008605957e-01 3.720678389072418213e-01
-2.709399461746215820e-01 -4.996922016143798828e-01 3.910384774208068848e-01
-4.122315049171447754e-01 -7.088624238967895508e-01 3.915793001651763916e-01
-2.439744025468826294e-01 -4.369236826896667480e-01 3.725168406963348389e-01
-3.970453739166259766e-01 -7.403438091278076172e-01 3.866842091083526611e-01
-2.552126348018646240e-01 -4.495211243629455566e-01 3.872307837009429932e-01
-2.523221075534820557e-01 -4.683792293071746826e-01 3.754931986331939697e-01
-3.946786820888519287e-01 -6.630427241325378418e-01 3.837457895278930664e-01
-3.791234195232391357e-01 -6.738448143005371094e-01 3.589034080505371094e-01
-2.706099748611450195e-01 -4.784461855888366699e-01 3.921010494232177734e-01
-3.352373242378234863e-01 -5.625610351562500000e-01 3.623741865158081055e-01
-2.912607789039611816e-01 -5.074111223220825195e-01 3.946894705295562744e-01
-3.122938871383666992e-01 -5.161146521568298340e-01 3.820864856243133545e-01
-3.814481198787689209e-01 -6.354019045829772949e-01 3.788584172725677490e-01
-3.341986835002899170e-01 -6.364459991455078125e-01 3.826839029788970947e-01
-4.108246564865112305e-01 -7.135671377182006836e-01 3.632583022117614746e-01
-2.855343222618103027e-01 -5.367422103881835938e-01 3.900389671325683594e-01
-4.357208609580993652e-01 -7.545542716979980469e-01 3.711454570293426514e-01
4.395459890365600586e-01 -6.456605195999145508e-01 -3.810585439205169678e-01
3.492113649845123291e-01 -4.704096615314483643e-01 -3.575077652931213379e-01
3.639267981052398682e-01 -5.478629469871520996e-01 -3.457390367984771729e-01
3.897661566734313965e-01 -5.448072552680969238e-01 -3.842945992946624756e-01
3.392097055912017822e-01 -5.134274959564208984e-01 -3.824613392353057861e-01
4.276193082332611084e-01 -6.278246641159057617e-01 -3.834351599216461182e-01
4.392189979553222656e-01 -6.310446262359619141e-01 -3.533011972904205322e-01
2.913405001163482666e-01 -3.922106027603149414e-01 -3.572676479816436768e-01
4.506404697895050049e-01 -6.500591039657592773e-01 -3.560820221900939941e-01
4.369296431541442871e-01 -6.781976819038391113e-01 -3.744147419929504395e-01
3.695955276489257812e-01 -4.966791868209838867e-01 -3.731378912925720215e-01
3.206376433372497559e-01 -4.926346242427825928e-01 -3.682122528553009033e-01
3.016220629215240479e-01 -4.100059866905212402e-01 -3.548473417758941650e-01
4.374487102031707764e-01 -6.608784198760986328e-01 -3.808420002460479736e-01
3.384765088558197021e-01 -4.927570223808288574e-01 -3.890451788902282715e-01
3.839183449745178223e-01 -5.764607191085815430e-01 -3.860593438148498535e-01
3.501551449298858643e-01 -4.638191461563110352e-01 -3.707398176193237305e-01
4.162994027137756348e-01 -5.807863473892211914e-01 -3.730464875698089600e-01
4.809259772300720215e-01 -7.295444011688232422e-01 -3.688815534114837646e-01
3.949833214282989502e-01 -5.967192053794860840e-01 -3.847431540489196777e-01
3.810063302516937256e-01 -5.190892815589904785e-01 -3.778015971183776855e-01
4.727974534034729004e-01 -7.361853718757629395e-01 -3.601253628730773926e-01
3.637731373310089111e-01 -5.699476003646850586e-01 -3.677483499050140381e-01
3.864179849624633789e-01 -6.026636958122253418e-01 -3.748963475227355957e-01
3.893847167491912842e-01 -5.897122621536254883e-01 -3.442783951759338379e-01
3.740066289901733398e-01 -5.881422758102416992e-01 -3.638873398303985596e-01
4.270173907279968262e-01 -6.481778621673583984e-01 -3.815411031246185303e-01
3.530149161815643311e-01 -5.491512417793273926e-01 -3.569591939449310303e-01
2.907494306564331055e-01 -3.794987201690673828e-01 -3.632982969284057617e-01
4.039661586284637451e-01 -5.997221469879150391e-01 -3.432791829109191895e-01
3.843484222888946533e-01 -6.047838926315307617e-01 -3.671245872974395752e-01
3.430161476135253906e-01 -5.232573151588439941e-01 -3.805242776870727539e-01
3.954277932643890381e-01 -6.109778881072998047e-01 -3.791062533855438232e-01
3.628463447093963623e-01 -5.106863975524902344e-01 -3.479180932044982910e-01
2.793753743171691895e-01 -3.879769742488861084e-01 -3.851305842399597168e-01
3.900471031665802002e-01 -5.530192255973815918e-01 -3.480582535266876221e-01
3.471297919750213623e-01 -5.094757676124572754e-01 -3.460229933261871338e-01
3.603605628013610840e-01 -5.531558990478515625e-01 -3.496159315109252930e-01
3.772068023681640625e-01 -5.609632730484008789e-01 -3.438916802406311035e-01
3.130955994129180908e-01 -4.549792706966400146e-01 -3.508039712905883789e-01
4.054359197616577148e-01 -5.620266199111938477e-01 -3.756233155727386475e-01
4.764258861541748047e-01 -7.040627002716064453e-01 -3.576490581035614014e-01
3.383132815361022949e-01 -4.535833597183227539e-01 -3.575715422630310059e-01
4.369630813598632812e-01 -6.192862987518310547e-01 -3.698325455188751221e-01
3.281181156635284424e-01 -5.067095756530761719e-01 -3.667962551116943359e-01
4.540607929229736328e-01 -7.008895277976989746e-01 -3.480558395385742188e-01
3.496337532997131348e-01 -4.884967207908630371e-01 -3.488928079605102539e-01
3.418105244636535645e-01 -5.156337618827819824e-01 -3.491721153259277344e-01
3.397969305515289307e-01 -4.491595327854156494e-01 -3.784628212451934814e-01
3.215933442115783691e-01 -4.293636083602905273e-01 -3.573962450027465820e-01
4.614073634147644043e-01 -6.765196323394775391e-01 -3.737610578536987305e-01
3.765748739242553711e-01 -5.404762029647827148e-01 -3.455113470554351807e-01
3.049246072769165039e-01 -4.619625210762023926e-01 -3.712558746337890625e-01
3.878644704818725586e-01 -5.955605506896972656e-01 -3.811911940574645996e-01
2.966537475585937500e-01 -3.996754884719848633e-01 -3.874044716358184814e-01
3.041611015796661377e-01 -4.421988725662231445e-01 -3.855149745941162109e-01
3.819158077239990234e-01 -6.015209555625915527e-01 -3.627912998199462891e-01
4.156403541564941406e-01 -5.985936522483825684e-01 -3.475099205970764160e-01
4.163010418415069580e-01 -5.935128927230834961e-01 -3.502348959445953369e-01
3.832313716411590576e-01 -5.330273509025573730e-01 -3.521379232406616211e-01
3.993512392044067383e-01 -6.299643516540527344e-01 -3.592758774757385254e-01
3.588833510875701904e-01 -5.025358200073242188e-01 -3.486450612545013428e-01
3.590774238109588623e-01 -5.572031736373901367e-01 -3.537662625312805176e-01
3.765421211719512939e-01 -5.873838067054748535e-01 -3.528803884983062744e-01
3.178659081459045410e-01 -4.873059689998626709e-01 -3.645358383655548096e-01
2.997389435768127441e-01 -4.385170638561248779e-01 -3.834742009639739990e-01
2.980333268642425537e-01 -3.921713531017303467e-01 -3.608366847038269043e-01
2.922650873661041260e-01 -4.370666146278381348e-01 -3.664467632770538330e-01
4.358039498329162598e-01 -6.342823505401611328e-01 -3.809521794319152832e-01
3.134455680847167969e-01 -4.210994243621826172e-01 -3.558875322341918945e-01
3.104127049446105957e-01 -4.448972642421722412e-01 -3.881286978721618652e-01
2.805239260196685791e-01 -4.108699262142181396e-01 -3.750005662441253662e-01
4.214043319225311279e-01 -6.386419534683227539e-01 -3.823973536491394043e-01
3.578867912292480469e-01 -5.335023403167724609e-01 -3.455517888069152832e-01
4.515384435653686523e-01 -7.052082419395446777e-01 -3.520055115222930908e-01
3.821310400962829590e-01 -5.387755632400512695e-01 -3.871077895164489746e-01
4.494667649269104004e-01 -6.969162821769714355e-01 -3.486891686916351318e-01
3.620932400226593018e-01 -5.276950597763061523e-01 -3.893695771694183350e-01
3.335090875625610352e-01 -4.979081153869628906e-01 -3.491965234279632568e-01
4.153592288494110107e-01 -6.221021413803100586e-01 -3.433274924755096436e-01
3.651620447635650635e-01 -5.563365817070007324e-01 -3.828697800636291504e-01
4.044164121150970459e-01 -5.861629843711853027e-01 -3.864423930644989014e-01
4.283158183097839355e-01 -6.706755161285400391e-01 -3.512001931667327881e-01
3.629574477672576904e-01 -5.393010973930358887e-01 -3.876022398471832275e-01
3.246389329433441162e-01 -4.781934022903442383e-01 -3.494746983051300049e-01
3.903089165687561035e-01 -5.426082611083984375e-01 -3.535740971565246582e-01
3.305072486400604248e-01 -4.852266013622283936e-01 -3.875847756862640381e-01
4.017486274242401123e-01 -5.641651153564453125e-01 -3.824902772903442383e-01
2.815879583358764648e-01 -3.746880888938903809e-01 -3.851201534271240234e-01
4.400804340839385986e-01 -6.245943903923034668e-01 -3.661409914493560791e-01
3.163353800773620605e-01 -4.349429011344909668e-01 -3.893142044544219971e-01
3.781046271324157715e-01 -5.121449828147888184e-01 -3.750270009040832520e-01
3.802556991577148438e-01 -5.521428585052490234e-01 -3.888131678104400635e-01
3.706562519073486328e-01 -5.813617706298828125e-01 -3.584979176521301270e-01
4.024365842342376709e-01 -5.730437040328979492e-01 -3.484146595001220703e-01
4.753400683403015137e-01 -7.127623558044433594e-01 -3.515935540199279785e-01
4.273552596569061279e-01 -6.547924280166625977e-01 -3.796270191669464111e-01
3.907501995563507080e-01 -5.335999131202697754e-01 -3.651624917984008789e-01
2.712243795394897461e-01 -3.552001118659973145e-01 -3.652282655239105225e-01
4.389840364456176758e-01 -6.423057317733764648e-01 -3.476043343544006348e-01
2.993135452270507812e-01 -4.514160752296447754e-01 -3.696164488792419434e-01
2.932304143905639648e-01 -3.773590326309204102e-01 -3.768348991870880127e-01
3.194328248500823975e-01 -4.593194425106048584e-01 -3.887897133827209473e-01
4.686605632305145264e-01 -6.932715177536010742e-01 -3.525276184082031250e-01
4.454495310783386230e-01 -6.373433470726013184e-01 -3.589687943458557129e-01
2.806775271892547607e-01 -3.623993396759033203e-01 -3.794551789760589600e-01
4.366317689418792725e-01 -6.872386932373046875e-01 -3.562905490398406982e-01
3.145679831504821777e-01 -4.741231501102447510e-01 -3.559405803680419922e-01
2.949033379554748535e-01 -4.210570752620697021e-01 -3.541134595870971680e-01
4.272324442863464355e-01 -6.409690380096435547e-01 -3.829786777496337891e-01
3.217217326164245605e-01 -4.898913800716400146e-01 -3.568900227546691895e-01
4.592816531658172607e-01 -6.977648735046386719e-01 -3.760122060775756836e-01
3.415290415287017822e-01 -4.497817456722259521e-01 -3.718620240688323975e-01
4.091460108757019043e-01 -6.426348686218261719e-01 -3.703024089336395264e-01
3.884146213531494141e-01 -5.538260936737060547e-01 -3.874306976795196533e-01
3.781664967536926270e-01 -5.193970799446105957e-01 -3.556543290615081787e-01
2.849832773208618164e-01 -4.035544395446777344e-01 -3.848583400249481201e-01
3.505579233169555664e-01 -5.093902945518493652e-01 -3.895460963249206543e-01
4.132825732231140137e-01 -6.486568450927734375e-01 -3.706918954849243164e-01
4.187335968017578125e-01 -6.262792348861694336e-01 -3.842580318450927734e-01
4.676482379436492920e-01 -7.027572393417358398e-01 -3.745256364345550537e-01
4.568317532539367676e-01 -6.608658432960510254e-01 -3.703495562076568604e-01
3.442577421665191650e-01 -5.256893038749694824e-01 -3.512845337390899658e-01
3.671346008777618408e-01 -5.307365655899047852e-01 -3.895428478717803955e-01
4.129717350006103516e-01 -6.399311423301696777e-01 -3.774090111255645752e-01
3.312241733074188232e-01 -4.377937018871307373e-01 -3.620582222938537598e-01
3.313957154750823975e-01 -5.127156972885131836e-01 -3.670814633369445801e-01
2.856280803680419922e-01 -3.959202766418457031e-01 -3.561927974224090576e-01
4.082003533840179443e-01 -6.050786972045898438e-01 -3.434037864208221436e-01
4.217770993709564209e-01 -6.654200553894042969e-01 -3.583031892776489258e-01
3.121343255043029785e-01 -4.757811427116394043e-01 -3.631036281585693359e-01
2.889344394207000732e-01 -4.113768935203552246e-01 -3.851886093616485596e-01
4.356042742729187012e-01 -6.210095882415771484e-01 -3.754014968872070312e-01
4.449712932109832764e-01 -6.450098156929016113e-01 -3.515592515468597412e-01
3.771646022796630859e-01 -5.313012599945068359e-01 -3.483711779117584229e-01
2.871924936771392822e-01 -4.053649902343750000e-01 -3.557904064655303955e-01
4.496648907661437988e-01 -6.625459194183349609e-01 -3.481461703777313232e-01
4.323210120201110840e-01 -6.135302782058715820e-01 -3.571494817733764648e-01
3.107832968235015869e-01 -4.700194001197814941e-01 -3.587858676910400391e-01
3.635217547416687012e-01 -5.011859536170959473e-01 -3.864710927009582520e-01
3.954750597476959229e-01 -6.228625178337097168e-01 -3.672944009304046631e-01
3.433856070041656494e-01 -5.326089859008789062e-01 -3.718793094158172607e-01
2.959057688713073730e-01 -4.143238067626953125e-01 -3.536996543407440186e-01
3.953604102134704590e-01 -5.485835075378417969e-01 -3.806547820568084717e-01
4.291882514953613281e-01 -6.428762674331665039e-01 -3.439038395881652832e-01
3.212248980998992920e-01 -4.203855395317077637e-01 -3.796348273754119873e-01
4.612851440906524658e-01 -6.700522899627685547e-01 -3.580918908119201660e-01
4.427268803119659424e-01 -6.966709494590759277e-01 -3.577729165554046631e-01
2.711529433727264404e-01 -3.749493956565856934e-01 -3.606416285037994385e-01
3.561128973960876465e-01 -4.738326370716094971e-01 -3.687656819820404053e-01
4.327518939971923828e-01 -6.721553802490234375e-01 -3.746920228004455566e-01
3.059688210487365723e-01 -4.512876272201538086e-01 -3.540380299091339111e-01
2.850812971591949463e-01 -3.896622955799102783e-01 -3.867004811763763428e-01
4.280544519424438477e-01 -6.080480813980102539e-01 -3.773344457149505615e-01
3.540712893009185791e-01 -5.032199025154113770e-01 -3.900184631347656250e-01
3.735865056514739990e-01 -5.212250351905822754e-01 -3.501531183719635010e-01
4.109397232532501221e-01 -6.478745937347412109e-01 -3.568722009658813477e-01
4.210593104362487793e-01 -6.312249898910522461e-01 -3.434934020042419434e-01
3.584026098251342773e-01 -5.425810813903808594e-01 -3.841129243373870850e-01
4.653641581535339355e-01 -6.891107559204101562e-01 -3.742499053478240967e-01
3.021590709686279297e-01 -3.915827870368957520e-01 -3.665965497493743896e-01
4.488432705402374268e-01 -7.043033838272094727e-01 -3.649441301822662354e-01
2.870775759220123291e-01 -4.158309698104858398e-01 -3.578730523586273193e-01
4.251959323883056641e-01 -6.207579970359802246e-01 -3.835645914077758789e-01
3.991184830665588379e-01 -5.903083682060241699e-01 -3.433623015880584717e-01
3.283100426197052002e-01 -4.445080757141113281e-01 -3.543035686016082764e-01
2.887517511844635010e-01 -4.294980466365814209e-01 -3.721839487552642822e-01
4.164010584354400635e-01 -5.849945545196533203e-01 -3.775982558727264404e-01
4.384201765060424805e-01 -6.798235177993774414e-01 -3.477745652198791504e-01
3.987729251384735107e-01 -5.473600029945373535e-01 -3.670445084571838379e-01
3.048224449157714844e-01 -4.234911799430847168e-01 -3.889573812484741211e-01
3.179807364940643311e-01 -4.848303198814392090e-01 -3.592313230037689209e-01
3.469795584678649902e-01 -5.390381217002868652e-01 -3.717043995857238770e-01
4.111410975456237793e-01 -5.844967961311340332e-01 -3.829610347747802734e-01
4.233874678611755371e-01 -5.981305837631225586e-01 -3.770149052143096924e-01
3.239578604698181152e-01 -4.989100098609924316e-01 -3.649291992187500000e-01
4.751548171043395996e-01 -7.256942987442016602e-01 -3.704552948474884033e-01
2.982214987277984619e-01 -4.468490481376647949e-01 -3.616527616977691650e-01
3.360879421234130859e-01 -5.181620717048645020e-01 -3.741141855716705322e-01
4.574393630027770996e-01 -7.083486914634704590e-01 -3.493606150150299072e-01
2.759219706058502197e-01 -3.982128500938415527e-01 -3.629224896430969238e-01
4.825160205364227295e-01 -7.233124375343322754e-01 -3.552670478820800781e-01
4.478764533996582031e-01 -6.517931818962097168e-01 -3.510230779647827148e-01
3.345865309238433838e-01 -4.386717975139617920e-01 -3.721654713153839111e-01
4.533935785293579102e-01 -7.030670046806335449e-01 -3.719167411327362061e-01
2.767968177795410156e-01 -3.881335854530334473e-01 -3.588917255401611328e-01
4.062623977661132812e-01 -6.081514954566955566e-01 -3.853435814380645752e-01
4.107536673545837402e-01 -5.914704799652099609e-01 -3.849734365940093994e-01
4.010231494903564453e-01 -6.205472946166992188e-01 -3.784523010253906250e-01
3.075352609157562256e-01 -4.152262210845947266e-01 -3.879427611827850342e-01
4.447904527187347412e-01 -6.559916734695434570e-01 -3.801304101943969727e-01
4.224913120269775391e-01 -6.478151082992553711e-01 -3.449552357196807861e-01
2.674855589866638184e-01 -3.786896467208862305e-01 -3.779006600379943848e-01
3.174817860126495361e-01 -4.834916591644287109e-01 -3.751603662967681885e-01
3.141494989395141602e-01 -4.115206599235534668e-01 -3.630859851837158203e-01
3.310455977916717529e-01 -5.026347637176513672e-01 -3.802240490913391113e-01
3.691772818565368652e-01 -5.383313298225402832e-01 -3.444461822509765625e-01
4.244347810745239258e-01 -5.945619344711303711e-01 -3.653563261032104492e-01
3.222636282444000244e-01 -4.493299126625061035e-01 -3.898939490318298340e-01
4.419007301330566406e-01 -6.488824486732482910e-01 -3.473815321922302246e-01
4.269132912158966064e-01 -6.069256067276000977e-01 -3.539608418941497803e-01
3.251494467258453369e-01 -4.808289706707000732e-01 -3.859172761440277100e-01
3.384549915790557861e-01 -5.096907019615173340e-01 -3.495130836963653564e-01
4.092474281787872314e-01 -5.757570266723632812e-01 -3.808280825614929199e-01
2.887066900730133057e-01 -3.807552158832550049e-01 -3.847350180149078369e-01
3.963806629180908203e-01 -5.794785022735595703e-01 -3.440138101577758789e-01
2.945578098297119141e-01 -4.361453354358673096e-01 -3.591497242450714111e-01
2.917784154415130615e-01 -4.288147091865539551e-01 -3.799720108509063721e-01
3.374578952789306641e-01 -5.216987133026123047e-01 -3.586362600326538086e-01
4.313230812549591064e-01 -6.214507222175598145e-01 -3.804077506065368652e-01
4.315814375877380371e-01 -6.571429371833801270e-01 -3.444156646728515625e-01
3.437762856483459473e-01 -4.597779512405395508e-01 -3.593578338623046875e-01
2.611514925956726074e-01 -3.454736471176147461e-01 -3.672116696834564209e-01
4.494094252586364746e-01 -6.760255098342895508e-01 -3.456084728240966797e-01
3.502465188503265381e-01 -5.449724197387695312e-01 -3.713232576847076416e-01
3.250263333320617676e-01 -4.415411949157714844e-01 -3.882364928722381592e-01
4.382653534412384033e-01 -6.524645686149597168e-01 -3.817085921764373779e-01
4.793105423450469971e-01 -7.111076116561889648e-01 -3.663274347782135010e-01
2.717117667198181152e-01 -3.914148211479187012e-01 -3.752291500568389893e-01
4.535894095897674561e-01 -6.801842451095581055e-01 -3.463701605796813965e-01
4.695615470409393311e-01 -7.185701131820678711e-01 -3.719712495803833008e-01
4.467917978763580322e-01 -6.778440475463867188e-01 -3.787700235843658447e-01
4.591756761074066162e-01 -7.173209190368652344e-01 -3.658248782157897949e-01
4.085927903652191162e-01 -6.217797398567199707e-01 -3.827034235000610352e-01
3.352958559989929199e-01 -4.908127188682556152e-01 -3.473918735980987549e-01
3.204006254673004150e-01 -4.312033355236053467e-01 -3.872752785682678223e-01
4.531442224979400635e-01 -6.577391624450683594e-01 -3.538779318332672119e-01
2.617248296737670898e-01 -3.401269614696502686e-01 -3.718745410442352295e-01
4.161031842231750488e-01 -6.568614244461059570e-01 -3.597399890422821045e-01
2.934975922107696533e-01 -4.154157042503356934e-01 -3.867024779319763184e-01
3.802420198917388916e-01 -5.612683892250061035e-01 -3.880837559700012207e-01
3.469848036766052246e-01 -5.405259728431701660e-01 -3.613839149475097656e-01
3.512022197246551514e-01 -4.859887659549713135e-01 -3.885082900524139404e-01
3.696541786193847656e-01 -5.758088827133178711e-01 -3.743727207183837891e-01
3.355809152126312256e-01 -4.419482350349426270e-01 -3.778778910636901855e-01
4.086460769176483154e-01 -5.651412606239318848e-01 -3.676904141902923584e-01
3.849886059761047363e-01 -5.280499458312988281e-01 -3.796338438987731934e-01
3.147738873958587646e-01 -4.816384017467498779e-01 -3.663519918918609619e-01
3.706861138343811035e-01 -5.073425769805908203e-01 -3.833413124084472656e-01
3.785548806190490723e-01 -5.736038684844970703e-01 -3.844896554946899414e-01
4.005358219146728516e-01 -5.570023059844970703e-01 -3.560762107372283936e-01
3.140401244163513184e-01 -4.187533855438232422e-01 -3.862046301364898682e-01
4.474915266036987305e-01 -6.399452686309814453e-01 -3.684436678886413574e-01
4.231261014938354492e-01 -6.211113333702087402e-01 -3.450352549552917480e-01
4.628263711929321289e-01 -6.766758561134338379e-01 -3.547845780849456787e-01
4.712085127830505371e-01 -6.999895572662353516e-01 -3.522283434867858887e-01
4.107967317104339600e-01 -5.695424675941467285e-01 -3.644878268241882324e-01
2.589675784111022949e-01 -3.513355851173400879e-01 -3.667274415493011475e-01
3.160557150840759277e-01 -4.720816016197204590e-01 -3.822918534278869629e-01
3.478941917419433594e-01 -4.756979942321777344e-01 -3.872180283069610596e-01
3.436226844787597656e-01 -4.858739376068115234e-01 -3.901989161968231201e-01
4.213100671768188477e-01 -5.923346281051635742e-01 -3.579767942428588867e-01
2.738027572631835938e-01 -3.978872895240783691e-01 -3.691658973693847656e-01
3.321392238140106201e-01 -4.828545153141021729e-01 -3.476410806179046631e-01
3.261452317237854004e-01 -4.293307065963745117e-01 -3.810290396213531494e-01
3.206473588943481445e-01 -4.740580320358276367e-01 -3.506318032741546631e-01
4.028101265430450439e-01 -6.356473565101623535e-01 -3.595471680164337158e-01
3.908236026763916016e-01 -6.152127385139465332e-01 -3.675734102725982666e-01
3.670675754547119141e-01 -4.920139014720916748e-01 -3.705510497093200684e-01
3.655403554439544678e-01 -5.509781241416931152e-01 -3.853482306003570557e-01
3.833407759666442871e-01 -5.461447834968566895e-01 -3.467096686363220215e-01
2.850876152515411377e-01 -3.844146132469177246e-01 -3.580695092678070068e-01
3.468675017356872559e-01 -5.326870083808898926e-01 -3.785248696804046631e-01
3.205019235610961914e-01 -4.569032192230224609e-01 -3.492575883865356445e-01
4.134849607944488525e-01 -6.474012136459350586e-01 -3.511289656162261963e-01
4.198984503746032715e-01 -6.605405807495117188e-01 -3.542453050613403320e-01
2.613342404365539551e-01 -3.464111983776092529e-01 -3.798295557498931885e-01
4.307597577571868896e-01 -6.352673768997192383e-01 -3.451907932758331299e-01
3.466707468032836914e-01 -4.978980123996734619e-01 -3.900573551654815674e-01
3.550036847591400146e-01 -5.218673348426818848e-01 -3.886857032775878906e-01
3.104378581047058105e-01 -4.481858313083648682e-01 -3.510316014289855957e-01
3.075472712516784668e-01 -4.382904469966888428e-01 -3.513107299804687500e-01
2.923415303230285645e-01 -4.223237633705139160e-01 -3.839668333530426025e-01
2.704280316829681396e-01 -3.496996462345123291e-01 -3.692076802253723145e-01
4.625444114208221436e-01 -7.099621295928955078e-01 -3.732280433177947998e-01
4.556730985641479492e-01 -6.900789141654968262e-01 -3.463117778301239014e-01
4.298509061336517334e-01 -6.048296689987182617e-01 -3.676860630512237549e-01
2.774177789688110352e-01 -3.699901401996612549e-01 -3.846899867057800293e-01
2.620911002159118652e-01 -3.694429099559783936e-01 -3.730527162551879883e-01
3.721652328968048096e-01 -5.020821094512939453e-01 -3.756471574306488037e-01
4.882274270057678223e-01 -7.408611178398132324e-01 -3.576384484767913818e-01
4.063076972961425781e-01 -6.264605522155761719e-01 -3.794907927513122559e-01
2.672459781169891357e-01 -3.449448347091674805e-01 -3.760566711425781250e-01
3.775423765182495117e-01 -5.100236535072326660e-01 -3.681861460208892822e-01
2.845304310321807861e-01 -4.184343516826629639e-01 -3.629108965396881104e-01
4.133819043636322021e-01 -5.777863860130310059e-01 -3.581274151802062988e-01
2.677579522132873535e-01 -3.831899762153625488e-01 -3.737858533859252930e-01
2.773645520210266113e-01 -3.931617140769958496e-01 -3.824823498725891113e-01
3.697319924831390381e-01 -5.653461217880249023e-01 -3.473825752735137939e-01
3.173421323299407959e-01 -4.236912131309509277e-01 -3.862022161483764648e-01
3.609611392021179199e-01 -5.185979008674621582e-01 -3.898409307003021240e-01
4.547708630561828613e-01 -6.672422885894775391e-01 -3.504126369953155518e-01
4.052309393882751465e-01 -6.393194198608398438e-01 -3.648847937583923340e-01
4.746718406677246094e-01 -7.339773774147033691e-01 -3.664229512214660645e-01
3.059892952442169189e-01 -4.572144746780395508e-01 -3.796154856681823730e-01
3.475503921508789062e-01 -4.605984985828399658e-01 -3.761479258537292480e-01
4.253836572170257568e-01 -6.145927906036376953e-01 -3.824250102043151855e-01
4.216181635856628418e-01 -6.569766998291015625e-01 -3.488761782646179199e-01
3.511617779731750488e-01 -5.372299551963806152e-01 -3.805351257324218750e-01
4.632537961006164551e-01 -6.979571580886840820e-01 -3.477438390254974365e-01
3.681516349315643311e-01 -4.984979033470153809e-01 -3.801081180572509766e-01
4.095937609672546387e-01 -6.254177093505859375e-01 -3.444367051124572754e-01
3.835000395774841309e-01 -5.212662220001220703e-01 -3.644787371158599854e-01
3.355398774147033691e-01 -4.705292582511901855e-01 -3.488352000713348389e-01
3.380949497222900391e-01 -4.460534453392028809e-01 -3.653140366077423096e-01
4.881415963172912598e-01 -7.385618686676025391e-01 -3.631152808666229248e-01
4.676870703697204590e-01 -6.836546659469604492e-01 -3.582366406917572021e-01
3.588529229164123535e-01 -5.616883039474487305e-01 -3.669284880161285400e-01
4.267674088478088379e-01 -6.727191805839538574e-01 -3.645373284816741943e-01
2.771396636962890625e-01 -4.051175117492675781e-01 -3.679373562335968018e-01
4.087026417255401611e-01 -6.319963335990905762e-01 -3.784020245075225830e-01
3.325702250003814697e-01 -4.431113004684448242e-01 -3.589820861816406250e-01
3.927157819271087646e-01 -5.695840716361999512e-01 -3.446724116802215576e-01
3.738725185394287109e-01 -5.097544789314270020e-01 -3.578304052352905273e-01
3.714970648288726807e-01 -5.789417028427124023e-01 -3.532788157463073730e-01
3.000904917716979980e-01 -3.923959136009216309e-01 -3.829707801342010498e-01
2.876558005809783936e-01 -4.267463982105255127e-01 -3.648463785648345947e-01
3.956449031829833984e-01 -5.517139434814453125e-01 -3.535731732845306396e-01
2.906340360641479492e-01 -4.002937972545623779e-01 -3.553628921508789062e-01
3.382800519466400146e-01 -5.248152613639831543e-01 -3.689476251602172852e-01
4.534259438514709473e-01 -6.648263335227966309e-01 -3.769520521163940430e-01
2.812987864017486572e-01 -3.619565963745117188e-01 -3.695856630802154541e-01
4.553884267807006836e-01 -7.129454612731933594e-01 -3.651344478130340576e-01
4.022593200206756592e-01 -5.537847280502319336e-01 -3.659056127071380615e-01
3.850898146629333496e-01 -5.870921611785888672e-01 -3.831115961074829102e-01
3.711064159870147705e-01 -5.391175746917724609e-01 -3.892713785171508789e-01
3.843905329704284668e-01 -5.957794189453125000e-01 -3.491429090499877930e-01
4.158939123153686523e-01 -6.547376513481140137e-01 -3.677437603473663330e-01
4.256214201450347900e-01 -5.985385179519653320e-01 -3.604580760002136230e-01
3.883733153343200684e-01 -6.095216870307922363e-01 -3.706560432910919189e-01
3.400739133358001709e-01 -5.283175110816955566e-01 -3.626212179660797119e-01
3.873109817504882812e-01 -5.601037740707397461e-01 -3.448495566844940186e-01
4.083265960216522217e-01 -5.672639608383178711e-01 -3.753728568553924561e-01
3.465403616428375244e-01 -4.681489169597625732e-01 -3.849854469299316406e-01
3.764699697494506836e-01 -5.817778110504150391e-01 -3.491539359092712402e-01
3.493892848491668701e-01 -5.260367393493652344e-01 -3.476200103759765625e-01
3.796237707138061523e-01 -5.873489379882812500e-01 -3.784278929233551025e-01
3.345991373062133789e-01 -4.633368551731109619e-01 -3.895753324031829834e-01
3.565907776355743408e-01 -4.979084730148315430e-01 -3.889525830745697021e-01
3.573599457740783691e-01 -5.364136099815368652e-01 -3.858471810817718506e-01
2.586891949176788330e-01 -3.570632040500640869e-01 -3.681960403919219971e-01
3.724464774131774902e-01 -5.142678022384643555e-01 -3.527770638465881348e-01
4.745156168937683105e-01 -7.185947299003601074e-01 -3.502307832241058350e-01
2.718874812126159668e-01 -3.919559717178344727e-01 -3.661032617092132568e-01
3.011576235294342041e-01 -4.442828893661499023e-01 -3.556122481822967529e-01
2.956574559211730957e-01 -3.840736746788024902e-01 -3.648915290832519531e-01
4.659966528415679932e-01 -6.865088939666748047e-01 -3.528901338577270508e-01
3.091259598731994629e-01 -4.111102223396301270e-01 -3.580988943576812744e-01
3.640909194946289062e-01 -5.707435607910156250e-01 -3.607997596263885498e-01
4.515120983123779297e-01 -6.923837661743164062e-01 -3.759030997753143311e-01
4.645954966545104980e-01 -6.755464076995849609e-01 -3.665568232536315918e-01
3.656114637851715088e-01 -5.692076086997985840e-01 -3.741978704929351807e-01
3.023753166198730469e-01 -4.552184343338012695e-01 -3.746655285358428955e-01
3.450504243373870850e-01 -4.704564809799194336e-01 -3.534221351146697998e-01
3.252416253089904785e-01 -4.607855081558227539e-01 -3.899376392364501953e-01
2.643547654151916504e-01 -3.753932416439056396e-01 -3.725862205028533936e-01
4.292767047882080078e-01 -6.176732182502746582e-01 -3.500528037548065186e-01
3.535614609718322754e-01 -4.735947549343109131e-01 -3.610423505306243896e-01
3.195617794990539551e-01 -4.173020720481872559e-01 -3.658742308616638184e-01
3.658824563026428223e-01 -5.259278416633605957e-01 -3.454273641109466553e-01
4.773845076560974121e-01 -7.409753799438476562e-01 -3.596979379653930664e-01
4.031575322151184082e-01 -6.163353323936462402e-01 -3.447685241699218750e-01
3.221585750579833984e-01 -4.380138218402862549e-01 -3.535135388374328613e-01
3.355015516281127930e-01 -4.792226254940032959e-01 -3.900629878044128418e-01
3.673104047775268555e-01 -5.725833177566528320e-01 -3.543168604373931885e-01
3.336507678031921387e-01 -4.522476792335510254e-01 -3.873445689678192139e-01
4.674135744571685791e-01 -6.841173768043518066e-01 -3.694002628326416016e-01
3.108260929584503174e-01 -4.712223410606384277e-01 -3.748970627784729004e-01
3.839143216609954834e-01 -6.009382605552673340e-01 -3.536388874053955078e-01
4.724251627922058105e-01 -6.925387382507324219e-01 -3.619130253791809082e-01
4.146369993686676025e-01 -6.057764291763305664e-01 -3.449429273605346680e-01
2.860797047615051270e-01 -4.244956374168395996e-01 -3.701999783515930176e-01
4.767669737339019775e-01 -7.271177172660827637e-01 -3.509919047355651855e-01
4.180287420749664307e-01 -6.438388824462890625e-01 -3.790971934795379639e-01
3.487557172775268555e-01 -5.266682505607604980e-01 -3.840377926826477051e-01
3.975468873977661133e-01 -5.488947033882141113e-01 -3.590817749500274658e-01
4.083746969699859619e-01 -5.770974755287170410e-01 -3.515013456344604492e-01
3.037203550338745117e-01 -4.588825106620788574e-01 -3.627256751060485840e-01
3.697195947170257568e-01 -4.985815584659576416e-01 -3.630940616130828857e-01
2.802404463291168213e-01 -3.985747098922729492e-01 -3.829557597637176514e-01
2.890059649944305420e-01 -3.944934606552124023e-01 -3.872457146644592285e-01
4.362899959087371826e-01 -6.873704195022583008e-01 -3.626664280891418457e-01
4.011559784412384033e-01 -5.999891757965087891e-01 -3.858037292957305908e-01
3.955865502357482910e-01 -5.424922108650207520e-01 -3.732235729694366455e-01
4.391348958015441895e-01 -6.258879899978637695e-01 -3.578670024871826172e-01
3.728933632373809814e-01 -5.708628296852111816e-01 -3.472474515438079834e-01
4.472642838954925537e-01 -6.993435621261596680e-01 -3.687064945697784424e-01
4.331192374229431152e-01 -6.661405563354492188e-01 -3.779954612255096436e-01
3.687767386436462402e-01 -5.680827498435974121e-01 -3.795795440673828125e-01
4.708425700664520264e-01 -7.079390287399291992e-01 -3.497294485569000244e-01
4.817988276481628418e-01 -7.228757143020629883e-01 -3.680348396301269531e-01
3.137511909008026123e-01 -4.080264568328857422e-01 -3.783634901046752930e-01
4.411708712577819824e-01 -6.891255378723144531e-01 -3.706146478652954102e-01
3.867243826389312744e-01 -6.095451712608337402e-01 -3.622427582740783691e-01
3.567570447921752930e-01 -5.227361321449279785e-01 -3.451031148433685303e-01
3.419718146324157715e-01 -4.770540893077850342e-01 -3.491952717304229736e-01
3.727938830852508545e-01 -5.842734575271606445e-01 -3.699730038642883301e-01
3.392321467399597168e-01 -4.662050902843475342e-01 -3.515418767929077148e-01
4.400765895843505859e-01 -6.921474933624267578e-01 -3.647378981113433838e-01
4.530215561389923096e-01 -6.514682769775390625e-01 -3.685458302497863770e-01
3.012674748897552490e-01 -4.357834458351135254e-01 -3.532163798809051514e-01
4.365403950214385986e-01 -6.268921494483947754e-01 -3.778428137302398682e-01
4.661806821823120117e-01 -7.266250848770141602e-01 -3.647785484790802002e-01
4.365426898002624512e-01 -6.673457622528076172e-01 -3.450287580490112305e-01
4.584528505802154541e-01 -7.186812758445739746e-01 -3.594423532485961914e-01
2.876969575881958008e-01 -3.740213513374328613e-01 -3.818557262420654297e-01
4.266556799411773682e-01 -5.989970564842224121e-01 -3.692815899848937988e-01
4.546846449375152588e-01 -6.760657429695129395e-01 -3.780983090400695801e-01
4.684500396251678467e-01 -7.186001539230346680e-01 -3.493529856204986572e-01
4.122891426086425781e-01 -6.013624668121337891e-01 -3.856237828731536865e-01
3.979006409645080566e-01 -5.548730492591857910e-01 -3.815633356571197510e-01
3.911545872688293457e-01 -6.030747294425964355e-01 -3.798893690109252930e-01
3.747588992118835449e-01 -5.632207393646240234e-01 -3.860113918781280518e-01
3.750593960285186768e-01 -5.101898908615112305e-01 -3.796307742595672607e-01
2.649877965450286865e-01 -3.694481849670410156e-01 -3.641217052936553955e-01
3.105901181697845459e-01 -4.294284880161285400e-01 -3.521410524845123291e-01
3.897070586681365967e-01 -6.095108985900878906e-01 -3.523450493812561035e-01
3.981517553329467773e-01 -5.480358004570007324e-01 -3.749113678932189941e-01
4.306115508079528809e-01 -6.070777177810668945e-01 -3.621346950531005859e-01
3.361608982086181641e-01 -4.574738144874572754e-01 -3.534158766269683838e-01
4.656189084053039551e-01 -7.110790610313415527e-01 -3.482674360275268555e-01
2.698638439178466797e-01 -3.507629632949829102e-01 -3.798285424709320068e-01
2.856656312942504883e-01 -3.667429387569427490e-01 -3.715812563896179199e-01
3.418012559413909912e-01 -4.519816637039184570e-01 -3.651604354381561279e-01
3.324503004550933838e-01 -4.954710006713867188e-01 -3.853231072425842285e-01
3.729906976222991943e-01 -5.492039918899536133e-01 -3.884923160076141357e-01
3.448089957237243652e-01 -5.347248911857604980e-01 -3.577566742897033691e-01
4.172231554985046387e-01 -5.967400670051574707e-01 -3.826724588871002197e-01
2.789914309978485107e-01 -3.822340369224548340e-01 -3.582549691200256348e-01
4.119081795215606689e-01 -6.140928268432617188e-01 -3.433046340942382812e-01
4.343025088310241699e-01 -6.404381990432739258e-01 -3.823698461055755615e-01
2.742379009723663330e-01 -3.640862703323364258e-01 -3.837932050228118896e-01
3.319097161293029785e-01 -5.123502612113952637e-01 -3.603582978248596191e-01
4.154024720191955566e-01 -6.345736980438232422e-01 -3.444301486015319824e-01
4.235855638980865479e-01 -6.654875874519348145e-01 -3.690265715122222900e-01
3.037889897823333740e-01 -4.023761153221130371e-01 -3.855344355106353760e-01
4.266802370548248291e-01 -6.629748344421386719e-01 -3.752214312553405762e-01
3.286974430084228516e-01 -4.307106733322143555e-01 -3.667102456092834473e-01
2.688507139682769775e-01 -3.811545372009277344e-01 -3.638877272605895996e-01
3.941466808319091797e-01 -5.437111854553222656e-01 -3.582377135753631592e-01
3.672752082347869873e-01 -5.233916044235229492e-01 -3.894247710704803467e-01
3.600694239139556885e-01 -5.578925609588623047e-01 -3.762295544147491455e-01
3.445242345333099365e-01 -4.604578316211700439e-01 -3.821946978569030762e-01
3.617694079875946045e-01 -4.842028319835662842e-01 -3.756320476531982422e-01
4.187976121902465820e-01 -5.862005949020385742e-01 -3.600299358367919922e-01
3.849015235900878906e-01 -5.648117065429687500e-01 -3.882318139076232910e-01
4.191227257251739502e-01 -6.599820852279663086e-01 -3.671775162220001221e-01
3.345072865486145020e-01 -5.182183384895324707e-01 -3.631109893321990967e-01
4.201646149158477783e-01 -6.385170221328735352e-01 -3.439350724220275879e-01
2.634498178958892822e-01 -3.564716577529907227e-01 -3.812590837478637695e-01
4.213040173053741455e-01 -6.566376686096191406e-01 -3.743341863155364990e-01
4.577746987342834473e-01 -6.688619852066040039e-01 -3.744164705276489258e-01
4.059349000453948975e-01 -6.347653269767761230e-01 -3.734822273254394531e-01
3.812539875507354736e-01 -5.239599943161010742e-01 -3.817379474639892578e-01
4.675406515598297119e-01 -7.284005284309387207e-01 -3.548738956451416016e-01
2.712155878543853760e-01 -3.844744563102722168e-01 -3.798614144325256348e-01
4.066953957080841064e-01 -6.349734067916870117e-01 -3.500463366508483887e-01
2.821328341960906982e-01 -4.066208899021148682e-01 -3.592324554920196533e-01
3.039299845695495605e-01 -4.363662302494049072e-01 -3.870863318443298340e-01
2.631708979606628418e-01 -3.555727005004882812e-01 -3.643375039100646973e-01
4.405325353145599365e-01 -6.375622153282165527e-01 -3.508715331554412842e-01
3.464256227016448975e-01 -4.580319821834564209e-01 -3.686376810073852539e-01
3.396762907505035400e-01 -4.600684642791748047e-01 -3.865688443183898926e-01
3.509043753147125244e-01 -5.480178594589233398e-01 -3.641950190067291260e-01
3.569929599761962891e-01 -5.427123308181762695e-01 -3.480042815208435059e-01
3.574767410755157471e-01 -4.888618886470794678e-01 -3.858654201030731201e-01
3.590209186077117920e-01 -4.805782735347747803e-01 -3.636318445205688477e-01
3.296230435371398926e-01 -4.516862630844116211e-01 -3.520628511905670166e-01
3.872635066509246826e-01 -5.292394757270812988e-01 -3.616006374359130859e-01
4.321204423904418945e-01 -6.492877602577209473e-01 -3.440259993076324463e-01
3.175529837608337402e-01 -4.795503616333007812e-01 -3.554688394069671631e-01
4.442931711673736572e-01 -6.332204341888427734e-01 -3.629879951477050781e-01
3.026847839355468750e-01 -3.911484777927398682e-01 -3.775874674320220947e-01
3.986549079418182373e-01 -6.244772076606750488e-01 -3.522691130638122559e-01
3.783923089504241943e-01 -5.732253193855285645e-01 -3.450580537319183350e-01
3.817675709724426270e-01 -5.260885953903198242e-01 -3.551179766654968262e-01
2.555186748504638672e-01 -3.417822122573852539e-01 -3.704818487167358398e-01
3.760808706283569336e-01 -5.182033777236938477e-01 -3.839260041713714600e-01
3.207670152187347412e-01 -4.902899265289306641e-01 -3.742129206657409668e-01
3.142787218093872070e-01 -4.771453440189361572e-01 -3.756174147129058838e-01
3.998800814151763916e-01 -6.259109377861022949e-01 -3.729838132858276367e-01
3.170301020145416260e-01 -4.461617469787597656e-01 -3.501722216606140137e-01
3.617720901966094971e-01 -5.161538124084472656e-01 -3.461922705173492432e-01
2.565082907676696777e-01 -3.487684726715087891e-01 -3.764072358608245850e-01
4.097083806991577148e-01 -5.718986988067626953e-01 -3.573434948921203613e-01
4.127479493618011475e-01 -6.516510248184204102e-01 -3.623799681663513184e-01
4.496293663978576660e-01 -6.436800360679626465e-01 -3.640719354152679443e-01
4.633964300155639648e-01 -7.249045372009277344e-01 -3.581535220146179199e-01
3.401879072189331055e-01 -5.053684711456298828e-01 -3.866305947303771973e-01
3.291693031787872314e-01 -4.346093833446502686e-01 -3.814922571182250977e-01
2.727610468864440918e-01 -3.691294491291046143e-01 -3.606462180614471436e-01
3.346424102783203125e-01 -5.045155882835388184e-01 -3.504769504070281982e-01
3.316812217235565186e-01 -4.637323617935180664e-01 -3.493521809577941895e-01
4.022087156772613525e-01 -6.092103719711303711e-01 -3.437764942646026611e-01
3.653080761432647705e-01 -5.043050050735473633e-01 -3.519850969314575195e-01
3.248852491378784180e-01 -4.845543801784515381e-01 -3.508203327655792236e-01
3.448456525802612305e-01 -5.371196866035461426e-01 -3.664695918560028076e-01
3.776306807994842529e-01 -5.941373705863952637e-01 -3.610833585262298584e-01
2.978553175926208496e-01 -4.263693094253540039e-01 -3.863982260227203369e-01
3.978697657585144043e-01 -6.276254653930664062e-01 -3.644764721393585205e-01
-1.243100985884666443e-01 -2.719236314296722412e-01 -3.661234974861145020e-01
-1.534174382686614990e-01 -2.450462877750396729e-01 -3.558822274208068848e-01
-1.523404419422149658e-01 -3.048371970653533936e-01 -3.750353455543518066e-01
-1.185839027166366577e-01 -2.201912999153137207e-01 -3.803025186061859131e-01
-1.709975153207778931e-01 -3.095003962516784668e-01 -3.512637913227081299e-01
-1.749220490455627441e-01 -3.122807741165161133e-01 -3.822141885757446289e-01
-1.647704243659973145e-01 -3.096967041492462158e-01 -3.522759377956390381e-01
-1.047377735376358032e-01 -2.296558767557144165e-01 -3.601824641227722168e-01
-1.368192881345748901e-01 -2.885816395282745361e-01 -3.711945116519927979e-01
-1.766625195741653442e-01 -2.985734045505523682e-01 -3.514124751091003418e-01
-1.377944499254226685e-01 -2.521845698356628418e-01 -3.453329205513000488e-01
-1.317093223333358765e-01 -2.829014658927917480e-01 -3.633198738098144531e-01
-1.428464353084564209e-01 -2.579630017280578613e-01 -3.881056904792785645e-01
-1.151743531227111816e-01 -2.361975163221359253e-01 -3.804197311401367188e-01
-1.217539459466934204e-01 -2.460148930549621582e-01 -3.829017579555511475e-01
-1.586044132709503174e-01 -3.002681136131286621e-01 -3.834545314311981201e-01
-1.527608036994934082e-01 -2.674781084060668945e-01 -3.883035480976104736e-01
-1.703432053327560425e-01 -2.746399343013763428e-01 -3.534047901630401611e-01
-1.629287600517272949e-01 -2.692226767539978027e-01 -3.856630027294158936e-01
-1.402989625930786133e-01 -2.738889455795288086e-01 -3.855314850807189941e-01
-1.566740870475769043e-01 -2.515838444232940674e-01 -3.815971016883850098e-01
-1.561619937419891357e-01 -2.791252732276916504e-01 -3.882164955139160156e-01
-1.613439172506332397e-01 -2.612885236740112305e-01 -3.835151195526123047e-01
