-1.539652049541473389e-01 5.126795172691345215e-01 1.025342792272567749e-01
-1.436341702938079834e-01 5.264047980308532715e-01 -1.652915775775909424e-02
-2.612578272819519043e-01 4.935946762561798096e-01 1.587765663862228394e-02
-3.159992098808288574e-01 6.620947122573852539e-01 -3.746580481529235840e-01
-2.420396208763122559e-01 4.747004210948944092e-01 -3.015885651111602783e-01
-2.105168849229812622e-01 7.255081534385681152e-01 1.681262701749801636e-01
-2.778028547763824463e-01 8.098554611206054688e-01 -1.011771857738494873e-01
-1.851246953010559082e-01 4.428654015064239502e-01 -7.107457518577575684e-02
-1.596776992082595825e-01 7.002802491188049316e-01 -7.348451763391494751e-02
-1.870298534631729126e-01 5.603451728820800781e-01 -2.910824418067932129e-01
-3.299153447151184082e-01 6.553655266761779785e-01 -2.815045714378356934e-01
-2.272233068943023682e-01 7.366915941238403320e-01 -3.145083785057067871e-01
-1.964995414018630981e-01 7.645705938339233398e-01 -1.552589982748031616e-01
-1.886165887117385864e-01 5.513067841529846191e-01 1.963066607713699341e-01
-2.022079825401306152e-01 6.264787316322326660e-01 -3.350373506546020508e-01
-2.303885519504547119e-01 6.037842035293579102e-01 -3.937545418739318848e-01
-2.145061045885086060e-01 4.850434660911560059e-01 -2.937415242195129395e-01
-1.381180286407470703e-01 5.929700136184692383e-01 1.813075691461563110e-02
-1.893986761569976807e-01 7.107076644897460938e-01 1.721086353063583374e-01
-3.114436566829681396e-01 7.183001041412353516e-01 -5.242875963449478149e-02
-2.573477029800415039e-01 7.680202722549438477e-01 -3.175118565559387207e-01
-3.268705010414123535e-01 6.835682988166809082e-01 -3.107349276542663574e-01
-2.352060824632644653e-01 8.134830594062805176e-01 -5.737031251192092896e-02
-2.233318835496902466e-01 6.561308503150939941e-01 -3.723275661468505859e-01
-1.743322163820266724e-01 6.548487544059753418e-01 -2.294143140316009521e-01
-3.277760148048400879e-01 6.314355731010437012e-01 -1.791621893644332886e-01
-2.707795798778533936e-01 6.852231621742248535e-01 1.143320649862289429e-01
-3.141859769821166992e-01 7.606946229934692383e-01 -2.526627480983734131e-01
-3.250637948513031006e-01 5.987314581871032715e-01 -2.570107579231262207e-01
-3.190341591835021973e-01 6.760370731353759766e-01 -7.829397916793823242e-02
-1.719280332326889038e-01 4.607545137405395508e-01 2.552179992198944092e-02
-2.024819850921630859e-01 7.409188747406005859e-01 1.451662331819534302e-01
-2.937465310096740723e-01 5.070169568061828613e-01 -1.380531340837478638e-01
-1.745779067277908325e-01 6.698144674301147461e-01 1.890047639608383179e-01
-2.706193625926971436e-01 6.125521063804626465e-01 -4.270794391632080078e-01
-1.852142810821533203e-01 7.503917217254638672e-01 -1.311494857072830200e-01
-1.454757302999496460e-01 5.854274630546569824e-01 -9.645587950944900513e-02
-3.288374245166778564e-01 6.787139177322387695e-01 -1.721568703651428223e-01
-2.572256028652191162e-01 4.749718606472015381e-01 -1.442793011665344238e-02
-2.329079210758209229e-01 7.924221754074096680e-01 -2.177669405937194824e-01
-2.326562404632568359e-01 7.373210787773132324e-01 1.465858966112136841e-01
-2.973188757896423340e-01 6.114892363548278809e-01 -4.103932976722717285e-01
-1.787843704223632812e-01 7.339459061622619629e-01 -1.367672383785247803e-01
-2.296072989702224731e-01 8.073180913925170898e-01 -1.396616995334625244e-01
-2.326400578022003174e-01 7.677829265594482422e-01 1.056824177503585815e-01
-3.023787140846252441e-01 5.262098908424377441e-01 -1.474214792251586914e-01
-2.882269024848937988e-01 4.912358522415161133e-01 -2.074176371097564697e-01
-2.792662084102630615e-01 5.245974659919738770e-01 -3.623601198196411133e-01
-2.396965026855468750e-01 4.404789209365844727e-01 -9.891399741172790527e-02
-2.481839209794998169e-01 7.506833076477050781e-01 -3.335638046264648438e-01
-2.395859956741333008e-01 5.854874253273010254e-01 -4.030480980873107910e-01
-1.513660550117492676e-01 5.007092952728271484e-01 -5.351595580577850342e-02
-2.435310781002044678e-01 5.367364883422851562e-01 -3.828656673431396484e-01
-1.605342179536819458e-01 5.601111054420471191e-01 -1.884649544954299927e-01
-1.992950141429901123e-01 7.282711267471313477e-01 -2.461531162261962891e-01
-2.807116806507110596e-01 4.842661023139953613e-01 -1.223680675029754639e-01
-2.650596201419830322e-01 5.734918117523193359e-01 -4.145112633705139160e-01
-2.988473474979400635e-01 5.993782281875610352e-01 4.279620945453643799e-03
-3.123239874839782715e-01 5.865970849990844727e-01 -3.542509078979492188e-01
-3.272889852523803711e-01 7.043901681900024414e-01 -1.736260950565338135e-01
-1.627131700515747070e-01 5.297425985336303711e-01 1.544191390275955200e-01
-1.875771433115005493e-01 7.689766883850097656e-01 -5.563460662961006165e-02
-2.915989458560943604e-01 5.335260033607482910e-01 -4.233226925134658813e-02
-1.924241632223129272e-01 7.428217530250549316e-01 -1.916007548570632935e-01
-1.896314024925231934e-01 4.676190018653869629e-01 8.551937341690063477e-02
-2.162014096975326538e-01 6.133261322975158691e-01 2.087049335241317749e-01
-3.200071454048156738e-01 6.277264356613159180e-01 -9.910633414983749390e-02
-3.147547543048858643e-01 6.350424885749816895e-01 -3.774956464767456055e-01
-2.786312699317932129e-01 8.110889792442321777e-01 -1.229061484336853027e-01
-2.615447938442230225e-01 7.978949546813964844e-01 5.516439676284790039e-03
-3.123182058334350586e-01 5.512728691101074219e-01 -2.763253450393676758e-01
-2.040807604789733887e-01 7.818555831909179688e-01 -1.341606527566909790e-01
-1.657840013504028320e-01 6.958034038543701172e-01 1.377020776271820068e-01
-3.267383575439453125e-01 6.081962585449218750e-01 -2.255868017673492432e-01
-2.154016047716140747e-01 7.907024621963500977e-01 4.152059555053710938e-02
-3.308450579643249512e-01 6.668049693107604980e-01 -2.609682083129882812e-01
-1.512450575828552246e-01 5.107504725456237793e-01 8.253839612007141113e-02
-1.467030197381973267e-01 5.549762845039367676e-01 1.225422471761703491e-01
-1.507238149642944336e-01 6.578816175460815430e-01 -8.286800980567932129e-02
-1.704884171485900879e-01 6.122526526451110840e-01 -2.344086021184921265e-01
-2.671037018299102783e-01 5.474348664283752441e-01 7.730308175086975098e-02
-2.535666823387145996e-01 4.696244299411773682e-01 -2.839022278785705566e-01
-3.265628218650817871e-01 7.180742025375366211e-01 -2.558482885360717773e-01
-3.278091251850128174e-01 6.194670200347900391e-01 -2.069674283266067505e-01
-3.246453404426574707e-01 6.757501959800720215e-01 -1.226283609867095947e-01
-1.456007659435272217e-01 6.436254382133483887e-01 9.864236414432525635e-02
-1.489034444093704224e-01 5.585382580757141113e-01 -1.179498285055160522e-01
-2.707915604114532471e-01 7.082817554473876953e-01 -3.983535170555114746e-01
-2.797401845455169678e-01 5.445565581321716309e-01 -3.867290019989013672e-01
-3.161250054836273193e-01 6.789139509201049805e-01 -5.982808768749237061e-02
-1.534948647022247314e-01 6.497214436531066895e-01 1.447288990020751953e-01
-1.035434976220130920e-01 5.347888469696044922e-01 -1.170731559395790100e-01
-2.002753019332885742e-01 6.493406891822814941e-01 -3.415549099445343018e-01
-2.587506175041198730e-01 7.584741711616516113e-01 -3.102265298366546631e-03
-9.862796962261199951e-02 5.562008619308471680e-01 -1.807810366153717041e-01
-1.199195906519889832e-01 7.191262245178222656e-01 -7.280386984348297119e-02
-1.879587471485137939e-01 5.374178290367126465e-01 8.227358013391494751e-02
-2.407252192497253418e-01 5.630016922950744629e-01 -9.639295935630798340e-02
-1.660705953836441040e-01 4.941424131393432617e-01 -1.235375031828880310e-01
-9.595964103937149048e-02 5.616151690483093262e-01 -1.640825867652893066e-01
-1.118869185447692871e-01 7.020841240882873535e-01 -8.283565193414688110e-02
-1.390504091978073120e-01 5.705563426017761230e-01 -3.054090142250061035e-01
-2.387743592262268066e-01 6.169449090957641602e-01 -2.368867248296737671e-01
-2.413579523563385010e-01 5.660803318023681641e-01 1.344613730907440186e-03
-1.524310261011123657e-01 5.027415156364440918e-01 -1.768594682216644287e-01
-2.284265607595443726e-01 5.394784808158874512e-01 -4.797771573066711426e-02
-1.066959127783775330e-01 5.877202153205871582e-01 -2.683810591697692871e-01
-9.591197222471237183e-02 5.928776860237121582e-01 -7.198567688465118408e-02
-2.685076892375946045e-01 7.141143679618835449e-01 9.094782173633575439e-03
-1.061541289091110229e-01 6.377822160720825195e-01 -2.501437813043594360e-02
-1.017847508192062378e-01 5.687974691390991211e-01 -2.280211746692657471e-01
-1.826990991830825806e-01 8.029599189758300781e-01 -2.527293860912322998e-01
-1.532395780086517334e-01 4.981596469879150391e-01 -9.810999035835266113e-03
-1.444800794124603271e-01 5.481943488121032715e-01 7.027756422758102417e-02
-2.213396430015563965e-01 5.429345369338989258e-01 3.458008915185928345e-02
-2.748845815658569336e-01 7.263636589050292969e-01 -7.354991137981414795e-02
-2.249413728713989258e-01 5.347651243209838867e-01 -6.513884663581848145e-02
-1.009744182229042053e-01 5.870412588119506836e-01 -2.459074556827545166e-01
-1.124484688043594360e-01 7.191036939620971680e-01 -2.165757715702056885e-01
-2.235777378082275391e-01 5.536940097808837891e-01 5.438316613435745239e-02
-1.322008669376373291e-01 7.605326771736145020e-01 -1.452009081840515137e-01
-2.749059498310089111e-01 7.164019942283630371e-01 -1.128040179610252380e-01
-2.415422648191452026e-01 5.617564320564270020e-01 -3.359907865524291992e-02
-1.260738670825958252e-01 6.744215488433837891e-01 2.107564359903335571e-02
-9.111654758453369141e-02 5.933257937431335449e-01 -1.494782716035842896e-01
-2.407699823379516602e-01 7.886289358139038086e-01 -1.887875050306320190e-02
-1.783142089843750000e-01 4.980573356151580811e-01 -1.725332438945770264e-02
-1.389513462781906128e-01 4.942613840103149414e-01 -1.076875030994415283e-01
-2.586771249771118164e-01 6.039825081825256348e-01 -9.155234694480895996e-02
-1.070566773414611816e-01 5.614610910415649414e-01 -2.238836884498596191e-02
-2.686477899551391602e-01 7.263423204421997070e-01 -1.733927577733993530e-01
-2.298327237367630005e-01 7.571586370468139648e-01 5.239868909120559692e-02
-2.671597898006439209e-01 6.463488340377807617e-01 4.632651805877685547e-03
-1.585140079259872437e-01 5.340248346328735352e-01 7.232350856065750122e-02
-2.725366055965423584e-01 7.298151254653930664e-01 -3.734140843152999878e-02
-1.719902902841567993e-01 5.100942850112915039e-01 -1.877174377441406250e-01
-1.887893378734588623e-01 6.181586980819702148e-01 -3.352307379245758057e-01
-1.530377864837646484e-01 7.755850553512573242e-01 -7.182593643665313721e-02
-1.331153362989425659e-01 6.154626011848449707e-01 7.022970169782638550e-02
-1.075842231512069702e-01 5.261822342872619629e-01 -1.289504617452621460e-01
-2.537964880466461182e-01 5.917825102806091309e-01 -1.020319014787673950e-02
-2.498444467782974243e-01 7.746080756187438965e-01 -6.637491285800933838e-03
-2.759114205837249756e-01 6.923341751098632812e-01 -7.572650909423828125e-02
-1.070789024233818054e-01 7.027920484542846680e-01 -2.199472635984420776e-01
-2.497612833976745605e-01 6.661522984504699707e-01 -2.458949387073516846e-01
-1.614326089620590210e-01 6.537951827049255371e-01 1.074828878045082092e-01
-1.014118343591690063e-01 6.824024915695190430e-01 -1.267722547054290771e-01
-1.850408911705017090e-01 5.029988288879394531e-01 -3.657989203929901123e-03
-2.564516961574554443e-01 7.831394672393798828e-01 -5.719879269599914551e-02
-2.695121467113494873e-01 6.402398943901062012e-01 -5.673420056700706482e-02
-2.567963600158691406e-01 7.863039970397949219e-01 -7.527202367782592773e-02
-1.216371580958366394e-01 7.326182126998901367e-01 -1.019208282232284546e-01
-1.507529616355895996e-01 7.456743121147155762e-01 -4.728764295578002930e-03
-2.067699730396270752e-01 5.143012404441833496e-01 -7.834202051162719727e-02
-9.889184683561325073e-02 5.646351575851440430e-01 -2.039225399494171143e-01
-2.323427498340606689e-01 5.495926141738891602e-01 -1.044370904564857483e-01
-1.011290401220321655e-01 6.701658368110656738e-01 -2.414891719818115234e-01
-2.535788118839263916e-01 6.381165385246276855e-01 -2.053716480731964111e-01
-1.308372914791107178e-01 5.113555788993835449e-01 -1.372328400611877441e-02
-1.388492584228515625e-01 5.094397664070129395e-01 2.291873097419738770e-03
-1.131384149193763733e-01 6.832795739173889160e-01 -2.919437587261199951e-01
-1.037364378571510315e-01 5.349427461624145508e-01 -1.413059383630752563e-01
-1.842679679393768311e-01 5.560675859451293945e-01 -2.723291814327239990e-01
-2.189406454563140869e-01 6.041252017021179199e-01 -2.760697603225708008e-01
-1.209497600793838501e-01 6.197832822799682617e-01 -3.206405639648437500e-01
-1.392287313938140869e-01 7.279745936393737793e-01 -7.429964840412139893e-03
-1.377921998500823975e-01 6.773508191108703613e-01 5.070791393518447876e-02
-2.115195989608764648e-01 5.184837579727172852e-01 -4.885601997375488281e-02
-2.389390021562576294e-01 6.971405148506164551e-01 -2.895483672618865967e-01
-2.332440912723541260e-01 5.749338269233703613e-01 -1.863125860691070557e-01
-2.076808065176010132e-01 8.188774585723876953e-01 -1.942583620548248291e-01
-2.742940783500671387e-01 7.062550783157348633e-01 -1.253556460142135620e-01
-9.821142256259918213e-02 5.508617758750915527e-01 -1.163244843482971191e-01
-2.502052783966064453e-01 6.473728418350219727e-01 -2.294567227363586426e-01
-1.155627444386482239e-01 5.316624045372009277e-01 -2.089632749557495117e-01
-2.250929921865463257e-01 6.422405838966369629e-01 1.235299333930015564e-01
-2.045852839946746826e-01 6.855453848838806152e-01 -3.473840951919555664e-01
-2.052029520273208618e-01 5.177509784698486328e-01 -1.218012049794197083e-01
-1.252110898494720459e-01 7.501355409622192383e-01 -1.790639609098434448e-01
-1.932781636714935303e-01 5.027937293052673340e-01 -5.106044560670852661e-02
-1.542812883853912354e-01 5.764527320861816406e-01 -3.162180781364440918e-01
-1.346152126789093018e-01 6.460898518562316895e-01 6.387496739625930786e-02
-1.647411733865737915e-01 7.953550815582275391e-01 -2.395837008953094482e-01
-2.439104020595550537e-01 6.091530323028564453e-01 -2.067769169807434082e-01
-2.048272639513015747e-01 5.419358015060424805e-01 -2.070645838975906372e-01
-1.833056658506393433e-01 6.496825814247131348e-01 1.288241446018218994e-01
-1.748243868350982666e-01 8.093301653861999512e-01 -1.832608878612518311e-01
-2.662241160869598389e-01 7.461913228034973145e-01 -1.615020632743835449e-02
-9.408716112375259399e-02 5.958575606346130371e-01 -2.108456641435623169e-01
-2.037176191806793213e-01 6.694838404655456543e-01 -3.450861573219299316e-01
-2.209377586841583252e-01 8.193680047988891602e-01 -1.275588423013687134e-01
-1.741039305925369263e-01 5.427178144454956055e-01 -2.614935338497161865e-01
-1.907316297292709351e-01 7.759760618209838867e-01 -3.134985268115997314e-01
-2.267295122146606445e-01 5.806107521057128906e-01 -2.218761742115020752e-01
-2.197841703891754150e-01 5.291851758956909180e-01 -2.397450059652328491e-02
-9.175141900777816772e-02 6.111466288566589355e-01 -1.183923706412315369e-01
-2.491043210029602051e-01 7.983056306838989258e-01 -1.584335416555404663e-01
-2.655477225780487061e-01 7.049333453178405762e-01 2.889292687177658081e-02
-1.273585110902786255e-01 6.427116990089416504e-01 -3.368220627307891846e-01
-2.494703829288482666e-01 7.577111124992370605e-01 -2.432529330253601074e-01
-2.419211566448211670e-01 7.209053635597229004e-01 -2.822212576866149902e-01
-1.239681839942932129e-01 6.037342548370361328e-01 4.915092140436172485e-02
-2.580330967903137207e-01 6.641404628753662109e-01 -2.114738821983337402e-01
-2.580462098121643066e-01 6.927124261856079102e-01 -2.275266349315643311e-01
-1.321559399366378784e-01 5.098631381988525391e-01 -1.853523105382919312e-01
-2.052517980337142944e-01 8.166750073432922363e-01 -2.100247740745544434e-01
-2.619418799877166748e-01 6.258838176727294922e-01 -1.335775703191757202e-01
-1.218040138483047485e-01 5.431723594665527344e-01 -2.485016584396362305e-01
-1.643266677856445312e-01 7.463169097900390625e-01 2.597454935312271118e-02
-1.138071343302726746e-01 7.238603830337524414e-01 -1.484855860471725464e-01
-2.640740275382995605e-01 6.188364028930664062e-01 -3.930983692407608032e-02
-2.557813227176666260e-01 5.940833687782287598e-01 -7.746723294258117676e-02
-1.812768429517745972e-01 6.809138059616088867e-01 1.144684776663780212e-01
-1.212260052561759949e-01 7.038636207580566406e-01 -3.452649712562561035e-02
-2.506644427776336670e-01 7.813162207603454590e-01 -2.067929655313491821e-01
-1.058955863118171692e-01 6.627461910247802734e-01 -5.034235864877700806e-02
-2.323185205459594727e-01 6.104867458343505859e-01 -2.491481900215148926e-01
-2.570316195487976074e-01 6.367018222808837891e-01 -1.864821165800094604e-01
-1.460870504379272461e-01 5.123589038848876953e-01 2.274622768163681030e-02
-2.346981763839721680e-01 5.932443141937255859e-01 -2.164635062217712402e-01
-9.733741730451583862e-02 5.575237274169921875e-01 -1.009847223758697510e-01
-2.617792487144470215e-01 6.215382218360900879e-01 5.789525806903839111e-03
-2.688102126121520996e-01 6.912679076194763184e-01 1.699098199605941772e-02
-2.015103548765182495e-01 6.746299862861633301e-01 1.266349256038665771e-01
-1.821565032005310059e-01 5.268204808235168457e-01 -2.190140187740325928e-01
-1.195181682705879211e-01 5.313022732734680176e-01 -8.327670395374298096e-03
-9.637533128261566162e-02 5.569579601287841797e-01 -1.318347007036209106e-01
-2.543512582778930664e-01 6.716764569282531738e-01 -2.323953360319137573e-01
-2.330682575702667236e-01 7.281159758567810059e-01 -3.013037443161010742e-01
-2.674643397331237793e-01 6.338028311729431152e-01 -8.843527734279632568e-02
-2.699281275272369385e-01 6.480565667152404785e-01 -1.007243171334266663e-01
-2.379601448774337769e-01 8.101273775100708008e-01 -1.031225845217704773e-01
-1.459329873323440552e-01 7.745741009712219238e-01 -2.465457618236541748e-01
-1.932791620492935181e-01 5.042159557342529297e-01 -9.577634930610656738e-02
-1.421277821063995361e-01 5.901250839233398438e-01 -3.257662653923034668e-01
-2.022954523563385010e-01 8.136755228042602539e-01 -8.391147851943969727e-02
-1.875520497560501099e-01 5.127849578857421875e-01 3.089334815740585327e-02
-1.320263296365737915e-01 7.553336024284362793e-01 -2.416424453258514404e-01
-1.966037303209304810e-01 8.169419765472412109e-01 -1.151783689856529236e-01
-2.655167579650878906e-01 7.706326842308044434e-01 -9.829322248697280884e-02
-2.633042335510253906e-01 7.616611123085021973e-01 -1.733869910240173340e-01
-1.069951504468917847e-01 6.523675918579101562e-01 -3.292313963174819946e-02
-2.674831748008728027e-01 6.451207995414733887e-01 -1.254795491695404053e-01
-2.449455857276916504e-01 7.429099678993225098e-01 -2.671495079994201660e-01
-2.666907906532287598e-01 6.284465193748474121e-01 -7.187038660049438477e-02
-9.840016812086105347e-02 6.756132841110229492e-01 -1.881849914789199829e-01
-1.857352256774902344e-01 5.654169321060180664e-01 -2.842955291271209717e-01
-2.119328379631042480e-01 7.603901624679565430e-01 5.309440940618515015e-02
-2.561135292053222656e-01 7.390490174293518066e-01 3.321399539709091187e-02
-1.000564321875572205e-01 5.719357728958129883e-01 -5.294370651245117188e-02
-1.661741137504577637e-01 7.715945839881896973e-01 -1.883393526077270508e-02
-2.237878590822219849e-01 6.222305297851562500e-01 -2.839149236679077148e-01
-9.507989138364791870e-02 6.438944935798645020e-01 -1.092259138822555542e-01
-2.257080972194671631e-01 8.090180754661560059e-01 -2.166942954063415527e-01
-2.132779806852340698e-01 7.465441226959228516e-01 -3.255591094493865967e-01
-1.442465037107467651e-01 7.094858288764953613e-01 3.347026556730270386e-02
-1.681934297084808350e-01 7.576817274093627930e-01 -3.283262848854064941e-01
-2.058041244745254517e-01 8.136376142501831055e-01 -2.252971678972244263e-01
-9.339766204357147217e-02 5.745012164115905762e-01 -1.221004873514175415e-01
-1.281217783689498901e-01 6.980216503143310547e-01 1.154206693172454834e-03
-1.552229225635528564e-01 6.065008640289306641e-01 1.084235683083534241e-01
-2.051365971565246582e-01 8.210595250129699707e-01 -1.516656279563903809e-01
-2.749101221561431885e-01 7.106354236602783203e-01 -4.298733174800872803e-02
-1.035672947764396667e-01 6.952803134918212891e-01 -1.549679934978485107e-01
-1.509761959314346313e-01 7.210851907730102539e-01 -3.458588123321533203e-01
-1.374948173761367798e-01 7.507033348083496094e-01 -6.367803364992141724e-02
-2.757076025009155273e-01 7.151538133621215820e-01 -9.023318439722061157e-02
-1.362002789974212646e-01 5.659145712852478027e-01 6.809668987989425659e-02
-1.676347255706787109e-01 6.376325488090515137e-01 1.195609495043754578e-01
-2.175714373588562012e-01 5.318773984909057617e-01 -1.235865950584411621e-01
-1.377964615821838379e-01 5.367555618286132812e-01 -2.572841048240661621e-01
-2.037978023290634155e-01 7.595297694206237793e-01 -3.255741596221923828e-01
-1.684456616640090942e-01 8.034370541572570801e-01 -1.379675865173339844e-01
-1.159811243414878845e-01 6.799224615097045898e-01 -2.203425019979476929e-02
-2.397788465023040771e-01 6.033887863159179688e-01 8.227512985467910767e-02
-1.986180841922760010e-01 5.543125271797180176e-01 9.753959625959396362e-02
-2.205044180154800415e-01 5.459994077682495117e-01 -1.641826331615447998e-01
-2.552218437194824219e-01 6.963373422622680664e-01 6.705229729413986206e-02
-2.580601274967193604e-01 7.341384887695312500e-01 -2.263469547033309937e-01
-1.628820747137069702e-01 4.917104840278625488e-01 -4.469547420740127563e-02
-1.491889059543609619e-01 4.910106360912322998e-01 -7.001826167106628418e-02
-1.302064061164855957e-01 7.499487996101379395e-01 -1.037983894348144531e-01
-2.590469419956207275e-01 6.021828651428222656e-01 -6.484663486480712891e-02
-1.126831993460655212e-01 6.566495895385742188e-01 -1.082589477300643921e-02
-1.998607814311981201e-01 7.972511053085327148e-01 -2.759823203086853027e-01
-2.700251042842864990e-01 7.558361887931823730e-01 -9.697252511978149414e-02
-2.052864879369735718e-01 5.340405702590942383e-01 -1.850425004959106445e-01
-1.321752071380615234e-01 4.991942346096038818e-01 -6.309095025062561035e-02
-1.144401729106903076e-01 5.802751183509826660e-01 1.762268692255020142e-02
-9.589399397373199463e-02 5.723119974136352539e-01 -8.726089447736740112e-02
-2.055744528770446777e-01 5.227158665657043457e-01 2.370836585760116577e-02
-1.288788169622421265e-01 7.239870429039001465e-01 -3.843697160482406616e-02
-2.146105319261550903e-01 8.073652386665344238e-01 -5.013358592987060547e-02
-2.256040126085281372e-01 5.368279814720153809e-01 -8.329060673713684082e-02
-1.381126940250396729e-01 7.670390605926513672e-01 -1.240852251648902893e-01
-2.347422540187835693e-01 5.718846917152404785e-01 5.428086966276168823e-02
-2.399332970380783081e-01 6.725074648857116699e-01 -2.794441878795623779e-01
-1.243231371045112610e-01 5.037022829055786133e-01 -8.968429267406463623e-02
-1.244932860136032104e-01 7.470520734786987305e-01 -1.481476128101348877e-01
-1.324712783098220825e-01 7.360792160034179688e-01 -2.935382425785064697e-01
-2.640632390975952148e-01 6.411989927291870117e-01 2.142844349145889282e-02
-1.248677521944046021e-01 7.408143281936645508e-01 -2.467089593410491943e-01
-9.784518927335739136e-02 6.165845394134521484e-01 -2.473742663860321045e-01
-2.003531455993652344e-01 8.034108877182006836e-01 -2.610316276550292969e-01
-2.494225203990936279e-01 5.804346799850463867e-01 -9.262190759181976318e-02
-1.141478717327117920e-01 6.012860536575317383e-01 -2.981147170066833496e-01
-9.830077737569808960e-02 6.420313119888305664e-01 -2.472581267356872559e-01
-1.754121929407119751e-01 8.055111169815063477e-01 -2.250525653362274170e-01
-1.715964674949645996e-01 7.310990691184997559e-01 5.969343334436416626e-02
-1.830316036939620972e-01 7.244365811347961426e-01 -3.566427528858184814e-01
-1.592465937137603760e-01 6.994210481643676758e-01 7.453572005033493042e-02
-1.435400396585464478e-01 7.691680788993835449e-01 -9.507725387811660767e-02
-2.449571788311004639e-01 5.778080821037292480e-01 1.797986775636672974e-02
-1.964895576238632202e-01 7.498354315757751465e-01 6.181874126195907593e-02
-1.221346408128738403e-01 7.176765799522399902e-01 -5.697945505380630493e-02
-1.485375165939331055e-01 6.855224967002868652e-01 6.735468655824661255e-02
-1.680439412593841553e-01 5.725847482681274414e-01 1.116193756461143494e-01
-1.111799851059913635e-01 6.010004281997680664e-01 8.876532316207885742e-03
-2.160336971282958984e-01 7.899790406227111816e-01 -5.513727664947509766e-04
-1.701616048812866211e-01 8.047311902046203613e-01 -2.046568989753723145e-01
-2.648181319236755371e-01 7.683266401290893555e-01 -6.508333235979080200e-02
-1.365472674369812012e-01 7.689622044563293457e-01 -1.659722477197647095e-01
-1.430383026599884033e-01 6.221863627433776855e-01 8.887849003076553345e-02
-2.376539409160614014e-01 8.086848258972167969e-01 -1.754909902811050415e-01
-2.418654412031173706e-01 7.284846901893615723e-01 7.200819998979568481e-02
-2.104960680007934570e-01 5.644240975379943848e-01 9.725036472082138062e-02
-1.498768329620361328e-01 7.025330662727355957e-01 5.408938974142074585e-02
-1.561579555273056030e-01 7.005157470703125000e-01 -3.602998852729797363e-01
-2.703772187232971191e-01 6.449550390243530273e-01 -7.188354432582855225e-02
-2.721187770366668701e-01 7.447232604026794434e-01 -1.104597300291061401e-01
-2.196947783231735229e-01 5.616132616996765137e-01 7.855276018381118774e-02
-2.443943619728088379e-01 6.984797120094299316e-01 -2.753539085388183594e-01
-9.178086370229721069e-02 6.256880164146423340e-01 -1.315669715404510498e-01
-2.489089071750640869e-01 7.565807700157165527e-01 2.772676199674606323e-02
-9.110844135284423828e-02 6.226166486740112305e-01 -1.469418406486511230e-01
-1.422952711582183838e-01 7.774389982223510742e-01 -1.798773407936096191e-01
-2.257878035306930542e-01 5.695111751556396484e-01 -2.036216109991073608e-01
-1.964513063430786133e-01 5.877566337585449219e-01 1.253087818622589111e-01
-2.467817664146423340e-01 7.961227893829345703e-01 -1.852760463953018188e-01
-2.296053320169448853e-01 6.720672249794006348e-01 1.165646240115165710e-01
-2.146202325820922852e-01 6.749764680862426758e-01 -3.321141302585601807e-01
-1.046472191810607910e-01 6.626634001731872559e-01 -2.710892260074615479e-01
-1.417386382818222046e-01 7.746047973632812500e-01 -2.150816321372985840e-01
-2.483265995979309082e-01 6.013777256011962891e-01 -1.714976727962493896e-01
-9.097473323345184326e-02 6.146755814552307129e-01 -1.756448149681091309e-01
-1.612336188554763794e-01 4.945273697376251221e-01 -2.223484963178634644e-02
-1.758312731981277466e-01 7.904055118560791016e-01 -2.802935838699340820e-01
-2.711608707904815674e-01 7.493807077407836914e-01 -7.422387599945068359e-02
-1.166820153594017029e-01 5.122412443161010742e-01 -1.263423711061477661e-01
-1.635296493768692017e-01 7.449883818626403809e-01 -3.381627798080444336e-01
-1.942655444145202637e-01 5.075465440750122070e-01 -1.176733598113059998e-01
-2.671636641025543213e-01 6.943245530128479004e-01 -1.825566887855529785e-01
-2.722965776920318604e-01 6.635743379592895508e-01 -1.054610386490821838e-01
-2.645451128482818604e-01 7.639541029930114746e-01 -4.609654843807220459e-02
-9.299375116825103760e-02 6.002549529075622559e-01 -9.933523833751678467e-02
-1.753614246845245361e-01 6.488867402076721191e-01 -3.602935671806335449e-01
-2.510195076465606689e-01 7.834488153457641602e-01 -3.240439295768737793e-02
-2.652794420719146729e-01 6.532788276672363281e-01 -1.590570211410522461e-01
-2.319281399250030518e-01 5.521092414855957031e-01 -1.217073351144790649e-01
-1.605472564697265625e-01 7.951925992965698242e-01 -1.273423284292221069e-01
-2.085899561643600464e-01 6.202939748764038086e-01 -3.115833997726440430e-01
-2.576648890972137451e-01 7.685078978538513184e-01 -1.962621212005615234e-01
-9.976903349161148071e-02 6.765707135200500488e-01 -2.136358618736267090e-01
-2.684942185878753662e-01 7.487219572067260742e-01 -1.533516049385070801e-01
-9.159070998430252075e-02 5.923964977264404297e-01 -1.723430752754211426e-01
-1.172496974468231201e-01 7.321137785911560059e-01 -2.082661390304565430e-01
-1.353912204504013062e-01 7.543900609016418457e-01 -8.640104532241821289e-02
-1.174016371369361877e-01 5.980144143104553223e-01 3.020484000444412231e-02
-1.744096577167510986e-01 6.937910914421081543e-01 9.965791553258895874e-02
-1.911244839429855347e-01 7.067304253578186035e-01 1.036526486277580261e-01
-1.197181046009063721e-01 6.905028820037841797e-01 -3.083525896072387695e-01
-2.282805740833282471e-01 6.553103327751159668e-01 -2.987910509109497070e-01
-1.619570851325988770e-01 4.903172254562377930e-01 -8.164559304714202881e-02
-1.044895350933074951e-01 5.362026691436767578e-01 -1.622240245342254639e-01
-2.721082866191864014e-01 6.552093625068664551e-01 -4.875351488590240479e-02
-2.244412004947662354e-01 7.221381068229675293e-01 9.354654699563980103e-02
-1.152459383010864258e-01 7.207100391387939453e-01 -2.405057549476623535e-01
-1.714645922183990479e-01 7.755267024040222168e-01 -3.057928383350372314e-01
-9.554310888051986694e-02 6.230658888816833496e-01 -2.329798042774200439e-01
-2.564119398593902588e-01 5.945539474487304688e-01 -4.976353049278259277e-02
-9.731151163578033447e-02 6.014493703842163086e-01 -2.381236702203750610e-01
-1.021021082997322083e-01 5.443139672279357910e-01 -8.269809186458587646e-02
-2.711091041564941406e-01 6.959974169731140137e-01 -1.552550941705703735e-01
-2.714956402778625488e-01 7.247553467750549316e-01 -1.512059271335601807e-01
-1.766764372587203979e-01 7.212642431259155273e-01 7.758218795061111450e-02
-2.606652081012725830e-01 6.562992334365844727e-01 5.034435540437698364e-02
-2.724642157554626465e-01 6.711959838867187500e-01 -1.792901754379272461e-02
-2.260036021471023560e-01 7.535201311111450195e-01 -3.030680716037750244e-01
-2.396062463521957397e-01 7.427274584770202637e-01 6.070853024721145630e-02
-2.038604170083999634e-01 5.583207607269287109e-01 -2.432132065296173096e-01
-2.457647919654846191e-01 7.052621841430664062e-01 8.277802914381027222e-02
-1.624514311552047729e-01 5.509600043296813965e-01 -2.826785445213317871e-01
-9.676125645637512207e-02 6.683689355850219727e-01 -1.602536886930465698e-01
-1.132937818765640259e-01 6.993775367736816406e-01 -6.741558015346527100e-02
-1.796887516975402832e-01 5.986338257789611816e-01 1.277536153793334961e-01
-1.312492191791534424e-01 7.606672644615173340e-01 -1.901432275772094727e-01
-2.015137374401092529e-01 7.992751002311706543e-01 -3.032387793064117432e-02
-1.224480271339416504e-01 7.442132830619812012e-01 -1.975413262844085693e-01
-2.524011731147766113e-01 7.369914650917053223e-01 -2.466214597225189209e-01
-1.195408254861831665e-01 6.759849786758422852e-01 -2.959996461868286133e-03
-2.318477332592010498e-01 5.534435510635375977e-01 1.885294169187545776e-02
-1.241725385189056396e-01 5.540766716003417969e-01 3.295382112264633179e-02
-1.958769112825393677e-01 5.177466869354248047e-01 -1.612488329410552979e-01
-1.439807415008544922e-01 7.678772211074829102e-01 -2.618347704410552979e-01
-2.438485771417617798e-01 5.786505341529846191e-01 -1.389151513576507568e-01
-1.585011780261993408e-01 7.204580307006835938e-01 5.096549540758132935e-02
-1.113988161087036133e-01 6.292233467102050781e-01 2.615734934806823730e-03
-1.315082907676696777e-01 6.759367585182189941e-01 3.568478673696517944e-02
-1.453519612550735474e-01 5.107282400131225586e-01 -2.021887302398681641e-01
-1.397166252136230469e-01 4.935335516929626465e-01 -8.503758162260055542e-02
-2.582435607910156250e-01 7.773706316947937012e-01 -1.738217025995254517e-01
-2.109099179506301880e-01 5.302300453186035156e-01 -1.517216712236404419e-01
-1.223225742578506470e-01 5.933069586753845215e-01 -3.082593679428100586e-01
-1.573268920183181763e-01 4.959136843681335449e-01 -1.444632709026336670e-01
-2.123111337423324585e-01 5.714790821075439453e-01 -2.465507388114929199e-01
-2.185118645429611206e-01 5.641412734985351562e-01 -2.165487706661224365e-01
-2.029926925897598267e-01 6.368142366409301758e-01 -3.315302133560180664e-01
-2.415041327476501465e-01 5.963864922523498535e-01 -1.949748694896697998e-01
-2.334212362766265869e-01 8.109853267669677734e-01 -8.823242038488388062e-02
-1.710149645805358887e-01 5.856953859329223633e-01 -3.209715783596038818e-01
-1.541841328144073486e-01 7.720421552658081055e-01 -2.839677333831787109e-01
-9.296860545873641968e-02 5.843544006347656250e-01 -1.095582768321037292e-01
-1.729683279991149902e-01 5.006482005119323730e-01 -1.491273939609527588e-01
-2.430096268653869629e-01 5.854322314262390137e-01 4.709952324628829956e-02
-1.576178073883056641e-01 6.220343708992004395e-01 -3.514635264873504639e-01
-1.653380095958709717e-01 6.697508692741394043e-01 1.047486439347267151e-01
-2.173188924789428711e-01 5.938180685043334961e-01 1.150192096829414368e-01
-1.209258735179901123e-01 5.739775896072387695e-01 -2.889271676540374756e-01
-1.739151030778884888e-01 6.664913296699523926e-01 -3.652335703372955322e-01
-1.075323820114135742e-01 5.358569622039794922e-01 -5.950278043746948242e-02
-1.055840477347373962e-01 6.132475733757019043e-01 -1.604492217302322388e-02
-2.069238573312759399e-01 5.494101643562316895e-01 8.218667656183242798e-02
-1.530053317546844482e-01 7.815968394279479980e-01 -9.572813659906387329e-02
-2.156512141227722168e-01 7.804732322692871094e-01 -2.922857403755187988e-01
-2.370786070823669434e-01 5.558573603630065918e-01 -1.218597590923309326e-02
-1.501280516386032104e-01 7.845554351806640625e-01 -1.331432312726974487e-01
-1.934837847948074341e-01 6.331263780593872070e-01 1.350792944431304932e-01
-1.591740101575851440e-01 7.943962812423706055e-01 -2.160503566265106201e-01
-2.641264796257019043e-01 7.106633782386779785e-01 -2.029873430728912354e-01
-1.084175035357475281e-01 5.590353608131408691e-01 -2.403441965579986572e-01
-2.374567836523056030e-01 6.506613492965698242e-01 1.087501272559165955e-01
-2.679444253444671631e-01 6.419660449028015137e-01 -1.134303212165832520e-02
-2.188372015953063965e-01 8.197755217552185059e-01 -1.665069758892059326e-01
-1.076185777783393860e-01 5.366149544715881348e-01 -1.883432865142822266e-01
-1.470513939857482910e-01 5.754607319831848145e-01 9.074952453374862671e-02
-1.130367219448089600e-01 5.206540226936340332e-01 -7.111413776874542236e-02
-2.332769781351089478e-01 6.343017816543579102e-01 -2.715806365013122559e-01
-2.219454050064086914e-01 5.340672135353088379e-01 -6.135612726211547852e-03
-9.679286926984786987e-02 6.558265089988708496e-01 -2.223860770463943481e-01
-2.277307510375976562e-01 5.607695579528808594e-01 -1.752403974533081055e-01
-1.961297690868377686e-01 5.788642168045043945e-01 -2.880854010581970215e-01
-1.883484572172164917e-01 5.222750306129455566e-01 -1.957282721996307373e-01
-2.522303462028503418e-01 7.662951350212097168e-01 -2.242285311222076416e-01
-2.180688083171844482e-01 6.601668000221252441e-01 -3.211365044116973877e-01
-9.638621658086776733e-02 6.276085972785949707e-01 -7.752974331378936768e-02
-2.646604180335998535e-01 7.715634107589721680e-01 -8.188855648040771484e-02
-2.733530998229980469e-01 6.884092688560485840e-01 -1.769442856311798096e-02
-2.689638137817382812e-01 7.279056310653686523e-01 -6.151504814624786377e-03
-2.212782800197601318e-01 8.175310492515563965e-01 -1.061028689146041870e-01
-1.049368008971214294e-01 5.921941399574279785e-01 -1.759665459394454956e-02
-2.381899207830429077e-01 5.678884983062744141e-01 2.974934130907058716e-02
-2.530456781387329102e-01 7.954098582267761230e-01 -1.098523214459419250e-01
-9.437590837478637695e-02 6.507936120033264160e-01 -1.969886422157287598e-01
-2.575483918190002441e-01 6.318213343620300293e-01 4.732129722833633423e-02
-1.897491812705993652e-01 7.641251683235168457e-01 3.476306051015853882e-02
-2.179106622934341431e-01 7.043293714523315430e-01 1.094290986657142639e-01
-1.151745542883872986e-01 5.290894508361816406e-01 -3.091350942850112915e-02
-1.725304871797561646e-01 7.914550304412841797e-01 -5.768814682960510254e-02
-1.100660413503646851e-01 6.412653923034667969e-01 -2.990935444831848145e-01
-1.778860241174697876e-01 4.999290704727172852e-01 -1.337463110685348511e-01
-2.198202759027481079e-01 8.180176615715026855e-01 -1.835738718509674072e-01
-1.278741359710693359e-01 7.125307917594909668e-01 -3.116344809532165527e-01
-1.635229885578155518e-01 6.358513832092285156e-01 -3.579694628715515137e-01
-1.196782216429710388e-01 7.259404659271240234e-01 -2.573718428611755371e-01
-1.421082317829132080e-01 5.480084419250488281e-01 -2.781812548637390137e-01
-1.956903785467147827e-01 7.413819432258605957e-01 -3.435269296169281006e-01
-2.385520488023757935e-01 7.871291637420654297e-01 -2.389264106750488281e-01
-2.498947978019714355e-01 6.797059774398803711e-01 -2.528031766414642334e-01
-1.176592335104942322e-01 5.219025015830993652e-01 -1.874000281095504761e-01
-1.902091205120086670e-01 5.009319782257080078e-01 -7.763289660215377808e-02
-9.165455400943756104e-02 6.328051686286926270e-01 -1.632511466741561890e-01
-1.480362415313720703e-01 5.322502851486206055e-01 5.867864936590194702e-02
-1.508295238018035889e-01 6.693435311317443848e-01 8.347029238939285278e-02
-1.060123220086097717e-01 6.817661523818969727e-01 -2.593255937099456787e-01
-1.266926825046539307e-01 6.377260088920593262e-01 4.807623475790023804e-02
-2.506197094917297363e-01 7.149519324302673340e-01 6.769435852766036987e-02
-1.000638082623481750e-01 6.245214939117431641e-01 -2.603232860565185547e-01
-2.541987299919128418e-01 6.204580664634704590e-01 -1.762094795703887939e-01
-2.392678558826446533e-01 6.568846106529235840e-01 -2.726125121116638184e-01
-1.618591994047164917e-01 7.889398932456970215e-01 -2.561826407909393311e-01
-1.171989738941192627e-01 7.028769254684448242e-01 -2.872106134891510010e-01
-1.367204189300537109e-01 7.124226093292236328e-01 -3.316222131252288818e-01
-1.407396942377090454e-01 5.223829746246337891e-01 -2.301571220159530640e-01
-2.375488877296447754e-01 6.154077649116516113e-01 9.688978642225265503e-02
-1.456961035728454590e-01 6.550076603889465332e-01 -3.579316735267639160e-01
-2.742819190025329590e-01 6.716613173484802246e-01 -8.209843188524246216e-02
-9.375839680433273315e-02 6.176474094390869141e-01 -9.509903937578201294e-02
-2.749356925487518311e-01 6.896407008171081543e-01 -3.901851177215576172e-02
-1.667027026414871216e-01 8.034409880638122559e-01 -1.623351871967315674e-01
-1.159304380416870117e-01 5.631290078163146973e-01 1.446121186017990112e-02
-1.780444830656051636e-01 7.694522738456726074e-01 -3.196692466735839844e-01
-1.156815662980079651e-01 5.131322741508483887e-01 -1.019717380404472351e-01
-2.246520370244979858e-01 8.138180971145629883e-01 -1.982871294021606445e-01
-2.424504458904266357e-01 7.741079330444335938e-01 1.052812486886978149e-02
-2.702105939388275146e-01 7.469466924667358398e-01 -1.379049867391586304e-01
-2.381497770547866821e-01 5.732627511024475098e-01 -1.581022441387176514e-01
-2.346659451723098755e-01 5.812133550643920898e-01 7.022110372781753540e-02
-1.897530108690261841e-01 6.355739831924438477e-01 -3.453255891799926758e-01
-2.446688711643218994e-01 5.691551566123962402e-01 -1.997326314449310303e-02
-1.706595867872238159e-01 6.131631135940551758e-01 -3.439619541168212891e-01
-1.455720067024230957e-01 7.812724113464355469e-01 -1.955287754535675049e-01
-2.402744889259338379e-01 6.367235183715820312e-01 -2.536902129650115967e-01
-1.295863389968872070e-01 7.374864816665649414e-01 -6.649813801050186157e-02
-2.636137306690216064e-01 6.697073578834533691e-01 4.193740338087081909e-02
-1.550669372081756592e-01 5.609345436096191406e-01 9.350601583719253540e-02
-1.441901028156280518e-01 4.985593557357788086e-01 -2.290008962154388428e-02
-1.885505169630050659e-01 5.400997400283813477e-01 -2.378671169281005859e-01
-2.706872522830963135e-01 6.640342473983764648e-01 -1.280298829078674316e-01
-2.227301895618438721e-01 5.394856929779052734e-01 1.617095619440078735e-02
-1.769638806581497192e-01 7.470722794532775879e-01 4.583745449781417847e-02
-2.748256921768188477e-01 6.774835586547851562e-01 -5.334884300827980042e-02
-1.792704910039901733e-01 5.762634277343750000e-01 -3.049050867557525635e-01
-1.578519046306610107e-01 5.204808712005615234e-01 -2.277608662843704224e-01
-2.328511476516723633e-01 6.831343770027160645e-01 -3.007260859012603760e-01
-2.168947458267211914e-01 7.017821669578552246e-01 -3.326705992221832275e-01
-2.727973461151123047e-01 6.851032376289367676e-01 -1.320793926715850830e-01
-1.842510402202606201e-01 7.819156646728515625e-01 -6.975464522838592529e-03
-1.853776425123214722e-01 8.152221441268920898e-01 -1.500020772218704224e-01
-1.913758516311645508e-01 6.179236769676208496e-01 1.343531310558319092e-01
-1.504941582679748535e-01 7.641922831535339355e-01 -4.702235758304595947e-02
-2.199238538742065430e-01 5.528149008750915527e-01 -1.860247552394866943e-01
-2.520899772644042969e-01 6.811567544937133789e-01 7.912891358137130737e-02
-2.348488122224807739e-01 5.497530698776245117e-01 -6.659621745347976685e-02
-2.693495154380798340e-01 6.409034132957458496e-01 -4.024545848369598389e-02
-1.498343050479888916e-01 7.341273427009582520e-01 1.287477463483810425e-02
-2.274628728628158569e-01 7.698943614959716797e-01 3.478149324655532837e-02
-1.554751992225646973e-01 7.559325098991394043e-01 -3.161036670207977295e-01
-1.100647896528244019e-01 5.456007719039916992e-01 -2.597311884164810181e-02
-9.621678292751312256e-02 6.135970354080200195e-01 -7.092764973640441895e-02
-2.022179067134857178e-01 5.161311626434326172e-01 8.044347167015075684e-03
-1.018184125423431396e-01 5.796964764595031738e-01 -3.719858080148696899e-02
-9.350039064884185791e-02 6.493207216262817383e-01 -1.726269423961639404e-01
-2.295650243759155273e-01 7.155371904373168945e-01 -3.105935454368591309e-01
-2.608230412006378174e-01 6.938821673393249512e-01 5.129448324441909790e-02
-2.644139528274536133e-01 7.203909158706665039e-01 2.366103976964950562e-02
-9.883800148963928223e-02 6.236606240272521973e-01 -5.693807080388069153e-02
-9.590061008930206299e-02 6.563090085983276367e-01 -1.247694343328475952e-01
-1.890513151884078979e-01 7.587225437164306641e-01 -3.330671489238739014e-01
-1.747156083583831787e-01 8.016359210014343262e-01 -9.185740351676940918e-02
-2.606751322746276855e-01 7.424894571304321289e-01 -2.101586461067199707e-01
-1.028665304183959961e-01 6.193597912788391113e-01 -3.134833276271820068e-02
-2.409394979476928711e-01 5.880458950996398926e-01 -1.806356906890869141e-01
-1.879692077636718750e-01 6.808768510818481445e-01 -3.611262440681457520e-01
-2.264555692672729492e-01 7.967395782470703125e-01 -2.489865124225616455e-01
-1.553148031234741211e-01 5.031820535659790039e-01 1.029173284769058228e-02
-2.676476538181304932e-01 7.632992863655090332e-01 -1.182934492826461792e-01
-1.414854079484939575e-01 6.401914954185485840e-01 -3.520703911781311035e-01
-1.972474157810211182e-01 5.608534812927246094e-01 -2.604440152645111084e-01
-2.432768344879150391e-01 5.649787187576293945e-01 -6.783033907413482666e-02
-2.465208470821380615e-01 6.455787420272827148e-01 9.060373157262802124e-02
-2.341006696224212646e-01 5.593373775482177734e-01 -1.368273645639419556e-01
-1.833610981702804565e-01 5.788934230804443359e-01 1.212798282504081726e-01
-1.186936199665069580e-01 6.615028381347656250e-01 -3.195812106132507324e-01
-1.582811772823333740e-01 6.295772790908813477e-01 1.106606349349021912e-01
-1.438357383012771606e-01 5.960789918899536133e-01 9.102401882410049438e-02
-1.300640255212783813e-01 6.275983452796936035e-01 -3.370035886764526367e-01
-2.355297207832336426e-01 7.440252900123596191e-01 -2.900555431842803955e-01
-2.586782574653625488e-01 6.735704541206359863e-01 6.131648272275924683e-02
-2.100550383329391479e-01 5.836622118949890137e-01 -2.697075307369232178e-01
-1.052754297852516174e-01 7.019959688186645508e-01 -1.783804595470428467e-01
-1.068297401070594788e-01 6.974195837974548340e-01 -1.130470037460327148e-01
-2.582820057868957520e-01 7.677312493324279785e-01 -2.018222212791442871e-02
-1.865077614784240723e-01 5.949835181236267090e-01 -3.179916739463806152e-01
-2.284225225448608398e-01 5.548740625381469727e-01 -1.544834375381469727e-01
-2.089622318744659424e-01 5.183686614036560059e-01 -1.450374722480773926e-02
-2.673536539077758789e-01 6.773094534873962402e-01 -1.711818724870681763e-01
-1.166615486145019531e-01 6.384488940238952637e-01 1.721892505884170532e-02
-1.661626398563385010e-01 5.940431356430053711e-01 1.181892678141593933e-01
-1.206612586975097656e-01 5.564589500427246094e-01 -2.672526538372039795e-01
-2.237447798252105713e-01 6.010789275169372559e-01 -2.609506845474243164e-01
-1.238262876868247986e-01 7.272639870643615723e-01 -2.763355672359466553e-01
-2.571504712104797363e-01 6.034431457519531250e-01 -1.104382723569869995e-01
-2.115948796272277832e-01 5.368309020996093750e-01 4.896331578493118286e-02
-2.462663352489471436e-01 8.013448715209960938e-01 -8.654206991195678711e-02
-1.542649567127227783e-01 6.752529740333557129e-01 -3.637399971485137939e-01
-1.612538695335388184e-01 5.149972438812255859e-01 4.407534748315811157e-02
-2.546082437038421631e-01 6.007133126258850098e-01 1.375485211610794067e-02
-9.880259633064270020e-02 6.670213341712951660e-01 -1.133336648344993591e-01
-1.847739815711975098e-01 8.134796023368835449e-01 -2.011988610029220581e-01
-1.054532304406166077e-01 6.316816210746765137e-01 -2.836509943008422852e-01
-1.762612909078598022e-01 5.157844424247741699e-01 4.793203622102737427e-02
-1.654529571533203125e-01 -2.628203630447387695e-01 -1.817868649959564209e-02
-9.896650910377502441e-02 -1.985298097133636475e-01 -1.159172728657722473e-01
-1.808201372623443604e-01 -3.404681086540222168e-01 7.184221595525741577e-02
-1.571338921785354614e-01 -2.450492084026336670e-01 3.285828232765197754e-02
-8.337338268756866455e-02 -2.513462007045745850e-01 -1.827900260686874390e-01
-1.777795851230621338e-01 -3.166308403015136719e-01 -7.111435383558273315e-02
-1.621622592210769653e-01 -2.690528333187103271e-01 1.926056444644927979e-01
-1.713747978210449219e-01 -2.970177233219146729e-01 -1.328546702861785889e-01
-1.578335464000701904e-01 -2.865200936794281006e-01 2.779930830001831055e-01
-1.689680516719818115e-01 -2.981444001197814941e-01 2.277956157922744751e-01
-8.754810690879821777e-02 -2.536649703979492188e-01 -2.480983585119247437e-01
-8.937907218933105469e-02 -2.686145305633544922e-01 6.746504455804824829e-02
-1.698627769947052002e-01 -3.182010054588317871e-01 -1.819649487733840942e-01
-1.602149009704589844e-01 -3.085489571094512939e-01 2.895917892456054688e-01
-1.467566937208175659e-01 -2.632496058940887451e-01 -2.765690088272094727e-01
-1.094123870134353638e-01 -2.926191389560699463e-01 2.162166535854339600e-01
-1.115464866161346436e-01 -2.595096528530120850e-01 2.521800100803375244e-01
-1.801298260688781738e-01 -3.247131109237670898e-01 -2.436152473092079163e-02
-1.311729550361633301e-01 -2.102366089820861816e-01 -4.550532996654510498e-02
-1.490641087293624878e-01 -2.329292297363281250e-01 -6.010709702968597412e-02
-1.555659025907516479e-01 -2.510304749011993408e-01 -1.370026767253875732e-01
-1.548674851655960083e-01 -3.130960464477539062e-01 3.026759326457977295e-01
-1.622683256864547729e-01 -2.662697732448577881e-01 1.756940931081771851e-01
-1.374298930168151855e-01 -3.419448137283325195e-01 2.218849658966064453e-01
-1.044537425041198730e-01 -3.229790031909942627e-01 -7.219091802835464478e-02
-1.027026399970054626e-01 -3.195624053478240967e-01 -5.227579176425933838e-02
-1.007322818040847778e-01 -2.787901163101196289e-01 -3.159455060958862305e-01
-9.015811234712600708e-02 -2.612574696540832520e-01 -2.659163475036621094e-01
-9.192033112049102783e-02 -2.030235230922698975e-01 -3.678353503346443176e-02
-8.475419878959655762e-02 -2.164777219295501709e-01 -3.630147129297256470e-02
-1.406740993261337280e-01 -3.662554621696472168e-01 2.658810280263423920e-02
-1.309356838464736938e-01 -3.430624008178710938e-01 1.807397156953811646e-01
-1.015445291996002197e-01 -2.935417890548706055e-01 -2.837925553321838379e-01
