2.879286110401153564e-01 -2.252751290798187256e-01 -2.477882355451583862e-01
1.350479274988174438e-01 -2.263374477624893188e-01 -4.862391948699951172e-02
2.563585638999938965e-01 -2.263892143964767456e-01 -2.156196534633636475e-01
3.706228435039520264e-01 -1.657260358333587646e-01 -2.378194034099578857e-01
5.375604629516601562e-01 -1.914967447519302368e-01 1.991585344076156616e-01
-8.765874058008193970e-02 6.143586635589599609e-01 -3.787810355424880981e-02
-1.078305244445800781e-01 6.753529906272888184e-01 1.031517311930656433e-01
-2.084468305110931396e-01 4.887494444847106934e-01 -3.292750716209411621e-01
-8.619140088558197021e-02 5.691422820091247559e-01 -1.066406294703483582e-01
-2.027449309825897217e-01 4.517232179641723633e-01 -1.818516701459884644e-01
-1.598702669143676758e-01 6.088303923606872559e-01 -4.678625166416168213e-01
-2.290769219398498535e-01 6.070829033851623535e-01 1.437541544437408447e-01
-2.305480390787124634e-01 5.177298784255981445e-01 -1.009852290153503418e-01
-1.801302134990692139e-01 6.758730411529541016e-01 -2.821462452411651611e-01
-1.657426506280899048e-01 4.858072400093078613e-01 -4.901376664638519287e-01
-2.314081788063049316e-01 6.265154480934143066e-01 4.758260399103164673e-02
-1.891740709543228149e-01 4.429068565368652344e-01 -1.142516955733299255e-01
-9.163837134838104248e-02 5.489855408668518066e-01 -7.747037708759307861e-02
-1.326091885566711426e-01 7.203464508056640625e-01 -1.577115952968597412e-01
-2.192084789276123047e-01 6.682696342468261719e-01 -1.751543581485748291e-02
-8.761396259069442749e-02 6.498079299926757812e-01 -1.765274852514266968e-01
-1.675627678632736206e-01 7.241744995117187500e-01 -1.115538030862808228e-01
-2.245683968067169189e-01 4.953903555870056152e-01 -7.252173125743865967e-02
-2.125736474990844727e-01 6.849873661994934082e-01 -2.722442150115966797e-04
-1.598072499036788940e-01 5.275368094444274902e-01 1.995100975036621094e-01
-1.394960135221481323e-01 7.012891769409179688e-01 2.106611132621765137e-01
-1.014845967292785645e-01 6.281389594078063965e-01 9.658329933881759644e-02
-1.889709979295730591e-01 6.711655259132385254e-01 -2.620150744915008545e-01
-1.143612936139106750e-01 6.967527866363525391e-01 9.959199279546737671e-02
-2.071617841720581055e-01 5.403854250907897949e-01 -3.748454153537750244e-01
-2.059103995561599731e-01 6.170048117637634277e-01 -3.086042404174804688e-01
-8.453924953937530518e-02 6.335301995277404785e-01 -1.506079584360122681e-01
-2.008467316627502441e-01 6.873471140861511230e-01 -1.322437971830368042e-01
-2.142735570669174194e-01 6.204925179481506348e-01 2.433802783489227295e-01
-2.297587543725967407e-01 5.824654102325439453e-01 -1.713731735944747925e-01
-1.697860360145568848e-01 7.130358219146728516e-01 2.198245823383331299e-01
-2.326343059539794922e-01 6.198628544807434082e-01 2.788031846284866333e-02
-1.237176731228828430e-01 7.103916406631469727e-01 -1.931961774826049805e-01
-1.200530603528022766e-01 6.789909005165100098e-01 -3.180211782455444336e-01
-1.670612990856170654e-01 6.406597495079040527e-01 -4.031327366828918457e-01
-2.198483943939208984e-01 6.649550795555114746e-01 1.231483891606330872e-01
-1.880152374505996704e-01 6.892682909965515137e-01 2.557005584239959717e-01
-1.017560958862304688e-01 5.447064638137817383e-01 1.006640493869781494e-02
-1.091147512197494507e-01 7.028539776802062988e-01 -1.463125646114349365e-01
-1.108663827180862427e-01 4.991093277931213379e-01 -4.489969611167907715e-01
-8.208221197128295898e-02 5.847266316413879395e-01 -1.905893832445144653e-01
-8.300002664327621460e-02 5.702627897262573242e-01 -2.530410587787628174e-01
-2.186455428600311279e-01 6.261137723922729492e-01 2.184846103191375732e-01
-1.918299943208694458e-01 5.705541968345642090e-01 -4.290729463100433350e-01
-9.233575314283370972e-02 6.487240791320800781e-01 -3.468617796897888184e-03
-1.897812485694885254e-01 6.385169625282287598e-01 3.042159676551818848e-01
-1.077730655670166016e-01 6.110431551933288574e-01 1.330860853195190430e-01
-2.144837975502014160e-01 5.026561021804809570e-01 -3.065313994884490967e-01
-8.864608407020568848e-02 5.479960441589355469e-01 -1.245843172073364258e-01
-2.071425020694732666e-01 5.124580860137939453e-01 -3.673205673694610596e-01
-1.412633508443832397e-01 6.438966393470764160e-01 -4.252827167510986328e-01
-1.723645627498626709e-01 5.999182462692260742e-01 -4.564315080642700195e-01
-1.535510122776031494e-01 5.968108177185058594e-01 2.803003191947937012e-01
-9.917671978473663330e-02 6.507800817489624023e-01 6.740643829107284546e-02
-1.028144955635070801e-01 5.031448006629943848e-01 -4.038589298725128174e-01
-1.047615557909011841e-01 5.110769271850585938e-01 -4.365969896316528320e-01
-2.287860512733459473e-01 5.392722487449645996e-01 -1.986560970544815063e-01
-9.451924264430999756e-02 5.252667069435119629e-01 -1.201765313744544983e-01
-2.352184653282165527e-01 5.802505612373352051e-01 -7.115353643894195557e-02
-1.023796647787094116e-01 6.897720098495483398e-01 -1.716455519199371338e-01
-2.212380170822143555e-01 5.134159326553344727e-01 7.327868789434432983e-02
-2.112751603126525879e-01 6.582606434822082520e-01 -1.695996522903442383e-01
-1.169310957193374634e-01 7.178950309753417969e-01 -3.896652907133102417e-02
-1.168667078018188477e-01 6.099044680595397949e-01 1.793370544910430908e-01
-1.890899986028671265e-01 4.594130516052246094e-01 -3.723010420799255371e-01
-2.059306055307388306e-01 5.053377747535705566e-01 1.264955997467041016e-01
-1.126143187284469604e-01 4.678190350532531738e-01 -2.511482834815979004e-01
-2.066218703985214233e-01 5.416740179061889648e-01 2.047672867774963379e-01
-9.153780341148376465e-02 5.239495038986206055e-01 -1.820195019245147705e-01
-8.425310999155044556e-02 5.683757066726684570e-01 -1.507517248392105103e-01
-1.173298805952072144e-01 4.768606126308441162e-01 -1.037363409996032715e-01
-1.030469387769699097e-01 6.563847661018371582e-01 9.367980808019638062e-02
-1.327718794345855713e-01 4.652537703514099121e-01 -4.489841759204864502e-01
-2.200200408697128296e-01 5.353646278381347656e-01 -2.887677252292633057e-01
-2.338035255670547485e-01 5.372993946075439453e-01 -7.622325420379638672e-02
-1.681366413831710815e-01 7.307181358337402344e-01 -5.100565031170845032e-02
-1.842077672481536865e-01 5.435526371002197266e-01 -4.683713018894195557e-01
-2.288143336772918701e-01 6.399361491203308105e-01 3.447648137807846069e-02
-2.033950388431549072e-01 6.785477995872497559e-01 -1.530049443244934082e-01
-1.660386919975280762e-01 6.868170499801635742e-01 -2.878361642360687256e-01
-2.178828865289688110e-01 5.181491374969482422e-01 -2.967371940612792969e-01
-1.336671113967895508e-01 6.513087749481201172e-01 -4.087947309017181396e-01
-2.146891355514526367e-01 5.075667500495910645e-01 9.663008898496627808e-02
-1.478009670972824097e-01 5.636544823646545410e-01 -5.229333043098449707e-01
-1.799528896808624268e-01 5.110200643539428711e-01 1.784167885780334473e-01
-2.195463031530380249e-01 6.266794800758361816e-01 -1.935186088085174561e-01
-1.291532665491104126e-01 7.243233919143676758e-01 7.383967190980911255e-02
-1.913992613554000854e-01 4.440377652645111084e-01 -2.776888012886047363e-01
-9.776085615158081055e-02 6.644331216812133789e-01 3.245914727449417114e-02
-2.178750038146972656e-01 5.711445212364196777e-01 -2.944655716419219971e-01
-1.443499773740768433e-01 5.485390424728393555e-01 2.067681550979614258e-01
-1.498318463563919067e-01 4.819220006465911865e-01 6.667272001504898071e-02
-2.161170393228530884e-01 6.781420707702636719e-01 9.349250048398971558e-02
-9.360069781541824341e-02 6.675857901573181152e-01 -3.954088687896728516e-02
-1.355739533901214600e-01 6.045607924461364746e-01 2.450529038906097412e-01
-9.476417303085327148e-02 5.567100048065185547e-01 -4.146158099174499512e-01
-1.689212918281555176e-01 4.704547524452209473e-01 -4.620764851570129395e-01
-2.032432854175567627e-01 4.526347219944000244e-01 -1.509202718734741211e-01
-2.337147891521453857e-01 5.400048494338989258e-01 -9.717657417058944702e-02
-1.197422146797180176e-01 6.400182843208312988e-01 1.982755661010742188e-01
-2.198727726936340332e-01 6.698274612426757812e-01 6.615819782018661499e-02
-2.235338836908340454e-01 6.087471842765808105e-01 -1.968429982662200928e-01
-9.705196321010589600e-02 6.231099963188171387e-01 6.223981827497482300e-02
-1.726983040571212769e-01 4.329003095626831055e-01 -1.725444793701171875e-01
-1.075110286474227905e-01 6.271853446960449219e-01 -4.108121395111083984e-01
-1.361387968063354492e-01 4.405140876770019531e-01 -2.537790238857269287e-01
-1.544184386730194092e-01 7.365836501121520996e-01 6.816456466913223267e-02
-2.211756855249404907e-01 5.954850316047668457e-01 -2.412795722484588623e-01
-2.226558327674865723e-01 6.017510294914245605e-01 -2.182513177394866943e-01
-2.026913911104202271e-01 5.175679922103881836e-01 1.665615737438201904e-01
-1.011498421430587769e-01 4.946896731853485107e-01 -1.910802423954010010e-01
-1.173660233616828918e-01 4.665433764457702637e-01 -3.750232458114624023e-01
-1.531605273485183716e-01 6.629707813262939453e-01 2.876594662666320801e-01
-2.133505344390869141e-01 5.607758760452270508e-01 2.123438417911529541e-01
-1.809869408607482910e-01 6.744938492774963379e-01 2.896671891212463379e-01
-1.600333154201507568e-01 4.403976798057556152e-01 -1.034124121069908142e-01
-9.487830847501754761e-02 6.340268850326538086e-01 4.022014886140823364e-02
-1.139301359653472900e-01 5.222579240798950195e-01 3.798713535070419312e-02
-1.369957327842712402e-01 5.092598795890808105e-01 -5.238571166992187500e-01
-1.982636749744415283e-01 4.802587032318115234e-01 6.812114268541336060e-02
-1.166596338152885437e-01 7.088370919227600098e-01 6.801562756299972534e-02
-1.189056485891342163e-01 5.041458010673522949e-01 -4.888163208961486816e-01
-2.345598340034484863e-01 6.003274321556091309e-01 4.602719098329544067e-02
-1.955182850360870361e-01 6.236657500267028809e-01 -3.471170365810394287e-01
-1.109623536467552185e-01 5.813477635383605957e-01 -4.778904914855957031e-01
-9.244309365749359131e-02 6.096761226654052734e-01 1.771713048219680786e-02
-1.283690631389617920e-01 5.168382525444030762e-01 9.475924819707870483e-02
-1.525488644838333130e-01 4.324853122234344482e-01 -2.952747344970703125e-01
-1.692105978727340698e-01 4.825113713741302490e-01 9.893078356981277466e-02
-1.418280005455017090e-01 6.318216323852539062e-01 2.717423141002655029e-01
-1.637957096099853516e-01 7.344313859939575195e-01 9.553533047437667847e-02
-1.517862975597381592e-01 7.363305091857910156e-01 -2.441260218620300293e-02
-1.497533321380615234e-01 6.972938776016235352e-01 -2.766514718532562256e-01
-1.837148517370223999e-01 6.083286404609680176e-01 -4.150417149066925049e-01
-1.599862873554229736e-01 4.521180391311645508e-01 -3.168665617704391479e-02
-2.213374674320220947e-01 4.980788230895996094e-01 -2.250177562236785889e-01
-1.273892223834991455e-01 4.568176269531250000e-01 -1.461835056543350220e-01
-1.899921298027038574e-01 6.430040597915649414e-01 -3.310860395431518555e-01
-1.912236511707305908e-01 5.264329910278320312e-01 2.047466039657592773e-01
-2.174131870269775391e-01 4.928364157676696777e-01 2.332556992769241333e-02
-9.077516943216323853e-02 5.434576272964477539e-01 -1.058742627501487732e-01
-9.619608521461486816e-02 5.839143991470336914e-01 -4.166489839553833008e-01
-2.306742519140243530e-01 5.489416122436523438e-01 -1.763931810855865479e-01
-1.879674494266510010e-01 4.551048874855041504e-01 -1.967724412679672241e-02
-1.806383728981018066e-01 4.864749610424041748e-01 -4.571515321731567383e-01
-1.600807011127471924e-01 6.100782752037048340e-01 2.975929081439971924e-01
-2.236498594284057617e-01 6.190922260284423828e-01 1.881810128688812256e-01
-2.208653390407562256e-01 6.673197150230407715e-01 4.637793451547622681e-02
-1.670816838741302490e-01 4.654026329517364502e-01 3.705442696809768677e-02
-2.304168343544006348e-01 6.239849328994750977e-01 9.771624952554702759e-02
-2.236576676368713379e-01 6.000998020172119141e-01 1.922531425952911377e-01
-1.100913733243942261e-01 6.619626283645629883e-01 1.369928419589996338e-01
-1.149737834930419922e-01 7.095553874969482422e-01 4.580032080411911011e-02
-9.632126241922378540e-02 5.564287304878234863e-01 -1.049858331680297852e-02
-2.224934995174407959e-01 6.467581987380981445e-01 1.586355865001678467e-01
-1.819061189889907837e-01 6.207887530326843262e-01 3.105403184890747070e-01
-1.231779605150222778e-01 5.675747394561767578e-01 -5.112946629524230957e-01
-1.718937605619430542e-01 7.320402264595031738e-01 -4.963986575603485107e-03
-2.084595859050750732e-01 4.707601368427276611e-01 -2.764395773410797119e-01
-2.014850378036499023e-01 7.049437165260314941e-01 1.242321729660034180e-02
-8.472418040037155151e-02 5.530540347099304199e-01 -2.591449916362762451e-01
-2.030854821205139160e-01 5.334034562110900879e-01 -3.961971998214721680e-01
-1.347879022359848022e-01 6.407903432846069336e-01 2.530407309532165527e-01
-1.166482269763946533e-01 6.574475765228271484e-01 1.771989166736602783e-01
-1.663298308849334717e-01 5.820002555847167969e-01 2.838248312473297119e-01
-2.142298817634582520e-01 6.039506196975708008e-01 -2.802278399467468262e-01
-2.074188888072967529e-01 6.949076652526855469e-01 1.110976859927177429e-01
-1.986558735370635986e-01 6.944337487220764160e-01 -1.126623675227165222e-01
-2.224999964237213135e-01 4.925460815429687500e-01 -1.789806038141250610e-01
-1.599553525447845459e-01 7.334617376327514648e-01 1.133854314684867859e-01
-8.696324378252029419e-02 5.866519212722778320e-01 -6.426373124122619629e-02
-1.075049042701721191e-01 6.442842483520507812e-01 -3.762415647506713867e-01
-1.299190521240234375e-01 7.295422554016113281e-01 3.008000552654266357e-03
-1.429302394390106201e-01 4.707858562469482422e-01 7.019490003585815430e-03
-8.861126750707626343e-02 6.036427617073059082e-01 -3.405777812004089355e-01
-2.288159132003784180e-01 5.248476266860961914e-01 3.405981510877609253e-02
-2.331938147544860840e-01 6.104397177696228027e-01 6.599026173353195190e-02
-1.296669840812683105e-01 5.554162263870239258e-01 1.741892397403717041e-01
-1.922606974840164185e-01 4.410246610641479492e-01 -1.986752748489379883e-01
-2.199505567550659180e-01 5.340359807014465332e-01 1.370128393173217773e-01
-8.588853478431701660e-02 6.380141377449035645e-01 -1.045057177543640137e-01
-1.622631698846817017e-01 6.960420012474060059e-01 2.609718441963195801e-01
-1.516178250312805176e-01 5.009395480155944824e-01 1.258426904678344727e-01
-1.436169892549514771e-01 4.497597813606262207e-01 -4.159598052501678467e-01
-1.744036227464675903e-01 4.345473051071166992e-01 -1.519191265106201172e-01
-2.065235972404479980e-01 4.943738579750061035e-01 -3.519514501094818115e-01
-1.218233779072761536e-01 5.672664642333984375e-01 1.610536277294158936e-01
-1.388893127441406250e-01 4.398902952671051025e-01 -3.235175907611846924e-01
-1.215350180864334106e-01 4.658569395542144775e-01 -4.043582677841186523e-01
-1.966687440872192383e-01 7.087621688842773438e-01 1.370521187782287598e-01
-2.323693633079528809e-01 5.639161467552185059e-01 -1.490933895111083984e-01
-9.015902131795883179e-02 6.433928012847900391e-01 -2.648466229438781738e-01
-8.307261765003204346e-02 5.837856531143188477e-01 -2.739409506320953369e-01
-1.249305158853530884e-01 6.989651918411254883e-01 -2.544573545455932617e-01
-1.549272686243057251e-01 5.632940530776977539e-01 2.490067481994628906e-01
-8.988554775714874268e-02 6.061532497406005859e-01 -1.114448159933090210e-02
-8.858418464660644531e-02 5.691884160041809082e-01 -3.626375198364257812e-01
-1.551686972379684448e-01 5.157166123390197754e-01 1.679252386093139648e-01
-2.157044708728790283e-01 4.724261164665222168e-01 -1.508236825466156006e-01
-1.309354305267333984e-01 5.312240719795227051e-01 1.361590623855590820e-01
-1.082370430231094360e-01 6.312103867530822754e-01 1.403858065605163574e-01
-1.030012369155883789e-01 5.701034665107727051e-01 -4.575788676738739014e-01
-1.291615813970565796e-01 7.097185850143432617e-01 1.485260426998138428e-01
-1.963798403739929199e-01 6.559001803398132324e-01 -2.714783847332000732e-01
-2.082085609436035156e-01 4.773119091987609863e-01 1.483649015426635742e-02
-2.130706906318664551e-01 5.093883872032165527e-01 -3.259244263172149658e-01
-1.904866397380828857e-01 7.079816460609436035e-01 -9.483308345079421997e-02
-1.648643761873245239e-01 7.064346075057983398e-01 -2.166246771812438965e-01
-2.220192551612854004e-01 5.461964607238769531e-01 -2.729839086532592773e-01
-1.189962029457092285e-01 5.342890024185180664e-01 9.257591515779495239e-02
-1.536058634519577026e-01 6.270810365676879883e-01 -4.482111036777496338e-01
-1.279699802398681641e-01 4.474664926528930664e-01 -2.822054922580718994e-01
-2.218603342771530151e-01 5.774856805801391602e-01 1.915964484214782715e-01
-1.959089785814285278e-01 4.527286291122436523e-01 -3.019347190856933594e-01
-1.049341857433319092e-01 6.037792563438415527e-01 1.120420768857002258e-01
-1.966844201087951660e-01 5.585538148880004883e-01 2.504817247390747070e-01
-9.890112280845642090e-02 6.851798892021179199e-01 -3.769820928573608398e-02
-1.941102296113967896e-01 7.156819701194763184e-01 4.721114784479141235e-02
-2.178162485361099243e-01 5.536037683486938477e-01 -3.049799203872680664e-01
-1.836168467998504639e-01 5.717626810073852539e-01 -4.553842842578887939e-01
-1.207676380872726440e-01 5.315573215484619141e-01 -5.126881003379821777e-01
-1.838240474462509155e-01 6.975025534629821777e-01 -1.892186701297760010e-01
-1.509919464588165283e-01 7.218003273010253906e-01 -1.621591150760650635e-01
-1.361653655767440796e-01 6.234852671623229980e-01 -4.615522027015686035e-01
-1.830270886421203613e-01 4.692771732807159424e-01 5.295907706022262573e-02
-1.126311793923377991e-01 5.434454083442687988e-01 7.825080305337905884e-02
-1.238891184329986572e-01 6.581323146820068359e-01 -3.838846683502197266e-01
-1.847589313983917236e-01 4.613718688488006592e-01 -3.970687091350555420e-01
-2.289380133152008057e-01 5.581248402595520020e-01 1.165753528475761414e-01
-8.580479025840759277e-02 5.494785308837890625e-01 -1.861855089664459229e-01
-2.215092480182647705e-01 5.271901488304138184e-01 -2.718057334423065186e-01
-2.143218964338302612e-01 6.387169361114501953e-01 -2.059598118066787720e-01
-1.430957764387130737e-01 7.055530548095703125e-01 -2.467239201068878174e-01
-2.087195366621017456e-01 6.869337558746337891e-01 1.562500298023223877e-01
-1.955213099718093872e-01 4.558634459972381592e-01 -3.212293386459350586e-01
-1.278322935104370117e-01 6.994554400444030762e-01 1.714062094688415527e-01
-1.166567951440811157e-01 7.159408330917358398e-01 -9.457532316446304321e-02
-1.020712405443191528e-01 6.783492565155029297e-01 -2.385834455490112305e-01
-1.381856203079223633e-01 7.254532575607299805e-01 -1.324961036443710327e-01
-1.318434327840805054e-01 6.752434968948364258e-01 -3.476417958736419678e-01
-1.104790866374969482e-01 4.834306240081787109e-01 -1.326371133327484131e-01
-9.220612049102783203e-02 6.671817302703857422e-01 -7.460476458072662354e-02
-2.283431142568588257e-01 5.074199438095092773e-01 -8.538350462913513184e-02
-1.753683239221572876e-01 5.299240946769714355e-01 -4.939178526401519775e-01
-1.964838057756423950e-01 6.964336633682250977e-01 2.067219316959381104e-01
-9.857705980539321899e-02 6.657092571258544922e-01 -2.655504345893859863e-01
-1.958566606044769287e-01 4.824092984199523926e-01 -3.931413888931274414e-01
-2.341092228889465332e-01 5.526182055473327637e-01 -1.107339337468147278e-01
-1.045370399951934814e-01 5.687308311462402344e-01 7.312230020761489868e-02
-1.037077009677886963e-01 5.304736495018005371e-01 -9.440071880817413330e-03
-1.738772094249725342e-01 6.735469102859497070e-01 -3.085966706275939941e-01
-1.789841204881668091e-01 5.494723916053771973e-01 2.501437664031982422e-01
-2.055572271347045898e-01 5.965456962585449219e-01 -3.422429263591766357e-01
-9.999476373195648193e-02 5.513855218887329102e-01 -4.458166360855102539e-01
-1.177885830402374268e-01 5.636960864067077637e-01 1.384032666683197021e-01
-1.891058385372161865e-01 7.198242545127868652e-01 8.882015943527221680e-03
-1.250607967376708984e-01 4.524851441383361816e-01 -2.179352343082427979e-01
-9.494419395923614502e-02 5.740104913711547852e-01 7.779188454151153564e-03
-8.926028013229370117e-02 6.295651793479919434e-01 -2.968134880065917969e-01
-2.284228503704071045e-01 5.756863951683044434e-01 -1.953160762786865234e-01
-8.518752455711364746e-02 6.037122011184692383e-01 -2.984334528446197510e-01
-1.718264818191528320e-01 6.905527114868164062e-01 -2.603691220283508301e-01
-1.696857362985610962e-01 6.505853533744812012e-01 3.090771138668060303e-01
-8.381995558738708496e-02 6.179782152175903320e-01 -1.152695938944816589e-01
-2.141380608081817627e-01 4.736165106296539307e-01 -6.311742961406707764e-02
-2.227911353111267090e-01 6.232539415359497070e-01 -1.708724051713943481e-01
-2.009495347738265991e-01 4.872539341449737549e-01 8.562561124563217163e-02
-8.498731255531311035e-02 6.120621562004089355e-01 -8.210560679435729980e-02
-2.242259085178375244e-01 6.568019986152648926e-01 2.419316023588180542e-02
-1.609456092119216919e-01 4.335260391235351562e-01 -3.270029723644256592e-01
-2.104994356632232666e-01 6.311187744140625000e-01 -2.524679303169250488e-01
-1.981295645236968994e-01 6.725214719772338867e-01 -2.113046348094940186e-01
-2.302768826484680176e-01 5.157961845397949219e-01 -6.957958638668060303e-02
-1.195056587457656860e-01 4.797646999359130859e-01 -4.446854293346405029e-01
-1.095204055309295654e-01 6.120049953460693359e-01 -4.411300420761108398e-01
-1.328881829977035522e-01 7.240639328956604004e-01 1.018588021397590637e-01
-1.005126982927322388e-01 6.097573041915893555e-01 -4.113118052482604980e-01
-9.027298539876937866e-02 5.408853292465209961e-01 -3.576479852199554443e-01
-1.235099285840988159e-01 4.709607064723968506e-01 -8.743146061897277832e-02
-1.049398928880691528e-01 6.227014660835266113e-01 1.196341440081596375e-01
-1.225136145949363708e-01 4.537602663040161133e-01 -3.016598522663116455e-01
-1.111019775271415710e-01 4.734065830707550049e-01 -3.487497568130493164e-01
-1.326199322938919067e-01 4.461497068405151367e-01 -3.465484678745269775e-01
-1.454129666090011597e-01 4.417486786842346191e-01 -1.437343060970306396e-01
-1.434269845485687256e-01 6.939085721969604492e-01 2.354394793510437012e-01
-2.293255627155303955e-01 6.362959742546081543e-01 -1.746118068695068359e-03
-1.936850547790527344e-01 4.579079747200012207e-01 -3.420291543006896973e-01
-1.028739959001541138e-01 4.972242712974548340e-01 -3.839793801307678223e-01
-1.245148777961730957e-01 4.759624898433685303e-01 -5.649943649768829346e-02
-9.955139458179473877e-02 6.879764199256896973e-01 -1.331567317247390747e-01
-1.596554070711135864e-01 4.312546253204345703e-01 -2.084324955940246582e-01
-2.319492548704147339e-01 5.368921756744384766e-01 -1.415981054306030273e-01
-2.105082869529724121e-01 5.909689664840698242e-01 2.508786618709564209e-01
-1.906061917543411255e-01 4.403294920921325684e-01 -1.685636043548583984e-01
-1.749986708164215088e-01 7.153774499893188477e-01 -1.389009505510330200e-01
-8.303004503250122070e-02 6.066626906394958496e-01 -2.480300366878509521e-01
-1.184456646442413330e-01 6.795566678047180176e-01 1.632720828056335449e-01
-8.977631479501724243e-02 6.394901275634765625e-01 -2.507632970809936523e-02
-8.249545097351074219e-02 5.743795633316040039e-01 -2.091622948646545410e-01
-1.932979375123977661e-01 5.100628733634948730e-01 -4.331784546375274658e-01
-1.521245539188385010e-01 5.788197517395019531e-01 2.621128261089324951e-01
-1.832515448331832886e-01 5.251479148864746094e-01 -4.726915955543518066e-01
-9.923820942640304565e-02 5.090392231941223145e-01 -1.294909715652465820e-01
-9.947465360164642334e-02 5.302162170410156250e-01 -4.637118428945541382e-02
-2.118999063968658447e-01 6.830743551254272461e-01 1.386694014072418213e-01
-1.024731472134590149e-01 6.873321533203125000e-01 -1.912002414464950562e-01
-1.990671008825302124e-01 5.318055748939514160e-01 -4.149800240993499756e-01
-1.006295159459114075e-01 6.678549647331237793e-01 5.555497854948043823e-02
-2.101337611675262451e-01 6.353487968444824219e-01 2.552886307239532471e-01
-8.236466348171234131e-02 5.883324146270751953e-01 -1.638455539941787720e-01
-2.327988594770431519e-01 5.938111543655395508e-01 9.804240614175796509e-02
-2.187967747449874878e-01 6.716693639755249023e-01 1.185712963342666626e-02
-1.810583621263504028e-01 6.929770708084106445e-01 -2.198264896869659424e-01
-1.052673310041427612e-01 4.970775246620178223e-01 -1.155698001384735107e-01
-2.188768386840820312e-01 4.848780632019042969e-01 -4.034082591533660889e-02
-1.380144953727722168e-01 7.184616923332214355e-01 -1.798579692840576172e-01
-2.005178630352020264e-01 6.703549623489379883e-01 2.544829547405242920e-01
-9.402766823768615723e-02 6.231555342674255371e-01 -3.528671562671661377e-01
-2.083602994680404663e-01 6.908176541328430176e-01 -2.608290314674377441e-02
-1.318653523921966553e-01 6.882647275924682617e-01 -3.067722618579864502e-01
-9.836493432521820068e-02 5.885131955146789551e-01 5.417392402887344360e-02
-9.689527004957199097e-02 6.195791959762573242e-01 -3.775607347488403320e-01
-1.348507851362228394e-01 6.652610301971435547e-01 2.443066239356994629e-01
-1.019624322652816772e-01 5.899356007575988770e-01 -4.402599036693572998e-01
-1.799617856740951538e-01 6.601661443710327148e-01 -3.263535201549530029e-01
-8.689611405134201050e-02 5.395303964614868164e-01 -2.218123376369476318e-01
-2.359672486782073975e-01 5.821753144264221191e-01 7.015645503997802734e-03
-2.247622907161712646e-01 4.949630498886108398e-01 -9.865452349185943604e-02
-2.135879397392272949e-01 6.463974714279174805e-01 -1.896505057811737061e-01
-8.229217678308486938e-02 5.780469775199890137e-01 -2.279825955629348755e-01
-1.360584497451782227e-01 5.837437510490417480e-01 2.297644615173339844e-01
-8.772099018096923828e-02 5.395573973655700684e-01 -3.052687048912048340e-01
-1.912046968936920166e-01 4.861041903495788574e-01 -4.195758998394012451e-01
-2.183029055595397949e-01 4.791509211063385010e-01 -8.909488469362258911e-02
-1.798535734415054321e-01 7.163243293762207031e-01 1.901659965515136719e-01
-1.046745330095291138e-01 6.890357732772827148e-01 3.583470731973648071e-02
-1.958602964878082275e-01 4.500647187232971191e-01 -8.627329766750335693e-02
-1.817257404327392578e-01 6.400144696235656738e-01 -3.666833937168121338e-01
-2.142224311828613281e-01 5.698359608650207520e-01 -3.204346895217895508e-01
-1.237149685621261597e-01 7.033688426017761230e-01 -2.309554219245910645e-01
-1.230418086051940918e-01 7.192678451538085938e-01 -1.233119294047355652e-01
-1.026968210935592651e-01 4.864234924316406250e-01 -2.634806931018829346e-01
-1.077649667859077454e-01 6.851667761802673340e-01 8.041521161794662476e-02
-2.046291083097457886e-01 6.350908279418945312e-01 2.746754586696624756e-01
-9.877450764179229736e-02 5.624892115592956543e-01 2.175474911928176880e-02
-1.337532848119735718e-01 7.318523526191711426e-01 -2.464497834444046021e-02
-1.890771090984344482e-01 7.035545706748962402e-01 -1.314285099506378174e-01
-1.780705600976943970e-01 4.613005518913269043e-01 -4.201832115650177002e-01
-2.281163930892944336e-01 5.138799548149108887e-01 -1.618407815694808960e-01
-2.310079932212829590e-01 5.199991464614868164e-01 -5.094683170318603516e-02
-1.534319370985031128e-01 6.403427720069885254e-01 2.951156795024871826e-01
-1.135083511471748352e-01 4.695615768432617188e-01 -2.003093957901000977e-01
-2.202180624008178711e-01 6.431149244308471680e-01 1.889902651309967041e-01
-1.659296154975891113e-01 5.808691382408142090e-01 -4.895210564136505127e-01
-9.378292411565780640e-02 6.700144410133361816e-01 -1.820055544376373291e-01
-1.956869512796401978e-01 6.450780034065246582e-01 -3.020382523536682129e-01
-1.794547140598297119e-01 4.424891769886016846e-01 -3.444747328758239746e-01
-2.283661961555480957e-01 5.236824750900268555e-01 -1.850450932979583740e-01
-1.649935096502304077e-01 4.447456896305084229e-01 -6.611595302820205688e-02
-1.343421787023544312e-01 4.458391368389129639e-01 -1.835261583328247070e-01
-2.085897177457809448e-01 6.426483988761901855e-01 -2.368238866329193115e-01
-2.335332483053207397e-01 5.689175128936767578e-01 -1.252016127109527588e-01
-2.326362729072570801e-01 6.167481541633605957e-01 -2.499896287918090820e-02
-2.097943872213363647e-01 6.111925840377807617e-01 2.610518932342529297e-01
-1.187008619308471680e-01 6.911519765853881836e-01 1.433802545070648193e-01
-2.170145660638809204e-01 6.667178869247436523e-01 -7.042123377323150635e-02
-1.046987697482109070e-01 6.986330747604370117e-01 -1.165618523955345154e-01
-1.901665478944778442e-01 4.411979317665100098e-01 -1.445630788803100586e-01
-2.171827554702758789e-01 4.783442914485931396e-01 -1.924158781766891479e-01
-8.270996809005737305e-02 6.158899664878845215e-01 -1.961839497089385986e-01
-1.263615638017654419e-01 7.250903248786926270e-01 3.722888976335525513e-02
-2.347918301820755005e-01 5.665706396102905273e-01 -9.661187976598739624e-02
-1.978351771831512451e-01 5.847572684288024902e-01 2.765766084194183350e-01
-1.430924683809280396e-01 5.136567950248718262e-01 1.364268958568572998e-01
-1.313616633415222168e-01 4.989919662475585938e-01 5.954144150018692017e-02
-1.276675760746002197e-01 5.878131985664367676e-01 -5.016077756881713867e-01
-1.118706539273262024e-01 4.698771834373474121e-01 -2.326232194900512695e-01
-1.971898823976516724e-01 6.132863163948059082e-01 2.929420471191406250e-01
-2.146184295415878296e-01 6.574470400810241699e-01 -1.425128430128097534e-01
-1.037407815456390381e-01 5.252751111984252930e-01 -4.503325819969177246e-01
-1.945805698633193970e-01 5.856202840805053711e-01 -4.049670100212097168e-01
-1.124365031719207764e-01 7.027584314346313477e-01 -1.799176335334777832e-01
-1.273843348026275635e-01 4.768004417419433594e-01 -4.655668735504150391e-01
-8.458428829908370972e-02 5.684365630149841309e-01 -3.023741543292999268e-01
-2.016188949346542358e-01 6.977587342262268066e-01 -6.254342943429946899e-02
-1.559133529663085938e-01 4.401662647724151611e-01 -3.796256780624389648e-01
-1.285468041896820068e-01 6.758436560630798340e-01 2.134742438793182373e-01
-2.033003419637680054e-01 5.868393778800964355e-01 -3.653901219367980957e-01
-2.249917685985565186e-01 5.629574656486511230e-01 -2.409791946411132812e-01
-1.655114442110061646e-01 5.324935913085937500e-01 -5.135530829429626465e-01
-2.219994366168975830e-01 4.869561791419982910e-01 -1.200355738401412964e-01
-1.369285434484481812e-01 4.651430249214172363e-01 -4.041802138090133667e-02
-1.231181323528289795e-01 4.530830979347229004e-01 -2.539909183979034424e-01
-1.298771053552627563e-01 7.273153066635131836e-01 -7.988846302032470703e-02
-1.115101426839828491e-01 4.702450931072235107e-01 -3.186245560646057129e-01
-8.856295794248580933e-02 5.305269956588745117e-01 -2.447902858257293701e-01
-2.292058467864990234e-01 6.204963922500610352e-01 1.277837157249450684e-01
-1.970977932214736938e-01 7.090631127357482910e-01 -1.579215377569198608e-02
-1.568143069744110107e-01 7.257560491561889648e-01 -1.291139572858810425e-01
-1.531966179609298706e-01 7.216843366622924805e-01 1.815603375434875488e-01
-1.541002541780471802e-01 6.538107395172119141e-01 -3.961804509162902832e-01
-1.525517553091049194e-01 7.140756249427795410e-01 -2.028862833976745605e-01
-2.148392200469970703e-01 6.759832501411437988e-01 -4.197882115840911865e-02
-2.273191064596176147e-01 5.571263432502746582e-01 -2.193673253059387207e-01
-1.940796971321105957e-01 4.617758393287658691e-01 -5.941912531852722168e-04
-2.148110270500183105e-01 4.860257506370544434e-01 -2.666258811950683594e-01
-1.700730621814727783e-01 7.336701750755310059e-01 1.399581134319305420e-02
-8.598043024539947510e-02 6.177648305892944336e-01 -2.834858596324920654e-01
-1.057819053530693054e-01 4.820559024810791016e-01 -3.313643634319305420e-01
-1.384212225675582886e-01 5.395168662071228027e-01 1.760148704051971436e-01
-1.709405928850173950e-01 5.523337721824645996e-01 -4.988275766372680664e-01
-2.044599950313568115e-01 4.656961858272552490e-01 -2.635717391967773438e-02
-2.332317680120468140e-01 5.532221794128417969e-01 5.111601203680038452e-02
-1.490386277437210083e-01 5.548176765441894531e-01 2.266573011875152588e-01
-1.048469990491867065e-01 6.438474655151367188e-01 1.160499230027198792e-01
-1.679343879222869873e-01 6.524274945259094238e-01 -3.766544759273529053e-01
-9.861788153648376465e-02 5.031254291534423828e-01 -3.541252017021179199e-01
-1.203900575637817383e-01 6.031165719032287598e-01 -4.764178693294525146e-01
-2.083271741867065430e-01 5.608142018318176270e-01 -3.615063726902008057e-01
-2.037761211395263672e-01 5.608767271041870117e-01 -3.850225806236267090e-01
-2.313448488712310791e-01 5.931534767150878906e-01 1.199819073081016541e-01
-8.940486609935760498e-02 6.459671854972839355e-01 -2.440254390239715576e-01
-1.502877473831176758e-01 4.326252639293670654e-01 -2.740425467491149902e-01
-1.898500174283981323e-01 5.333913564682006836e-01 -4.515487849712371826e-01
-1.164300888776779175e-01 5.025151371955871582e-01 -4.174806177616119385e-03
-1.719456166028976440e-01 7.268872261047363281e-01 -7.013504207134246826e-02
-9.995654225349426270e-02 6.788806319236755371e-01 1.707396656274795532e-02
-2.297358363866806030e-01 5.181627273559570312e-01 -1.685532182455062866e-02
-1.946542263031005859e-01 5.408949255943298340e-01 -4.327498376369476318e-01
-2.355522513389587402e-01 5.609023571014404297e-01 -6.677198410034179688e-02
-2.223046869039535522e-01 6.611772775650024414e-01 9.210010617971420288e-02
-2.191447615623474121e-01 6.196513175964355469e-01 -2.136933803558349609e-01
-2.137204259634017944e-01 5.294257998466491699e-01 1.574398875236511230e-01
-1.196800917387008667e-01 5.913204550743103027e-01 1.787053048610687256e-01
-1.168837472796440125e-01 6.836449503898620605e-01 -2.932425141334533691e-01
-1.268574148416519165e-01 5.874785780906677246e-01 2.035022974014282227e-01
-2.196031957864761353e-01 5.035265684127807617e-01 -2.602374255657196045e-01
-1.150871366262435913e-01 5.271441340446472168e-01 5.656524747610092163e-02
-1.382949650287628174e-01 7.340455055236816406e-01 2.270137518644332886e-02
-1.250074803829193115e-01 6.528038978576660156e-01 2.167185842990875244e-01
-9.308005124330520630e-02 5.131063461303710938e-01 -2.809680104255676270e-01
-2.000660300254821777e-01 4.815926849842071533e-01 -3.695140779018402100e-01
-2.359521389007568359e-01 5.838801264762878418e-01 -2.097593247890472412e-02
-1.828422099351882935e-01 7.043249011039733887e-01 -1.621925383806228638e-01
-9.338632971048355103e-02 6.723908185958862305e-01 -1.413565725088119507e-01
-2.352845668792724609e-01 5.508264303207397461e-01 -4.642893373966217041e-02
-1.041732653975486755e-01 6.948627829551696777e-01 -4.914209246635437012e-03
-1.263142824172973633e-01 6.888847351074218750e-01 1.862223148345947266e-01
-1.387938559055328369e-01 6.076949238777160645e-01 -4.845124781131744385e-01
-1.282365024089813232e-01 4.992646574974060059e-01 -5.049895048141479492e-01
-1.169032156467437744e-01 4.677905142307281494e-01 -1.673670113086700439e-01
-1.035227775573730469e-01 5.074506998062133789e-01 -8.684670925140380859e-02
-2.230841219425201416e-01 6.532083153724670410e-01 -5.017252266407012939e-02
-1.041804626584053040e-01 5.218628644943237305e-01 -3.015908598899841309e-02
-9.855940937995910645e-02 4.995393157005310059e-01 -3.288807570934295654e-01
-2.164912670850753784e-01 4.846147894859313965e-01 -1.139529049396514893e-02
-2.297321259975433350e-01 5.451439023017883301e-01 8.319539576768875122e-02
-2.273070812225341797e-01 5.042133331298828125e-01 -1.199266165494918823e-01
-8.780270814895629883e-02 6.432899832725524902e-01 -6.928412616252899170e-02
-2.009514570236206055e-01 4.953730106353759766e-01 1.119871363043785095e-01
-1.503132134675979614e-01 4.891140460968017578e-01 -5.087286829948425293e-01
-1.438883692026138306e-01 7.328836917877197266e-01 8.777476102113723755e-02
-2.294781506061553955e-01 6.260135173797607422e-01 -6.732285767793655396e-02
-1.094378679990768433e-01 5.738644599914550781e-01 1.097254380583763123e-01
-2.103546410799026489e-01 5.683305859565734863e-01 2.316722273826599121e-01
-1.732105016708374023e-01 6.159816384315490723e-01 -4.324713349342346191e-01
-1.150540411472320557e-01 7.152909636497497559e-01 -6.933128833770751953e-02
-1.689718216657638550e-01 4.564194083213806152e-01 -9.243935346603393555e-05
-1.310312747955322266e-01 4.822964370250701904e-01 -4.855763316154479980e-01
-9.791223704814910889e-02 6.432646512985229492e-01 -3.329828977584838867e-01
-2.056654095649719238e-01 6.712765693664550781e-01 2.309071123600006104e-01
-9.815762192010879517e-02 5.764460563659667969e-01 3.833288699388504028e-02
-9.654784202575683594e-02 5.024819374084472656e-01 -2.427942156791687012e-01
-1.929784268140792847e-01 7.164486646652221680e-01 8.989443629980087280e-02
-9.204366058111190796e-02 6.614963412284851074e-01 -2.082411497831344604e-01
-1.226314455270767212e-01 6.714811921119689941e-01 1.936835050582885742e-01
-1.314665675163269043e-01 5.675776600837707520e-01 1.973213255405426025e-01
-1.064886897802352905e-01 4.783388972282409668e-01 -2.804586589336395264e-01
-2.199898362159729004e-01 5.883208513259887695e-01 2.097676098346710205e-01
-1.499881148338317871e-01 6.759834885597229004e-01 -3.448969125747680664e-01
-9.055150300264358521e-02 6.622879505157470703e-01 -9.314393997192382812e-02
-1.485173851251602173e-01 6.763276457786560059e-01 2.693614363670349121e-01
-1.407297700643539429e-01 4.384679198265075684e-01 -2.196273207664489746e-01
-1.753543913364410400e-01 4.736521244049072266e-01 7.197269052267074585e-02
-2.331982553005218506e-01 5.455687046051025391e-01 3.054545074701309204e-02
-2.211402505636215210e-01 6.528925895690917969e-01 -8.518224954605102539e-02
-2.130000889301300049e-01 5.323702096939086914e-01 -3.398375511169433594e-01
-1.267883479595184326e-01 4.619302451610565186e-01 -1.155066117644309998e-01
-1.516968756914138794e-01 7.086700201034545898e-01 -2.290599346160888672e-01
-1.363715231418609619e-01 4.466035664081573486e-01 -3.758617043495178223e-01
-9.058828651905059814e-02 5.708872675895690918e-01 -3.823827207088470459e-01
-1.330812126398086548e-01 7.210425138473510742e-01 1.207473501563072205e-01
-1.396094113588333130e-01 6.824508905410766602e-01 -3.297822475433349609e-01
-9.038116037845611572e-02 5.289218425750732422e-01 -3.241689503192901611e-01
-1.788602471351623535e-01 4.413078427314758301e-01 -9.229570627212524414e-02
-2.255827784538269043e-01 6.515766382217407227e-01 7.156024128198623657e-02
-1.084455922245979309e-01 4.927989840507507324e-01 -4.185328185558319092e-01
-1.275772452354431152e-01 6.222459673881530762e-01 2.275753319263458252e-01
-1.790060102939605713e-01 7.216224670410156250e-01 1.632211804389953613e-01
-9.762597084045410156e-02 5.443714261054992676e-01 -2.540909498929977417e-02
-1.498599499464035034e-01 -1.232794001698493958e-01 1.716028153896331787e-01
-1.026897057890892029e-01 -1.692802309989929199e-01 -3.107164241373538971e-02
-1.590692400932312012e-01 -1.722729206085205078e-01 -3.845704793930053711e-01
-2.147812843322753906e-01 -1.598897576332092285e-01 -1.515285223722457886e-01
-1.030246764421463013e-01 -1.551102399826049805e-01 6.024077534675598145e-03
-1.103151962161064148e-01 -1.674361228942871094e-01 -2.923103868961334229e-01
-1.676933914422988892e-01 -1.622318625450134277e-01 -3.279228806495666504e-01
-1.042238995432853699e-01 -1.690545827150344849e-01 -7.750514894723892212e-03
-1.532089412212371826e-01 -1.422660201787948608e-01 3.013476431369781494e-01
-2.249273359775543213e-01 -1.711718142032623291e-01 2.577855288982391357e-01
-2.275860309600830078e-01 -1.850338429212570190e-01 -2.105205655097961426e-01
-1.238011494278907776e-01 -2.070352882146835327e-01 -1.717303991317749023e-01
-1.327154189348220825e-01 -1.756883114576339722e-01 1.676919460296630859e-01
-1.452617645263671875e-01 -2.209193110466003418e-01 -2.976322770118713379e-01
-2.262850701808929443e-01 -1.856414377689361572e-01 2.132017910480499268e-01
-1.697150915861129761e-01 -2.240133285522460938e-01 -1.013553366065025330e-01
-2.422948330640792847e-01 -1.853588074445724487e-01 -5.021211504936218262e-02
-1.803373098373413086e-01 -1.271961182355880737e-01 2.411332726478576660e-01
-2.039252817630767822e-01 -1.366840898990631104e-01 3.785651922225952148e-02
-1.180024296045303345e-01 -1.993576288223266602e-01 -3.284692764282226562e-01
-1.251720339059829712e-01 -1.448264122009277344e-01 -2.116455733776092529e-01
-1.842519342899322510e-01 -2.065176814794540405e-01 1.257797777652740479e-01
-1.704195439815521240e-01 -1.269302070140838623e-01 2.552365958690643311e-01
-1.421775519847869873e-01 -2.183350026607513428e-01 -3.320695459842681885e-01
-1.462673842906951904e-01 -1.978023052215576172e-01 9.381868690252304077e-02
-1.621059626340866089e-01 -1.731046438217163086e-01 2.733143568038940430e-01
-1.816107332706451416e-01 -1.252732574939727783e-01 1.731716990470886230e-01
-2.356142252683639526e-01 -1.630021780729293823e-01 3.040929883718490601e-02
-1.566442847251892090e-01 -1.614051163196563721e-01 2.951529622077941895e-01
-1.461336314678192139e-01 -1.228492707014083862e-01 8.796983212232589722e-02
-1.665143519639968872e-01 -1.237153336405754089e-01 2.049225270748138428e-01
-1.539665460586547852e-01 -1.967308223247528076e-01 1.299187242984771729e-01
-1.786558330059051514e-01 -1.292050629854202271e-01 2.707901597023010254e-01
-1.385588943958282471e-01 -2.166337966918945312e-01 -1.819814145565032959e-01
-2.270513772964477539e-01 -1.710121631622314453e-01 -1.451535522937774658e-01
-1.608056575059890747e-01 -1.310335844755172729e-01 2.827253043651580811e-01
-1.656503975391387939e-01 -1.633542776107788086e-01 3.087632954120635986e-01
-1.178299635648727417e-01 -1.809059381484985352e-01 5.473896116018295288e-02
-1.118859797716140747e-01 -1.545822322368621826e-01 1.077939048409461975e-01
-1.158046647906303406e-01 -2.014194726943969727e-01 -2.207547128200531006e-01
-1.469333171844482422e-01 -1.515702903270721436e-01 2.852614223957061768e-01
-2.206307053565979004e-01 -2.207688540220260620e-01 -8.197237551212310791e-02
-1.037973761558532715e-01 -1.541946977376937866e-01 -1.674823164939880371e-01
-1.901973634958267212e-01 -1.702329218387603760e-01 -3.185570538043975830e-01
-1.608890891075134277e-01 -2.263631820678710938e-01 -2.882149815559387207e-01
-1.366569697856903076e-01 -2.161472290754318237e-01 -3.141412138938903809e-01
-1.560276150703430176e-01 -2.144493162631988525e-01 -2.144550159573554993e-02
-2.040409296751022339e-01 -1.495921462774276733e-01 -1.263566911220550537e-01
-1.857975870370864868e-01 -2.111621946096420288e-01 -4.123793840408325195e-01
-1.176009252667427063e-01 -1.330423504114151001e-01 5.700074881315231323e-02
-2.328495532274246216e-01 -2.109855115413665771e-01 -1.576240658760070801e-01
-1.302444636821746826e-01 -2.088978737592697144e-01 -1.198091432452201843e-01
-1.737377494573593140e-01 -2.237313985824584961e-01 -8.229719847440719604e-02
-1.464609354734420776e-01 -1.834703534841537476e-01 -4.223973751068115234e-01
-1.695754826068878174e-01 -1.840495020151138306e-01 2.424392700195312500e-01
-1.915897876024246216e-01 -1.337424218654632568e-01 -8.414637297391891479e-03
-2.077937722206115723e-01 -1.455468833446502686e-01 -6.159368157386779785e-02
-1.408006548881530762e-01 -1.493684947490692139e-01 -2.669000327587127686e-01
-1.655271947383880615e-01 -1.249874681234359741e-01 2.799586951732635498e-02
-2.436221539974212646e-01 -1.863782107830047607e-01 5.415044724941253662e-02
-1.327805817127227783e-01 -2.074878364801406860e-01 -3.840583860874176025e-01
-1.138796210289001465e-01 -1.988170146942138672e-01 -1.869745552539825439e-01
-1.535638272762298584e-01 -2.234990000724792480e-01 -3.190668523311614990e-01
-1.705724000930786133e-01 -1.230483353137969971e-01 1.528015136718750000e-01
-2.377169132232666016e-01 -1.860705912113189697e-01 -1.237094849348068237e-01
-1.526247262954711914e-01 -1.837764978408813477e-01 2.032246589660644531e-01
-1.167687252163887024e-01 -1.985906213521957397e-01 -1.211228147149085999e-01
-2.406299710273742676e-01 -1.931451559066772461e-01 -1.005587801337242126e-01
-1.907503455877304077e-01 -1.657920926809310913e-01 3.250964581966400146e-01
-1.923497468233108521e-01 -1.974526196718215942e-01 -3.969422578811645508e-01
-2.232505381107330322e-01 -1.525494456291198730e-01 -1.135375723242759705e-02
-2.167432904243469238e-01 -1.663518100976943970e-01 2.918039858341217041e-01
-1.110860407352447510e-01 -1.632925271987915039e-01 8.434046059846878052e-02
-1.444523632526397705e-01 -1.579525470733642578e-01 -3.217033147811889648e-01
-1.488814949989318848e-01 -1.229558065533638000e-01 6.691917777061462402e-02
-1.982132643461227417e-01 -1.857039779424667358e-01 -3.543241322040557861e-01
-1.412944495677947998e-01 -1.678757965564727783e-01 2.327342927455902100e-01
-1.048099026083946228e-01 -1.465409249067306519e-01 -8.686227351427078247e-02
-1.266969442367553711e-01 -2.084893882274627686e-01 -1.567789316177368164e-01
-2.073256671428680420e-01 -2.153928875923156738e-01 -3.378213942050933838e-01
-1.575912237167358398e-01 -1.223301887512207031e-01 1.585780382156372070e-01
-1.536408811807632446e-01 -1.636207848787307739e-01 2.826506197452545166e-01
-2.182010412216186523e-01 -1.756663471460342407e-01 2.707604765892028809e-01
-1.393328607082366943e-01 -1.888241618871688843e-01 1.264272332191467285e-01
-2.314659655094146729e-01 -1.666260808706283569e-01 -7.269120216369628906e-02
-1.664601862430572510e-01 -2.276338934898376465e-01 -2.223496437072753906e-01
-1.698030978441238403e-01 -1.241812407970428467e-01 6.700316816568374634e-02
-1.614513993263244629e-01 -1.866269856691360474e-01 -4.275183081626892090e-01
-1.223576366901397705e-01 -1.307235658168792725e-01 -9.011339396238327026e-03
-1.983340531587600708e-01 -2.255125939846038818e-01 -3.102291822433471680e-01
-1.901385784149169922e-01 -2.010515183210372925e-01 1.711895763874053955e-01
-2.176448851823806763e-01 -1.425853818655014038e-01 1.846598684787750244e-01
-1.454094797372817993e-01 -2.211011201143264771e-01 -2.311946749687194824e-01
-2.352312207221984863e-01 -1.993227303028106689e-01 9.034463018178939819e-02
-1.251589953899383545e-01 -1.521180570125579834e-01 -2.661691606044769287e-01
-1.740500926971435547e-01 -1.319167315959930420e-01 2.957187592983245850e-01
-1.145450621843338013e-01 -1.895518451929092407e-01 -3.421155512332916260e-01
-1.838256716728210449e-01 -1.457177698612213135e-01 -1.779188513755798340e-01
-2.100788503885269165e-01 -1.436963826417922974e-01 -2.066833898425102234e-02
-1.511015594005584717e-01 -2.194299101829528809e-01 -1.198327988386154175e-01
-1.209664046764373779e-01 -1.752529740333557129e-01 -3.614448010921478271e-01
-1.455416381359100342e-01 -1.773269921541213989e-01 -4.056032299995422363e-01
-2.381322383880615234e-01 -2.063328623771667480e-01 -4.072430729866027832e-02
-1.424361467361450195e-01 -2.131229043006896973e-01 -3.923608064651489258e-01
-1.737156361341476440e-01 -1.235948652029037476e-01 1.290683448314666748e-01
-1.080956459045410156e-01 -1.921245157718658447e-01 -2.079093754291534424e-01
-2.406777441501617432e-01 -1.704182624816894531e-01 6.649243086576461792e-02
-1.832884252071380615e-01 -1.968326121568679810e-01 1.926843225955963135e-01
-2.087315320968627930e-01 -1.378575861454010010e-01 2.248791754245758057e-01
-2.049352526664733887e-01 -1.343068778514862061e-01 1.246234849095344543e-01
-1.756773591041564941e-01 -1.612010598182678223e-01 3.266925215721130371e-01
-1.826985329389572144e-01 -1.501733958721160889e-01 3.406555354595184326e-01
-1.637299656867980957e-01 -2.102062255144119263e-01 5.150762200355529785e-02
-1.968048661947250366e-01 -1.312346756458282471e-01 2.166142761707305908e-01
-1.407741308212280273e-01 -1.590565592050552368e-01 2.544802129268646240e-01
-1.656620055437088013e-01 -1.507475376129150391e-01 -2.603818774223327637e-01
-1.556299626827239990e-01 -1.798167228698730469e-01 -4.127793610095977783e-01
-2.337614148855209351e-01 -1.586222350597381592e-01 7.523783296346664429e-02
-1.159905642271041870e-01 -1.991131603717803955e-01 -1.428874731063842773e-01
