-1.768060028553009033e-01 6.634498834609985352e-01 -3.049399703741073608e-02
-2.370584905147552490e-01 7.298365831375122070e-01 -1.173306331038475037e-01
-2.380629777908325195e-01 5.129938125610351562e-01 -2.661018669605255127e-01
-1.838858872652053833e-01 5.990407466888427734e-01 -1.243661791086196899e-01
-1.783861666917800903e-01 6.884362697601318359e-01 -8.171714842319488525e-03
-2.700325548648834229e-01 5.109077095985412598e-01 -3.125569224357604980e-02
-2.734249830245971680e-01 6.014633178710937500e-01 -2.383970320224761963e-01
-2.450038194656372070e-01 4.868900775909423828e-01 -9.961600601673126221e-02
-2.416049093008041382e-01 4.897769987583160400e-01 -8.744245022535324097e-02
-2.113439440727233887e-01 5.823408365249633789e-01 7.259143143892288208e-02
-2.374246865510940552e-01 4.185364842414855957e-01 -2.328362911939620972e-01
-2.719048559665679932e-01 4.149261116981506348e-01 -2.239276915788650513e-01
-2.321065217256546021e-01 3.099843561649322510e-01 -3.473033308982849121e-01
-2.797451019287109375e-01 2.570843696594238281e-01 -1.309076547622680664e-01
-2.438015639781951904e-01 4.202751517295837402e-01 -1.163869574666023254e-01
-2.697156965732574463e-01 1.898253262042999268e-01 -2.742933332920074463e-01
-2.492516338825225830e-01 3.660393953323364258e-01 -9.943187236785888672e-03
-2.402379065752029419e-01 4.486950635910034180e-01 -3.202964365482330322e-01
-2.387273013591766357e-01 4.376114606857299805e-01 -2.605246305465698242e-01
-2.330838143825531006e-01 3.689857423305511475e-01 -2.967906594276428223e-01
-2.390182763338088989e-01 2.453679144382476807e-01 -9.727171808481216431e-02
-2.429947853088378906e-01 3.539388477802276611e-01 -6.163857132196426392e-02
-2.776856124401092529e-01 1.831986308097839355e-01 -7.475028187036514282e-02
-2.702581286430358887e-01 4.155125617980957031e-01 -2.566098570823669434e-01
-2.744284272193908691e-01 1.823073476552963257e-01 -1.910277009010314941e-01
-2.340059727430343628e-01 3.133877515792846680e-01 -3.997551202774047852e-01
-2.544786334037780762e-01 3.514534533023834229e-01 3.310771286487579346e-02
-2.379907071590423584e-01 2.326649129390716553e-01 -4.043393731117248535e-01
-2.352555096149444580e-01 3.443955779075622559e-01 -1.770134866237640381e-01
-2.679572701454162598e-01 1.219237297773361206e-01 -1.788456887006759644e-01
-2.597482502460479736e-01 4.755911827087402344e-01 -1.229585409164428711e-01
-2.363173961639404297e-01 4.179767966270446777e-01 -3.149899840354919434e-01
-2.466815561056137085e-01 1.737821400165557861e-01 -4.130961000919342041e-02
-2.390993237495422363e-01 2.794112563133239746e-01 -8.954194188117980957e-02
-2.788167595863342285e-01 2.839973568916320801e-01 -1.710135638713836670e-01
-2.408229112625122070e-01 4.450588822364807129e-01 -3.517250418663024902e-01
-2.669672071933746338e-01 4.151661694049835205e-01 -1.965776085853576660e-03
-2.373830974102020264e-01 3.227204382419586182e-01 -1.240898817777633667e-01
-2.584906220436096191e-01 1.941980868577957153e-01 5.934375524520874023e-02
-2.333912402391433716e-01 2.651834487915039062e-01 -2.150208204984664917e-01
-2.749485671520233154e-01 2.425093501806259155e-01 -2.399697452783584595e-01
-2.378011494874954224e-01 2.130272984504699707e-01 -3.803882002830505371e-01
-2.542747557163238525e-01 4.252997934818267822e-01 -3.378759324550628662e-02
-2.496240586042404175e-01 3.976245820522308350e-01 -3.281998634338378906e-02
-2.625349462032318115e-01 1.270432919263839722e-01 -2.582535147666931152e-01
-2.708389759063720703e-01 2.856571972370147705e-01 -3.133808374404907227e-01
-2.803622186183929443e-01 2.522760033607482910e-01 -9.167491644620895386e-02
-2.329199016094207764e-01 3.406415283679962158e-01 -2.434330433607101440e-01
-2.779042422771453857e-01 3.153574466705322266e-01 -1.910029351711273193e-01
-2.411112487316131592e-01 4.328005909919738770e-01 -3.848017454147338867e-01
-2.608687877655029297e-01 4.534412920475006104e-01 -3.200095891952514648e-01
-2.321282327175140381e-01 3.273009955883026123e-01 -3.422570824623107910e-01
-2.791598439216613770e-01 2.770323455333709717e-01 1.531985402107238770e-02
-2.485475540161132812e-01 4.836778640747070312e-01 -2.683199048042297363e-01
-2.508735358715057373e-01 4.859814047813415527e-01 -2.106209695339202881e-01
-2.458793967962265015e-01 1.176245212554931641e-01 -2.159759849309921265e-01
-2.344233989715576172e-01 3.554556369781494141e-01 -3.940715193748474121e-01
-2.571918666362762451e-01 4.483486413955688477e-01 -3.575897514820098877e-01
-2.653691172599792480e-01 1.444501280784606934e-01 3.206738829612731934e-02
-2.380452305078506470e-01 3.977353870868682861e-01 -1.751642972230911255e-01
-2.686531245708465576e-01 3.942034840583801270e-01 -3.064738810062408447e-01
-2.401094883680343628e-01 4.448128938674926758e-01 -2.398789823055267334e-01
-2.416022270917892456e-01 1.633781939744949341e-01 -3.363707065582275391e-01
-2.375280261039733887e-01 1.960518658161163330e-01 -1.684395819902420044e-01
-2.482097893953323364e-01 3.236752450466156006e-01 3.439798951148986816e-03
-2.378967553377151489e-01 2.753499150276184082e-01 -1.087431833148002625e-01
-2.370594292879104614e-01 4.257908463478088379e-01 -2.929090559482574463e-01
-2.425737529993057251e-01 4.019492268562316895e-01 -1.081577092409133911e-01
-2.770065665245056152e-01 3.783528208732604980e-01 -5.754412710666656494e-02
-2.509940862655639648e-01 4.208095371723175049e-01 -4.827727377414703369e-02
-2.333882749080657959e-01 3.300828337669372559e-01 -2.173403352499008179e-01
-2.728972434997558594e-01 1.468223333358764648e-01 -1.493234932422637939e-01
-2.610253095626831055e-01 3.228679299354553223e-01 -4.073875248432159424e-01
-2.800616621971130371e-01 2.357715964317321777e-01 -3.575755655765533447e-02
-2.693975269794464111e-01 2.354327887296676636e-01 -3.130632042884826660e-01
-2.619224786758422852e-01 4.652265608310699463e-01 -2.821665704250335693e-01
-2.329178601503372192e-01 3.591506481170654297e-01 -3.436451256275177002e-01
-2.449648678302764893e-01 4.729664325714111328e-01 -2.475700676441192627e-01
-2.406213134527206421e-01 4.332147538661956787e-01 -1.894910186529159546e-01
-2.641996443271636963e-01 3.593965172767639160e-01 -3.749788105487823486e-01
-2.376785129308700562e-01 4.293022155761718750e-01 -3.283270895481109619e-01
-2.557897865772247314e-01 3.154120743274688721e-01 5.575372278690338135e-02
-2.787771224975585938e-01 3.545020520687103271e-01 -1.014832630753517151e-01
-2.396386265754699707e-01 1.804029941558837891e-01 -3.491637110710144043e-01
-2.338213920593261719e-01 3.726127445697784424e-01 -2.539072632789611816e-01
-2.697569727897644043e-01 3.418100774288177490e-01 -3.224407434463500977e-01
-2.712217867374420166e-01 1.348239630460739136e-01 -1.892536878585815430e-02
-2.792723476886749268e-01 3.324448764324188232e-01 -3.234769403934478760e-02
-2.355578243732452393e-01 3.208557367324829102e-01 -4.211826622486114502e-01
-2.787362337112426758e-01 2.411174327135086060e-01 -1.548388004302978516e-01
-2.768850624561309814e-01 3.320553600788116455e-01 2.341420948505401611e-02
-2.388180941343307495e-01 3.445742428302764893e-01 -4.442781805992126465e-01
-2.357695549726486206e-01 3.155213296413421631e-01 -1.515166312456130981e-01
-2.725106477737426758e-01 3.493295311927795410e-01 -2.818376123905181885e-01
-2.384268343448638916e-01 1.947004050016403198e-01 -1.480420380830764771e-01
-2.749232053756713867e-01 1.711767911911010742e-01 -1.592726409435272217e-01
-2.618414759635925293e-01 1.597272902727127075e-01 4.578849673271179199e-02
-2.321658283472061157e-01 2.743914127349853516e-01 -3.240036964416503906e-01
-2.357284724712371826e-01 2.966255843639373779e-01 -1.484869569540023804e-01
-2.799376547336578369e-01 2.570439577102661133e-01 -7.744148373603820801e-03
-2.769028246402740479e-01 2.200470268726348877e-01 -1.844889819622039795e-01
-2.750466465950012207e-01 2.175333201885223389e-01 -2.204981446266174316e-01
-2.488097548484802246e-01 3.440373241901397705e-01 -4.807412624359130859e-04
-2.566773295402526855e-01 4.882577657699584961e-01 -2.401711344718933105e-01
-2.735489308834075928e-01 3.223756849765777588e-01 6.113848090171813965e-02
-2.376137971878051758e-01 3.259848356246948242e-01 -4.394052028656005859e-01
-2.657189965248107910e-01 4.681468605995178223e-01 -1.581749320030212402e-01
-2.416989803314208984e-01 1.571031361818313599e-01 -1.416055113077163696e-01
-2.766529619693756104e-01 1.762419641017913818e-01 -1.143125221133232117e-01
-2.498941123485565186e-01 1.559388041496276855e-01 -2.671284973621368408e-02
-2.320399880409240723e-01 2.994135320186614990e-01 -2.639103233814239502e-01
-2.729236781597137451e-01 3.135128021240234375e-01 -2.859682738780975342e-01
-2.382423877716064453e-01 3.620242774486541748e-01 -4.346320033073425293e-01
-2.383099496364593506e-01 2.134231328964233398e-01 -1.292305141687393188e-01
-2.755238711833953857e-01 4.001526832580566406e-01 -8.465170860290527344e-02
-2.740217447280883789e-01 1.447794735431671143e-01 -8.885921537876129150e-02
-2.797589600086212158e-01 2.226698249578475952e-01 -7.019709795713424683e-02
-2.760236263275146484e-01 2.162986099720001221e-01 -2.002366632223129272e-01
-2.794318795204162598e-01 3.085261583328247070e-01 -1.458722203969955444e-01
-2.707993090152740479e-01 4.298872649669647217e-01 -6.219393014907836914e-02
-2.653608322143554688e-01 4.677978157997131348e-01 -1.374543905258178711e-01
-2.793847918510437012e-01 2.190025746822357178e-01 -9.604138135910034180e-02
-2.629903852939605713e-01 4.107010662555694580e-01 -3.549389243125915527e-01
-2.764602303504943848e-01 2.158077061176300049e-01 4.087357223033905029e-02
-2.561157643795013428e-01 1.741865277290344238e-01 -3.664103150367736816e-01
-2.410944998264312744e-01 1.552512049674987793e-01 -3.073507845401763916e-01
-2.619630396366119385e-01 2.513731420040130615e-01 8.702366054058074951e-02
-2.414135783910751343e-01 3.847068548202514648e-01 -1.050483956933021545e-01
-2.777795195579528809e-01 1.923472434282302856e-01 -1.597261428833007812e-02
-2.422118037939071655e-01 4.311245679855346680e-01 -1.565883904695510864e-01
-2.803681492805480957e-01 3.073016703128814697e-01 -5.323019623756408691e-02
-2.486926466226577759e-01 4.710168242454528809e-01 -1.647347360849380493e-01
-2.477004230022430420e-01 4.340247809886932373e-01 -9.389410912990570068e-02
-2.761090993881225586e-01 2.916319966316223145e-01 -2.339339852333068848e-01
-2.399986088275909424e-01 1.784621477127075195e-01 -1.377166807651519775e-01
-2.321924865245819092e-01 2.672114372253417969e-01 -3.028098940849304199e-01
-2.720361649990081787e-01 3.673307597637176514e-01 -2.787991762161254883e-01
-2.795179784297943115e-01 3.388210237026214600e-01 -7.760342210531234741e-02
-2.709904313087463379e-01 3.902052938938140869e-01 -2.762487232685089111e-01
-2.409299314022064209e-01 2.768298983573913574e-01 -6.394111365079879761e-02
-2.753188610076904297e-01 3.580676317214965820e-01 -2.257128655910491943e-01
-2.770582139492034912e-01 2.776578366756439209e-01 4.852490127086639404e-02
-2.719111144542694092e-01 2.972040474414825439e-01 -3.006925284862518311e-01
-2.366640865802764893e-01 1.874341070652008057e-01 -2.219827026128768921e-01
-2.342375814914703369e-01 3.842073380947113037e-01 -3.504802584648132324e-01
-2.348840534687042236e-01 2.290509790182113647e-01 -3.554436564445495605e-01
-2.720571160316467285e-01 4.330883026123046875e-01 -1.272815316915512085e-01
-2.667164206504821777e-01 4.607812166213989258e-01 -2.070287764072418213e-01
-2.797635197639465332e-01 2.376914322376251221e-01 -1.454764604568481445e-02
-2.491060346364974976e-01 1.102115511894226074e-01 -2.409047186374664307e-01
-2.659289836883544922e-01 3.616447448730468750e-01 -3.578025102615356445e-01
-2.710826098918914795e-01 1.255226582288742065e-01 -1.062471568584442139e-01
-2.468377798795700073e-01 3.435997664928436279e-01 -1.693534851074218750e-02
-2.760636210441589355e-01 3.950825035572052002e-01 -1.236244887113571167e-01
-2.780021727085113525e-01 2.575120329856872559e-01 -1.854322999715805054e-01
-2.703540027141571045e-01 4.448302090167999268e-01 -1.443930268287658691e-01
-2.588407993316650391e-01 2.880759835243225098e-01 -4.192292690277099609e-01
-2.634564638137817383e-01 2.916550040245056152e-01 -3.879067897796630859e-01
-2.441180050373077393e-01 3.477858006954193115e-01 -4.600495100021362305e-01
-2.522289752960205078e-01 2.781274914741516113e-01 4.278263449668884277e-02
-2.322242110967636108e-01 2.695056796073913574e-01 -2.751196324825286865e-01
-2.343306839466094971e-01 2.169759571552276611e-01 -2.545516192913055420e-01
-2.762683629989624023e-01 3.695983588695526123e-01 -1.893749237060546875e-01
-2.403108477592468262e-01 1.497504115104675293e-01 -2.422649711370468140e-01
-2.697156369686126709e-01 1.391138285398483276e-01 -1.964979469776153564e-01
-2.332043051719665527e-01 2.639985978603363037e-01 -3.590796291828155518e-01
-2.782643139362335205e-01 1.915926337242126465e-01 -5.604478716850280762e-02
-2.329483479261398315e-01 3.661338388919830322e-01 -3.194449543952941895e-01
-2.613911926746368408e-01 1.726270169019699097e-01 -3.352582156658172607e-01
-2.441404759883880615e-01 1.797994673252105713e-01 -6.665921956300735474e-02
-2.608082890510559082e-01 3.200113773345947266e-01 7.335992157459259033e-02
-2.775535285472869873e-01 3.322713375091552734e-01 -1.915977597236633301e-01
-2.430615872144699097e-01 2.441834360361099243e-01 -4.193842411041259766e-02
-2.455669790506362915e-01 4.617071151733398438e-01 -1.776306927204132080e-01
-2.629471123218536377e-01 3.310982584953308105e-01 -3.922744393348693848e-01
-2.781555354595184326e-01 2.956069111824035645e-01 -1.889726966619491577e-01
-2.711348235607147217e-01 3.211650848388671875e-01 -3.096917569637298584e-01
-2.585980594158172607e-01 2.443719506263732910e-01 -4.065660238265991211e-01
-2.672994136810302734e-01 4.135909974575042725e-01 -3.045058846473693848e-01
-2.445960640907287598e-01 2.280810773372650146e-01 -2.943153679370880127e-02
-2.786478996276855469e-01 3.271515965461730957e-01 -1.622043848037719727e-01
-2.556847333908081055e-01 1.043406575918197632e-01 -7.311458140611648560e-02
-2.358137816190719604e-01 2.117063403129577637e-01 -3.455165624618530273e-01
-2.350184321403503418e-01 3.417440652847290039e-01 -4.105949103832244873e-01
-2.655549943447113037e-01 3.955745100975036621e-01 2.622060477733612061e-02
-2.330185472965240479e-01 2.418759763240814209e-01 -2.772929072380065918e-01
-2.722420990467071533e-01 3.933103382587432861e-01 -2.512159347534179688e-01
-2.362763285636901855e-01 1.898473501205444336e-01 -2.910026609897613525e-01
-2.468009293079376221e-01 1.879414319992065430e-01 -3.974226415157318115e-01
-2.774380445480346680e-01 3.776113688945770264e-01 -8.897437155246734619e-02
-2.510356307029724121e-01 2.137529700994491577e-01 2.457942068576812744e-02
-2.340895086526870728e-01 2.274724841117858887e-01 -3.264054954051971436e-01
-2.428373545408248901e-01 2.994056046009063721e-01 -4.240010678768157959e-02
-2.799926996231079102e-01 3.191207051277160645e-01 -1.048718243837356567e-01
-2.511731088161468506e-01 2.577284276485443115e-01 3.561961650848388672e-02
-2.410055100917816162e-01 3.011007905006408691e-01 -6.491149961948394775e-02
-2.665674686431884766e-01 4.052910804748535156e-01 1.297022402286529541e-02
-2.638312876224517822e-01 4.654021859169006348e-01 -1.029690355062484741e-01
-2.345494925975799561e-01 3.768799602985382080e-01 -2.328236401081085205e-01
-2.573617994785308838e-01 1.634289771318435669e-01 -3.484168648719787598e-01
-2.733929753303527832e-01 2.329518944025039673e-01 -2.593896687030792236e-01
-2.608494758605957031e-01 2.314394414424896240e-01 -3.861681818962097168e-01
-2.329027801752090454e-01 3.146396875381469727e-01 -3.762533068656921387e-01
-2.420949786901473999e-01 1.831788718700408936e-01 -9.289827197790145874e-02
-2.751638293266296387e-01 4.057744145393371582e-01 -1.113241538405418396e-01
-2.507558465003967285e-01 1.148957610130310059e-01 -2.714524865150451660e-01
-2.782360911369323730e-01 1.944763660430908203e-01 -9.302894771099090576e-02
-2.771776914596557617e-01 3.140429854393005371e-01 -2.091988325119018555e-01
-2.368476092815399170e-01 3.699204027652740479e-01 -1.650618910789489746e-01
-2.464414387941360474e-01 4.769531488418579102e-01 -2.321144640445709229e-01
-2.574565112590789795e-01 1.031189411878585815e-01 -2.279616892337799072e-01
-2.650913894176483154e-01 1.751933395862579346e-01 -3.082819879055023193e-01
-2.591939866542816162e-01 4.515606462955474854e-01 -3.380961418151855469e-01
-2.611706554889678955e-01 1.459503620862960815e-01 -3.023207187652587891e-01
-2.685963809490203857e-01 1.879394054412841797e-01 7.015816867351531982e-02
-2.803812026977539062e-01 2.715972363948822021e-01 -1.064320355653762817e-01
-2.614531815052032471e-01 4.430739581584930420e-01 -3.994691371917724609e-02
-2.782424688339233398e-01 2.961101531982421875e-01 2.691942453384399414e-02
-2.798250913619995117e-01 3.282325565814971924e-01 -5.855785310268402100e-02
-2.363225370645523071e-01 2.742283642292022705e-01 -1.372584402561187744e-01
-2.744988501071929932e-01 4.063881337642669678e-01 -6.704960018396377563e-02
-2.650351524353027344e-01 3.189867138862609863e-01 -3.757671117782592773e-01
-2.802453935146331787e-01 3.160227239131927490e-01 -7.358141243457794189e-02
-2.609013617038726807e-01 2.777282297611236572e-01 -4.040398001670837402e-01
-2.410853207111358643e-01 1.441706120967864990e-01 -2.268231213092803955e-01
-2.780110836029052734e-01 3.359135687351226807e-01 -1.757121086120605469e-01
-2.701126337051391602e-01 2.265544533729553223e-01 -2.995050549507141113e-01
-2.349741160869598389e-01 3.062115311622619629e-01 -4.134653508663177490e-01
-2.640872895717620850e-01 1.431203633546829224e-01 -2.741351723670959473e-01
-2.346415817737579346e-01 3.976149857044219971e-01 -3.089421987533569336e-01
-2.471881508827209473e-01 1.465233564376831055e-01 -3.383044600486755371e-01
-2.774452567100524902e-01 3.769680559635162354e-01 -1.131092905998229980e-01
-2.773696482181549072e-01 1.895805597305297852e-01 -1.234600171446800232e-01
-2.373538911342620850e-01 1.857703328132629395e-01 -1.958764493465423584e-01
-2.552814185619354248e-01 2.149761915206909180e-01 -4.057329297065734863e-01
-2.413100749254226685e-01 3.555609583854675293e-01 -8.310391008853912354e-02
-2.799215316772460938e-01 3.209912180900573730e-01 -4.489657282829284668e-02
-2.355931103229522705e-01 2.011352777481079102e-01 -3.085109591484069824e-01
-2.795352041721343994e-01 2.178908735513687134e-01 -4.286552965641021729e-02
-2.769550085067749023e-01 1.757763624191284180e-01 -9.482806175947189331e-02
-2.789086103439331055e-01 2.477008551359176636e-01 1.776172220706939697e-02
-2.642328143119812012e-01 4.737876057624816895e-01 -1.837431341409683228e-01
-2.446374595165252686e-01 1.296474337577819824e-01 -1.540089398622512817e-01
-2.438906580209732056e-01 1.576397716999053955e-01 -9.880484640598297119e-02
-2.317295074462890625e-01 3.061481714248657227e-01 -3.043273389339447021e-01
-2.577240765094757080e-01 3.735050857067108154e-01 -4.171275198459625244e-01
-2.793549299240112305e-01 2.890244722366333008e-01 -1.540784984827041626e-01
-2.773502469062805176e-01 3.617913722991943359e-01 -1.661650538444519043e-01
-2.790496647357940674e-01 2.571828365325927734e-01 -1.560590863227844238e-01
-2.471168786287307739e-01 3.764943480491638184e-01 -3.533461689949035645e-02
-2.333469837903976440e-01 3.710185885429382324e-01 -2.776279449462890625e-01
-2.681858241558074951e-01 3.830105066299438477e-01 -3.212983608245849609e-01
-2.500780224800109863e-01 2.009982168674468994e-01 1.109759509563446045e-02
-2.737986445426940918e-01 2.075742483139038086e-01 -2.332051098346710205e-01
-2.449292540550231934e-01 2.692412734031677246e-01 -1.768280565738677979e-02
-2.735029458999633789e-01 4.053832292556762695e-01 -3.920932114124298096e-02
-2.745364010334014893e-01 1.546115577220916748e-01 -2.385000884532928467e-02
-2.334482818841934204e-01 2.521590590476989746e-01 -2.240724563598632812e-01
-2.753880023956298828e-01 3.322565555572509766e-01 4.060630500316619873e-02
-2.799876034259796143e-01 2.764174640178680420e-01 -1.287124454975128174e-01
-2.719289958477020264e-01 2.019287496805191040e-01 -2.567087411880493164e-01
-2.370149195194244385e-01 2.384026795625686646e-01 -1.364985853433609009e-01
-2.445034980773925781e-01 4.712721109390258789e-01 -2.944125235080718994e-01
-2.628245353698730469e-01 1.173127442598342896e-01 -1.394879817962646484e-02
-2.377706319093704224e-01 3.077924549579620361e-01 -4.400256872177124023e-01
-2.599034309387207031e-01 9.728334844112396240e-02 -1.862334907054901123e-01
-2.416946142911911011e-01 1.662530303001403809e-01 -1.234304159879684448e-01
-2.364074587821960449e-01 2.541753351688385010e-01 -1.410366445779800415e-01
-2.751100957393646240e-01 2.900037765502929688e-01 6.412130594253540039e-02
-2.590349316596984863e-01 2.850851118564605713e-01 7.672591507434844971e-02
-2.354428172111511230e-01 3.962499797344207764e-01 -3.642796277999877930e-01
-2.794869840145111084e-01 3.196193575859069824e-01 -1.353174149990081787e-01
-2.354934215545654297e-01 2.209013104438781738e-01 -1.897634267807006836e-01
-2.552125751972198486e-01 3.925526440143585205e-01 -4.211644530296325684e-01
-2.421700209379196167e-01 1.404986083507537842e-01 -2.692219018936157227e-01
-2.628214657306671143e-01 2.734032571315765381e-01 -3.891870081424713135e-01
-2.378594428300857544e-01 4.078487753868103027e-01 -1.960182636976242065e-01
-2.448737472295761108e-01 4.129764139652252197e-01 -9.383755922317504883e-02
-2.677386403083801270e-01 2.860726118087768555e-01 -3.483179509639739990e-01
-2.336523681879043579e-01 2.479359358549118042e-01 -3.518786132335662842e-01
-2.758033871650695801e-01 3.876059353351593018e-01 -4.391837120056152344e-02
-2.728321552276611328e-01 1.833567917346954346e-01 4.890200495719909668e-02
-2.794861793518066406e-01 2.745717763900756836e-01 -1.482645720243453979e-01
-2.463262826204299927e-01 2.574785947799682617e-01 -4.667267203330993652e-03
-2.357445210218429565e-01 3.940858542919158936e-01 -2.260591983795166016e-01
-2.740322053432464600e-01 1.688019335269927979e-01 -1.760208606719970703e-01
-2.804011702537536621e-01 2.661111056804656982e-01 -2.632795274257659912e-02
-2.474037408828735352e-01 1.276133507490158081e-01 -2.948208451271057129e-01
-2.450725883245468140e-01 4.360381960868835449e-01 -1.257043033838272095e-01
-2.348631024360656738e-01 3.053236901760101318e-01 -1.683897823095321655e-01
-2.447798103094100952e-01 1.244889497756958008e-01 -2.446721345186233521e-01
-2.444979399442672729e-01 3.817737102508544922e-01 -6.533741950988769531e-02
-2.485650330781936646e-01 1.875129938125610352e-01 -1.052360236644744873e-02
-2.319245636463165283e-01 3.293561339378356934e-01 -3.174751400947570801e-01
-2.407486587762832642e-01 1.492991596460342407e-01 -1.983982175588607788e-01
-2.565732300281524658e-01 3.481071591377258301e-01 -4.312299489974975586e-01
-2.539635896682739258e-01 2.873906791210174561e-01 -4.428565502166748047e-01
-2.507935762405395508e-01 1.356530189514160156e-01 -3.232587575912475586e-01
-2.692121565341949463e-01 4.507229030132293701e-01 -1.276195347309112549e-01
-2.337391078472137451e-01 3.485899865627288818e-01 -2.213113754987716675e-01
-2.767520248889923096e-01 2.319916784763336182e-01 4.629346728324890137e-02
-2.727610468864440918e-01 4.252032041549682617e-01 -1.622669696807861328e-01
-2.486342638731002808e-01 2.301885485649108887e-01 1.084677875041961670e-02
-2.680606842041015625e-01 4.351698458194732666e-01 -2.601863741874694824e-01
-2.788726687431335449e-01 3.313924968242645264e-01 -1.591464877128601074e-02
-2.796293199062347412e-01 2.387829273939132690e-01 -1.189022138714790344e-01
-2.733317017555236816e-01 1.406953781843185425e-01 -1.042123064398765564e-01
-2.707498371601104736e-01 1.514723747968673706e-01 -2.057360410690307617e-01
-2.377148270606994629e-01 4.316998124122619629e-01 -3.076853752136230469e-01
-2.679215073585510254e-01 2.393216043710708618e-01 -3.310811519622802734e-01
-2.738790214061737061e-01 3.515015542507171631e-01 -2.582582533359527588e-01
-2.352266013622283936e-01 2.033091485500335693e-01 -2.459453344345092773e-01
-2.392351478338241577e-01 2.571830749511718750e-01 -4.314259886741638184e-01
-2.769210636615753174e-01 3.817025423049926758e-01 -1.341527402400970459e-01
-2.806486487388610840e-01 2.639816701412200928e-01 -7.431895285844802856e-02
-2.340212613344192505e-01 3.373807370662689209e-01 -2.031808644533157349e-01
-2.353363186120986938e-01 2.416770160198211670e-01 -1.726186871528625488e-01
-2.646645605564117432e-01 2.241496145725250244e-01 8.738522231578826904e-02
-2.665197849273681641e-01 2.533834576606750488e-01 -3.512389957904815674e-01
-2.341348081827163696e-01 2.437230646610260010e-01 -2.068153619766235352e-01
-2.799623310565948486e-01 2.732330560684204102e-01 -6.262734532356262207e-03
-2.712755203247070312e-01 1.412956863641738892e-01 -1.723250746726989746e-01
-2.720507383346557617e-01 1.813548505306243896e-01 -2.322138398885726929e-01
-2.344608306884765625e-01 3.553291857242584229e-01 -2.063868641853332520e-01
-2.733550667762756348e-01 1.654184311628341675e-01 2.202817797660827637e-02
-2.324636876583099365e-01 3.531298637390136719e-01 -3.045291006565093994e-01
-2.801012694835662842e-01 2.360994815826416016e-01 -8.253348618745803833e-02
-2.740661203861236572e-01 1.783683300018310547e-01 3.259599208831787109e-02
-2.672289013862609863e-01 3.796415328979492188e-01 4.052290320396423340e-02
-2.769697010517120361e-01 3.138701915740966797e-01 3.586962819099426270e-02
-2.411554753780364990e-01 2.382581830024719238e-01 -6.817441433668136597e-02
-2.750943899154663086e-01 3.311851918697357178e-01 -2.461542934179306030e-01
-2.670522928237915039e-01 3.141310513019561768e-01 -3.569297194480895996e-01
-2.806816697120666504e-01 2.805710136890411377e-01 -7.953242212533950806e-02
-2.795577347278594971e-01 2.995649576187133789e-01 -3.533050417900085449e-03
-2.550312876701354980e-01 2.524110674858093262e-01 -4.276247322559356689e-01
-2.760421633720397949e-01 1.917611658573150635e-01 -1.691344678401947021e-01
-2.613904774188995361e-01 1.894056797027587891e-01 -3.520945310592651367e-01
-2.488105893135070801e-01 2.543632686138153076e-01 1.713912189006805420e-02
-2.671380043029785156e-01 1.304097175598144531e-01 -2.153454273939132690e-01
-2.503868639469146729e-01 3.165388703346252441e-01 2.269019186496734619e-02
-2.757468819618225098e-01 3.092598021030426025e-01 -2.398065328598022461e-01
-2.757946848869323730e-01 3.938967585563659668e-01 -1.513432413339614868e-01
-2.619430720806121826e-01 2.474941164255142212e-01 -3.866020441055297852e-01
-2.470090389251708984e-01 2.808363139629364014e-01 2.168685197830200195e-03
-2.688210308551788330e-01 2.575464248657226562e-01 -3.294963240623474121e-01
-2.491724640130996704e-01 1.327646374702453613e-01 -6.840424984693527222e-02
-2.343708276748657227e-01 2.836789488792419434e-01 -3.982713520526885986e-01
-2.502859830856323242e-01 1.363835781812667847e-01 -4.966817796230316162e-02
-2.359860837459564209e-01 3.855802416801452637e-01 -3.929258584976196289e-01
-2.799067497253417969e-01 3.089492917060852051e-01 -2.428968250751495361e-02
-2.682281434535980225e-01 2.103895395994186401e-01 -3.096615076065063477e-01
-2.355887889862060547e-01 4.031316339969635010e-01 -2.556349039077758789e-01
-2.694576978683471680e-01 2.724934816360473633e-01 9.087456762790679932e-02
-2.415939718484878540e-01 2.200476527214050293e-01 -7.046264410018920898e-02
-2.694237530231475830e-01 2.756627798080444336e-01 -3.282163739204406738e-01
-2.444797754287719727e-01 2.047435343265533447e-01 -4.233774542808532715e-02
-2.720300555229187012e-01 2.720567286014556885e-01 -2.953865230083465576e-01
-2.327015399932861328e-01 2.934931218624114990e-01 -3.664088845252990723e-01
-2.563823461532592773e-01 4.552455544471740723e-01 -7.272662967443466187e-02
-2.730242013931274414e-01 1.381182968616485596e-01 -5.368369817733764648e-02
-2.682625651359558105e-01 1.562877446413040161e-01 -2.499206960201263428e-01
-2.335285395383834839e-01 3.113041222095489502e-01 -2.043744325637817383e-01
-2.636953890323638916e-01 2.431987375020980835e-01 -3.714169263839721680e-01
-2.579421699047088623e-01 3.335738182067871094e-01 -4.260809719562530518e-01
-2.807198762893676758e-01 2.729084491729736328e-01 -6.157711148262023926e-02
-2.782314717769622803e-01 3.318712711334228516e-01 9.730458259582519531e-05
-2.346117049455642700e-01 2.639908790588378906e-01 -3.901700973510742188e-01
-2.607853412628173828e-01 3.855713605880737305e-01 -3.910834789276123047e-01
-2.627063095569610596e-01 3.125286996364593506e-01 -3.952831625938415527e-01
-2.693392336368560791e-01 4.008805453777313232e-01 -2.904491424560546875e-01
-2.705917954444885254e-01 1.784381866455078125e-01 -2.499896734952926636e-01
-2.777406871318817139e-01 2.035423964262008667e-01 6.636083126068115234e-03
-2.491711378097534180e-01 1.247110068798065186e-01 -8.553273975849151611e-02
-2.415919601917266846e-01 4.160865545272827148e-01 -1.406484544277191162e-01
-2.579159736633300781e-01 1.987706869840621948e-01 -3.812196254730224609e-01
-2.764798700809478760e-01 1.711981296539306641e-01 -3.156766295433044434e-02
-2.710999250411987305e-01 1.293138563632965088e-01 -3.833362460136413574e-02
-2.786635160446166992e-01 2.089462280273437500e-01 -1.130019351840019226e-01
-2.413012385368347168e-01 4.431318938732147217e-01 -2.011963725090026855e-01
-2.537132501602172852e-01 1.397921293973922729e-01 -1.455757021903991699e-02
-2.383086234331130981e-01 3.058329224586486816e-01 -1.040562838315963745e-01
-2.401524782180786133e-01 3.254356384277343750e-01 -8.297460526227951050e-02
-2.590796053409576416e-01 3.067768216133117676e-01 -4.200519323348999023e-01
-2.400751411914825439e-01 2.117161899805068970e-01 -9.886238723993301392e-02
-2.739487886428833008e-01 3.180920481681823730e-01 -2.695440053939819336e-01
-2.366977035999298096e-01 1.832401752471923828e-01 -2.723570466041564941e-01
-2.459961324930191040e-01 1.529444903135299683e-01 -7.489199191331863403e-02
-2.657398879528045654e-01 4.362217187881469727e-01 -2.937009930610656738e-01
-2.320757508277893066e-01 2.834841310977935791e-01 -2.683850228786468506e-01
-2.362194508314132690e-01 3.747745156288146973e-01 -1.837468147277832031e-01
-2.410721331834793091e-01 2.588204443454742432e-01 -6.378433853387832642e-02
-2.660989463329315186e-01 2.694291770458221436e-01 -3.605857789516448975e-01
-2.340156883001327515e-01 3.867627382278442383e-01 -2.911083102226257324e-01
-2.529334127902984619e-01 3.808003067970275879e-01 4.511222243309020996e-03
-2.804925143718719482e-01 2.496579736471176147e-01 -6.460376083850860596e-02
-2.641938030719757080e-01 4.296827912330627441e-01 -3.221607208251953125e-01
-2.748831510543823242e-01 2.910386621952056885e-01 -2.558538913726806641e-01
-2.652246654033660889e-01 3.425009250640869141e-01 -3.706613779067993164e-01
-2.387852370738983154e-01 3.708810210227966309e-01 -1.310583353042602539e-01
-2.706146240234375000e-01 4.139625728130340576e-01 -2.089969813823699951e-02
-2.535476982593536377e-01 2.077980339527130127e-01 3.965319693088531494e-02
-2.552715837955474854e-01 1.482048779726028442e-01 6.456866860389709473e-03
-2.328348010778427124e-01 2.498729079961776733e-01 -3.168481886386871338e-01
-2.740522921085357666e-01 2.527280151844024658e-01 -2.596853375434875488e-01
-2.778712511062622070e-01 3.559608757495880127e-01 -2.780884504318237305e-02
-2.494841068983078003e-01 1.119820028543472290e-01 -1.199074015021324158e-01
-2.550866901874542236e-01 1.918795406818389893e-01 4.119531810283660889e-02
-2.342729568481445312e-01 3.864227235317230225e-01 -2.679702937602996826e-01
-2.376216202974319458e-01 2.472183704376220703e-01 -1.204195022583007812e-01
-2.660360336303710938e-01 2.027507722377777100e-01 -3.257529735565185547e-01
-2.595387101173400879e-01 3.523359596729278564e-01 -4.129143059253692627e-01
-2.349021732807159424e-01 2.140906751155853271e-01 -2.256605029106140137e-01
-2.681590020656585693e-01 1.135081648826599121e-01 -5.913184583187103271e-02
-2.795263826847076416e-01 2.226442396640777588e-01 -2.651065587997436523e-02
-2.755740880966186523e-01 1.583527624607086182e-01 -8.045345544815063477e-02
-2.375740259885787964e-01 3.818973302841186523e-01 -4.166685938835144043e-01
-2.318271249532699585e-01 2.907394468784332275e-01 -3.145726919174194336e-01
-2.372108399868011475e-01 2.090139091014862061e-01 -1.579308062791824341e-01
-2.406441718339920044e-01 4.527492523193359375e-01 -3.043993413448333740e-01
-2.389212101697921753e-01 1.674884706735610962e-01 -1.937809884548187256e-01
-2.393068373203277588e-01 4.298169612884521484e-01 -2.106941342353820801e-01
-2.768744230270385742e-01 3.561047315597534180e-01 -4.173472523689270020e-03
-2.341545671224594116e-01 2.328344583511352539e-01 -2.206801772117614746e-01
-2.740435600280761719e-01 2.688722014427185059e-01 -2.655652165412902832e-01
-2.624188661575317383e-01 4.773083627223968506e-01 -2.221680283546447754e-01
-2.580341398715972900e-01 2.113801687955856323e-01 6.507332623004913330e-02
-2.492502033710479736e-01 1.053426563739776611e-01 -1.741433888673782349e-01
-2.786780893802642822e-01 2.035806775093078613e-01 -2.687770128250122070e-02
-2.717780768871307373e-01 2.360379695892333984e-01 -2.841399908065795898e-01
-2.433447390794754028e-01 2.788055837154388428e-01 -4.549621939659118652e-01
-2.592778205871582031e-01 4.278873801231384277e-01 -1.833629608154296875e-02
-2.556932568550109863e-01 9.808589518070220947e-02 -2.098582088947296143e-01
-2.481550723314285278e-01 4.269681870937347412e-01 -7.923712581396102905e-02
-2.604944407939910889e-01 3.704318702220916748e-01 -4.004318118095397949e-01
-2.664911746978759766e-01 2.235020697116851807e-01 -3.363174200057983398e-01
-2.689910233020782471e-01 4.524149298667907715e-01 -1.669552326202392578e-01
-2.783705592155456543e-01 3.566523194313049316e-01 -1.297250390052795410e-01
-2.767743766307830811e-01 3.844693899154663086e-01 -7.282715290784835815e-02
-2.583811581134796143e-01 2.625794112682342529e-01 -4.151753187179565430e-01
-2.721646428108215332e-01 1.312532424926757812e-01 -7.159362733364105225e-02
-2.683673501014709473e-01 3.045635521411895752e-01 -3.433929979801177979e-01
-2.587660551071166992e-01 2.141405045986175537e-01 -3.882128596305847168e-01
-2.400196343660354614e-01 1.679961383342742920e-01 -1.574755460023880005e-01
-2.766947746276855469e-01 1.700537055730819702e-01 -6.351525336503982544e-02
-2.465530633926391602e-01 1.409044861793518066e-01 -8.742556720972061157e-02
-2.725272178649902344e-01 1.727543473243713379e-01 -2.123568356037139893e-01
-2.515854537487030029e-01 3.468334376811981201e-01 1.830632984638214111e-02
-2.682707905769348145e-01 1.133777648210525513e-01 -1.302994042634963989e-01
-2.700466215610504150e-01 2.999868392944335938e-01 -3.243040144443511963e-01
-2.366641759872436523e-01 4.161012172698974609e-01 -3.470145463943481445e-01
-2.745007872581481934e-01 2.127959132194519043e-01 5.880066752433776855e-02
-2.651160061359405518e-01 2.930836677551269531e-01 8.918030560016632080e-02
-2.415157556533813477e-01 4.583789110183715820e-01 -2.831597924232482910e-01
-2.575781941413879395e-01 9.272450208663940430e-02 -1.274402141571044922e-01
-2.797461748123168945e-01 3.318218588829040527e-01 -9.152238070964813232e-02
-2.649776041507720947e-01 1.129008084535598755e-01 -2.934914827346801758e-02
-2.468424737453460693e-01 2.999210655689239502e-01 -1.783818006515502930e-03
-2.694176733493804932e-01 1.369950026273727417e-01 6.198897957801818848e-03
-2.373867928981781006e-01 2.995693385601043701e-01 -1.180080920457839966e-01
-2.752423286437988281e-01 2.632046043872833252e-01 -2.441601753234863281e-01
-2.422541379928588867e-01 3.749255537986755371e-01 -8.543030172586441040e-02
-2.650651335716247559e-01 1.032302230596542358e-01 -1.470170766115188599e-01
-2.325846701860427856e-01 2.812854349613189697e-01 -3.549585342407226562e-01
-2.747209966182708740e-01 3.949076831340789795e-01 -1.906889528036117554e-01
-2.318910062313079834e-01 3.011578321456909180e-01 -3.317632675170898438e-01
-2.338409274816513062e-01 2.238045036792755127e-01 -2.853300571441650391e-01
-2.329763621091842651e-01 2.540331482887268066e-01 -2.447682172060012817e-01
-2.445288300514221191e-01 4.472498297691345215e-01 -1.550271064043045044e-01
-2.481195628643035889e-01 2.169429510831832886e-01 1.640468835830688477e-03
-2.503158152103424072e-01 2.391690462827682495e-01 2.675402164459228516e-02
-2.544597983360290527e-01 3.104016184806823730e-01 -4.438419342041015625e-01
-2.365267574787139893e-01 2.925554513931274414e-01 -1.326021999120712280e-01
-2.348370254039764404e-01 2.084747552871704102e-01 -2.946630120277404785e-01
-2.363101840019226074e-01 2.013604342937469482e-01 -1.962408423423767090e-01
-2.346853613853454590e-01 3.231427669525146484e-01 -1.780592799186706543e-01
-2.349852323532104492e-01 2.219352722167968750e-01 -2.055587917566299438e-01
-2.585399746894836426e-01 4.138530790805816650e-01 -3.874554336071014404e-01
-2.371651381254196167e-01 1.936774551868438721e-01 -3.364397883415222168e-01
-2.765517532825469971e-01 2.348553985357284546e-01 -2.048707604408264160e-01
-2.746480405330657959e-01 3.764218688011169434e-01 -2.220388054847717285e-01
-2.801144719123840332e-01 2.918168604373931885e-01 -1.221473217010498047e-01
-2.744436860084533691e-01 4.053975045680999756e-01 -1.723398417234420776e-01
-2.405382096767425537e-01 1.842087805271148682e-01 -1.184650808572769165e-01
-2.568921446800231934e-01 1.749522387981414795e-01 4.006549715995788574e-02
-2.448676228523254395e-01 1.343331336975097656e-01 -1.318343579769134521e-01
-2.380607724189758301e-01 4.229776859283447266e-01 -3.638959228992462158e-01
-2.577164471149444580e-01 3.957470655441284180e-01 -4.058007001876831055e-01
-2.438654005527496338e-01 3.921673595905303955e-01 -8.193178474903106689e-02
-2.350344955921173096e-01 2.430742979049682617e-01 -3.777428269386291504e-01
-2.774406969547271729e-01 2.878869771957397461e-01 -2.062354087829589844e-01
-2.530182898044586182e-01 4.798375368118286133e-01 -3.095473647117614746e-01
-2.626034915447235107e-01 4.275400638580322266e-01 -3.412558436393737793e-01
-2.785277664661407471e-01 2.227758169174194336e-01 1.030758023262023926e-02
-2.758991718292236328e-01 3.414101004600524902e-01 -2.252314239740371704e-01
-2.567833364009857178e-01 2.565456926822662354e-01 6.867514550685882568e-02
-2.425934076309204102e-01 1.378716677427291870e-01 -1.817648708820343018e-01
-2.396061420440673828e-01 3.470564186573028564e-01 -1.010769754648208618e-01
-2.624722719192504883e-01 3.485156595706939697e-01 6.336620450019836426e-02
-2.761803567409515381e-01 2.477353364229202271e-01 -2.203375697135925293e-01
-2.644498050212860107e-01 1.279399842023849487e-01 -2.419562041759490967e-01
-2.406141161918640137e-01 1.565518230199813843e-01 -1.718790531158447266e-01
-2.485073506832122803e-01 4.591825902462005615e-01 -1.338272690773010254e-01
-2.575172483921051025e-01 4.348928034305572510e-01 -3.731903433799743652e-01
-2.516352534294128418e-01 4.239792823791503906e-01 -4.115979969501495361e-01
-2.323949486017227173e-01 3.004961013793945312e-01 -2.438691258430480957e-01
-2.618866264820098877e-01 9.502729773521423340e-02 -1.119373291730880737e-01
-2.386726886034011841e-01 3.898062407970428467e-01 -1.526989936828613281e-01
-2.466420680284500122e-01 1.870276033878326416e-01 -3.025102615356445312e-02
-2.505287230014801025e-01 2.611313760280609131e-01 -4.455719590187072754e-01
-1.184220612049102783e-01 -5.160155147314071655e-02 -4.294961690902709961e-02
-1.945315897464752197e-01 -1.811781339347362518e-02 -2.336294949054718018e-01
-1.195586472749710083e-01 -5.356866121292114258e-02 -6.465763598680496216e-02
-2.038672864437103271e-01 -2.759156562387943268e-02 -2.258774489164352417e-01
-2.174139171838760376e-01 -1.967582851648330688e-02 1.327911205589771271e-02
-1.733110398054122925e-01 -8.346512168645858765e-02 1.341425627470016479e-01
-2.032071352005004883e-01 -7.987629622220993042e-03 -2.507071569561958313e-02
-1.458073705434799194e-01 -7.631473243236541748e-02 -7.997991889715194702e-02
-1.959038674831390381e-01 -4.121594130992889404e-03 -5.048893019556999207e-02
-1.170690059661865234e-01 -1.779346726834774017e-02 3.148993849754333496e-02
-1.516044437885284424e-01 -7.688780128955841064e-02 -1.391938775777816772e-01
-1.946751326322555542e-01 -1.046426035463809967e-02 2.267002761363983154e-01
-1.633899956941604614e-01 -8.174304664134979248e-02 -1.118571460247039795e-01
-2.209372818470001221e-01 -2.802459150552749634e-02 -5.314008891582489014e-02
-1.728248298168182373e-01 4.976499825716018677e-03 -3.684605471789836884e-04
-1.357885003089904785e-01 -6.518201529979705811e-02 -1.901153922080993652e-01
-2.192094326019287109e-01 -5.046801641583442688e-02 2.828580439090728760e-01
-1.194331794977188110e-01 -4.894789308309555054e-02 -1.669914126396179199e-01
-2.106935381889343262e-01 -8.119286596775054932e-02 6.695579737424850464e-02
-1.464777290821075439e-01 -7.707332074642181396e-02 -5.599901825189590454e-02
-2.194416671991348267e-01 -6.834581494331359863e-02 -7.649789005517959595e-02
-1.518453359603881836e-01 -8.046071976423263550e-03 2.270371913909912109e-01
-1.411519199609756470e-01 -7.100384682416915894e-03 -2.586372196674346924e-01
-2.304312586784362793e-01 -4.499610140919685364e-02 1.087830737233161926e-01
-1.535064131021499634e-01 -8.056543022394180298e-02 -4.086029715836048126e-03
-2.021515965461730957e-01 -8.121991157531738281e-02 -7.608235627412796021e-02
-1.413134485483169556e-01 -7.058916985988616943e-02 1.037944182753562927e-01
-1.198773980140686035e-01 -4.500064626336097717e-02 8.314277976751327515e-02
-1.870492547750473022e-01 -3.122992441058158875e-02 -3.166505396366119385e-01
-2.235936224460601807e-01 -2.759122662246227264e-02 1.043896153569221497e-01
-1.252832859754562378e-01 -4.200793802738189697e-03 -2.393355965614318848e-02
-1.941661238670349121e-01 -7.846648991107940674e-02 2.331429123878479004e-01
-1.378851234912872314e-01 -5.640571564435958862e-02 2.072833031415939331e-01
-1.543299108743667603e-01 -1.510459743440151215e-02 2.767823636531829834e-01
-1.525794416666030884e-01 -7.764972746372222900e-02 1.021669059991836548e-01
-2.123889029026031494e-01 -1.416396535933017731e-02 4.562493041157722473e-02
-1.415608078241348267e-01 -7.231548428535461426e-02 -1.323025524616241455e-01
-1.283575892448425293e-01 -6.403406709432601929e-02 -1.877425424754619598e-02
-1.204992979764938354e-01 -4.868394881486892700e-02 -1.875148415565490723e-01
-1.191169619560241699e-01 -1.683232001960277557e-02 -1.935659050941467285e-01
-1.890017986297607422e-01 -8.579467236995697021e-02 -3.929464519023895264e-02
-1.507296413183212280e-01 5.774166435003280640e-03 -5.317532643675804138e-02
-2.028178125619888306e-01 -3.403692692518234253e-02 -2.529288828372955322e-01
-1.160930171608924866e-01 -1.438898406922817230e-02 -7.536349445581436157e-02
-1.836294233798980713e-01 -4.616063460707664490e-02 -3.349007368087768555e-01
-2.289458513259887695e-01 -4.096089303493499756e-02 1.387191861867904663e-01
-1.563300192356109619e-01 -3.586556762456893921e-03 2.001023441553115845e-01
-1.579095274209976196e-01 2.370901405811309814e-03 1.252331733703613281e-01
-1.172362565994262695e-01 -1.360791549086570740e-02 -1.207792088389396667e-01
-1.175962537527084351e-01 -5.015777796506881714e-02 -8.190078288316726685e-02
-1.308466494083404541e-01 -4.130925983190536499e-02 -3.055891096591949463e-01
-1.963643133640289307e-01 -6.208380311727523804e-02 -2.604766786098480225e-01
-1.806121170520782471e-01 -2.892032638192176819e-02 3.575518429279327393e-01
-1.211312413215637207e-01 -9.400788694620132446e-03 8.302037604153156281e-03
-1.812229007482528687e-01 -6.134050339460372925e-02 -3.042522966861724854e-01
-2.271265089511871338e-01 -3.896212577819824219e-02 -2.285510487854480743e-02
-1.262477785348892212e-01 -5.972765386104583740e-02 -1.431904882192611694e-01
-1.211301237344741821e-01 -5.562579631805419922e-02 -3.027938120067119598e-02
-2.028781622648239136e-01 -8.288560807704925537e-02 1.330514401197433472e-01
-1.341547369956970215e-01 -3.871922567486763000e-02 -3.245229125022888184e-01
-1.260446012020111084e-01 -4.771157726645469666e-02 -2.536220252513885498e-01
-2.251067459583282471e-01 -2.998707070946693420e-02 3.878708928823471069e-02
-2.207255363464355469e-01 -2.311057969927787781e-02 4.975235462188720703e-02
-1.313986480236053467e-01 -6.485447287559509277e-03 1.067484840750694275e-01
-1.481633484363555908e-01 -7.156193256378173828e-02 1.591588258743286133e-01
-2.272402495145797729e-01 -5.470973253250122070e-02 -4.477859288454055786e-02
-1.823898106813430786e-01 -3.939501941204071045e-03 1.975388228893280029e-01
-1.367017030715942383e-01 -3.020233288407325745e-02 2.505348324775695801e-01
-2.082776725292205811e-01 -1.380639337003231049e-02 1.616330295801162720e-01
-1.877901703119277954e-01 -7.654713094234466553e-02 -1.950150728225708008e-01
-2.204385995864868164e-01 -6.970088928937911987e-02 1.909331977367401123e-01
-1.339109390974044800e-01 -6.144759804010391235e-02 1.347834467887878418e-01
-1.591797620058059692e-01 -7.164518535137176514e-02 2.276092916727066040e-01
-1.124214828014373779e-01 -2.517785690724849701e-02 -7.250478118658065796e-02
-1.244036853313446045e-01 -1.784087531268596649e-02 -2.495535910129547119e-01
-2.033804655075073242e-01 -8.384452760219573975e-02 8.905684947967529297e-02
-1.774567514657974243e-01 -8.466549962759017944e-02 1.221840083599090576e-01
-1.343499422073364258e-01 -6.908796727657318115e-02 -8.081571012735366821e-02
-2.104700505733489990e-01 -7.742354273796081543e-02 -6.786999851465225220e-02
-1.845222115516662598e-01 -7.655920088291168213e-02 2.537306547164916992e-01
-1.865656822919845581e-01 -8.666402101516723633e-02 -3.431777469813823700e-03
-1.465385854244232178e-01 -4.918465763330459595e-02 2.860877215862274170e-01
-2.101713418960571289e-01 -1.385847106575965881e-02 1.315321326255798340e-01
-1.841894984245300293e-01 1.568052917718887329e-03 -3.753524273633956909e-02
-1.751476079225540161e-01 -5.657091736793518066e-02 3.515848517417907715e-01
-1.857941895723342896e-01 -7.793639600276947021e-02 2.409754693508148193e-01
-2.309525907039642334e-01 -4.830272868275642395e-02 7.097861170768737793e-02
-1.662358045578002930e-01 -8.448198437690734863e-02 -3.165116906166076660e-02
-2.277100235223770142e-01 -4.512006789445877075e-02 1.895904988050460815e-01
-1.471051871776580811e-01 -6.621554493904113770e-02 -2.515657544136047363e-01
-1.967086195945739746e-01 -8.564379066228866577e-02 7.122135162353515625e-02
-1.347688287496566772e-01 -4.311964288353919983e-02 2.338077127933502197e-01
-1.757073253393173218e-01 4.371378570795059204e-03 1.073497161269187927e-02
-2.093020826578140259e-01 -2.344046346843242645e-02 -1.618736386299133301e-01
-1.354800164699554443e-01 -5.625876039266586304e-02 -2.686920166015625000e-01
-2.095433771610260010e-01 -1.463062688708305359e-02 -6.357549130916595459e-02
-1.510388255119323730e-01 -1.642767339944839478e-03 -2.226433902978897095e-01
-2.035608589649200439e-01 -8.245018124580383301e-02 -3.719681501388549805e-02
-1.153880804777145386e-01 -1.578973047435283661e-02 -6.041044369339942932e-02
-1.709842234849929810e-01 -6.747485697269439697e-02 2.983927130699157715e-01
-1.221167445182800293e-01 -1.632791757583618164e-02 -2.229022830724716187e-01
-2.114025652408599854e-01 -3.479566425085067749e-02 3.049039244651794434e-01
-1.910675913095474243e-01 -2.695959061384201050e-03 -8.292778581380844116e-02
-2.017747610807418823e-01 -8.172549307346343994e-02 1.668905317783355713e-01
-1.561882197856903076e-01 5.609352141618728638e-03 3.740571439266204834e-02
-1.658011376857757568e-01 -8.315958827733993530e-02 -8.719625324010848999e-02
-1.979332566261291504e-01 -5.348328128457069397e-02 -2.791448235511779785e-01
-1.569948047399520874e-01 -1.117609068751335144e-02 2.613808810710906982e-01
-1.402827203273773193e-01 -3.951857611536979675e-02 2.710098028182983398e-01
-1.709176898002624512e-01 2.546232193708419800e-03 -1.290797144174575806e-01
-2.264748960733413696e-01 -6.675788760185241699e-02 5.028116330504417419e-02
-1.595861017704010010e-01 -3.968250006437301636e-02 3.443736135959625244e-01
-2.199472188949584961e-01 -2.465196885168552399e-02 1.536923199892044067e-01
