-6.656908392906188965e-01 -6.128625869750976562e-01 -2.110628783702850342e-01
-3.442450165748596191e-01 -5.059700608253479004e-01 6.078025698661804199e-01
1.320607662200927734e-01 -5.871726274490356445e-01 -7.281615734100341797e-01
-5.600271224975585938e-01 -3.893872797489166260e-01 1.217580661177635193e-01
-6.014376282691955566e-01 -7.325010299682617188e-01 -1.284480392932891846e-01
-7.088965177536010742e-01 -6.989761590957641602e-01 4.022993147373199463e-01
-2.044933140277862549e-01 -3.561393618583679199e-01 -6.021665781736373901e-02
-6.432999372482299805e-01 -7.459341287612915039e-01 6.926073133945465088e-02
9.594994783401489258e-02 -7.930846214294433594e-01 -1.242597475647926331e-01
1.216896772384643555e-01 -6.651011705398559570e-01 2.378816902637481689e-01
-5.291717052459716797e-01 -4.230908155441284180e-01 -1.855414807796478271e-01
2.235439419746398926e-01 -5.428645610809326172e-01 8.440327644348144531e-02
-9.350286424160003662e-02 -5.084229111671447754e-01 -6.708225011825561523e-01
-6.750233173370361328e-01 -4.918537437915802002e-01 5.467118620872497559e-01
-1.922903954982757568e-02 -7.380088567733764648e-01 2.891934216022491455e-01
-7.629945278167724609e-01 -4.927993714809417725e-01 3.838267028331756592e-01
-3.610025048255920410e-01 -7.016695737838745117e-01 5.620912909507751465e-01
-2.438335120677947998e-01 -4.387294054031372070e-01 -4.960761964321136475e-01
-1.229317337274551392e-01 -8.106246590614318848e-01 -3.477290272712707520e-01
1.974874436855316162e-01 -4.399886131286621094e-01 -2.280114889144897461e-01
-2.965460717678070068e-01 -5.101044774055480957e-01 -5.799337625503540039e-01
-2.236862033605575562e-01 -3.952164351940155029e-01 -3.734080493450164795e-01
-7.936285138130187988e-01 -5.620802044868469238e-01 4.401226937770843506e-01
-1.522254347801208496e-01 -4.157278239727020264e-01 -4.710913300514221191e-01
3.009059429168701172e-01 -5.987154245376586914e-01 -6.102808192372322083e-02
-2.159521579742431641e-01 -8.249784708023071289e-01 -1.906123757362365723e-01
1.279558539390563965e-01 -6.722145676612854004e-01 -6.998088955879211426e-01
-3.309290111064910889e-02 -8.084125518798828125e-01 -3.536554276943206787e-01
-2.138593792915344238e-01 -3.774305582046508789e-01 -2.919211387634277344e-01
-6.798831224441528320e-01 -4.306108355522155762e-01 2.542277574539184570e-01
-3.137100338935852051e-01 -4.274449944496154785e-01 4.699421226978302002e-01
-2.942493557929992676e-01 -4.538676142692565918e-01 5.178481340408325195e-01
3.006073236465454102e-01 -5.501983761787414551e-01 -5.510689616203308105e-01
-7.632736563682556152e-01 -6.347599029541015625e-01 3.670004010200500488e-02
-2.414706051349639893e-01 -7.201638817787170410e-01 4.885989129543304443e-01
1.108555495738983154e-01 -7.037168145179748535e-01 -6.643871068954467773e-01
1.920966804027557373e-01 -7.329455018043518066e-01 -5.449506044387817383e-01
-1.267535537481307983e-01 -8.283805847167968750e-01 -1.192962154746055603e-01
-1.236497908830642700e-01 -5.330777168273925781e-01 5.057498216629028320e-01
-3.436681628227233887e-02 -8.147910833358764648e-01 -2.961968779563903809e-01
3.560708165168762207e-01 -5.939674973487854004e-01 -3.516546785831451416e-01
-6.225557327270507812e-01 -4.108977317810058594e-01 9.975666552782058716e-02
2.017281949520111084e-01 -5.912881493568420410e-01 -6.981092691421508789e-01
-1.455190926790237427e-01 -3.602424561977386475e-01 -1.455210894346237183e-02
-2.379506081342697144e-01 -5.328099131584167480e-01 5.807765126228332520e-01
-3.716346621513366699e-02 -4.047578573226928711e-01 1.785224974155426025e-01
-3.455809056758880615e-01 -5.136146545410156250e-01 -5.488341450691223145e-01
-5.681328773498535156e-01 -4.188497066497802734e-01 4.279859364032745361e-01
-6.497890949249267578e-01 -5.052329301834106445e-01 -1.862601041793823242e-01
1.913557946681976318e-01 -7.228907346725463867e-01 2.033712714910507202e-02
-2.665500044822692871e-01 -7.243387699127197266e-01 -5.460876822471618652e-01
-1.844520866870880127e-02 -7.897495031356811523e-01 -4.577198028564453125e-01
-6.752172112464904785e-01 -6.858989596366882324e-01 -1.016072630882263184e-01
-7.626392245292663574e-01 -6.781366467475891113e-01 2.155362367630004883e-01
1.803427934646606445e-03 -7.770174741744995117e-01 -5.068367719650268555e-01
-7.183555364608764648e-01 -6.774549484252929688e-01 -1.057055778801441193e-02
-5.125781297683715820e-01 -4.071301221847534180e-01 -1.472807377576828003e-01
-5.367147922515869141e-02 -4.407884478569030762e-01 3.138786554336547852e-01
-4.684144258499145508e-01 -3.948561847209930420e-01 -1.557750999927520752e-01
-3.196275234222412109e-01 -4.046449065208435059e-01 -3.516171276569366455e-01
-6.437774896621704102e-01 -4.157885611057281494e-01 1.613201498985290527e-01
-9.762187302112579346e-02 -3.721730113029479980e-01 -2.511146068572998047e-01
-3.304822742938995361e-01 -8.187988996505737305e-01 -1.272239387035369873e-01
-9.901797771453857422e-02 -7.725064754486083984e-01 2.715517580509185791e-01
-6.692558526992797852e-03 -4.253675639629364014e-01 2.146472334861755371e-01
-7.414191961288452148e-03 -7.831380367279052734e-01 1.370404958724975586e-01
-1.020930558443069458e-01 -4.751997590065002441e-01 4.268820583820343018e-01
3.050227761268615723e-01 -6.315684914588928223e-01 -5.814630389213562012e-01
-4.311296343803405762e-01 -7.103616595268249512e-01 5.573052763938903809e-01
-1.149726510047912598e-01 -4.230752587318420410e-01 3.289063274860382080e-01
2.862163782119750977e-01 -5.025075674057006836e-01 -4.425023496150970459e-01
7.089132070541381836e-02 -5.112211704254150391e-01 -6.818755269050598145e-01
3.365105986595153809e-01 -6.579050421714782715e-01 -2.656686305999755859e-01
-2.823361456394195557e-01 -8.063817024230957031e-01 2.341521680355072021e-01
-3.088247179985046387e-01 -5.709879994392395020e-01 -6.119432449340820312e-01
-4.136550724506378174e-01 -3.629818260669708252e-01 9.843351691961288452e-02
2.455946803092956543e-01 -7.387468218803405762e-01 -3.925549089908599854e-01
-3.581255078315734863e-01 -4.278534650802612305e-01 4.857017695903778076e-01
4.869157075881958008e-02 -3.910969495773315430e-01 -1.143321394920349121e-01
-5.594766139984130859e-01 -7.777741551399230957e-01 2.236078381538391113e-01
-4.061499536037445068e-01 -3.628374636173248291e-01 2.954886853694915771e-02
-1.823278069496154785e-01 -8.247693777084350586e-01 5.034288018941879272e-02
1.613419651985168457e-01 -7.723000049591064453e-01 -1.448960900306701660e-01
-5.850218534469604492e-01 -7.594332695007324219e-01 -4.062256217002868652e-02
8.402732014656066895e-02 -7.741965651512145996e-01 -4.843006134033203125e-01
-1.294079869985580444e-01 -7.893049716949462891e-01 -4.504413604736328125e-01
2.767865657806396484e-01 -7.009504437446594238e-01 -5.091083645820617676e-01
-4.553293883800506592e-01 -6.007616519927978516e-01 6.652259230613708496e-01
2.181177139282226562e-01 -4.657011330127716064e-01 -4.546622633934020996e-01
-4.539526700973510742e-01 -3.706781268119812012e-01 1.935515403747558594e-01
2.851137518882751465e-02 -7.168779969215393066e-01 2.806410193443298340e-01
-5.921246409416198730e-01 -4.044207632541656494e-01 3.090417981147766113e-01
-6.770755052566528320e-01 -4.564512372016906738e-01 -1.272357255220413208e-02
5.096185207366943359e-02 -7.914926409721374512e-01 -4.167649745941162109e-01
-2.834341824054718018e-01 -4.886375367641448975e-01 5.646506547927856445e-01
-4.232967197895050049e-01 -3.709830045700073242e-01 2.338409125804901123e-01
-2.872882783412933350e-01 -8.225901126861572266e-01 -1.466042399406433105e-01
6.977590918540954590e-02 -4.740300774574279785e-01 -6.183150410652160645e-01
-4.074979722499847412e-01 -6.809525489807128906e-01 6.000603437423706055e-01
-1.198874115943908691e-01 -7.304821610450744629e-01 -6.099762916564941406e-01
1.088654100894927979e-01 -4.064653515815734863e-01 -1.911506354808807373e-01
-5.065307021141052246e-01 -4.171277284622192383e-01 4.554911255836486816e-01
-3.312686085700988770e-01 -3.595609068870544434e-01 -6.435349583625793457e-02
-6.894428133964538574e-01 -5.363193750381469727e-01 5.905886292457580566e-01
7.123985886573791504e-02 -4.025129079818725586e-01 -3.263063132762908936e-01
-4.117959737777709961e-01 -8.129733800888061523e-01 -4.463333636522293091e-03
-1.862220317125320435e-01 -3.675013184547424316e-01 -2.295796275138854980e-01
-2.763691544532775879e-02 -7.653194665908813477e-01 -5.477945208549499512e-01
1.138072311878204346e-01 -4.106591045856475830e-01 -1.250218152999877930e-01
-1.731816828250885010e-01 -4.651476740837097168e-01 4.669862687587738037e-01
5.037620663642883301e-02 -8.032591342926025391e-01 -3.158126771450042725e-01
-3.192732632160186768e-01 -7.504500746726989746e-01 4.537397623062133789e-01
1.416878700256347656e-01 -5.874571800231933594e-01 2.449509203433990479e-01
-6.117364168167114258e-01 -7.027765512466430664e-01 -1.927916407585144043e-01
-4.223074018955230713e-02 -3.767234086990356445e-01 -2.461507022380828857e-01
-1.866133064031600952e-01 -5.868005752563476562e-01 5.665019750595092773e-01
-4.226438105106353760e-01 -7.835115790367126465e-01 -2.355355620384216309e-01
-2.807957530021667480e-01 -3.776176571846008301e-01 2.763041555881500244e-01
-2.343147993087768555e-03 -5.388054847717285156e-01 4.006812572479248047e-01
1.372143328189849854e-01 -4.250879287719726562e-01 -7.037728279829025269e-02
-2.971408963203430176e-01 -3.698058426380157471e-01 -1.988273262977600098e-01
-7.746670842170715332e-01 -6.650356054306030273e-01 3.085535466670989990e-01
-1.509201377630233765e-01 -8.266277909278869629e-01 -1.932565867900848389e-01
-7.208784818649291992e-01 -5.826596617698669434e-01 -1.091040521860122681e-01
-2.700017392635345459e-01 -6.819280385971069336e-01 -6.008790731430053711e-01
1.885871291160583496e-01 -4.449889957904815674e-01 -4.004349708557128906e-01
-6.984126567840576172e-01 -6.495419740676879883e-01 -1.155687570571899414e-01
-9.330756962299346924e-02 -7.469054460525512695e-01 3.376539647579193115e-01
2.138443589210510254e-01 -6.585530042648315430e-01 -6.688653230667114258e-01
-3.704763054847717285e-01 -8.035898208618164062e-01 -1.989302635192871094e-01
-7.224017977714538574e-01 -7.024027705192565918e-01 3.375776112079620361e-01
-2.701289951801300049e-01 -7.872288227081298828e-01 3.226822018623352051e-01
1.218283474445343018e-01 -7.871269583702087402e-01 -3.385945856571197510e-01
2.289327979087829590e-02 -6.428338885307312012e-01 -7.339603304862976074e-01
2.375972270965576172e-02 -4.703405201435089111e-01 -6.206018328666687012e-01
-3.240728378295898438e-01 -4.204961657524108887e-01 -3.985615372657775879e-01
2.803914546966552734e-01 -6.297554969787597656e-01 -1.689815521240234375e-02
-2.631658613681793213e-01 -6.669508218765258789e-01 5.705606937408447266e-01
-8.128797411918640137e-01 -5.965609550476074219e-01 3.255147933959960938e-01
-3.423025310039520264e-01 -7.814944982528686523e-01 3.604187369346618652e-01
1.722376942634582520e-01 -7.701275348663330078e-01 -3.731644749641418457e-01
-6.893618702888488770e-01 -4.348570108413696289e-01 2.080082893371582031e-01
-3.240880370140075684e-01 -6.185587048530578613e-01 -6.024768948554992676e-01
2.664422094821929932e-01 -7.183805704116821289e-01 -4.612525999546051025e-01
1.294611990451812744e-01 -7.203816771507263184e-01 -6.263639330863952637e-01
-2.483680993318557739e-01 -3.869813978672027588e-01 3.055755496025085449e-01
-5.282090306282043457e-01 -4.365915954113006592e-01 5.091696381568908691e-01
3.012335896492004395e-01 -5.552405714988708496e-01 -9.220541268587112427e-02
-6.920813024044036865e-02 -4.684836566448211670e-01 -6.161466240882873535e-01
-1.060904189944267273e-01 -8.189486265182495117e-01 -2.849844396114349365e-01
-5.285366773605346680e-01 -7.080609798431396484e-01 -3.140787482261657715e-01
-7.984537482261657715e-01 -6.367077827453613281e-01 2.726575136184692383e-01
8.385774493217468262e-02 -4.123401641845703125e-01 -3.849055767059326172e-01
-5.975651741027832031e-01 -4.478983581066131592e-01 5.073219537734985352e-01
-7.524409890174865723e-01 -4.936071634292602539e-01 9.098815172910690308e-02
3.185015916824340820e-01 -5.322172045707702637e-01 -2.195469737052917480e-01
-2.041734755039215088e-02 -4.143002331256866455e-01 -4.692787230014801025e-01
-4.243658185005187988e-01 -3.674750626087188721e-01 -1.413679122924804688e-02
-4.012726545333862305e-01 -7.869577407836914062e-01 3.332345783710479736e-01
-4.051592946052551270e-01 -5.158731937408447266e-01 6.335133314132690430e-01
-2.637189924716949463e-01 -3.915014266967773438e-01 -3.378482758998870850e-01
-4.545128941535949707e-01 -5.204202532768249512e-01 6.449251174926757812e-01
-1.710947304964065552e-01 -7.390112876892089844e-01 -5.732756257057189941e-01
-3.384975194931030273e-01 -3.901284933090209961e-01 3.572465777397155762e-01
-4.469758272171020508e-01 -3.778645992279052734e-01 -8.105126023292541504e-02
2.477763295173645020e-01 -6.414932012557983398e-01 4.811587184667587280e-02
-3.812722563743591309e-01 -8.058468103408813477e-01 2.258618474006652832e-01
2.556303143501281738e-01 -7.274137735366821289e-01 -1.835677325725555420e-01
-5.020530223846435547e-01 -3.767929673194885254e-01 8.344493806362152100e-02
1.808163523674011230e-01 -4.442040920257568359e-01 -8.507922291755676270e-02
2.847722172737121582e-01 -7.130042910575866699e-01 -4.184193611145019531e-01
-2.481593787670135498e-01 -3.633065819740295410e-01 1.581341624259948730e-01
-2.837634980678558350e-01 -3.902756869792938232e-01 3.382402062416076660e-01
-7.608043551445007324e-01 -5.283110141754150391e-01 3.245433419942855835e-02
6.697928905487060547e-02 -4.263842105865478516e-01 1.041791066527366638e-01
-3.140079677104949951e-01 -8.248870372772216797e-01 -4.560866951942443848e-02
-3.790006339550018311e-01 -7.212144136428833008e-01 -4.614096283912658691e-01
2.548073828220367432e-01 -7.337946891784667969e-01 -2.334732413291931152e-01
3.739276528358459473e-02 -8.019977807998657227e-01 -4.893882572650909424e-02
-7.700995206832885742e-01 -5.955555438995361328e-01 4.994098842144012451e-01
-2.493575960397720337e-01 -4.701557159423828125e-01 5.225434899330139160e-01
-2.074044942855834961e-01 -8.073155879974365234e-01 2.024480104446411133e-01
-8.133412599563598633e-01 -5.573981404304504395e-01 2.791677713394165039e-01
-5.400403738021850586e-01 -6.386540532112121582e-01 6.438874006271362305e-01
-4.127343595027923584e-01 -7.364774942398071289e-01 5.020091533660888672e-01
-5.905531048774719238e-01 -6.790113449096679688e-01 -2.720423340797424316e-01
-6.913391351699829102e-01 -7.252427339553833008e-01 2.814055085182189941e-01
-1.087934002280235291e-01 -6.379779577255249023e-01 -7.109553813934326172e-01
-4.027248919010162354e-02 -3.793310821056365967e-01 2.537667378783226013e-02
-2.085643410682678223e-01 -8.293627500534057617e-01 -1.144845932722091675e-01
-9.584411978721618652e-03 -4.973507821559906006e-01 3.686451017856597900e-01
-5.356253683567047119e-02 -3.721515238285064697e-01 -3.502313792705535889e-02
2.418746650218963623e-01 -7.436281442642211914e-01 -3.449436426162719727e-01
-4.813190698623657227e-01 -7.197800874710083008e-01 -3.532381355762481689e-01
-3.931621015071868896e-01 -3.767309784889221191e-01 2.916840016841888428e-01
2.303754091262817383e-01 -5.190153121948242188e-01 -6.036354899406433105e-01
-1.712355166673660278e-01 -7.252129316329956055e-01 4.401232302188873291e-01
-5.553700327873229980e-01 -7.661732435226440430e-01 -7.797879725694656372e-02
2.552518844604492188e-01 -6.632564067840576172e-01 7.696062326431274414e-03
-7.306903004646301270e-01 -4.647249579429626465e-01 1.403829753398895264e-01
-9.479635953903198242e-02 -4.482934772968292236e-01 -5.705860257148742676e-01
-3.440330326557159424e-01 -3.740558624267578125e-01 2.744272947311401367e-01
2.073033452033996582e-01 -4.771457612514495850e-01 -5.237089991569519043e-01
-6.478194892406463623e-02 -3.709614276885986328e-01 -1.992599368095397949e-01
-6.356447935104370117e-01 -5.838313698768615723e-01 -2.663658261299133301e-01
-9.985934197902679443e-02 -5.138092041015625000e-01 4.716825783252716064e-01
-5.341310501098632812e-01 -4.915409684181213379e-01 -3.374864757061004639e-01
-3.497112989425659180e-01 -7.712364196777343750e-01 -3.683552145957946777e-01
-7.758445739746093750e-01 -5.495532155036926270e-01 4.798476994037628174e-01
-4.450414180755615234e-01 -4.742348492145538330e-01 -4.107261598110198975e-01
-7.800405621528625488e-01 -5.724933743476867676e-01 5.166105180978775024e-02
-3.915535211563110352e-01 -4.841634631156921387e-01 5.973351001739501953e-01
-2.204515635967254639e-01 -8.076322078704833984e-01 -3.243840038776397705e-01
-3.742918968200683594e-01 -4.498594999313354492e-01 5.384492874145507812e-01
-1.478250175714492798e-01 -7.718524932861328125e-01 -5.032675266265869141e-01
-7.029738426208496094e-01 -4.656264781951904297e-01 2.541952580213546753e-02
1.086974442005157471e-01 -6.426500678062438965e-01 -7.271485328674316406e-01
1.274777054786682129e-01 -5.016910433769226074e-01 -6.496967673301696777e-01
2.764562964439392090e-01 -6.742177605628967285e-01 -6.350595504045486450e-02
-7.885408401489257812e-01 -6.100373864173889160e-01 9.720333665609359741e-02
-5.024695992469787598e-01 -7.258248329162597656e-01 5.178034901618957520e-01
3.430206775665283203e-01 -5.700080990791320801e-01 -4.469214379787445068e-01
-3.741100430488586426e-01 -8.180784583091735840e-01 -3.168895095586776733e-02
3.394663929939270020e-01 -6.081857085227966309e-01 -1.986730694770812988e-01
-4.990399181842803955e-01 -3.938549160957336426e-01 -1.010108217597007751e-01
1.532762348651885986e-01 -4.659115076065063477e-01 -5.503746271133422852e-01
-6.516810655593872070e-01 -6.271286010742187500e-01 6.120439767837524414e-01
-2.531218528747558594e-01 -5.063867568969726562e-01 -6.026455163955688477e-01
-3.025387227535247803e-02 -7.588931322097778320e-01 2.474496364593505859e-01
2.441861033439636230e-01 -4.649796187877655029e-01 -2.313995957374572754e-01
8.591979742050170898e-02 -4.201313853263854980e-01 3.739778697490692139e-02
-4.329853653907775879e-01 -3.923901319503784180e-01 -1.916278898715972900e-01
-5.589337348937988281e-01 -7.809672355651855469e-01 1.056854948401451111e-01
2.906462550163269043e-02 -8.110505342483520508e-01 -1.675362884998321533e-01
-2.894175648689270020e-01 -3.578946292400360107e-01 1.124722436070442200e-01
-5.730131864547729492e-01 -4.380728602409362793e-01 -1.660716831684112549e-01
-2.327644675970077515e-01 -3.749502301216125488e-01 2.340465784072875977e-01
1.612435877323150635e-01 -4.256922006607055664e-01 -1.823959946632385254e-01
-7.575922012329101562e-01 -5.798066854476928711e-01 -1.894794404506683350e-02
-3.081101477146148682e-01 -3.674071729183197021e-01 2.200652360916137695e-01
-4.327965974807739258e-01 -8.102900981903076172e-01 4.572354257106781006e-02
-7.949050068855285645e-01 -6.203755140304565430e-01 1.451111733913421631e-01
9.572282433509826660e-02 -5.020159482955932617e-01 2.459266483783721924e-01
-6.133346557617187500e-01 -6.060847043991088867e-01 6.440168619155883789e-01
-6.380642950534820557e-02 -4.659438729286193848e-01 3.764848709106445312e-01
-3.295733034610748291e-01 -8.206213712692260742e-01 1.041051223874092102e-01
-5.335398912429809570e-01 -4.014697968959808350e-01 3.716740608215332031e-01
-5.925004482269287109e-01 -5.564009547233581543e-01 -3.226695358753204346e-01
-3.594089150428771973e-01 -3.957545161247253418e-01 -2.853044569492340088e-01
-1.188917160034179688e-01 -8.077545762062072754e-01 1.370419263839721680e-01
3.461496233940124512e-01 -5.861327052116394043e-01 -2.445201277732849121e-01
-5.796388387680053711e-01 -6.312914490699768066e-01 -3.361233472824096680e-01
2.096136212348937988e-01 -4.484113454818725586e-01 -3.499348461627960205e-01
-5.530108511447906494e-02 -6.717112064361572266e-01 4.272033572196960449e-01
-1.578195095062255859e-01 -7.576205730438232422e-01 3.595554232597351074e-01
-2.556343674659729004e-01 -8.285765647888183594e-01 -9.259052574634552002e-03
-1.684032082557678223e-01 -4.661073088645935059e-01 -5.858997106552124023e-01
2.248626649379730225e-01 -4.593054652214050293e-01 -1.602733582258224487e-01
-4.653755724430084229e-01 -4.278565049171447754e-01 4.971697032451629639e-01
-3.023260533809661865e-01 -4.346472620964050293e-01 -4.511744379997253418e-01
-1.064633578062057495e-01 -3.809895217418670654e-01 -3.235187232494354248e-01
-7.540456056594848633e-01 -5.554361343383789062e-01 5.268442034721374512e-01
-2.473629564046859741e-01 -4.207995533943176270e-01 -4.481468200683593750e-01
1.419104635715484619e-02 -5.550513267517089844e-01 -7.276558279991149902e-01
-2.133246064186096191e-01 -5.609010457992553711e-01 -6.655716300010681152e-01
4.854232072830200195e-02 -4.750388264656066895e-01 2.655588984489440918e-01
-3.309847116470336914e-01 -4.721614420413970947e-01 -5.059179663658142090e-01
-7.362101078033447266e-01 -4.836065769195556641e-01 4.334457814693450928e-01
-2.699849009513854980e-01 -4.249030351638793945e-01 4.439861178398132324e-01
-5.187978744506835938e-01 -6.564660072326660156e-01 -3.965222835540771484e-01
-1.874539554119110107e-01 -3.577323853969573975e-01 -1.003272011876106262e-01
-3.733348846435546875e-02 -4.285123944282531738e-01 2.628107964992523193e-01
-1.468655467033386230e-02 -6.804532408714294434e-01 3.800086081027984619e-01
3.533375263214111328e-02 -7.370182871818542480e-01 2.303775846958160400e-01
1.204282045364379883e-01 -7.727233171463012695e-01 -2.841121330857276917e-02
3.503113389015197754e-01 -6.181412935256958008e-01 -4.445172846317291260e-01
3.210158348083496094e-01 -5.316339135169982910e-01 -4.290331304073333740e-01
-3.073925375938415527e-01 -7.990665435791015625e-01 2.781859934329986572e-01
-3.107002675533294678e-01 -6.674690246582031250e-01 -5.861273407936096191e-01
-1.653221547603607178e-01 -5.191663503646850586e-01 5.261305570602416992e-01
-7.384725213050842285e-01 -5.117957592010498047e-01 -4.004180431365966797e-03
-1.862144470214843750e-01 -6.493626832962036133e-01 -6.738675832748413086e-01
1.828880608081817627e-01 -7.589700222015380859e-01 -4.388794898986816406e-01
-4.795350134372711182e-01 -7.920600175857543945e-01 -8.046305179595947266e-02
-2.225106805562973022e-01 -4.138050675392150879e-01 3.865672945976257324e-01
-5.644311904907226562e-01 -4.661782979965209961e-01 5.661239624023437500e-01
-6.635773181915283203e-01 -4.879504442214965820e-01 -1.305885016918182373e-01
-3.931267857551574707e-01 -7.633193731307983398e-01 4.270901083946228027e-01
-4.839726686477661133e-01 -7.462821006774902344e-01 4.670813381671905518e-01
3.810718655586242676e-03 -7.681431770324707031e-01 1.801483035087585449e-01
1.823967993259429932e-01 -4.994557499885559082e-01 1.000695303082466125e-01
2.573119401931762695e-01 -5.635493397712707520e-01 3.209657967090606689e-02
-4.609271287918090820e-01 -8.046939373016357422e-01 1.106161400675773621e-01
-3.332103192806243896e-01 -7.152152061462402344e-01 -5.116276144981384277e-01
-5.378535985946655273e-01 -3.919523954391479492e-01 -4.698995500802993774e-03
-5.852155685424804688e-01 -5.646797418594360352e-01 6.573916077613830566e-01
-4.020526111125946045e-01 -6.067202091217041016e-01 -5.417580008506774902e-01
-5.540921688079833984e-01 -7.355327010154724121e-01 -2.088440358638763428e-01
-7.253842353820800781e-01 -4.595872163772583008e-01 3.404982686042785645e-01
-1.755947768688201904e-01 -4.149874448776245117e-01 3.570650517940521240e-01
7.426255941390991211e-02 -7.330865859985351562e-01 1.897479593753814697e-01
-5.435353517532348633e-01 -5.604873895645141602e-01 -3.884657919406890869e-01
-4.971577823162078857e-01 -7.582533359527587891e-01 4.213593900203704834e-01
-2.191607505083084106e-01 -3.602033257484436035e-01 1.017903611063957214e-01
-1.342161297798156738e-01 -6.212074756622314453e-01 5.245943069458007812e-01
-4.149836301803588867e-01 -6.169469952583312988e-01 6.542295813560485840e-01
1.851769983768463135e-01 -6.667004823684692383e-01 1.395220458507537842e-01
-2.568277120590209961e-01 -5.722387433052062988e-01 6.052891612052917480e-01
-6.566162109375000000e-01 -4.304580390453338623e-01 5.886592715978622437e-02
-7.323124408721923828e-01 -4.612221717834472656e-01 1.858479380607604980e-01
-1.145712360739707947e-01 -8.236381411552429199e-01 -2.815559506416320801e-03
-4.297408759593963623e-01 -5.466752648353576660e-01 -5.036953091621398926e-01
-1.144786030054092407e-01 -3.843578994274139404e-01 1.779713332653045654e-01
-5.008072853088378906e-01 -4.873781502246856689e-01 -3.713488578796386719e-01
-6.111471652984619141e-01 -4.040184617042541504e-01 2.229197919368743896e-01
-2.213335484266281128e-01 -7.305116057395935059e-01 -5.633863210678100586e-01
3.205369114875793457e-01 -5.232977867126464844e-01 -3.096821308135986328e-01
3.391626477241516113e-01 -6.067647933959960938e-01 -5.030912756919860840e-01
-6.474722623825073242e-01 -7.317165136337280273e-01 3.785329461097717285e-01
1.542199552059173584e-01 -7.797516584396362305e-01 -2.150889635086059570e-01
-1.562491953372955322e-01 -6.200621724128723145e-01 -6.987645030021667480e-01
-3.812055587768554688e-01 -3.658188283443450928e-01 2.034238278865814209e-01
-4.339987039566040039e-01 -5.048226714134216309e-01 -4.640813767910003662e-01
-7.757480740547180176e-01 -4.953587651252746582e-01 3.155742585659027100e-01
6.290650367736816406e-02 -3.944796323776245117e-01 -2.368247807025909424e-01
-4.163181781768798828e-01 -4.218781590461730957e-01 -3.219968378543853760e-01
2.259033918380737305e-01 -7.165976762771606445e-01 -3.976187109947204590e-02
2.534053623676300049e-01 -4.873860478401184082e-01 -1.132401078939437866e-01
-1.346795856952667236e-01 -7.003138661384582520e-01 4.559286534786224365e-01
-7.287607192993164062e-01 -5.476057529449462891e-01 -7.663539052009582520e-02
-6.544135808944702148e-01 -7.172908782958984375e-01 -5.918332934379577637e-02
2.321624755859375000e-01 -6.979311108589172363e-01 -5.931744575500488281e-01
-1.691965758800506592e-02 -8.180852532386779785e-01 -1.380325555801391602e-01
2.909232378005981445e-01 -5.243945717811584473e-01 -5.144736766815185547e-01
-3.047004938125610352e-01 -7.957924604415893555e-01 -3.170983791351318359e-01
-2.601534128189086914e-01 -7.744580507278442383e-01 3.651684820652008057e-01
3.270614743232727051e-01 -5.731838941574096680e-01 -1.621135473251342773e-01
-5.811890959739685059e-01 -6.547221541404724121e-01 6.182584166526794434e-01
2.472564578056335449e-02 -4.191848635673522949e-01 1.468462049961090088e-01
2.045038342475891113e-01 -6.766055226325988770e-01 9.233281761407852173e-02
-4.653156399726867676e-01 -3.842813074588775635e-01 3.158809840679168701e-01
-7.009204626083374023e-01 -5.855549573898315430e-01 -1.509657353162765503e-01
-6.211777925491333008e-01 -4.433588683605194092e-01 -9.477727115154266357e-02
2.573288083076477051e-01 -5.164780616760253906e-01 -3.445763140916824341e-02
3.057044744491577148e-01 -6.938244104385375977e-01 -2.378371655941009521e-01
1.671492159366607666e-01 -4.445326924324035645e-01 -4.462870061397552490e-01
-6.118994951248168945e-01 -5.111876726150512695e-01 -2.564653456211090088e-01
8.833780884742736816e-02 -6.002149581909179688e-01 3.161464929580688477e-01
-5.149581432342529297e-01 -7.361985445022583008e-01 -2.693020403385162354e-01
-1.818159818649291992e-01 -7.895770072937011719e-01 2.717423439025878906e-01
-6.805822849273681641e-01 -6.981209516525268555e-01 4.607391059398651123e-01
-3.535695672035217285e-01 -3.737189471721649170e-01 -1.761457324028015137e-01
-1.839857995510101318e-01 -3.616356849670410156e-01 -1.687314212322235107e-01
-2.236297726631164551e-01 -4.000990092754364014e-01 3.426780998706817627e-01
1.658054888248443604e-01 -4.526162743568420410e-01 2.211250364780426025e-03
2.321701645851135254e-01 -6.044780611991882324e-01 9.619464725255966187e-02
-2.769572138786315918e-01 -7.047742605209350586e-01 5.299227833747863770e-01
3.002192378044128418e-01 -5.804253220558166504e-01 -5.882683992385864258e-01
-1.622805893421173096e-01 -5.618854761123657227e-01 -6.896578669548034668e-01
2.290617823600769043e-01 -4.550396203994750977e-01 -2.749408483505249023e-01
-9.835456311702728271e-02 -7.968828678131103516e-01 1.759470999240875244e-01
2.565723359584808350e-01 -6.600719094276428223e-01 -6.268180012702941895e-01
-4.166917502880096436e-01 -6.696633696556091309e-01 -4.950506985187530518e-01
6.201934814453125000e-02 -3.975119292736053467e-01 -7.042416930198669434e-02
-2.214491367340087891e-01 -6.331304311752319336e-01 5.746068954467773438e-01
-4.131634831428527832e-01 -3.885241150856018066e-01 3.566707074642181396e-01
-6.186066865921020508e-01 -4.691944420337677002e-01 -1.731484830379486084e-01
-4.986691176891326904e-01 -3.827474713325500488e-01 2.732491195201873779e-01
2.816190719604492188e-01 -7.192671298980712891e-01 -2.843377888202667236e-01
-8.337314426898956299e-02 -8.243599534034729004e-01 -7.272903621196746826e-02
-2.493104040622711182e-01 -8.196779489517211914e-01 1.316683590412139893e-01
2.178993523120880127e-01 -5.056047439575195312e-01 3.895309567451477051e-02
-2.194736152887344360e-01 -7.792189121246337891e-01 -4.451024234294891357e-01
-1.427221894264221191e-01 -3.646164536476135254e-01 -1.928794980049133301e-01
-3.657588362693786621e-01 -4.567500352859497070e-01 -4.516388177871704102e-01
-8.103178739547729492e-01 -6.008219718933105469e-01 2.175074517726898193e-01
3.051497936248779297e-01 -5.094637870788574219e-01 -3.784724771976470947e-01
-6.340426206588745117e-01 -6.536996960639953613e-01 -2.342514991760253906e-01
2.180878818035125732e-01 -4.726675152778625488e-01 -5.794727057218551636e-02
1.432870626449584961e-01 -4.238035678863525391e-01 -3.513947129249572754e-01
-4.178432822227478027e-01 -3.784704804420471191e-01 -1.310083270072937012e-01
1.160785853862762451e-01 -7.555587291717529297e-01 -5.371615290641784668e-01
3.263720870018005371e-01 -6.582811474800109863e-01 -2.050499022006988525e-01
-6.329467892646789551e-01 -6.775764226913452148e-01 5.592120885848999023e-01
1.439306735992431641e-01 -6.973723173141479492e-01 1.616931557655334473e-01
1.035764217376708984e-01 -4.342073798179626465e-01 -4.802547097206115723e-01
2.093088626861572266e-02 -5.194010734558105469e-01 -6.969738006591796875e-01
-5.047589540481567383e-03 -3.908222317695617676e-01 -3.372826874256134033e-01
-7.542847394943237305e-01 -6.860287189483642578e-01 2.606933116912841797e-01
-7.858908176422119141e-02 -3.786964416503906250e-01 9.209581464529037476e-02
-1.154466047883033752e-01 -3.976640999317169189e-01 -4.108270406723022461e-01
-1.937168091535568237e-01 -5.417541861534118652e-01 5.597103238105773926e-01
-3.806942105293273926e-01 -8.181328773498535156e-01 4.563563317060470581e-02
-5.545833110809326172e-01 -7.818543314933776855e-01 1.673585176467895508e-01
-7.929243445396423340e-01 -5.599962472915649414e-01 1.089553907513618469e-01
-3.272958993911743164e-01 -7.336167097091674805e-01 4.952014386653900146e-01
-1.576676815748214722e-01 -8.070718050003051758e-01 1.728880405426025391e-01
-1.164114475250244141e-01 -6.751804351806640625e-01 -6.841949224472045898e-01
-2.065253704786300659e-01 -7.810569405555725098e-01 3.179602622985839844e-01
-5.365101993083953857e-02 -8.181612491607666016e-01 -3.008199110627174377e-02
-8.009045720100402832e-01 -5.497831106185913086e-01 3.972878158092498779e-01
4.275766015052795410e-02 -6.103470325469970703e-01 3.679846525192260742e-01
-5.659380555152893066e-01 -4.853930473327636719e-01 -2.860480248928070068e-01
-4.320518672466278076e-02 -5.328192710876464844e-01 4.369133710861206055e-01
4.794800281524658203e-02 -8.035429120063781738e-01 -9.423018991947174072e-02
-7.977926135063171387e-01 -6.119250059127807617e-01 4.019693136215209961e-01
-4.576004445552825928e-01 -4.166148900985717773e-01 -2.597925066947937012e-01
-4.622852206230163574e-01 -7.936236858367919922e-01 2.580952346324920654e-01
-2.819041907787322998e-01 -8.137090206146240234e-01 1.856685876846313477e-01
2.978451848030090332e-01 -5.297074913978576660e-01 -1.309373974800109863e-01
-5.766432285308837891e-01 -4.252673983573913574e-01 -1.137041300535202026e-01
-6.976940631866455078e-01 -7.210382819175720215e-01 1.269125640392303467e-01
-1.635167598724365234e-01 -3.940213918685913086e-01 2.737170755863189697e-01
-6.266073882579803467e-02 -7.964202165603637695e-01 1.417278647422790527e-01
-4.509150981903076172e-01 -3.693194389343261719e-01 2.982260286808013916e-02
2.527833878993988037e-01 -6.017672419548034668e-01 -6.595298051834106445e-01
1.609199643135070801e-01 -7.582843303680419922e-01 -4.708414524793624878e-02
-5.868726968765258789e-01 -7.571832537651062012e-01 3.423267602920532227e-01
-2.044910788536071777e-01 -8.153198361396789551e-01 1.499167382717132568e-01
-5.905947685241699219e-01 -4.143913090229034424e-01 3.828582167625427246e-01
-5.062174797058105469e-01 -7.891986966133117676e-01 -3.303275257349014282e-02
3.640559911727905273e-01 -6.963652372360229492e-01 2.036607861518859863e-01
4.292760193347930908e-01 -7.565668225288391113e-01 4.595719277858734131e-03
4.441274106502532959e-01 -8.069003224372863770e-01 2.710787951946258545e-01
3.792593479156494141e-01 -7.324997782707214355e-01 1.276232600212097168e-01
3.758836686611175537e-01 -5.746888518333435059e-01 3.429228365421295166e-01
4.506976008415222168e-01 -6.505813002586364746e-01 5.030272603034973145e-01
4.243798851966857910e-01 -4.391617774963378906e-01 -1.444203555583953857e-01
4.590422809123992920e-01 -4.840543866157531738e-01 -1.100638732314109802e-01
3.820858895778656006e-01 -7.467955946922302246e-01 1.571600139141082764e-01
3.632420897483825684e-01 -5.819926261901855469e-01 2.076579332351684570e-01
3.774501383304595947e-01 -4.863444566726684570e-01 -1.588860750198364258e-01
3.927293717861175537e-01 -6.258351206779479980e-01 -2.745088338851928711e-01
4.812179505825042725e-01 -6.373596191406250000e-01 -7.538051158189773560e-02
4.310146272182464600e-01 -4.586948454380035400e-01 -4.711706191301345825e-02
3.829188942909240723e-01 -7.862077355384826660e-01 3.354552984237670898e-01
3.862361013889312744e-01 -4.734538495540618896e-01 -5.360042303800582886e-02
3.617640733718872070e-01 -6.167876720428466797e-01 4.318054020404815674e-02
4.787622094154357910e-01 -6.873472332954406738e-01 2.116740196943283081e-01
3.998120427131652832e-01 -4.550201892852783203e-01 -4.653607010841369629e-01
3.670681118965148926e-01 -5.472372770309448242e-01 -1.049442812800407410e-01
4.602486491203308105e-01 -6.456506848335266113e-01 4.251749813556671143e-01
3.639403283596038818e-01 -6.569238305091857910e-01 7.925449311733245850e-02
3.730838000774383545e-01 -7.708216905593872070e-01 6.341846585273742676e-01
4.420545101165771484e-01 -7.224069237709045410e-01 -1.110338643193244934e-01
4.704400300979614258e-01 -6.138982772827148438e-01 2.518304884433746338e-01
3.892031311988830566e-01 -5.010792613029479980e-01 1.281923055648803711e-01
4.305656552314758301e-01 -6.219102740287780762e-01 5.273978710174560547e-01
3.712791502475738525e-01 -5.379765629768371582e-01 -1.939826607704162598e-01
3.671920597553253174e-01 -7.035593986511230469e-01 5.693084597587585449e-01
3.723527491092681885e-01 -7.308540940284729004e-01 2.003771513700485229e-01
4.508786499500274658e-01 -7.768092155456542969e-01 1.383538991212844849e-01
4.819146692752838135e-01 -6.035138368606567383e-01 -1.117980703711509705e-01
3.604364991188049316e-01 -6.781648993492126465e-01 2.366521507501602173e-01
4.665124118328094482e-01 -5.640854835510253906e-01 1.502599120140075684e-01
4.420133829116821289e-01 -8.298687338829040527e-01 4.482789039611816406e-01
3.730872869491577148e-01 -6.859920024871826172e-01 3.267014026641845703e-02
4.605128169059753418e-01 -4.660868048667907715e-01 -4.357415437698364258e-01
3.990118801593780518e-01 -4.833884835243225098e-01 -4.860057830810546875e-01
3.753317892551422119e-01 -6.173283457756042480e-01 4.692059159278869629e-01
4.328001141548156738e-01 -8.411573767662048340e-01 6.537672281265258789e-01
4.379628896713256836e-01 -7.556166648864746094e-01 7.247478961944580078e-01
3.655511140823364258e-01 -6.752717494964599609e-01 1.026882231235504150e-01
4.435582756996154785e-01 -4.291109144687652588e-01 -3.827962577342987061e-01
4.332696497440338135e-01 -8.425075411796569824e-01 6.298941969871520996e-01
4.739936590194702148e-01 -5.506430864334106445e-01 -3.520778417587280273e-01
4.120998978614807129e-01 -8.450136780738830566e-01 7.234491109848022461e-01
3.851038217544555664e-01 -6.804104447364807129e-01 -9.020695835351943970e-02
3.657007813453674316e-01 -7.397000789642333984e-01 5.241294503211975098e-01
4.424374997615814209e-01 -7.343869209289550781e-01 -6.809512525796890259e-02
4.348773658275604248e-01 -8.243701457977294922e-01 7.155099511146545410e-01
3.967530429363250732e-01 -8.185808062553405762e-01 3.975666463375091553e-01
3.889091312885284424e-01 -7.764210700988769531e-01 2.275762110948562622e-01
3.847023844718933105e-01 -6.132364869117736816e-01 -2.494376897811889648e-01
3.970434069633483887e-01 -5.622439980506896973e-01 3.871844410896301270e-01
3.954949378967285156e-01 -7.996369004249572754e-01 2.939578592777252197e-01
4.718521237373352051e-01 -5.069780349731445312e-01 -3.370589613914489746e-01
4.361255466938018799e-01 -8.086897730827331543e-01 7.342613339424133301e-01
3.772143423557281494e-01 -6.866141557693481445e-01 -7.699675858020782471e-03
3.629046976566314697e-01 -6.845348477363586426e-01 4.805697202682495117e-01
3.775237202644348145e-01 -7.935209274291992188e-01 4.833317697048187256e-01
4.146588444709777832e-01 -5.560830235481262207e-01 3.742012083530426025e-01
4.499842822551727295e-01 -5.519921779632568359e-01 2.447789609432220459e-01
3.709017634391784668e-01 -7.368313074111938477e-01 2.480050325393676758e-01
4.406245648860931396e-01 -4.882452785968780518e-01 5.457390472292900085e-02
4.800343513488769531e-01 -5.641182661056518555e-01 -1.733135282993316650e-01
3.703039288520812988e-01 -7.490627765655517578e-01 3.204608857631683350e-01
3.881263136863708496e-01 -4.749636054039001465e-01 -3.803288340568542480e-01
4.029756784439086914e-01 -7.992705702781677246e-01 2.482154667377471924e-01
3.595682978630065918e-01 -6.246076226234436035e-01 2.665790319442749023e-01
3.592707216739654541e-01 -6.756849288940429688e-01 3.083003163337707520e-01
4.375209808349609375e-01 -5.419480800628662109e-01 2.736882865428924561e-01
4.029273390769958496e-01 -6.924651265144348145e-01 -1.525494754314422607e-01
3.896173536777496338e-01 -4.549748897552490234e-01 -3.230174183845520020e-01
3.893706202507019043e-01 -6.931102871894836426e-01 6.936948895454406738e-01
3.896999657154083252e-01 -6.449521780014038086e-01 -2.129389941692352295e-01
4.560676515102386475e-01 -7.050833702087402344e-01 5.596704483032226562e-01
3.757753968238830566e-01 -7.079955339431762695e-01 6.555266380310058594e-01
3.601610660552978516e-01 -6.598882079124450684e-01 3.785817325115203857e-01
3.617146909236907959e-01 -5.826115012168884277e-01 4.078874737024307251e-02
3.960765600204467773e-01 -7.087506055831909180e-01 -7.198571413755416870e-02
4.532715082168579102e-01 -4.919769763946533203e-01 -1.120926439762115479e-02
4.653027951717376709e-01 -5.533571243286132812e-01 -4.388985633850097656e-01
4.647719264030456543e-01 -7.768073678016662598e-01 4.027721583843231201e-01
4.530226588249206543e-01 -8.020895123481750488e-01 3.132308125495910645e-01
4.617941975593566895e-01 -5.104284286499023438e-01 -4.926683306694030762e-01
3.818096220493316650e-01 -4.723896980285644531e-01 -2.183650732040405273e-01
4.194728136062622070e-01 -6.243939995765686035e-01 5.592057108879089355e-01
4.357840716838836670e-01 -6.875203847885131836e-01 -2.273305952548980713e-01
3.782117962837219238e-01 -6.410880088806152344e-01 5.459612011909484863e-01
4.334830343723297119e-01 -8.434907197952270508e-01 5.554740428924560547e-01
4.769584536552429199e-01 -5.349080562591552734e-01 -2.124540209770202637e-01
4.080777168273925781e-01 -6.241564750671386719e-01 -3.464208841323852539e-01
4.449016153812408447e-01 -8.289296627044677734e-01 5.142386555671691895e-01
3.621931076049804688e-01 -6.666796207427978516e-01 1.438223123550415039e-01
4.773241877555847168e-01 -5.715804100036621094e-01 1.281935721635818481e-02
3.808044195175170898e-01 -8.047655820846557617e-01 6.474663615226745605e-01
4.191578030586242676e-01 -7.435203194618225098e-01 -3.392145782709121704e-02
4.243759512901306152e-01 -6.739990115165710449e-01 6.577058434486389160e-01
3.800245225429534912e-01 -7.660775780677795410e-01 2.631798386573791504e-01
4.529984593391418457e-01 -5.661126375198364258e-01 2.708258926868438721e-01
4.628476500511169434e-01 -7.636994123458862305e-01 5.095164775848388672e-01
3.833235502243041992e-01 -4.696300625801086426e-01 -2.612579166889190674e-01
3.720910251140594482e-01 -6.559233069419860840e-01 -4.008900374174118042e-02
4.182590842247009277e-01 -8.189874887466430664e-01 7.937296032905578613e-01
4.399371147155761719e-01 -6.588550209999084473e-01 -3.048573732376098633e-01
4.767853915691375732e-01 -5.465274453163146973e-01 -2.936390936374664307e-01
3.657377660274505615e-01 -5.433975458145141602e-01 8.222237229347229004e-03
4.503097236156463623e-01 -8.186348676681518555e-01 4.744212925434112549e-01
4.426493644714355469e-01 -4.704379439353942871e-01 -5.782259106636047363e-01
3.829239308834075928e-01 -4.821588695049285889e-01 -3.188756704330444336e-01
4.440632760524749756e-01 -4.620094895362854004e-01 -9.501972049474716187e-02
4.800510406494140625e-01 -6.482964158058166504e-01 1.558368355035781860e-01
4.108460247516632080e-01 -4.828802347183227539e-01 9.978663921356201172e-02
4.653204977512359619e-01 -6.861553788185119629e-01 4.498310387134552002e-01
4.730484485626220703e-01 -6.603197455406188965e-01 -1.557510793209075928e-01
3.657958507537841797e-01 -6.434870362281799316e-01 4.506592154502868652e-01
3.794700503349304199e-01 -4.945629835128784180e-01 -2.880408465862274170e-01
4.134533107280731201e-01 -4.201186895370483398e-01 -3.804531097412109375e-01
4.059476554393768311e-01 -8.340777158737182617e-01 4.461908042430877686e-01
4.712648987770080566e-01 -5.912610888481140137e-01 -3.365418612957000732e-01
3.676219284534454346e-01 -6.257496476173400879e-01 -5.231336504220962524e-02
4.318206608295440674e-01 -4.192204475402832031e-01 -4.313579201698303223e-01
4.751332998275756836e-01 -6.337876915931701660e-01 2.335898578166961670e-01
4.027287065982818604e-01 -7.349663376808166504e-01 -1.589723676443099976e-02
4.269823729991912842e-01 -7.457969188690185547e-01 7.585605382919311523e-01
4.056260883808135986e-01 -4.264795780181884766e-01 -3.457597494125366211e-01
4.587057828903198242e-01 -4.654173552989959717e-01 -2.330651581287384033e-01
4.684265851974487305e-01 -6.681771278381347656e-01 3.882315754890441895e-01
4.781907796859741211e-01 -6.212351322174072266e-01 -1.909236609935760498e-01
4.490355551242828369e-01 -8.166464567184448242e-01 5.795795321464538574e-01
4.104690849781036377e-01 -5.484359860420227051e-01 3.517125546932220459e-01
3.748328089714050293e-01 -7.587429285049438477e-01 2.940510809421539307e-01
3.600909113883972168e-01 -6.491822004318237305e-01 3.560137748718261719e-01
4.808430373668670654e-01 -6.573958992958068848e-01 1.340764760971069336e-01
4.427763223648071289e-01 -8.179423809051513672e-01 6.642620563507080078e-01
4.284456968307495117e-01 -5.369083285331726074e-01 -5.444990992546081543e-01
4.777209758758544922e-01 -5.532450675964355469e-01 -8.463300019502639771e-02
4.423834383487701416e-01 -6.426226496696472168e-01 5.304345488548278809e-01
3.685738146305084229e-01 -6.513736248016357422e-01 -8.204005658626556396e-03
3.793749511241912842e-01 -5.242182612419128418e-01 -3.115229606628417969e-01
4.822019040584564209e-01 -6.121392846107482910e-01 -1.668822020292282104e-02
4.750458598136901855e-01 -5.919263362884521484e-01 -2.940487861633300781e-01
3.900825381278991699e-01 -5.280156135559082031e-01 2.475651800632476807e-01
4.568688571453094482e-01 -7.778634428977966309e-01 1.876689195632934570e-01
3.634741902351379395e-01 -5.611016154289245605e-01 2.239982038736343384e-02
3.958103656768798828e-01 -6.759728789329528809e-01 6.759393215179443359e-01
3.668099045753479004e-01 -7.510287165641784668e-01 5.033941268920898438e-01
3.706277310848236084e-01 -7.620089650154113770e-01 3.964389264583587646e-01
4.155744314193725586e-01 -8.195698857307434082e-01 3.117845356464385986e-01
4.434965252876281738e-01 -4.532697498798370361e-01 -5.592625141143798828e-01
3.914800882339477539e-01 -8.080228567123413086e-01 3.750556111335754395e-01
4.004306495189666748e-01 -8.426969051361083984e-01 6.225062012672424316e-01
4.601647853851318359e-01 -6.790536046028137207e-01 4.881182014942169189e-01
3.612259626388549805e-01 -6.992707848548889160e-01 3.063732087612152100e-01
3.706487119197845459e-01 -5.933320522308349609e-01 -1.490432620048522949e-01
4.410943984985351562e-01 -7.672662138938903809e-01 5.863849818706512451e-02
3.920449614524841309e-01 -6.613609194755554199e-01 -1.859035491943359375e-01
3.748989999294281006e-01 -5.980327725410461426e-01 -1.917033493518829346e-01
4.195117056369781494e-01 -6.631792187690734863e-01 -2.818107604980468750e-01
4.784153401851654053e-01 -6.942657828330993652e-01 8.428911864757537842e-02
4.677223563194274902e-01 -7.352377772331237793e-01 4.532513022422790527e-01
4.501136243343353271e-01 -7.411718368530273438e-01 -2.233555167913436890e-02
4.084879755973815918e-01 -4.336297512054443359e-01 -4.729653000831604004e-01
4.089290797710418701e-01 -8.211076855659484863e-01 3.418550789356231689e-01
4.625240266323089600e-01 -6.398219466209411621e-01 -2.920840382575988770e-01
4.822115898132324219e-01 -6.350303292274475098e-01 3.355827182531356812e-02
4.783463478088378906e-01 -6.558011174201965332e-01 2.118602842092514038e-01
4.697549045085906982e-01 -7.066778540611267090e-01 -2.882810682058334351e-02
4.771076440811157227e-01 -5.382829308509826660e-01 -2.558214366436004639e-01
3.713807463645935059e-01 -6.507315635681152344e-01 5.231178998947143555e-01
3.949599266052246094e-01 -4.653585553169250488e-01 -3.253111988306045532e-02
3.943181037902832031e-01 -4.837268590927124023e-01 -4.519255161285400391e-01
4.759318530559539795e-01 -5.503370761871337891e-01 -3.172710835933685303e-01
4.670811891555786133e-01 -6.228523850440979004e-01 3.114095628261566162e-01
4.756748974323272705e-01 -7.160246372222900391e-01 2.816925346851348877e-01
4.549070000648498535e-01 -6.425585150718688965e-01 4.587457478046417236e-01
3.963065743446350098e-01 -4.586113691329956055e-01 -4.402112960815429688e-01
4.124439358711242676e-01 -8.271626234054565430e-01 3.674819171428680420e-01
4.083627462387084961e-01 -4.504801332950592041e-01 -7.229714840650558472e-02
4.618668556213378906e-01 -4.653396904468536377e-01 -3.506969213485717773e-01
3.944262862205505371e-01 -5.248095393180847168e-01 -4.419409632682800293e-01
3.880248367786407471e-01 -5.668264627456665039e-01 -3.523413836956024170e-01
3.940275013446807861e-01 -7.767811417579650879e-01 1.924978792667388916e-01
4.601098001003265381e-01 -7.855082750320434570e-01 2.843218445777893066e-01
4.568656384944915771e-01 -7.719751000404357910e-01 5.848708748817443848e-01
3.828911483287811279e-01 -7.798087596893310547e-01 3.005831241607666016e-01
3.745352327823638916e-01 -5.127536058425903320e-01 -2.289068102836608887e-01
4.564994573593139648e-01 -6.579392552375793457e-01 -2.715865075588226318e-01
3.865647912025451660e-01 -4.839699864387512207e-01 2.020516991615295410e-02
4.656958580017089844e-01 -4.803514480590820312e-01 -2.678213119506835938e-01
4.071302413940429688e-01 -7.836666107177734375e-01 8.143280744552612305e-01
3.638643324375152588e-01 -5.988371968269348145e-01 -2.915555983781814575e-02
4.602644741535186768e-01 -4.850392937660217285e-01 -4.937418699264526367e-01
4.476553797721862793e-01 -5.967127680778503418e-01 3.914779722690582275e-01
4.770319759845733643e-01 -6.095733046531677246e-01 1.427496075630187988e-01
3.742973804473876953e-01 -5.319988727569580078e-01 -2.431857585906982422e-01
4.397196173667907715e-01 -5.962167382240295410e-01 -4.492756128311157227e-01
4.094835519790649414e-01 -5.137976408004760742e-01 -5.262248516082763672e-01
4.600539803504943848e-01 -7.467631101608276367e-01 5.557239055633544922e-01
3.922367095947265625e-01 -7.146689295768737793e-01 -3.202857822179794312e-02
3.868753612041473389e-01 -8.161315917968750000e-01 6.979573965072631836e-01
3.721381127834320068e-01 -7.035993337631225586e-01 1.004952490329742432e-01
