9.440381824970245361e-02 -2.284267544746398926e-02 1.157370433211326599e-01
2.661564946174621582e-01 -2.029602974653244019e-02 -1.234345808625221252e-01
2.048485875129699707e-01 -9.141381084918975830e-02 1.201939061284065247e-01
1.876241713762283325e-01 -9.625133126974105835e-03 -1.684055030345916748e-01
-8.089363574981689453e-03 -8.684126287698745728e-02 5.602229386568069458e-02
1.050561740994453430e-01 -1.188292130827903748e-01 -1.485262662172317505e-01
2.589280307292938232e-01 -6.767533719539642334e-02 -6.137552112340927124e-02
2.366054356098175049e-01 -8.284608274698257446e-02 2.460340224206447601e-02
1.394029110670089722e-01 -2.132603153586387634e-02 -2.086582183837890625e-01
1.762207895517349243e-01 -1.546591520309448242e-02 -2.023064047098159790e-01
1.466371715068817139e-01 -5.117898806929588318e-02 -3.005051314830780029e-01
2.257053554058074951e-01 -8.256153762340545654e-02 1.090280637145042419e-01
1.448867022991180420e-01 -1.161382049322128296e-01 4.755954444408416748e-02
4.895927011966705322e-02 -1.139144152402877808e-01 -1.854712516069412231e-01
1.269427239894866943e-01 -1.892880722880363464e-02 1.637258976697921753e-01
-4.806354641914367676e-03 -1.105397567152976990e-01 -3.966987133026123047e-02
2.041319906711578369e-01 -9.896019846200942993e-02 -1.753043010830879211e-02
2.585808336734771729e-01 -1.420976594090461731e-02 1.062780469655990601e-01
1.301745623350143433e-01 -1.093334034085273743e-01 -1.949715465307235718e-01
1.108011975884437561e-01 -1.425548642873764038e-02 6.158451735973358154e-02
6.250511109828948975e-02 -1.130212843418121338e-01 -1.996749639511108398e-01
3.933411836624145508e-02 -1.020329967141151428e-01 1.877592951059341431e-01
2.097027748823165894e-02 -1.223273873329162598e-01 -5.522426217794418335e-02
7.096966356039047241e-02 -2.607052773237228394e-02 1.486041769385337830e-02
5.536526441574096680e-02 -8.368416130542755127e-02 2.351904511451721191e-01
1.255883723497390747e-01 -1.144224852323532104e-01 -1.614294797182083130e-01
7.988491654396057129e-02 -4.750353097915649414e-02 2.249009460210800171e-01
2.787748575210571289e-01 -4.003474861383438110e-02 6.242473423480987549e-02
2.547240257263183594e-01 -1.557614281773567200e-02 1.241733208298683167e-01
1.042849943041801453e-01 -1.044376865029335022e-01 2.084686011075973511e-01
2.034089267253875732e-01 -1.164004206657409668e-03 7.450003176927566528e-02
2.467951178550720215e-01 -5.587913095951080322e-03 7.243945449590682983e-02
1.988226026296615601e-01 -1.004305183887481689e-01 -5.874224007129669189e-02
2.078620493412017822e-01 -5.955014005303382874e-02 -2.632977664470672607e-01
6.548546254634857178e-02 -3.457518294453620911e-02 -1.355576813220977783e-01
5.320115387439727783e-02 -1.273452192544937134e-01 -1.841313764452934265e-02
4.663273692131042480e-03 -6.898156553506851196e-02 -9.359332174062728882e-02
1.174597293138504028e-01 -1.112885028123855591e-02 -2.255272865295410156e-02
1.476676017045974731e-01 -4.105617851018905640e-02 -2.849815189838409424e-01
2.754021286964416504e-01 -2.648273482918739319e-02 -1.018770188093185425e-01
1.913983076810836792e-01 -1.509957760572433472e-02 1.904055923223495483e-01
1.706049144268035889e-01 -1.104015186429023743e-01 1.276001147925853729e-02
7.856269180774688721e-02 -3.582041710615158081e-02 1.718748360872268677e-01
2.249242365360260010e-02 -8.086714148521423340e-02 1.771778017282485962e-01
1.743378192186355591e-01 -3.422985225915908813e-02 2.554213702678680420e-01
1.147572696208953857e-02 -5.916519463062286377e-02 3.376176208257675171e-02
1.698980629444122314e-01 -1.133149117231369019e-02 1.614389121532440186e-01
1.784927695989608765e-01 -4.736094921827316284e-02 2.709248065948486328e-01
2.429113984107971191e-01 -7.782962173223495483e-02 -8.001388609409332275e-02
2.572250962257385254e-01 -4.263022541999816895e-02 1.582855731248855591e-01
5.796263366937637329e-02 -5.789279192686080933e-02 2.157093882560729980e-01
1.838352829217910767e-01 -2.140277996659278870e-02 2.181077450513839722e-01
5.346130579710006714e-02 -1.252883970737457275e-01 5.416536331176757812e-02
1.442764252424240112e-01 -5.562439560890197754e-03 3.340782970190048218e-02
-7.365314364433288574e-01 2.083179503679275513e-01 -1.390914618968963623e-02
-7.859443426132202148e-01 2.791605591773986816e-01 -1.265302300453186035e-02
-7.810001969337463379e-01 2.254680991172790527e-01 -3.380790352821350098e-03
-7.508840560913085938e-01 1.899807006120681763e-01 -5.282782949507236481e-03
-7.390757799148559570e-01 2.656139731407165527e-01 -1.255224086344242096e-02
-7.718601226806640625e-01 2.398988008499145508e-01 -1.325850281864404678e-02
-8.111943006515502930e-01 2.989109456539154053e-01 -7.843426428735256195e-04
-7.278003096580505371e-01 1.989055275917053223e-01 -1.386903412640094757e-02
-7.253330349922180176e-01 2.105173021554946899e-01 -1.183766406029462814e-03
-7.052371501922607422e-01 1.948780864477157593e-01 -1.886530313640832901e-03
-7.821150422096252441e-01 2.582938075065612793e-01 -5.634240806102752686e-04
-7.886221408843994141e-01 2.231617569923400879e-01 -5.610486958175897598e-03
-8.220278024673461914e-01 2.925365567207336426e-01 -1.059571653604507446e-02
-7.104003429412841797e-01 1.975285857915878296e-01 -1.742439344525337219e-03
-6.514347195625305176e-01 1.852244436740875244e-01 -9.453808888792991638e-03
-7.396996617317199707e-01 1.828835904598236084e-01 -1.150216162204742432e-02
-7.902576923370361328e-01 2.857759892940521240e-01 -1.803142949938774109e-04
-6.749261617660522461e-01 1.895364373922348022e-01 -1.292673498392105103e-02
-7.820704579353332520e-01 2.193638831377029419e-01 -4.769321531057357788e-03
-6.883707046508789062e-01 2.290146499872207642e-01 -1.142672821879386902e-02
-6.646189093589782715e-01 1.868819743394851685e-01 -4.119971767067909241e-03
-7.158952951431274414e-01 1.693026125431060791e-01 -1.223254203796386719e-02
-7.699030041694641113e-01 2.214673757553100586e-01 -2.546618692576885223e-03
-7.297002077102661133e-01 1.791282445192337036e-01 -4.402172751724720001e-03
-8.172953128814697266e-01 2.665887176990509033e-01 -3.400063607841730118e-03
-7.573750019073486328e-01 2.527382969856262207e-01 -1.012021675705909729e-04
-6.845729351043701172e-01 2.122360467910766602e-01 -2.640400547534227371e-03
-6.975810527801513672e-01 1.855052411556243896e-01 -1.386838406324386597e-02
-7.341184020042419434e-01 2.616528868675231934e-01 -7.780576124787330627e-04
-8.191163539886474609e-01 2.609507739543914795e-01 -8.546728640794754028e-03
-7.831732034683227539e-01 2.811405956745147705e-01 -7.747532799839973450e-05
-7.109575867652893066e-01 1.781308054924011230e-01 -1.339538767933845520e-02
-7.136437296867370605e-01 2.037993818521499634e-01 -1.415394805371761322e-02
-8.007243275642395020e-01 3.118080496788024902e-01 -7.753884419798851013e-04
-7.198824286460876465e-01 2.333007454872131348e-01 -7.848571985960006714e-04
-7.610369324684143066e-01 2.295403480529785156e-01 -1.152968499809503555e-03
-6.896511316299438477e-01 1.496337056159973145e-01 -6.411953829228878021e-03
-7.623883485794067383e-01 2.630616724491119385e-01 -9.320210665464401245e-06
-7.171053290367126465e-01 2.006056010723114014e-01 -1.612394116818904877e-03
-7.136992216110229492e-01 2.653727233409881592e-01 -3.334967186674475670e-03
-6.813778877258300781e-01 2.303313314914703369e-01 -4.630148876458406448e-03
-8.104305267333984375e-01 2.859858870506286621e-01 -1.042468007653951645e-03
-6.912088394165039062e-01 2.178834378719329834e-01 -1.278198882937431335e-02
-7.676206231117248535e-01 3.139210641384124756e-01 -8.286789059638977051e-03
-7.736635208129882812e-01 2.650358080863952637e-01 -8.465070277452468872e-05
-7.246599793434143066e-01 2.381671965122222900e-01 -1.362796314060688019e-02
-7.690981030464172363e-01 2.788880169391632080e-01 -1.269458886235952377e-02
-6.526141762733459473e-01 1.682023406028747559e-01 -1.125974394381046295e-02
-7.344157695770263672e-01 2.894184887409210205e-01 -8.335074409842491150e-03
-7.184654474258422852e-01 2.778461575508117676e-01 -6.670578382909297943e-03
-6.590750217437744141e-01 1.822499334812164307e-01 -4.760422743856906891e-03
-7.368571758270263672e-01 1.932059675455093384e-01 -2.999054733663797379e-03
-7.439081072807312012e-01 2.537049651145935059e-01 -2.034627832472324371e-04
-7.171609401702880859e-01 1.870003342628479004e-01 -1.369002461433410645e-02
-8.334981799125671387e-01 2.900767922401428223e-01 -8.769031614065170288e-03
-7.054466605186462402e-01 1.832080185413360596e-01 -2.604676410555839539e-03
-6.744766235351562500e-01 1.782291233539581299e-01 -3.399950917810201645e-03
-8.003028631210327148e-01 3.312002420425415039e-01 -8.098595775663852692e-03
-6.813007593154907227e-01 1.516929268836975098e-01 -1.205988600850105286e-02
-7.788643836975097656e-01 2.334899902343750000e-01 -2.106865402311086655e-03
-7.234070897102355957e-01 1.848454326391220093e-01 -1.328357495367527008e-02
-7.541068792343139648e-01 2.634319365024566650e-01 -8.387491106986999512e-05
-8.135114312171936035e-01 3.327656686305999756e-01 -2.254955004900693893e-03
-6.830633282661437988e-01 2.006681561470031738e-01 -1.310195401310920715e-02
-6.936248540878295898e-01 1.584835350513458252e-01 -4.940459504723548889e-03
-7.953836917877197266e-01 3.163340985774993896e-01 -1.129771582782268524e-03
-7.605374455451965332e-01 2.795136570930480957e-01 -1.244472619146108627e-02
-7.986811399459838867e-01 2.861684262752532959e-01 -1.212207786738872528e-02
-6.918866038322448730e-01 1.878239214420318604e-01 -1.379173621535301208e-02
-7.120435833930969238e-01 2.516191601753234863e-01 -1.172872446477413177e-02
-6.862480044364929199e-01 1.616354882717132568e-01 -4.302133340388536453e-03
-7.280744910240173340e-01 2.236526161432266235e-01 -7.116100750863552094e-04
-8.382107615470886230e-01 3.271876871585845947e-01 -8.230010978877544403e-03
-6.952131986618041992e-01 1.882402300834655762e-01 -2.308716531842947006e-03
-8.344112634658813477e-01 2.823196649551391602e-01 -6.675961427390575409e-03
-6.602132916450500488e-01 1.917956173419952393e-01 -1.099934615194797516e-02
-7.059751152992248535e-01 2.457311749458312988e-01 -2.206443343311548233e-03
-7.221168875694274902e-01 1.656097471714019775e-01 -6.530149839818477631e-03
-7.011343836784362793e-01 1.875603795051574707e-01 -2.287473995238542557e-03
-6.574373245239257812e-01 1.710578203201293945e-01 -1.183595322072505951e-02
-7.413904666900634766e-01 2.147631347179412842e-01 -1.295996364206075668e-03
-6.766308546066284180e-01 2.140310406684875488e-01 -3.694067941978573799e-03
-7.487136125564575195e-01 2.706218361854553223e-01 -3.985981456935405731e-04
-6.882168650627136230e-01 1.449149847030639648e-01 -9.892590343952178955e-03
-6.600244045257568359e-01 1.556393504142761230e-01 -5.426785908639431000e-03
-6.987054944038391113e-01 2.539722919464111328e-01 -8.879589848220348358e-03
-7.613662481307983398e-01 2.564583718776702881e-01 -1.355862990021705627e-02
-7.111006975173950195e-01 2.377187013626098633e-01 -1.293398067355155945e-02
-7.419462800025939941e-01 2.471361756324768066e-01 -2.282196655869483948e-04
-8.327366113662719727e-01 3.286431133747100830e-01 -2.348198555409908295e-03
-8.005876541137695312e-01 2.534160614013671875e-01 -2.405917737632989883e-03
-7.456988096237182617e-01 2.386236637830734253e-01 -3.269505687057971954e-04
-7.869780659675598145e-01 2.332075536251068115e-01 -3.101714421063661575e-03
-7.309019565582275391e-01 2.406387329101562500e-01 -4.610815085470676422e-04
-7.019097208976745605e-01 2.084004878997802734e-01 -1.385717652738094330e-02
-7.827427983283996582e-01 2.248752564191818237e-01 -1.115960255265235901e-02
-6.573444604873657227e-01 1.862297654151916504e-01 -1.098217442631721497e-02
-7.703802585601806641e-01 2.533774673938751221e-01 -1.345775090157985687e-02
-7.112593054771423340e-01 2.445722818374633789e-01 -1.238328311592340469e-02
-7.922751903533935547e-01 3.086526691913604736e-01 -1.092684920877218246e-02
-6.998286843299865723e-01 2.116361260414123535e-01 -1.592393033206462860e-03
-7.263457179069519043e-01 2.201658189296722412e-01 -1.416706480085849762e-02
-8.263766169548034668e-01 2.991626262664794922e-01 -1.020046416670084000e-02
-7.246110439300537109e-01 2.130536884069442749e-01 -1.419293787330389023e-02
-7.423709630966186523e-01 2.579203248023986816e-01 -1.323401369154453278e-02
-7.369835376739501953e-01 2.543493807315826416e-01 -1.324469223618507385e-02
-7.162467241287231445e-01 2.403696477413177490e-01 -1.308857649564743042e-02
-7.152748703956604004e-01 1.605075299739837646e-01 -1.041904743760824203e-02
-6.656155586242675781e-01 1.917880773544311523e-01 -1.186335273087024689e-02
-6.998263001441955566e-01 2.197232246398925781e-01 -1.331277843564748764e-02
-7.788765430450439453e-01 3.026274144649505615e-01 -7.349303923547267914e-04
-7.874184250831604004e-01 3.249562680721282959e-01 -8.286127820611000061e-03
-7.289792895317077637e-01 2.819203436374664307e-01 -3.366559278219938278e-03
-7.098235487937927246e-01 2.221611291170120239e-01 -1.372612267732620239e-02
-7.081788182258605957e-01 2.289969623088836670e-01 -1.285662408918142319e-03
-7.893419265747070312e-01 2.530054450035095215e-01 -1.315867062658071518e-03
-7.823284864425659180e-01 2.847713232040405273e-01 -1.247202139347791672e-02
-7.606029510498046875e-01 2.816455960273742676e-01 -3.490014933049678802e-04
-8.110381364822387695e-01 3.129703998565673828e-01 -9.095673449337482452e-04
-6.706799864768981934e-01 1.939605474472045898e-01 -1.233353279531002045e-02
-8.063123822212219238e-01 2.911665737628936768e-01 -6.559761241078376770e-04
-8.241502642631530762e-01 3.170735239982604980e-01 -1.481495331972837448e-03
-6.839847564697265625e-01 1.490571796894073486e-01 -6.130891852080821991e-03
-7.262101769447326660e-01 1.724167764186859131e-01 -1.154867466539144516e-02
-7.527334690093994141e-01 2.355841249227523804e-01 -1.391012221574783325e-02
-7.655447125434875488e-01 2.736892998218536377e-01 -1.292572449892759323e-02
-7.662950754165649414e-01 2.598726451396942139e-01 -1.344098988920450211e-02
-7.552331686019897461e-01 2.753925621509552002e-01 -3.117127344012260437e-04
-6.571691632270812988e-01 1.646284759044647217e-01 -1.189266610890626907e-02
-8.022747039794921875e-01 2.685934603214263916e-01 -1.298826653510332108e-03
-7.546768784523010254e-01 2.694497704505920410e-01 -1.641139388084411621e-04
-7.271694540977478027e-01 1.801207959651947021e-01 -1.257948111742734909e-02
-8.404247164726257324e-01 3.178270161151885986e-01 -3.020731732249259949e-03
-7.095658779144287109e-01 1.602244228124618530e-01 -1.135319750756025314e-02
-7.040047049522399902e-01 1.904399693012237549e-01 -1.398846879601478577e-02
-7.821979522705078125e-01 2.910789847373962402e-01 -1.817061565816402435e-04
-7.274201512336730957e-01 2.164272814989089966e-01 -9.445915929973125458e-04
-6.827299594879150391e-01 1.431861817836761475e-01 -1.009085029363632202e-02
-7.812725901603698730e-01 3.073612749576568604e-01 -9.658732451498508453e-04
-7.037253975868225098e-01 2.529913783073425293e-01 -3.292706329375505447e-03
-7.906310558319091797e-01 2.370664328336715698e-01 -3.085119649767875671e-03
-7.449116706848144531e-01 2.875895500183105469e-01 -1.053441036492586136e-02
-7.728263139724731445e-01 3.085746765136718750e-01 -1.597006339579820633e-03
-7.218756079673767090e-01 1.934330761432647705e-01 -1.383645273745059967e-02
-7.771027088165283203e-01 3.028469383716583252e-01 -1.100996136665344238e-02
-6.771225333213806152e-01 2.084279060363769531e-01 -3.297554561868309975e-03
-7.459744215011596680e-01 1.974593698978424072e-01 -1.269239373505115509e-02
-7.982124090194702148e-01 2.877469658851623535e-01 -3.764359280467033386e-04
-6.978133320808410645e-01 1.928380429744720459e-01 -2.066134475171566010e-03
-6.919861435890197754e-01 2.135749906301498413e-01 -2.057537902146577835e-03
-8.055980801582336426e-01 2.446323931217193604e-01 -9.405707940459251404e-03
-8.284781575202941895e-01 2.766058146953582764e-01 -8.455555886030197144e-03
-7.495881319046020508e-01 2.402721941471099854e-01 -1.392872631549835205e-02
-8.005783557891845703e-01 3.062214255332946777e-01 -1.118041947484016418e-02
-8.426777720451354980e-01 3.268534541130065918e-01 -3.369166050106287003e-03
-8.270881772041320801e-01 2.832884192466735840e-01 -9.567720815539360046e-03
-6.890039443969726562e-01 1.562514007091522217e-01 -1.234569773077964783e-02
-7.314333915710449219e-01 1.751711368560791016e-01 -1.130098290741443634e-02
-7.693503499031066895e-01 2.145402580499649048e-01 -3.422433510422706604e-03
-7.995744943618774414e-01 2.923654615879058838e-01 -1.190884690731763840e-02
-6.822069883346557617e-01 1.691088974475860596e-01 -3.625113982707262039e-03
-7.135182023048400879e-01 1.809711158275604248e-01 -3.021515905857086182e-03
-7.399351596832275391e-01 2.664743661880493164e-01 -6.570173427462577820e-04
-7.411758303642272949e-01 2.737446427345275879e-01 -1.193909719586372375e-02
-7.541348338127136230e-01 1.980437487363815308e-01 -4.085769876837730408e-03
-7.217610478401184082e-01 1.710235029458999634e-01 -5.032556597143411636e-03
-7.954211235046386719e-01 3.000471591949462891e-01 -1.160348020493984222e-02
-6.787377595901489258e-01 2.192060947418212891e-01 -3.776952158659696579e-03
-8.278492093086242676e-01 3.249696791172027588e-01 -9.175091050565242767e-03
-7.056074738502502441e-01 2.563686966896057129e-01 -1.006765291094779968e-02
-7.469992041587829590e-01 1.812973022460937500e-01 -8.068799972534179688e-03
-6.930099129676818848e-01 1.829141825437545776e-01 -2.608235459774732590e-03
-6.591764688491821289e-01 1.533146649599075317e-01 -1.179173681885004044e-02
-6.575127840042114258e-01 1.476187855005264282e-01 -6.426838226616382599e-03
-6.989830732345581055e-01 2.328426092863082886e-01 -2.118593081831932068e-03
-7.796356678009033203e-01 2.922109365463256836e-01 -1.201923005282878876e-02
-7.270417809486389160e-01 2.816741466522216797e-01 -8.798385970294475555e-03
-8.050870895385742188e-01 2.630558311939239502e-01 -1.147126220166683197e-02
-8.120074272155761719e-01 2.489397227764129639e-01 -7.888290099799633026e-03
-7.852587103843688965e-01 2.492262572050094604e-01 -1.278503332287073135e-03
-7.511685490608215332e-01 1.860958933830261230e-01 -9.629191830754280090e-03
-6.856419444084167480e-01 2.274724096059799194e-01 -3.403553506359457970e-03
-6.757757067680358887e-01 1.746639311313629150e-01 -1.319198682904243469e-02
-6.936141252517700195e-01 2.485525012016296387e-01 -8.826362900435924530e-03
-7.298448681831359863e-01 1.689924597740173340e-01 -9.651673957705497742e-03
-7.577736973762512207e-01 2.621887326240539551e-01 -1.336337160319089890e-02
-6.833242774009704590e-01 2.314496189355850220e-01 -1.012136600911617279e-02
-7.763128280639648438e-01 3.187465071678161621e-01 -2.818210050463676453e-03
-7.003035545349121094e-01 1.793308854103088379e-01 -1.370140165090560913e-02
-7.567848563194274902e-01 2.056289017200469971e-01 -1.241668406873941422e-02
-6.857633590698242188e-01 2.356470376253128052e-01 -4.424124956130981445e-03
-6.678349375724792480e-01 1.842740178108215332e-01 -1.250923052430152893e-02
-7.283222675323486328e-01 2.633276283740997314e-01 -1.273484434932470322e-03
-7.206186652183532715e-01 2.560692131519317627e-01 -1.460815314203500748e-03
-7.161873579025268555e-01 1.882168799638748169e-01 -2.444635145366191864e-03
-8.100591897964477539e-01 2.532384395599365234e-01 -4.060750361531972885e-03
-7.500867843627929688e-01 3.037621080875396729e-01 -4.146629013121128082e-03
-7.264591455459594727e-01 2.705081403255462646e-01 -1.093803346157073975e-02
-8.172691464424133301e-01 3.112909495830535889e-01 -1.070998609066009521e-03
-7.785935401916503906e-01 3.190529346466064453e-01 -8.618338964879512787e-03
-7.713011503219604492e-01 3.179193735122680664e-01 -7.753137964755296707e-03
-7.312829494476318359e-01 1.975817978382110596e-01 -2.208237536251544952e-03
-6.543959379196166992e-01 1.547156572341918945e-01 -5.957718472927808762e-03
-6.505835652351379395e-01 1.445120573043823242e-01 -7.662837393581867218e-03
-6.634061336517333984e-01 2.069896161556243896e-01 -5.888939835131168365e-03
-7.076759934425354004e-01 2.620257139205932617e-01 -4.051018971949815750e-03
-7.975609898567199707e-01 2.643777132034301758e-01 -1.186002045869827271e-03
-6.801213622093200684e-01 1.984136849641799927e-01 -2.764150034636259079e-03
-7.218061685562133789e-01 2.254084795713424683e-01 -7.595890201628208160e-04
-8.013975620269775391e-01 3.296959400177001953e-01 -2.328363712877035141e-03
-7.118918299674987793e-01 1.655836552381515503e-01 -1.206674240529537201e-02
-6.822295784950256348e-01 1.825903505086898804e-01 -2.894639503210783005e-03
-7.365111708641052246e-01 2.179188430309295654e-01 -1.411054283380508423e-02
-7.093853354454040527e-01 2.540943324565887451e-01 -2.530724741518497467e-03
-6.632742285728454590e-01 2.023809552192687988e-01 -1.033183746039867401e-02
-6.957881450653076172e-01 1.640321314334869385e-01 -4.254898522049188614e-03
-7.949926853179931641e-01 3.146829009056091309e-01 -1.038447208702564240e-02
-7.940118908882141113e-01 3.012994229793548584e-01 -4.037963226437568665e-04
-7.679466009140014648e-01 2.080555707216262817e-01 -4.362746141850948334e-03
-6.618685722351074219e-01 1.974003314971923828e-01 -5.041991360485553741e-03
-7.799621224403381348e-01 2.403846234083175659e-01 -1.274076569825410843e-02
-8.362063169479370117e-01 3.100307285785675049e-01 -2.627511974424123764e-03
-7.732414007186889648e-01 2.853462696075439453e-01 -1.237082853913307190e-02
-8.026682138442993164e-01 3.380961418151855469e-01 -5.702287890017032623e-03
-6.826834082603454590e-01 1.577623039484024048e-01 -1.264667697250843048e-02
-7.550606131553649902e-01 2.899501323699951172e-01 -1.141326967626810074e-03
-7.085524797439575195e-01 1.960769593715667725e-01 -1.407942548394203186e-02
-6.998549103736877441e-01 2.032507658004760742e-01 -1.389629300683736801e-02
-8.197071552276611328e-01 3.067652583122253418e-01 -1.059221569448709488e-02
-7.385864853858947754e-01 2.410966157913208008e-01 -1.387338619679212570e-02
-7.520853281021118164e-01 2.779589593410491943e-01 -1.220927108079195023e-02
-6.535700559616088867e-01 1.603875011205673218e-01 -1.148303039371967316e-02
-8.048591017723083496e-01 2.771546840667724609e-01 -1.187949441373348236e-02
-7.550013661384582520e-01 2.499664574861526489e-01 -1.373525056988000870e-02
-6.670947074890136719e-01 1.445458829402923584e-01 -6.576825864613056183e-03
-7.519850134849548340e-01 1.977482736110687256e-01 -1.207412127405405045e-02
-6.450188755989074707e-01 1.498240977525711060e-01 -8.233016356825828552e-03
-7.578301429748535156e-01 2.076062411069869995e-01 -3.045420162379741669e-03
-7.245628833770751953e-01 2.492457479238510132e-01 -1.297175977379083633e-02
-7.205024957656860352e-01 1.747017949819564819e-01 -1.252249069511890411e-02
-7.686236500740051270e-01 2.772379517555236816e-01 -4.471372812986373901e-05
-6.690334677696228027e-01 1.996934413909912109e-01 -1.171845197677612305e-02
-7.198411226272583008e-01 2.195298969745635986e-01 -1.410006638616323471e-02
-8.298076391220092773e-01 2.806877195835113525e-01 -4.136926494538784027e-03
-7.529723048210144043e-01 2.284535765647888184e-01 -8.731000125408172607e-04
-7.689328789710998535e-01 3.157601654529571533e-01 -3.324500285089015961e-03
-7.659438252449035645e-01 2.129938006401062012e-01 -1.213603001087903976e-02
-7.613415718078613281e-01 2.982791960239410400e-01 -1.056198123842477798e-02
-7.781292796134948730e-01 2.479921281337738037e-01 -8.939951658248901367e-04
-7.061098217964172363e-01 1.844131350517272949e-01 -1.382683776319026947e-02
-7.164190411567687988e-01 2.457440048456192017e-01 -1.269992254674434662e-02
-7.709845304489135742e-01 2.457931190729141235e-01 -6.569535471498966217e-04
-7.267279028892517090e-01 2.743579745292663574e-01 -2.487374935299158096e-03
-7.941309213638305664e-01 2.797901630401611328e-01 -1.241765730082988739e-02
-6.563007831573486328e-01 1.983378678560256958e-01 -7.614850997924804688e-03
-7.568376064300537109e-01 2.913532257080078125e-01 -1.111488044261932373e-02
-7.673566341400146484e-01 2.663181126117706299e-01 -1.459848135709762573e-06
-7.886302471160888672e-01 3.004921376705169678e-01 -1.154864951968193054e-02
-7.525638937950134277e-01 2.801358997821807861e-01 -6.370428018271923065e-04
-7.505983710289001465e-01 2.558135986328125000e-01 -1.353178080171346664e-02
-8.173780441284179688e-01 3.416276872158050537e-01 -3.914590924978256226e-03
-6.986417174339294434e-01 2.135567814111709595e-01 -1.353637501597404480e-02
-7.059711813926696777e-01 1.544020175933837891e-01 -7.287239655852317810e-03
-6.931606531143188477e-01 2.310770750045776367e-01 -1.183313131332397461e-02
-6.714087128639221191e-01 2.144576758146286011e-01 -4.720685072243213654e-03
-8.115454912185668945e-01 2.616253495216369629e-01 -3.029954619705677032e-03
-7.018488049507141113e-01 2.016244381666183472e-01 -1.683038659393787384e-03
-6.940731406211853027e-01 2.366274744272232056e-01 -1.129301916807889938e-02
-8.397809267044067383e-01 3.413280844688415527e-01 -4.488227423280477524e-03
-7.593316435813903809e-01 2.127981334924697876e-01 -1.280208118259906769e-02
-7.206596136093139648e-01 2.012988030910491943e-01 -1.410000119358301163e-02
-6.876404285430908203e-01 2.171309888362884521e-01 -2.515844535082578659e-03
-7.792085409164428711e-01 2.803693115711212158e-01 -1.268072612583637238e-02
-8.275368213653564453e-01 3.219416141510009766e-01 -1.775925513356924057e-03
-7.531362175941467285e-01 2.152969539165496826e-01 -1.341363228857517242e-02
-6.955946683883666992e-01 2.389020919799804688e-01 -2.965270541608333588e-03
-8.275001645088195801e-01 2.885428965091705322e-01 -9.811382740736007690e-03
-6.993272900581359863e-01 1.587297916412353516e-01 -5.246711894869804382e-03
-7.659358978271484375e-01 2.872835695743560791e-01 -1.202831044793128967e-02
-7.816078066825866699e-01 2.421607971191406250e-01 -1.544704195111989975e-03
-8.171287775039672852e-01 3.042569458484649658e-01 -1.045410521328449249e-03
-7.873513102531433105e-01 2.469030171632766724e-01 -1.242985483258962631e-02
-8.081225752830505371e-01 2.886347770690917969e-01 -1.165074948221445084e-02
-7.058022618293762207e-01 1.705999523401260376e-01 -3.850095672532916069e-03
-7.131218314170837402e-01 2.434811145067214966e-01 -1.401378773152828217e-03
-8.121528029441833496e-01 2.932246029376983643e-01 -9.297681972384452820e-04
-7.603271007537841797e-01 2.346896231174468994e-01 -1.368187647312879562e-02
-7.946810722351074219e-01 3.306311368942260742e-01 -3.111890517175197601e-03
-8.278198242187500000e-01 3.336841464042663574e-01 -8.289399556815624237e-03
-7.313759326934814453e-01 2.334198057651519775e-01 -1.398119796067476273e-02
-7.762010693550109863e-01 2.853993177413940430e-01 -1.081395894289016724e-04
-7.924261689186096191e-01 2.575293183326721191e-01 -1.237302552908658981e-03
-8.069011569023132324e-01 3.291408717632293701e-01 -8.866064250469207764e-03
-7.427808046340942383e-01 2.021237909793853760e-01 -1.331301312893629074e-02
-7.276749610900878906e-01 2.315415889024734497e-01 -5.731396377086639404e-04
-7.767021059989929199e-01 2.097350955009460449e-01 -9.262245148420333862e-03
-6.436231732368469238e-01 1.607041656970977783e-01 -8.142187260091304779e-03
-6.948985457420349121e-01 2.235514968633651733e-01 -1.269699819386005402e-02
-8.195598721504211426e-01 3.250394165515899658e-01 -9.456906467676162720e-03
-7.966479063034057617e-01 2.646534442901611328e-01 -1.228005159646272659e-02
-8.367715477943420410e-01 3.094619810581207275e-01 -8.967790752649307251e-03
-6.758041381835937500e-01 2.251207083463668823e-01 -5.287639796733856201e-03
-8.312655091285705566e-01 3.019078373908996582e-01 -9.661879390478134155e-03
-7.953808903694152832e-01 2.771061360836029053e-01 -4.793168045580387115e-04
-6.687226891517639160e-01 2.187747210264205933e-01 -7.906431332230567932e-03
-7.614990472793579102e-01 2.188729047775268555e-01 -2.071301918476819992e-03
-7.472783923149108887e-01 2.803527712821960449e-01 -1.168197765946388245e-02
-6.756210923194885254e-01 1.480681002140045166e-01 -5.999357439577579498e-03
-6.676435470581054688e-01 1.638704538345336914e-01 -1.266033574938774109e-02
-7.944339513778686523e-01 2.707177698612213135e-01 -6.551072001457214355e-04
-7.089500427246093750e-01 1.906913816928863525e-01 -2.123846206814050674e-03
-7.457264661788940430e-01 1.864668726921081543e-01 -1.118377409875392914e-02
-7.439743876457214355e-01 2.749997377395629883e-01 -8.526947349309921265e-04
-6.617212891578674316e-01 1.455168128013610840e-01 -1.127102039754390717e-02
-7.618298530578613281e-01 1.947255730628967285e-01 -7.004225160926580429e-03
-7.996584773063659668e-01 2.761783599853515625e-01 -1.220112107694149017e-02
-6.639057397842407227e-01 1.791247576475143433e-01 -4.161548800766468048e-03
-8.398640155792236328e-01 3.342382907867431641e-01 -7.390436250716447830e-03
-7.760564088821411133e-01 2.251686900854110718e-01 -1.212635822594165802e-02
-7.874687910079956055e-01 2.872144877910614014e-01 -1.233082264661788940e-02
-7.125390768051147461e-01 1.719271838665008545e-01 -4.052210599184036255e-03
-7.383063435554504395e-01 2.578510344028472900e-01 -4.411488771438598633e-04
-7.974804639816284180e-01 2.533600032329559326e-01 -1.178370229899883270e-02
-7.334325313568115234e-01 2.136626839637756348e-01 -1.411164272576570511e-02
-7.846866250038146973e-01 2.631754577159881592e-01 -4.761992022395133972e-04
-7.206236124038696289e-01 2.424623817205429077e-01 -8.859303779900074005e-04
-8.066889643669128418e-01 2.987177073955535889e-01 -1.145931519567966461e-02
-6.963614225387573242e-01 2.030272781848907471e-01 -1.823824364691972733e-03
-7.883964180946350098e-01 2.746861577033996582e-01 -2.678683958947658539e-04
-8.334489464759826660e-01 3.311903774738311768e-01 -8.298460394144058228e-03
-7.852122187614440918e-01 2.533262073993682861e-01 -1.280264090746641159e-02
-6.823364496231079102e-01 1.873714327812194824e-01 -1.344118826091289520e-02
-6.754639744758605957e-01 1.854658722877502441e-01 -3.161864355206489563e-03
-7.643588185310363770e-01 2.403619736433029175e-01 -6.596907041966915131e-04
-8.291409015655517578e-01 3.011395335197448730e-01 -2.101273741573095322e-03
-7.672186493873596191e-01 2.950835227966308594e-01 -7.661515846848487854e-04
-6.661282181739807129e-01 2.119328826665878296e-01 -9.280852973461151123e-03
-6.705484986305236816e-01 1.641352772712707520e-01 -4.273982718586921692e-03
-6.701937317848205566e-01 1.763684153556823730e-01 -1.288199983537197113e-02
-7.934147715568542480e-01 2.468736767768859863e-01 -2.242770511656999588e-03
-7.919775843620300293e-01 2.650421559810638428e-01 -7.700189016759395599e-04
-7.357726693153381348e-01 2.143970131874084473e-01 -1.154590398073196411e-03
-7.324835658073425293e-01 2.631500661373138428e-01 -1.234922930598258972e-02
-7.006819844245910645e-01 2.463978081941604614e-01 -2.973950468003749847e-03
-6.814699769020080566e-01 1.788950711488723755e-01 -1.344309281557798386e-02
-7.107099294662475586e-01 1.626366227865219116e-01 -5.521530285477638245e-03
-7.069942951202392578e-01 2.026938945055007935e-01 -1.408132910728454590e-02
-7.625634074211120605e-01 2.502511441707611084e-01 -2.195322886109352112e-04
-7.740183472633361816e-01 2.572426199913024902e-01 -1.333386264741420746e-02
-7.366840243339538574e-01 2.731263339519500732e-01 -1.264878548681735992e-03
-7.979474067687988281e-01 2.335895299911499023e-01 -5.472305230796337128e-03
-7.004221081733703613e-01 2.194131761789321899e-01 -1.591983716934919357e-03
-7.092691063880920410e-01 2.200826406478881836e-01 -1.168434508144855499e-03
-6.489653587341308594e-01 1.739390790462493896e-01 -1.016684714704751968e-02
-8.338428735733032227e-01 3.429910540580749512e-01 -4.222855903208255768e-03
-7.268681526184082031e-01 2.516285479068756104e-01 -8.100736886262893677e-04
-8.139497637748718262e-01 3.175643086433410645e-01 -1.020761206746101379e-02
-7.418164610862731934e-01 2.205183357000350952e-01 -1.403499580919742584e-02
-7.583775520324707031e-01 2.181116938591003418e-01 -1.322152838110923767e-02
-7.514051795005798340e-01 2.132334560155868530e-01 -1.896210014820098877e-03
-7.523309588432312012e-01 2.939430773258209229e-01 -1.035061012953519821e-02
-7.782347202301025391e-01 2.311659008264541626e-01 -1.236901059746742249e-02
-7.303042411804199219e-01 2.535462975502014160e-01 -1.298847980797290802e-02
-7.456324100494384766e-01 2.647102475166320801e-01 -3.353618085384368896e-04
-7.096183896064758301e-01 2.142724692821502686e-01 -1.210054382681846619e-03
-7.220597863197326660e-01 2.069798111915588379e-01 -1.416957192122936249e-02
-6.998419165611267090e-01 2.261429131031036377e-01 -1.292107719928026199e-02
-6.953107714653015137e-01 1.773827075958251953e-01 -1.365427859127521515e-02
-8.057065606117248535e-01 3.219076097011566162e-01 -9.809674695134162903e-03
-7.039076089859008789e-01 2.380323708057403564e-01 -1.231077034026384354e-02
-7.007336616516113281e-01 2.437380552291870117e-01 -1.130532659590244293e-02
-8.158497214317321777e-01 2.817135751247406006e-01 -1.722705550491809845e-03
-7.145286798477172852e-01 1.952891051769256592e-01 -1.404431462287902832e-02
-7.473922967910766602e-01 2.212267518043518066e-01 -1.098643522709608078e-03
-6.522582769393920898e-01 1.634560227394104004e-01 -5.756559316068887711e-03
-7.189891934394836426e-01 1.799867004156112671e-01 -3.399704815819859505e-03
-6.710813045501708984e-01 1.518837064504623413e-01 -1.215210370719432831e-02
-6.988922357559204102e-01 1.704758107662200928e-01 -1.327335182577371597e-02
-8.140219449996948242e-01 2.751212716102600098e-01 -1.993521116673946381e-03
-7.398746013641357422e-01 2.338394224643707275e-01 -1.404632721096277237e-02
-7.753864526748657227e-01 2.465007007122039795e-01 -1.321939937770366669e-02
-7.383463978767395020e-01 2.054076641798019409e-01 -1.862477976828813553e-03
-8.145844936370849609e-01 2.924058437347412109e-01 -1.121221296489238739e-02
-7.839118838310241699e-01 2.723392546176910400e-01 -1.286897063255310059e-02
-6.511154174804687500e-01 1.694658100605010986e-01 -5.863925907760858536e-03
-7.653362154960632324e-01 3.116734921932220459e-01 -2.952574286609888077e-03
-7.566538453102111816e-01 2.353771924972534180e-01 -6.366004236042499542e-04
-7.149298191070556641e-01 2.371489703655242920e-01 -1.070448663085699081e-03
-8.301779031753540039e-01 2.919837236404418945e-01 -2.827572636306285858e-03
-7.391067147254943848e-01 2.800788283348083496e-01 -1.100833714008331299e-02
-7.473515868186950684e-01 2.049235999584197998e-01 -2.441737335175275803e-03
-6.992075443267822266e-01 1.807116121053695679e-01 -2.725008875131607056e-03
-8.437923789024353027e-01 3.306785225868225098e-01 -7.175875362008810043e-03
-7.684511542320251465e-01 2.201690077781677246e-01 -1.252115890383720398e-02
-7.515784502029418945e-01 2.515277266502380371e-01 -1.111235469579696655e-04
-8.148502111434936523e-01 2.796129584312438965e-01 -1.107316743582487106e-02
-7.745004296302795410e-01 2.971078753471374512e-01 -5.716299638152122498e-04
-7.303251624107360840e-01 2.403869479894638062e-01 -1.371903810650110245e-02
-6.752403974533081055e-01 1.806791722774505615e-01 -1.314829476177692413e-02
-8.065146803855895996e-01 3.106128573417663574e-01 -1.082818396389484406e-02
-8.113471865653991699e-01 3.235971927642822266e-01 -1.414514612406492233e-03
-7.381224036216735840e-01 2.487776577472686768e-01 -1.357359252870082855e-02
-7.576320767402648926e-01 1.945970952510833740e-01 -1.054344419389963150e-02
-8.241958618164062500e-01 3.086056113243103027e-01 -1.454156357795000076e-03
-7.669401168823242188e-01 2.950797080993652344e-01 -1.133675500750541687e-02
-8.363682627677917480e-01 3.383404314517974854e-01 -7.139206398278474808e-03
-7.968700528144836426e-01 3.269740939140319824e-01 -8.718276396393775940e-03
-7.784261107444763184e-01 2.536661624908447266e-01 -6.046593189239501953e-04
-8.223912715911865234e-01 2.745428979396820068e-01 -3.308387706056237221e-03
-6.901847124099731445e-01 1.712745279073715210e-01 -3.411312354728579521e-03
-7.701885104179382324e-01 2.866497337818145752e-01 -2.422193065285682678e-04
-6.853143572807312012e-01 2.073346525430679321e-01 -1.294410694390535355e-02
-7.842538952827453613e-01 3.256043493747711182e-01 -3.288919804617762566e-03
-7.643079161643981934e-01 3.088672757148742676e-01 -9.028797037899494171e-03
-8.259723186492919922e-01 2.690681815147399902e-01 -7.591580040752887726e-03
-6.726738810539245605e-01 1.412789821624755859e-01 -1.042369101196527481e-02
-8.347107768058776855e-01 2.954962551593780518e-01 -3.340080147609114647e-03
-8.374750614166259766e-01 3.315973281860351562e-01 -2.893514465540647507e-03
-7.194027900695800781e-01 2.679693102836608887e-01 -1.035724580287933350e-02
-7.028997540473937988e-01 2.404072731733322144e-01 -2.166061196476221085e-03
-7.247961163520812988e-01 1.992495656013488770e-01 -1.836746931076049805e-03
-8.206637501716613770e-01 2.667844593524932861e-01 -9.200739674270153046e-03
-7.478546500205993652e-01 2.980443537235260010e-01 -3.045288380235433578e-03
-7.732951641082763672e-01 3.132889270782470703e-01 -9.225068613886833191e-03
-7.467777132987976074e-01 2.108625769615173340e-01 -1.356244087219238281e-02
-8.328367471694946289e-01 3.352711200714111328e-01 -2.816745080053806305e-03
-7.472556233406066895e-01 2.238619923591613770e-01 -1.394311618059873581e-02
-7.435244917869567871e-01 1.872987896203994751e-01 -4.619933664798736572e-03
-6.854809522628784180e-01 2.063956409692764282e-01 -2.430921886116266251e-03
-6.676286458969116211e-01 2.070241868495941162e-01 -1.066235080361366272e-02
-7.240695357322692871e-01 2.464260458946228027e-01 -8.056918159127235413e-04
-7.324137687683105469e-01 2.024565935134887695e-01 -1.384707726538181305e-02
-8.331831097602844238e-01 3.188294172286987305e-01 -9.180296212434768677e-03
-7.373599410057067871e-01 2.906795144081115723e-01 -3.524459432810544968e-03
-6.776808500289916992e-01 1.468081772327423096e-01 -1.146819069981575012e-02
-8.023682832717895508e-01 3.055365979671478271e-01 -5.695731379091739655e-04
-6.857287883758544922e-01 1.992473602294921875e-01 -2.383267041295766830e-03
-8.290687799453735352e-01 3.401116430759429932e-01 -7.180341053754091263e-03
-6.609826087951660156e-01 1.666231155395507812e-01 -4.707915242761373520e-03
-7.044377923011779785e-01 2.251412868499755859e-01 -1.436954364180564880e-03
-7.098242044448852539e-01 2.664555609226226807e-01 -8.530892431735992432e-03
-7.061196565628051758e-01 1.718826591968536377e-01 -1.313543692231178284e-02
-7.522314786911010742e-01 2.086951434612274170e-01 -1.308720465749502182e-02
-7.436324954032897949e-01 2.449533492326736450e-01 -1.382111664861440659e-02
-7.562378644943237305e-01 3.057017624378204346e-01 -3.199031343683600426e-03
-8.305461406707763672e-01 2.944685816764831543e-01 -9.591593407094478607e-03
-6.676082611083984375e-01 1.566380560398101807e-01 -4.970257170498371124e-03
-7.764610052108764648e-01 3.237285017967224121e-01 -6.500802934169769287e-03
-7.905776500701904297e-01 2.285156250000000000e-01 -1.015741936862468719e-02
-7.885247468948364258e-01 3.102570176124572754e-01 -8.984324522316455841e-04
-7.473638653755187988e-01 2.665124535560607910e-01 -1.288027875125408173e-02
-7.046967148780822754e-01 2.347970306873321533e-01 -1.696543302386999130e-03
-7.192943692207336426e-01 2.126951962709426880e-01 -1.417675241827964783e-02
-6.675103902816772461e-01 1.728393286466598511e-01 -3.996249753981828690e-03
-7.347241044044494629e-01 2.861230373382568359e-01 -3.069105092436075211e-03
-8.168690800666809082e-01 3.312289118766784668e-01 -8.759422227740287781e-03
-7.588781714439392090e-01 2.593499422073364258e-01 -3.195647150278091431e-05
-6.864196658134460449e-01 2.208054065704345703e-01 -1.205720193684101105e-02
-7.847067713737487793e-01 3.176006972789764404e-01 -9.492042474448680878e-03
-7.605892419815063477e-01 2.871323525905609131e-01 -1.180580817162990570e-02
-7.009987235069274902e-01 1.583685874938964844e-01 -1.191704533994197845e-02
-7.634992599487304688e-01 2.755735814571380615e-01 -9.196158498525619507e-05
-6.559240818023681641e-01 1.769162416458129883e-01 -1.140397414565086365e-02
-7.402518391609191895e-01 2.971683144569396973e-01 -5.074888933449983597e-03
-6.468088030815124512e-01 1.553565263748168945e-01 -7.045040838420391083e-03
-6.936082243919372559e-01 1.632508486509323120e-01 -1.287893764674663544e-02
-7.290492057800292969e-01 2.263751924037933350e-01 -1.410533674061298370e-02
-8.119451999664306641e-01 2.542910575866699219e-01 -9.491758421063423157e-03
-6.560127139091491699e-01 1.902671754360198975e-01 -5.799997597932815552e-03
-7.270920276641845703e-01 2.044277340173721313e-01 -1.405945606529712677e-02
-7.506736516952514648e-01 1.914256811141967773e-01 -1.128329988569021225e-02
-7.310374975204467773e-01 1.912889778614044189e-01 -2.821587491780519485e-03
-7.322968244552612305e-01 2.478524595499038696e-01 -1.343007571995258331e-02
-7.344356775283813477e-01 2.236299216747283936e-01 -1.415072288364171982e-02
-7.172803878784179688e-01 2.730744779109954834e-01 -4.151592031121253967e-03
-7.231287360191345215e-01 2.683346569538116455e-01 -2.240047790110111237e-03
-8.127267360687255859e-01 3.051022291183471680e-01 -1.098425406962633133e-02
-7.145068049430847168e-01 2.310672104358673096e-01 -1.353894174098968506e-02
-7.779040336608886719e-01 3.080809712409973145e-01 -1.042970828711986542e-02
-8.314996957778930664e-01 3.076707720756530762e-01 -9.635590016841888428e-03
-8.259844183921813965e-01 3.435810208320617676e-01 -4.229552112519741058e-03
-6.821915507316589355e-01 1.899315714836120605e-01 -2.691406756639480591e-03
-8.417783975601196289e-01 3.040199577808380127e-01 -4.195153713226318359e-03
-6.717712879180908203e-01 1.675079464912414551e-01 -1.292973011732101440e-02
-7.118727564811706543e-01 2.589411437511444092e-01 -1.070529408752918243e-02
-6.774885654449462891e-01 2.040189504623413086e-01 -1.242249459028244019e-02
-6.742648482322692871e-01 1.969038546085357666e-01 -3.253171220421791077e-03
-8.394818305969238281e-01 3.160860538482666016e-01 -8.530196733772754669e-03
-7.913883328437805176e-01 2.579669356346130371e-01 -1.250201091170310974e-02
-7.502315044403076172e-01 2.301543205976486206e-01 -1.394021883606910706e-02
-7.754983305931091309e-01 2.785228490829467773e-01 -2.250773832201957703e-05
-8.170473575592041016e-01 2.972584068775177002e-01 -1.098962221294641495e-02
-7.552490830421447754e-01 2.956764996051788330e-01 -1.685971394181251526e-03
-8.190453052520751953e-01 3.376460075378417969e-01 -7.697219494730234146e-03
-7.366867661476135254e-01 2.703571915626525879e-01 -1.195450592786073685e-02
-7.681313753128051758e-01 2.325838953256607056e-01 -1.339167822152376175e-03
-8.003455996513366699e-01 2.406471222639083862e-01 -1.004860363900661469e-02
-7.692626714706420898e-01 2.455701828002929688e-01 -1.347845699638128281e-02
-7.761228084564208984e-01 2.276634126901626587e-01 -2.468385268002748489e-03
-8.225500583648681641e-01 2.842588722705841064e-01 -2.330892253667116165e-03
-2.446428984403610229e-01 -2.055669762194156647e-02 5.377969145774841309e-02
-2.098898440599441528e-01 8.721186965703964233e-02 -2.111318707466125488e-02
-3.411194682121276855e-01 -3.277183324098587036e-02 4.272300750017166138e-02
-1.838818341493606567e-01 2.679080143570899963e-02 -7.141928374767303467e-02
-3.570480942726135254e-01 -2.931795082986354828e-02 5.431400611996650696e-03
-2.640499472618103027e-01 2.396202832460403442e-02 -1.024443283677101135e-01
-1.831306815147399902e-01 3.209669888019561768e-02 7.519546151161193848e-02
-3.101873695850372314e-01 8.391277864575386047e-03 4.720644652843475342e-02
-3.386752009391784668e-01 -1.209638454020023346e-02 2.839156799018383026e-02
-1.347992420196533203e-01 5.602354556322097778e-02 3.618066012859344482e-02
-1.863661706447601318e-01 1.641277410089969635e-02 -5.333993583917617798e-02
-1.950599402189254761e-01 1.947302743792533875e-02 7.283382117748260498e-02
-1.911804378032684326e-01 2.734963782131671906e-02 -8.096133172512054443e-02
-2.208969444036483765e-01 5.799554288387298584e-02 6.816837936639785767e-02
-2.333749234676361084e-01 -1.331166364252567291e-02 -5.446697771549224854e-02
-2.877761423587799072e-01 3.840788826346397400e-02 1.474084518849849701e-02
-3.042307198047637939e-01 2.868689410388469696e-02 -1.567075029015541077e-03
-2.886699736118316650e-01 4.144182801246643066e-02 -1.930150762200355530e-02
-2.383876293897628784e-01 6.907595694065093994e-02 -5.708461999893188477e-02
-2.931809127330780029e-01 -4.205766320228576660e-02 4.649125784635543823e-02
-2.732757329940795898e-01 4.271057248115539551e-02 3.607225418090820312e-02
-2.457707077264785767e-01 -1.086755655705928802e-02 7.352145761251449585e-02
-2.374292314052581787e-01 7.279981672763824463e-02 -3.601595759391784668e-02
-1.514105051755905151e-01 1.020107790827751160e-01 -5.117011070251464844e-02
-2.053892314434051514e-01 -1.300388947129249573e-03 4.373371601104736328e-02
-1.435930132865905762e-01 1.027192026376724243e-01 2.455311082303524017e-02
-2.868667542934417725e-01 5.238316953182220459e-05 7.757447659969329834e-02
-1.192466318607330322e-01 7.099349051713943481e-02 1.854879595339298248e-02
-3.066028356552124023e-01 -3.480730205774307251e-02 -7.213868200778961182e-02
-1.713727861642837524e-01 1.760205812752246857e-02 1.240377314388751984e-03
-2.335302978754043579e-01 4.449865967035293579e-02 -1.023352965712547302e-01
-3.181860148906707764e-01 -5.060210824012756348e-03 5.372267961502075195e-02
-1.815756708383560181e-01 8.854978531599044800e-02 -7.101477682590484619e-02
-3.550838530063629150e-01 -4.501846432685852051e-02 2.061374485492706299e-02
-2.463922053575515747e-01 6.724143773317337036e-02 -4.182401299476623535e-02
-3.043966293334960938e-01 2.399469912052154541e-02 2.180100046098232269e-02
-2.564865052700042725e-01 2.820718102157115936e-02 -1.033474802970886230e-01
-2.727619707584381104e-01 -9.561637416481971741e-03 -9.299222379922866821e-02
-1.519862115383148193e-01 3.514821827411651611e-02 2.466862462460994720e-02
-2.175687849521636963e-01 -1.208006404340267181e-02 -1.904962398111820221e-02
-3.608171343803405762e-01 -4.406952857971191406e-02 -2.802711166441440582e-02
-2.560034990310668945e-01 6.190327554941177368e-02 -3.936003521084785461e-02
-2.258073985576629639e-01 3.294970467686653137e-02 -1.045482307672500610e-01
-1.861374378204345703e-01 7.128785550594329834e-02 6.819829344749450684e-02
-1.614307910203933716e-01 2.909554354846477509e-02 3.538663685321807861e-02
-2.431764304637908936e-01 -1.316224597394466400e-02 -6.832149624824523926e-02
-1.537280976772308350e-01 1.065677478909492493e-01 -2.431073226034641266e-02
-3.272152543067932129e-01 -6.997006013989448547e-03 4.285541921854019165e-02
-1.343767940998077393e-01 9.777754545211791992e-02 -5.613839626312255859e-02
-2.713732123374938965e-01 3.980652615427970886e-02 4.677753895521163940e-02
-2.737797200679779053e-01 3.034048527479171753e-02 6.116394698619842529e-02
-2.121391445398330688e-01 1.172059681266546249e-02 -8.052668720483779907e-02
-2.759306728839874268e-01 -3.439190238714218140e-02 5.242342501878738403e-02
-2.641300559043884277e-01 3.079239651560783386e-02 7.010232657194137573e-02
-2.552712559700012207e-01 5.756701529026031494e-02 2.512263692915439606e-02
-1.419219225645065308e-01 9.644756466150283813e-02 3.961467742919921875e-02
-2.110259085893630981e-01 2.309844456613063812e-02 8.548899739980697632e-02
-2.210151255130767822e-01 7.588545233011245728e-02 2.746866084635257721e-02
-1.813875734806060791e-01 1.107213739305734634e-02 2.152155712246894836e-02
-1.623474955558776855e-01 6.170520186424255371e-02 -8.395300805568695068e-02
-2.775958478450775146e-01 -2.696138434112071991e-02 -7.182192057371139526e-02
-3.402160406112670898e-01 -4.724452272057533264e-03 -3.727772459387779236e-02
-3.452847898006439209e-01 -4.118395596742630005e-02 -5.607653409242630005e-02
-1.384907662868499756e-01 7.320998609066009521e-02 -6.598683446645736694e-02
-2.260457128286361694e-01 1.775047928094863892e-02 8.764424175024032593e-02
-2.571138143539428711e-01 -3.425654023885726929e-03 8.389724045991897583e-02
-2.759232819080352783e-01 -4.168406873941421509e-02 -1.857103221118450165e-02
-1.511569917201995850e-01 5.491961538791656494e-02 -6.688249856233596802e-02
-2.923851609230041504e-01 -9.706510230898857117e-03 7.680202275514602661e-02
