2.292541563510894775e-01 2.360233515501022339e-01 -1.752589643001556396e-01
2.056542932987213135e-01 1.904227733612060547e-01 -8.256445825099945068e-02
-2.375844120979309082e-02 1.937303543090820312e-01 -3.577884286642074585e-02
2.277534008026123047e-01 1.935694515705108643e-01 -1.037178412079811096e-01
-4.686057567596435547e-02 2.571236491203308105e-01 1.167132630944252014e-01
2.608663737773895264e-01 2.298258841037750244e-01 -1.312011778354644775e-01
-1.338481307029724121e-01 2.125335186719894409e-01 -5.682130157947540283e-02
1.139405146241188049e-01 2.548400163650512695e-01 1.043516173958778381e-01
-1.668606996536254883e-01 2.261602282524108887e-01 -4.274934530258178711e-02
-6.807293742895126343e-02 2.061192989349365234e-01 1.463156342506408691e-01
2.748653292655944824e-01 2.190742492675781250e-01 1.059392467141151428e-01
1.378893479704856873e-02 2.469025254249572754e-01 -3.030565679073333740e-01
-5.433687567710876465e-02 2.104594707489013672e-01 2.064344882965087891e-01
-2.348836511373519897e-03 2.613388597965240479e-01 -1.100626736879348755e-01
1.117770299315452576e-01 1.873092204332351685e-01 -9.711035341024398804e-02
-1.454094946384429932e-01 2.492353618144989014e-01 -9.028756618499755859e-02
-1.526249051094055176e-01 2.227443158626556396e-01 -1.310522854328155518e-01
-3.074993193149566650e-02 2.035585939884185791e-01 -2.436532378196716309e-01
3.777457773685455322e-02 1.893369555473327637e-01 2.959884330630302429e-02
-9.439013153314590454e-02 2.475839257240295410e-01 -2.362867295742034912e-01
8.283692598342895508e-02 1.879625767469406128e-01 5.506679415702819824e-02
2.633370459079742432e-01 2.295787781476974487e-01 8.394672721624374390e-02
1.473700255155563354e-02 2.013845890760421753e-01 -2.684563696384429932e-01
1.855620741844177246e-01 1.928646862506866455e-01 1.297258734703063965e-01
-1.315284073352813721e-01 2.501115798950195312e-01 6.449000537395477295e-02
1.418145895004272461e-01 1.868880689144134521e-01 -6.549148261547088623e-02
2.554356753826141357e-01 2.067367285490036011e-01 1.429895758628845215e-01
2.426388561725616455e-01 2.389315068721771240e-01 1.885552331805229187e-02
2.718336135149002075e-02 2.005489021539688110e-01 2.130241394042968750e-01
-7.330832630395889282e-02 2.023156583309173584e-01 -1.393003314733505249e-01
7.042317092418670654e-02 2.604949176311492920e-01 -4.050867632031440735e-03
1.711396127939224243e-01 2.383063286542892456e-01 2.191442251205444336e-01
1.698807775974273682e-01 2.183150053024291992e-01 -3.212309181690216064e-01
4.062109068036079407e-02 2.240751534700393677e-01 3.088459670543670654e-01
2.129419520497322083e-02 1.987222135066986084e-01 -2.474747598171234131e-01
7.048167288303375244e-03 1.942874342203140259e-01 1.111017987132072449e-01
1.700412482023239136e-01 1.880363225936889648e-01 3.717812895774841309e-02
-1.111357137560844421e-01 2.068679481744766235e-01 -4.428624361753463745e-02
5.403214320540428162e-02 2.611042559146881104e-01 -6.556959450244903564e-02
5.387223884463310242e-02 2.118126899003982544e-01 2.897225916385650635e-01
1.828553527593612671e-02 2.126082032918930054e-01 -3.379944562911987305e-01
-2.495782077312469482e-02 1.970314085483551025e-01 -1.632003188133239746e-01
7.481738924980163574e-02 2.589014470577239990e-01 6.620449572801589966e-02
-8.992788940668106079e-02 2.221543341875076294e-01 2.122150361537933350e-01
1.312463283538818359e-01 2.466110140085220337e-01 1.971557438373565674e-01
-5.080050975084304810e-02 2.613194584846496582e-01 -3.814193978905677795e-02
3.970625251531600952e-02 2.434946000576019287e-01 -3.218593299388885498e-01
2.402293086051940918e-01 2.399049252271652222e-01 -2.738976851105690002e-02
1.836448013782501221e-01 2.497670501470565796e-01 -7.202233374118804932e-02
1.200921833515167236e-01 2.412084788084030151e-01 -3.000574707984924316e-01
1.502293050289154053e-01 2.458800077438354492e-01 1.821003556251525879e-01
-2.801152318716049194e-02 2.589869797229766846e-01 9.749373048543930054e-02
9.117878228425979614e-02 1.875064373016357422e-01 -9.492631256580352783e-02
5.817892402410507202e-02 2.065562903881072998e-01 -3.228450715541839600e-01
-4.032710194587707520e-02 2.602299153804779053e-01 -1.242643967270851135e-01
2.961568720638751984e-02 1.898349076509475708e-01 -8.472811430692672729e-02
-9.506145864725112915e-02 2.579123675823211670e-01 -7.641778886318206787e-02
-1.022600382566452026e-02 2.010157704353332520e-01 -2.421016395092010498e-01
-1.430114805698394775e-01 2.371135354042053223e-01 1.232137158513069153e-01
2.792760729789733887e-03 2.550878524780273438e-01 1.675621271133422852e-01
1.515057682991027832e-01 1.896717697381973267e-01 -1.487276852130889893e-01
9.848462045192718506e-02 2.437829822301864624e-01 2.449516355991363525e-01
2.009333074092864990e-01 1.892755329608917236e-01 -3.505863249301910400e-02
8.928953111171722412e-02 2.390078306198120117e-01 -3.296785354614257812e-01
-3.800278902053833008e-02 2.550724744796752930e-01 -2.183941602706909180e-01
5.056115984916687012e-02 1.942676901817321777e-01 -2.144687175750732422e-01
-6.144255399703979492e-03 1.921387910842895508e-01 -5.503913015127182007e-02
1.161668300628662109e-01 2.576054632663726807e-01 -2.600823715329170227e-02
2.010749280452728271e-01 2.471885979175567627e-01 -6.590321660041809082e-02
4.934551566839218140e-02 2.614840865135192871e-01 -3.021924197673797607e-02
2.387329936027526855e-03 2.622696757316589355e-01 -5.585073679685592651e-02
-1.421852707862854004e-01 2.182552218437194824e-01 6.061533093452453613e-02
1.047226786613464355e-01 1.957520097494125366e-01 -2.474057078361511230e-01
1.365373134613037109e-01 1.885695457458496094e-01 -1.320882737636566162e-01
-4.547977447509765625e-02 1.976835727691650391e-01 5.934770405292510986e-02
-8.357527107000350952e-02 2.512754499912261963e-01 1.494235694408416748e-01
-1.126088574528694153e-01 2.075629532337188721e-01 -7.517519593238830566e-02
1.254295110702514648e-01 2.340442985296249390e-01 2.787590920925140381e-01
2.333516180515289307e-01 2.003289312124252319e-01 -1.842952966690063477e-01
1.686679571866989136e-01 2.303568273782730103e-01 -3.066196143627166748e-01
1.626088619232177734e-01 1.872833222150802612e-01 -5.276849120855331421e-02
2.121071517467498779e-01 1.934261620044708252e-01 -1.401817798614501953e-01
-1.538614332675933838e-01 2.319789379835128784e-01 -1.686070561408996582e-01
-3.561285883188247681e-02 2.530825436115264893e-01 1.756072342395782471e-01
-8.147582411766052246e-05 2.585222125053405762e-01 -1.800091862678527832e-01
2.058225274085998535e-01 2.395040988922119141e-01 1.536290943622589111e-01
3.739999979734420776e-02 2.611128985881805420e-01 3.736021369695663452e-02
-1.061665043234825134e-01 2.550612688064575195e-01 5.556090176105499268e-02
2.495277822017669678e-01 2.350670397281646729e-01 -1.130147948861122131e-01
4.120339453220367432e-02 1.907695382833480835e-01 -1.413153707981109619e-01
2.100902050733566284e-02 2.472021579742431641e-01 2.404390871524810791e-01
-4.386635869741439819e-02 2.611689269542694092e-01 1.523027569055557251e-02
1.384894251823425293e-01 2.491641193628311157e-01 1.598267555236816406e-01
1.004400402307510376e-01 2.327969968318939209e-01 2.938533723354339600e-01
9.713657945394515991e-02 1.928801834583282471e-01 -2.132529020309448242e-01
2.919896841049194336e-01 2.127995342016220093e-01 -3.641657531261444092e-03
-3.479979187250137329e-02 2.117182165384292603e-01 -2.994261384010314941e-01
2.913697957992553711e-01 2.114077657461166382e-01 -3.192896023392677307e-02
-1.046247780323028564e-04 2.086926996707916260e-01 2.508349716663360596e-01
5.216508358716964722e-02 1.880684494972229004e-01 -3.590688109397888184e-02
-9.303616732358932495e-02 2.124675363302230835e-01 -2.236157357692718506e-01
1.402903497219085693e-01 2.278166711330413818e-01 -3.362117707729339600e-01
-3.053229302167892456e-02 2.188037037849426270e-01 2.681943476200103760e-01
1.224367618560791016e-01 1.892740428447723389e-01 -1.526861190795898438e-01
1.682397127151489258e-01 2.500143945217132568e-01 -1.339965015649795532e-01
2.035110592842102051e-01 1.912180930376052856e-01 -1.125551983714103699e-01
-1.600757837295532227e-01 2.256571352481842041e-01 4.148748517036437988e-02
1.588185131549835205e-01 1.997583508491516113e-01 2.191232144832611084e-01
6.958056986331939697e-02 2.547687888145446777e-01 -2.123376131057739258e-01
1.963732540607452393e-01 1.978617012500762939e-01 -2.174432575702667236e-01
2.458445727825164795e-02 1.897520124912261963e-01 -5.490554124116897583e-02
-2.113021910190582275e-03 2.569960653781890869e-01 1.412185132503509521e-01
-1.304934024810791016e-01 2.126629501581192017e-01 2.881092578172683716e-02
-5.341158062219619751e-02 2.191514521837234497e-01 -3.130936622619628906e-01
-1.164598762989044189e-02 1.962607353925704956e-01 1.152703836560249329e-01
9.790648519992828369e-02 1.929758042097091675e-01 1.647883057594299316e-01
2.432161569595336914e-01 1.940391361713409424e-01 -1.561750750988721848e-02
2.324217855930328369e-01 1.928474605083465576e-01 -5.901721864938735962e-02
-1.190010383725166321e-01 2.547698318958282471e-01 1.117163151502609253e-02
1.987297832965850830e-01 2.317329496145248413e-01 2.206574082374572754e-01
-1.011211946606636047e-01 2.048239707946777344e-01 -2.332961186766624451e-02
7.821799814701080322e-02 1.948603838682174683e-01 -2.345740199089050293e-01
3.653828054666519165e-03 1.980357170104980469e-01 -2.229332029819488525e-01
1.408681571483612061e-01 2.551269233226776123e-01 -6.210960447788238525e-02
1.553635671734809875e-02 2.306774407625198364e-01 -3.599669039249420166e-01
-9.384731203317642212e-02 2.526885867118835449e-01 -1.902288794517517090e-01
1.211723461747169495e-01 2.525420188903808594e-01 -1.882590949535369873e-01
5.281353369355201721e-02 2.603634595870971680e-01 4.877245426177978516e-02
1.673171818256378174e-01 1.975782066583633423e-01 1.971253454685211182e-01
2.685897052288055420e-01 1.996542662382125854e-01 -4.688641428947448730e-02
1.605900824069976807e-01 2.347646951675415039e-01 2.499368190765380859e-01
-8.473574370145797729e-02 2.518219947814941406e-01 -2.125387191772460938e-01
-1.122234538197517395e-01 2.223522663116455078e-01 1.752932667732238770e-01
1.450040787458419800e-01 1.969803273677825928e-01 -2.492366135120391846e-01
-2.468392252922058105e-03 2.617432475090026855e-01 2.901593595743179321e-02
9.227908402681350708e-02 1.896116137504577637e-01 1.068961098790168762e-01
-9.009616822004318237e-02 2.041250318288803101e-01 -1.130931302905082703e-01
-1.235078275203704834e-02 2.448652833700180054e-01 2.471875250339508057e-01
1.141899228096008301e-01 2.497457861900329590e-01 1.815976500511169434e-01
-2.795033901929855347e-02 2.150328755378723145e-01 -3.204730451107025146e-01
1.764746308326721191e-01 2.444572597742080688e-01 -2.043676078319549561e-01
-6.769371777772903442e-02 2.577216029167175293e-01 8.197182416915893555e-02
1.423177868127822876e-02 1.905725151300430298e-01 7.393185049295425415e-03
1.993915140628814697e-01 2.386266440153121948e-01 1.747376918792724609e-01
-8.586763590574264526e-02 2.110167443752288818e-01 1.586121320724487305e-01
1.435004770755767822e-01 1.875585168600082397e-01 -9.686171263456344604e-02
4.722040146589279175e-03 1.950488686561584473e-01 -1.794789731502532959e-01
-1.467006653547286987e-02 2.067539542913436890e-01 2.266828417778015137e-01
2.303327322006225586e-01 2.333699166774749756e-01 -1.963802874088287354e-01
-2.632930874824523926e-02 2.613186538219451904e-01 -9.996932744979858398e-02
-6.288576871156692505e-02 2.606902122497558594e-01 -2.125653252005577087e-02
4.341920465230941772e-02 2.375230789184570312e-01 2.887875735759735107e-01
2.777416259050369263e-03 1.926730573177337646e-01 -1.205427572131156921e-01
6.990627199411392212e-02 2.520870268344879150e-01 1.885957121849060059e-01
2.427591979503631592e-01 2.103208303451538086e-01 1.816067397594451904e-01
1.968258023262023926e-01 2.053305506706237793e-01 -2.663088142871856689e-01
2.065530419349670410e-01 2.246253192424774170e-01 -2.778055667877197266e-01
2.866955697536468506e-01 2.084825634956359863e-01 -6.488900631666183472e-02
-1.000909581780433655e-01 2.539720535278320312e-01 9.034782648086547852e-02
1.982023715972900391e-01 2.359092235565185547e-01 -2.425732016563415527e-01
1.371186077594757080e-01 2.553117871284484863e-01 2.356191724538803101e-02
-1.376009732484817505e-02 2.622500658035278320e-01 -1.578245684504508972e-02
1.200477778911590576e-02 2.600408196449279785e-01 8.476837724447250366e-02
8.188013732433319092e-02 1.898674666881561279e-01 -1.579016745090484619e-01
9.311734139919281006e-02 2.513631880283355713e-01 1.817036271095275879e-01
1.020553261041641235e-01 1.949799954891204834e-01 1.895665526390075684e-01
2.515570819377899170e-01 2.369063794612884521e-01 -4.262171685695648193e-02
1.611857414245605469e-01 2.527097165584564209e-01 -7.300569117069244385e-02
1.309980154037475586e-01 1.915370374917984009e-01 -1.912691295146942139e-01
4.555651545524597168e-02 1.989582777023315430e-01 2.103257477283477783e-01
1.462449505925178528e-02 1.922969073057174683e-01 7.982428371906280518e-02
2.350873351097106934e-01 1.952172964811325073e-01 7.748812437057495117e-02
4.678473249077796936e-02 1.947654932737350464e-01 1.644664406776428223e-01
-9.687624126672744751e-02 2.112582623958587646e-01 -2.042923867702484131e-01
-6.099791079759597778e-02 2.499992251396179199e-01 1.847440600395202637e-01
2.153752148151397705e-01 1.985048353672027588e-01 -1.984349191188812256e-01
2.152779996395111084e-01 1.931286007165908813e-01 8.802633732557296753e-02
-8.767650276422500610e-02 2.023471295833587646e-01 -3.999871015548706055e-02
7.885756343603134155e-02 2.552082836627960205e-01 1.413050293922424316e-01
-8.433460444211959839e-02 2.466774880886077881e-01 -2.542221546173095703e-01
-6.150658428668975830e-02 2.603874206542968750e-01 -8.113172650337219238e-02
2.648733556270599365e-01 1.996727883815765381e-01 -7.914893329143524170e-02
-3.240132331848144531e-02 2.357199043035507202e-01 -3.353465497493743896e-01
-1.016036346554756165e-01 2.575553357601165771e-01 -4.742724448442459106e-02
1.368997395038604736e-01 2.076518386602401733e-01 2.706883251667022705e-01
-5.740233510732650757e-02 2.190232723951339722e-01 2.437092065811157227e-01
2.799683511257171631e-01 2.249978780746459961e-01 -7.831944525241851807e-02
7.282266020774841309e-02 1.901279091835021973e-01 1.063953414559364319e-01
1.960809156298637390e-02 2.106270939111709595e-01 2.725277543067932129e-01
-3.477613627910614014e-02 2.497906088829040527e-01 2.051604986190795898e-01
-9.291530400514602661e-02 2.067216485738754272e-01 -1.571367979049682617e-01
7.516890764236450195e-02 2.012711167335510254e-01 -2.931198775768280029e-01
-2.626391500234603882e-02 1.947149932384490967e-01 3.445620834827423096e-02
1.721756309270858765e-01 2.462116628885269165e-01 1.428145468235015869e-01
-1.506417989730834961e-01 2.291677892208099365e-01 1.005800589919090271e-01
-7.520150393247604370e-02 2.008072733879089355e-01 1.830475032329559326e-02
1.677715927362442017e-01 2.522829771041870117e-01 -9.206216782331466675e-03
1.441431343555450439e-01 1.911061406135559082e-01 1.335419714450836182e-01
1.580660641193389893e-01 1.885946244001388550e-01 -1.172231733798980713e-01
4.689624905586242676e-02 2.038080543279647827e-01 2.487513124942779541e-01
2.126019597053527832e-01 2.455567568540573120e-01 -3.520726412534713745e-02
2.604944705963134766e-01 2.011574059724807739e-01 8.603581786155700684e-02
4.166250303387641907e-02 1.887666136026382446e-01 5.618836730718612671e-03
2.189457416534423828e-01 1.917818635702133179e-01 4.410460591316223145e-02
-6.661003082990646362e-02 2.369042038917541504e-01 2.425577640533447266e-01
-7.731352001428604126e-02 2.007704228162765503e-01 -5.965074524283409119e-02
-1.134641841053962708e-01 2.097509503364562988e-01 -1.320038735866546631e-01
-1.032614186406135559e-01 2.181157618761062622e-01 -2.423216998577117920e-01
-4.574711620807647705e-02 1.976084560155868530e-01 -1.184408590197563171e-01
2.263031005859375000e-01 2.324627041816711426e-01 1.700338125228881836e-01
1.931858062744140625e-01 1.890763938426971436e-01 -6.634641438722610474e-02
6.566060334444046021e-02 2.324503809213638306e-01 3.020226061344146729e-01
2.508542314171791077e-02 2.500105202198028564e-01 2.196065783500671387e-01
1.926978230476379395e-01 2.362942695617675781e-01 2.035482525825500488e-01
-1.844903081655502319e-02 2.583271265029907227e-01 1.149197295308113098e-01
9.730405360460281372e-02 1.915132701396942139e-01 1.434315145015716553e-01
1.140716671943664551e-01 2.576869428157806396e-01 -3.733590245246887207e-03
8.832532167434692383e-02 2.592271864414215088e-01 1.988441497087478638e-02
-1.221347525715827942e-01 2.467610239982604980e-01 1.244527325034141541e-01
-3.170877695083618164e-02 1.966401189565658569e-01 7.674170285463333130e-02
3.574217855930328369e-02 2.021617889404296875e-01 2.317131459712982178e-01
-1.863256096839904785e-02 2.595179080963134766e-01 -1.565610766410827637e-01
1.302937269210815430e-01 2.253139317035675049e-01 2.960838675498962402e-01
-1.057821884751319885e-01 2.536423504352569580e-01 -1.549874246120452881e-01
2.137878537178039551e-01 2.431277781724929810e-01 -1.227178797125816345e-01
3.035602159798145294e-02 2.620245814323425293e-01 -2.673915214836597443e-02
-1.366462409496307373e-01 2.459500133991241455e-01 9.558493643999099731e-02
-2.160198986530303955e-03 2.592943608760833740e-01 1.012489721179008484e-01
1.236872002482414246e-01 1.878794878721237183e-01 -1.169549524784088135e-01
-2.105753123760223389e-02 1.936735212802886963e-01 -6.625959277153015137e-02
6.638125330209732056e-02 2.077068537473678589e-01 2.760357856750488281e-01
2.671737074851989746e-01 1.991231441497802734e-01 3.316804766654968262e-03
6.792737543582916260e-02 2.461203783750534058e-01 2.420415282249450684e-01
4.154262691736221313e-02 2.616614699363708496e-01 -8.386168628931045532e-03
-3.971524536609649658e-02 2.564665973186492920e-01 -1.989983022212982178e-01
1.188602894544601440e-01 2.558074593544006348e-01 -1.231755465269088745e-01
1.037234291434288025e-01 2.532732486724853516e-01 1.464720368385314941e-01
-1.060117557644844055e-01 2.108467221260070801e-01 1.071746125817298889e-01
3.307513892650604248e-02 1.919610053300857544e-01 1.032719835638999939e-01
1.828967630863189697e-01 2.105150669813156128e-01 -2.983230948448181152e-01
-7.623923569917678833e-02 2.005381286144256592e-01 -1.225532311946153641e-02
2.076788544654846191e-01 2.436970174312591553e-01 9.034086018800735474e-02
1.488104611635208130e-01 2.508457005023956299e-01 1.167631372809410095e-01
1.725454330444335938e-01 2.057344317436218262e-01 2.450608611106872559e-01
3.478199243545532227e-02 2.578431069850921631e-01 -1.850245893001556396e-01
1.000929623842239380e-01 2.161882817745208740e-01 -3.540880978107452393e-01
-1.072896197438240051e-01 2.370285689830780029e-01 -2.647386193275451660e-01
9.368161112070083618e-02 2.480723112821578979e-01 -2.694122493267059326e-01
-1.279612630605697632e-02 2.541022002696990967e-01 -2.394914627075195312e-01
9.695430845022201538e-02 1.867707371711730957e-01 -5.726774036884307861e-02
1.687125563621520996e-01 2.424088418483734131e-01 1.905706524848937988e-01
-1.168860569596290588e-01 2.546863853931427002e-01 -9.865207970142364502e-02
1.323200911283493042e-01 2.550695538520812988e-01 5.489148944616317749e-02
6.610891968011856079e-02 2.003916651010513306e-01 2.316210269927978516e-01
4.743655771017074585e-02 2.531955540180206299e-01 -2.445761263370513916e-01
1.041454672813415527e-01 2.578132748603820801e-01 -9.352846443653106689e-02
1.535053849220275879e-01 1.937818825244903564e-01 -2.115670740604400635e-01
1.988476514816284180e-01 2.465621232986450195e-01 -1.045756712555885315e-01
1.491649746894836426e-01 2.514097988605499268e-01 -1.554623246192932129e-01
-1.384211778640747070e-01 2.229407131671905518e-01 -1.868470013141632080e-01
1.782081425189971924e-01 1.878585964441299438e-01 -1.030612736940383911e-03
7.154817134141921997e-02 2.446729093790054321e-01 -3.068833947181701660e-01
1.176453679800033569e-01 2.417442053556442261e-01 2.465099394321441650e-01
5.039598047733306885e-02 2.503850460052490234e-01 2.130717337131500244e-01
8.111919462680816650e-02 2.039877772331237793e-01 2.592424154281616211e-01
-1.553693413734436035e-01 2.469719201326370239e-01 -1.232342235743999481e-02
1.550763994455337524e-01 2.025196701288223267e-01 -2.845760881900787354e-01
-7.626504451036453247e-02 2.586581707000732422e-01 4.255334287881851196e-02
1.555491238832473755e-02 2.613068819046020508e-01 4.544298350811004639e-02
-5.959969013929367065e-02 2.537984848022460938e-01 1.497798264026641846e-01
-8.100406080484390259e-02 2.061235457658767700e-01 -1.824812591075897217e-01
3.361663594841957092e-02 1.890595108270645142e-01 -2.545389346778392792e-02
1.104266196489334106e-01 2.571000158786773682e-01 4.914777725934982300e-02
2.789331078529357910e-01 2.044855803251266479e-01 4.015737771987915039e-02
-7.745120674371719360e-02 2.422872036695480347e-01 2.149287462234497070e-01
3.236322104930877686e-02 2.613869011402130127e-01 -9.100946038961410522e-02
1.363546252250671387e-01 1.929267644882202148e-01 1.624229550361633301e-01
9.226703643798828125e-02 1.885281205177307129e-01 -1.304574310779571533e-01
-1.233210340142250061e-01 2.391293942928314209e-01 -2.339569032192230225e-01
2.348389029502868652e-01 1.930927336215972900e-01 1.588651537895202637e-02
4.813721030950546265e-02 2.587765455245971680e-01 9.889622777700424194e-02
-1.089616119861602783e-02 2.500158846378326416e-01 2.139619886875152588e-01
1.453011184930801392e-01 2.530634999275207520e-01 -1.273382306098937988e-01
4.591401666402816772e-02 1.989571154117584229e-01 -2.652432024478912354e-01
-3.163638710975646973e-02 2.618115246295928955e-01 -2.328455448150634766e-03
2.371425032615661621e-01 1.960978657007217407e-01 -1.255670487880706787e-01
-1.538978815078735352e-01 2.192908972501754761e-01 -1.887774094939231873e-02
8.780725300312042236e-03 2.584127187728881836e-01 1.191203072667121887e-01
2.073828876018524170e-01 1.990512609481811523e-01 1.733580231666564941e-01
-6.685181707143783569e-02 2.576256394386291504e-01 -1.542054712772369385e-01
-1.073984578251838684e-01 2.108888477087020874e-01 -1.720455884933471680e-01
-5.669794231653213501e-02 1.982916891574859619e-01 2.827060222625732422e-02
1.422406136989593506e-01 2.359109818935394287e-01 -3.097929656505584717e-01
1.246361657977104187e-01 2.559356689453125000e-01 -1.014734953641891479e-01
8.844090998172760010e-02 1.982370465993881226e-01 -2.705151438713073730e-01
8.910694718360900879e-02 2.108252644538879395e-01 2.902735173702239990e-01
-5.388036370277404785e-04 2.622086405754089355e-01 -9.393487125635147095e-04
-2.490960806608200073e-02 2.113666981458663940e-01 2.445798516273498535e-01
1.092351600527763367e-02 1.955898702144622803e-01 1.396067738533020020e-01
-2.086873352527618408e-02 2.232482731342315674e-01 2.835880219936370850e-01
2.024766206741333008e-01 2.433978468179702759e-01 1.121684387326240540e-01
-1.201817616820335388e-01 2.093146145343780518e-01 6.363920867443084717e-03
1.305966973304748535e-01 1.899640113115310669e-01 1.179008260369300842e-01
1.788855716586112976e-02 2.620434761047363281e-01 4.225678741931915283e-03
1.327220052480697632e-01 1.954603642225265503e-01 1.923522949218750000e-01
-5.945521593093872070e-02 2.526766657829284668e-01 -2.299638688564300537e-01
6.704614311456680298e-02 1.974678635597229004e-01 -2.593204677104949951e-01
-1.227750852704048157e-01 2.124284952878952026e-01 6.772652268409729004e-02
9.777626395225524902e-02 2.062216997146606445e-01 -3.227446973323822021e-01
2.543741762638092041e-01 2.352226823568344116e-01 3.905899077653884888e-02
8.057423681020736694e-02 2.193739414215087891e-01 3.085890710353851318e-01
-4.527518898248672485e-02 1.961543112993240356e-01 -3.250095620751380920e-02
3.634492307901382446e-02 2.601335644721984863e-01 -1.333539783954620361e-01
1.210081130266189575e-01 2.250770926475524902e-01 -3.508096933364868164e-01
3.420058637857437134e-02 2.558295130729675293e-01 -2.167350351810455322e-01
6.546960771083831787e-02 2.601111531257629395e-01 -9.575729817152023315e-02
1.920242607593536377e-01 2.293151170015335083e-01 2.389796972274780273e-01
-1.241521537303924561e-02 1.936999708414077759e-01 5.048280954360961914e-02
1.202530413866043091e-01 1.863972544670104980e-01 -2.306915074586868286e-02
2.233902215957641602e-01 2.424885034561157227e-01 -8.985766768455505371e-02
7.735807448625564575e-03 1.916370838880538940e-01 -9.710281342267990112e-02
1.511707305908203125e-01 1.883348524570465088e-01 7.130663096904754639e-02
1.118653789162635803e-01 2.577230632305145264e-01 -6.412245333194732666e-02
-5.162188410758972168e-02 2.019495517015457153e-01 -1.906411945819854736e-01
2.809227705001831055e-01 2.244483232498168945e-01 4.087783396244049072e-02
2.082734107971191406e-01 2.429652363061904907e-01 -1.462487280368804932e-01
1.680343449115753174e-01 1.884617209434509277e-01 5.710986256599426270e-02
2.342831194400787354e-01 2.380505949258804321e-01 -1.326504647731781006e-01
2.351912856101989746e-01 2.242606431245803833e-01 1.918698847293853760e-01
6.564033776521682739e-02 2.587939500808715820e-01 -1.400443911552429199e-01
-1.083173230290412903e-01 2.153737694025039673e-01 1.450114250183105469e-01
8.334732800722122192e-02 2.582495212554931641e-01 -1.283454895019531250e-01
2.055644243955612183e-02 1.908971369266510010e-01 4.943428188562393188e-02
1.095535531640052795e-01 2.495506703853607178e-01 -2.416334152221679688e-01
1.646199449896812439e-02 2.604734599590301514e-01 -1.347535252571105957e-01
-1.605179905891418457e-01 2.437504231929779053e-01 1.463746279478073120e-02
3.701592981815338135e-02 1.959730535745620728e-01 -2.276025712490081787e-01
1.885777413845062256e-01 2.470689564943313599e-01 -1.336309313774108887e-01
7.691124081611633301e-02 2.284990102052688599e-01 -3.622232079505920410e-01
9.149332344532012939e-02 1.869508922100067139e-01 1.424989104270935059e-02
-8.745845407247543335e-02 2.041093111038208008e-01 5.881264060735702515e-02
-1.045368537306785583e-01 2.488898932933807373e-01 -2.117350399494171143e-01
-8.246586471796035767e-02 2.483451515436172485e-01 1.754301190376281738e-01
1.559091210365295410e-01 2.089922726154327393e-01 2.672725021839141846e-01
9.224441647529602051e-02 2.527832984924316406e-01 -2.200313210487365723e-01
-1.050861924886703491e-02 2.604056298732757568e-01 7.329652458429336548e-02
4.870787635445594788e-02 2.476222068071365356e-01 2.359938025474548340e-01
5.287744477391242981e-02 2.356429547071456909e-01 -3.517474234104156494e-01
1.618992090225219727e-01 1.926704049110412598e-01 -1.917346119880676270e-01
-4.947636276483535767e-02 2.021063715219497681e-01 1.341374814510345459e-01
2.760203480720520020e-01 2.287603765726089478e-01 -2.477373369038105011e-02
-1.767745614051818848e-02 1.981164664030075073e-01 -1.954951882362365723e-01
1.348560303449630737e-01 1.872136741876602173e-01 4.255515336990356445e-02
-1.647233068943023682e-01 2.409645467996597290e-01 -9.360250830650329590e-02
-6.376801431179046631e-02 2.595000565052032471e-01 -1.125394180417060852e-01
1.553353294730186462e-02 1.959832906723022461e-01 -2.083037793636322021e-01
5.285045504570007324e-02 1.905223280191421509e-01 9.618096053600311279e-02
1.235472708940505981e-01 1.878195852041244507e-01 6.785474717617034912e-02
1.448286026716232300e-01 1.890728175640106201e-01 9.436836093664169312e-02
1.392405629158020020e-01 2.531091570854187012e-01 9.131924808025360107e-02
1.819853782653808594e-01 2.143250107765197754e-01 2.626557350158691406e-01
1.271289885044097900e-01 2.538397908210754395e-01 -1.536386907100677490e-01
1.970928907394409180e-01 2.429497539997100830e-01 1.327999234199523926e-01
6.173333525657653809e-02 1.880817413330078125e-01 -7.933869957923889160e-02
-1.354705095291137695e-01 2.173983454704284668e-01 8.071114122867584229e-02
1.545740067958831787e-01 2.293071448802947998e-01 -3.223508596420288086e-01
-1.714458316564559937e-02 2.622005045413970947e-01 -5.083431303501129150e-02
-5.146682262420654297e-02 2.427016049623489380e-01 -3.026757538318634033e-01
1.855125725269317627e-01 2.474187910556793213e-01 8.956530690193176270e-02
1.812754869461059570e-01 2.380926012992858887e-01 -2.540280818939208984e-01
2.500682473182678223e-01 2.297668904066085815e-01 -1.704827249050140381e-01
-1.042756661772727966e-01 2.468932867050170898e-01 1.560326516628265381e-01
-2.915509045124053955e-03 2.619403898715972900e-01 -8.241734653711318970e-02
2.776895463466644287e-01 2.222986519336700439e-01 -1.173500195145606995e-01
2.246373295783996582e-01 2.249839007854461670e-01 2.078823745250701904e-01
1.623550057411193848e-01 1.871238946914672852e-01 -1.162454113364219666e-02
7.343048602342605591e-02 2.496768534183502197e-01 -2.677963972091674805e-01
1.113726943731307983e-01 1.868027150630950928e-01 -7.184001058340072632e-02
1.735983490943908691e-01 2.515273392200469971e-01 -4.098511859774589539e-02
-2.281997352838516235e-03 1.934241652488708496e-01 7.184862345457077026e-02
1.123421862721443176e-01 1.978956460952758789e-01 2.178538441658020020e-01
1.864589750766754150e-01 2.002793550491333008e-01 -2.470191121101379395e-01
2.365625500679016113e-01 2.384593188762664795e-01 7.358979433774948120e-02
2.337132990360260010e-01 2.030213475227355957e-01 1.647616028785705566e-01
9.152504801750183105e-02 2.543798685073852539e-01 -1.978894770145416260e-01
-7.218683511018753052e-02 2.103217989206314087e-01 1.783390939235687256e-01
3.318602964282035828e-02 2.475128769874572754e-01 -2.982284724712371826e-01
2.124168723821640015e-02 2.403087019920349121e-01 -3.370025753974914551e-01
-3.293057084083557129e-01 2.655412554740905762e-01 3.594269603490829468e-02
-5.468668937683105469e-01 2.500430941581726074e-01 1.846012175083160400e-01
-1.876289248466491699e-01 2.467144578695297241e-01 4.656333923339843750e-01
-5.351371765136718750e-01 2.137311100959777832e-01 2.144801020622253418e-01
-2.801324427127838135e-01 2.654162943363189697e-01 3.995715975761413574e-01
-4.639624357223510742e-01 2.651851177215576172e-01 -1.245203763246536255e-01
-5.204919576644897461e-01 2.053610533475875854e-01 1.548756211996078491e-01
-5.256335735321044922e-01 2.632273435592651367e-01 3.246603161096572876e-02
-4.906293153762817383e-01 2.672012746334075928e-01 -9.819313883781433105e-03
-3.709814846515655518e-01 2.656518518924713135e-01 -4.027336835861206055e-02
-2.521599233150482178e-01 2.109780907630920410e-01 2.192561924457550049e-01
-3.080967068672180176e-01 2.522915005683898926e-01 5.676071643829345703e-01
-6.015580892562866211e-01 2.154235690832138062e-01 -2.065800577402114868e-01
-4.516031742095947266e-01 2.691797018051147461e-01 -8.519187569618225098e-03
-2.225139290094375610e-01 2.200031876564025879e-01 5.199275016784667969e-01
-4.634051024913787842e-01 2.051001042127609253e-01 2.890416979789733887e-01
-4.046397209167480469e-01 2.677258551120758057e-01 3.011543750762939453e-01
-4.778535366058349609e-01 1.985392719507217407e-01 -1.822388172149658203e-02
-3.729591965675354004e-01 2.529339492321014404e-01 -1.714579313993453979e-01
-4.299947023391723633e-01 2.474917769432067871e-01 4.632863402366638184e-01
-3.711319863796234131e-01 2.227187752723693848e-01 5.455182194709777832e-01
-5.562170743942260742e-01 2.057002186775207520e-01 -1.410656422376632690e-01
-3.672737181186676025e-01 2.676071524620056152e-01 3.522826731204986572e-01
-5.966125726699829102e-01 2.166334837675094604e-01 1.025083661079406738e-02
-2.773120999336242676e-01 2.667869925498962402e-01 2.712382078170776367e-01
-2.031968086957931519e-01 2.265966236591339111e-01 5.344136357307434082e-01
-2.702414095401763916e-01 2.086245566606521606e-01 4.302174448966979980e-01
-3.388883769512176514e-01 2.535148262977600098e-01 -1.114985644817352295e-01
-3.278315663337707520e-01 2.667748034000396729e-01 6.375189125537872314e-02
-3.494251668453216553e-01 2.493468523025512695e-01 5.552707314491271973e-01
-2.516691982746124268e-01 2.102707177400588989e-01 2.437860071659088135e-01
-5.154400467872619629e-01 2.139793634414672852e-01 2.676982581615447998e-01
-3.724952042102813721e-01 2.463536411523818970e-01 5.446383953094482422e-01
-3.285324275493621826e-01 2.093395590782165527e-01 -2.024592459201812744e-02
-3.694834709167480469e-01 2.692175805568695068e-01 3.102803230285644531e-01
-4.201160669326782227e-01 1.974463164806365967e-01 5.172794312238693237e-02
-4.833217859268188477e-01 1.993029266595840454e-01 1.127952337265014648e-01
-3.354342877864837646e-01 2.596470415592193604e-01 4.935150146484375000e-01
-4.530810117721557617e-01 2.603993713855743408e-01 3.264688253402709961e-01
-4.963544905185699463e-01 2.249793112277984619e-01 3.629812598228454590e-01
-3.417372405529022217e-01 2.708844542503356934e-01 2.039974629878997803e-01
-3.484102785587310791e-01 2.629882991313934326e-01 -4.136417806148529053e-02
-3.476988673210144043e-01 1.991337835788726807e-01 1.968407183885574341e-01
-4.440928697586059570e-01 1.975405216217041016e-01 1.350658833980560303e-01
-4.109485745429992676e-01 2.595528066158294678e-01 -1.689727753400802612e-01
-4.213160872459411621e-01 2.101226150989532471e-01 4.116927385330200195e-01
-3.028054833412170410e-01 2.232574671506881714e-01 -6.613720953464508057e-02
-4.844938516616821289e-01 2.315800935029983521e-01 3.966901898384094238e-01
-2.809499502182006836e-01 2.049106359481811523e-01 2.972599864006042480e-01
-2.830712199211120605e-01 2.264526486396789551e-01 6.081271767616271973e-01
-5.017136931419372559e-01 2.615710496902465820e-01 1.861649453639984131e-01
-5.125039815902709961e-01 2.052852213382720947e-01 -1.953599601984024048e-01
-3.858386278152465820e-01 2.036065161228179932e-01 3.732377886772155762e-01
-5.887404680252075195e-01 2.184825986623764038e-01 -2.860621213912963867e-01
-5.053746700286865234e-01 2.540971934795379639e-01 -2.734535932540893555e-01
-3.745844960212707520e-01 2.697670459747314453e-01 2.882189750671386719e-01
-3.902876079082489014e-01 2.131361067295074463e-01 -1.744471639394760132e-01
-5.920181870460510254e-01 2.504455149173736572e-01 -1.963299363851547241e-01
-2.379564940929412842e-01 2.463746815919876099e-01 9.790390729904174805e-02
-3.834539353847503662e-01 2.033524513244628906e-01 -5.292488634586334229e-02
-2.121651917695999146e-01 2.268726378679275513e-01 2.017655074596405029e-01
-2.600559890270233154e-01 2.229548692703247070e-01 5.891522765159606934e-01
-3.079155683517456055e-01 2.687759995460510254e-01 3.169600367546081543e-01
-5.239797830581665039e-01 2.015733867883682251e-01 -7.729630172252655029e-02
-5.031871199607849121e-01 2.530167996883392334e-01 2.847609519958496094e-01
-2.594701647758483887e-01 2.566930949687957764e-01 5.322719216346740723e-01
-3.955493271350860596e-01 2.158299982547760010e-01 4.863270521163940430e-01
-5.818924307823181152e-01 2.107512950897216797e-01 -6.453663110733032227e-03
-2.828409671783447266e-01 2.668288350105285645e-01 3.497364521026611328e-01
-5.009927153587341309e-01 2.649154663085937500e-01 -1.011833101511001587e-01
-5.418778657913208008e-01 2.029945254325866699e-01 -5.526247620582580566e-02
-3.319046497344970703e-01 2.544296979904174805e-01 -9.242604672908782959e-02
-4.919641017913818359e-01 2.667789161205291748e-01 7.094524800777435303e-02
-3.623326122760772705e-01 1.992118209600448608e-01 2.694809138774871826e-01
-5.795068740844726562e-01 2.546653747558593750e-01 -5.835734307765960693e-02
-5.369858741760253906e-01 2.097805738449096680e-01 1.689676046371459961e-01
-2.908723354339599609e-01 2.652014493942260742e-01 4.186533689498901367e-01
-4.012212753295898438e-01 2.714209854602813721e-01 1.507498919963836670e-01
-4.840312302112579346e-01 2.046138197183609009e-01 -1.830217093229293823e-01
-1.913257092237472534e-01 2.299717068672180176e-01 3.004075288772583008e-01
-5.888143777847290039e-01 2.166914045810699463e-01 5.144226551055908203e-02
-3.723609745502471924e-01 1.979676783084869385e-01 1.714369505643844604e-01
-3.381417691707611084e-01 2.000329345464706421e-01 2.697962522506713867e-01
-4.583284854888916016e-01 2.659038901329040527e-01 2.273031771183013916e-01
-5.126495957374572754e-01 2.504825890064239502e-01 -3.021388053894042969e-01
-4.807324707508087158e-01 2.535369396209716797e-01 -2.727912664413452148e-01
-2.580620348453521729e-01 2.181267440319061279e-01 5.533746480941772461e-01
-4.289054870605468750e-01 2.707163691520690918e-01 1.275190562009811401e-01
-2.207746505737304688e-01 2.575985789299011230e-01 2.975933551788330078e-01
-3.266068100929260254e-01 2.010756582021713257e-01 1.656272709369659424e-01
-5.978538990020751953e-01 2.142278403043746948e-01 -4.044194519519805908e-02
-2.399532198905944824e-01 2.160925567150115967e-01 1.832033693790435791e-01
-3.326833248138427734e-01 2.621768116950988770e-01 -2.157163619995117188e-02
-4.415339827537536621e-01 2.516171634197235107e-01 4.230482578277587891e-01
-5.151140689849853516e-01 2.647929787635803223e-01 -4.942572116851806641e-02
-2.936085164546966553e-01 2.547877132892608643e-01 -7.870569825172424316e-03
-4.789157211780548096e-01 2.108443081378936768e-01 3.224432766437530518e-01
-3.297320604324340820e-01 2.699779570102691650e-01 1.654884070158004761e-01
-2.010805010795593262e-01 2.246493250131607056e-01 5.060573816299438477e-01
-2.523592710494995117e-01 2.635781764984130859e-01 2.758905291557312012e-01
-3.070793747901916504e-01 2.628799378871917725e-01 4.558146744966506958e-02
-2.167433798313140869e-01 2.570903897285461426e-01 3.187158107757568359e-01
-5.074142217636108398e-01 2.198530584573745728e-01 -3.271154165267944336e-01
-2.934598028659820557e-01 2.501246035099029541e-01 -3.716446459293365479e-02
-5.753530859947204590e-01 2.085061967372894287e-01 -1.532744616270065308e-01
-3.604020476341247559e-01 2.189514487981796265e-01 -1.621272414922714233e-01
-4.706060588359832764e-01 2.631300985813140869e-01 2.484710216522216797e-01
-1.950190216302871704e-01 2.370486110448837280e-01 2.524076700210571289e-01
-5.460115075111389160e-01 2.426338493824005127e-01 -3.411474227905273438e-01
-4.416030347347259521e-01 2.684355378150939941e-01 2.054224312305450439e-01
-3.385157585144042969e-01 2.699822485446929932e-01 1.344681978225708008e-01
-3.885701894760131836e-01 1.974756568670272827e-01 1.403500586748123169e-01
-5.060908794403076172e-01 2.001635283231735229e-01 5.551035702228546143e-02
-5.202599763870239258e-01 2.595418691635131836e-01 1.589332222938537598e-01
-4.041927456855773926e-01 2.463934719562530518e-01 5.056263804435729980e-01
-1.914149820804595947e-01 2.266052365303039551e-01 4.760318398475646973e-01
-3.540416359901428223e-01 2.265162616968154907e-01 5.729107260704040527e-01
-2.721284031867980957e-01 2.604142725467681885e-01 4.933595657348632812e-01
-3.551665842533111572e-01 2.342809438705444336e-01 -1.933702379465103149e-01
-4.554947316646575928e-01 2.690145969390869141e-01 1.363516747951507568e-01
-3.943935036659240723e-01 2.646241188049316406e-01 3.726693391799926758e-01
-3.549417555332183838e-01 2.705590128898620605e-01 1.178148761391639709e-01
-2.292805314064025879e-01 2.600666582584381104e-01 3.945683836936950684e-01
-2.748179137706756592e-01 2.079137712717056274e-01 1.774719059467315674e-01
-5.642279386520385742e-01 2.515967786312103271e-01 1.049913167953491211e-01
-2.789180278778076172e-01 2.057537436485290527e-01 2.301388531923294067e-01
-3.539954423904418945e-01 2.110527306795120239e-01 -9.364856779575347900e-02
-6.185547113418579102e-01 2.221186161041259766e-01 -7.870107889175415039e-02
-3.575716316699981689e-01 2.018925249576568604e-01 3.113125264644622803e-02
-2.164166718721389771e-01 2.373782992362976074e-01 1.537193059921264648e-01
-2.597241997718811035e-01 2.481052130460739136e-01 5.966557860374450684e-01
-5.997311472892761230e-01 2.248463928699493408e-01 -3.054437041282653809e-01
-3.377466797828674316e-01 2.023746073246002197e-01 7.459535449743270874e-02
-5.652081966400146484e-01 2.550190985202789307e-01 4.609160870313644409e-02
-3.859016299247741699e-01 2.045872807502746582e-01 -7.681125402450561523e-02
-4.351070821285247803e-01 2.529551386833190918e-01 -2.462766617536544800e-01
-3.298878371715545654e-01 2.012683451175689697e-01 1.395521312952041626e-01
-5.881839990615844727e-01 2.436868548393249512e-01 -2.968273162841796875e-01
-2.408312261104583740e-01 2.605937421321868896e-01 4.408053159713745117e-01
-2.920326590538024902e-01 2.643094658851623535e-01 1.117788255214691162e-01
-2.430794686079025269e-01 2.602714300155639648e-01 2.224993705749511719e-01
-3.260102868080139160e-01 2.633379101753234863e-01 7.936343550682067871e-03
-3.126897513866424561e-01 2.070960104465484619e-01 5.309135466814041138e-02
-5.370771884918212891e-01 2.606758475303649902e-01 6.035834550857543945e-02
-3.526780307292938232e-01 1.998156905174255371e-01 1.104836612939834595e-01
-4.088389575481414795e-01 2.119813263416290283e-01 4.435703158378601074e-01
-5.498525500297546387e-01 2.599357068538665771e-01 -3.252968192100524902e-03
-5.334659218788146973e-01 2.035245150327682495e-01 -1.351107805967330933e-01
-3.945558667182922363e-01 2.260350286960601807e-01 -2.430081218481063843e-01
-2.574143409729003906e-01 2.245528101921081543e-01 4.759295284748077393e-02
-2.558418214321136475e-01 2.536376714706420898e-01 8.616486191749572754e-02
-4.274857044219970703e-01 2.068739682435989380e-01 3.701171875000000000e-01
-5.608276128768920898e-01 2.581795156002044678e-01 -2.200034260749816895e-02
-4.346938729286193848e-01 1.989151388406753540e-01 -3.058986365795135498e-02
-2.477556318044662476e-01 2.547077536582946777e-01 1.223052367568016052e-01
-2.640565037727355957e-01 2.537035942077636719e-01 5.623040199279785156e-01
-2.909249067306518555e-01 2.042092680931091309e-01 3.368165493011474609e-01
-2.216236293315887451e-01 2.503722310066223145e-01 1.827097535133361816e-01
-2.798531055450439453e-01 2.608844935894012451e-01 9.189549088478088379e-02
-3.284033536911010742e-01 2.619555890560150146e-01 4.716797471046447754e-01
-3.800711333751678467e-01 2.488303184509277344e-01 5.260728597640991211e-01
-4.069070219993591309e-01 2.061593085527420044e-01 3.881308436393737793e-01
-2.852825522422790527e-01 2.052718102931976318e-01 2.074334621429443359e-01
-5.060903429985046387e-01 2.652556002140045166e-01 -7.199653983116149902e-02
-5.153600573539733887e-01 2.435161620378494263e-01 -3.391330838203430176e-01
-3.358975052833557129e-01 2.684713006019592285e-01 8.621985465288162231e-02
-3.342132866382598877e-01 2.042191475629806519e-01 4.316881299018859863e-02
-5.361320972442626953e-01 2.030583471059799194e-01 2.954428642988204956e-02
-3.089255690574645996e-01 2.682576179504394531e-01 3.442096710205078125e-01
-4.242445230484008789e-01 2.705177366733551025e-01 1.649033874273300171e-01
-5.981246829032897949e-01 2.494926601648330688e-01 -6.642709672451019287e-02
-4.185969233512878418e-01 2.632332146167755127e-01 3.552356064319610596e-01
-5.954704284667968750e-01 2.244939059019088745e-01 7.648050785064697266e-02
-4.370546340942382812e-01 2.241585552692413330e-01 4.673465490341186523e-01
-4.486512541770935059e-01 2.226175367832183838e-01 -2.974876165390014648e-01
-2.689087986946105957e-01 2.659968733787536621e-01 3.011002540588378906e-01
-4.283128678798675537e-01 2.637742459774017334e-01 3.304274678230285645e-01
-4.632060527801513672e-01 2.124864757061004639e-01 -2.557792663574218750e-01
-1.991784423589706421e-01 2.347363531589508057e-01 2.324022650718688965e-01
-5.558778047561645508e-01 2.066313773393630981e-01 -1.725561469793319702e-01
-4.717110395431518555e-01 2.661105692386627197e-01 -1.008811146020889282e-01
-4.398323893547058105e-01 2.634419798851013184e-01 -1.470504552125930786e-01
-5.610082149505615234e-01 2.584564983844757080e-01 -4.511283338069915771e-02
-3.814997971057891846e-01 2.481235861778259277e-01 -2.082876116037368774e-01
-5.935817360877990723e-01 2.120412886142730713e-01 -6.972019374370574951e-02
-4.876903593540191650e-01 2.576933503150939941e-01 -2.367724627256393433e-01
-2.471030950546264648e-01 2.203701287508010864e-01 1.081709042191505432e-01
-5.633415579795837402e-01 2.534342110157012939e-01 -2.379847615957260132e-01
-5.330246686935424805e-01 2.048456817865371704e-01 -1.721709519624710083e-01
-6.252018213272094727e-01 2.368064820766448975e-01 -1.188838332891464233e-01
-3.040656745433807373e-01 2.681230008602142334e-01 1.764698624610900879e-01
-4.555032253265380859e-01 2.524796128273010254e-01 3.923555016517639160e-01
-4.141761958599090576e-01 2.711725234985351562e-01 9.345107525587081909e-02
-2.292390316724777222e-01 2.167094349861145020e-01 4.897760152816772461e-01
-5.885867476463317871e-01 2.352126240730285645e-01 1.143233776092529297e-01
-5.602649450302124023e-01 2.582154870033264160e-01 -1.289532929658889771e-01
-5.726538896560668945e-01 2.556799650192260742e-01 -1.528821736574172974e-01
-5.567859411239624023e-01 2.231410294771194458e-01 2.077995836734771729e-01
-5.117743611335754395e-01 2.275767922401428223e-01 3.350676000118255615e-01
-5.500037074089050293e-01 2.040320485830307007e-01 -7.930639386177062988e-02
-3.454976677894592285e-01 2.655300796031951904e-01 1.898065209388732910e-03
-5.821400880813598633e-01 2.510471642017364502e-01 2.495066821575164795e-02
-2.074989229440689087e-01 2.553930878639221191e-01 3.918471932411193848e-01
-2.832400202751159668e-01 2.143021821975708008e-01 4.646336287260055542e-02
-4.870922565460205078e-01 2.343417555093765259e-01 -3.457971811294555664e-01
-4.112092256546020508e-01 2.541876733303070068e-01 -2.136481553316116333e-01
-5.259956717491149902e-01 2.045157849788665771e-01 1.198753267526626587e-01
-5.190130472183227539e-01 2.021674960851669312e-01 8.366546034812927246e-02
-5.733350515365600586e-01 2.338613718748092651e-01 1.710399389266967773e-01
-5.210223793983459473e-01 2.140714973211288452e-01 -2.953801155090332031e-01
-3.265428543090820312e-01 2.078401744365692139e-01 3.914460539817810059e-03
-4.534281790256500244e-01 2.493789792060852051e-01 -2.825192213058471680e-01
-2.298343181610107422e-01 2.592874169349670410e-01 2.786376178264617920e-01
-3.781385421752929688e-01 1.985337883234024048e-01 8.588518202304840088e-02
-5.552004575729370117e-01 2.560859620571136475e-01 -2.101173549890518188e-01
-4.773281812667846680e-01 2.598401308059692383e-01 -2.102061659097671509e-01
-5.237076282501220703e-01 2.357865124940872192e-01 -3.590933680534362793e-01
-5.063515901565551758e-01 2.550204694271087646e-01 2.587020695209503174e-01
-4.953751564025878906e-01 1.993315517902374268e-01 -3.234350681304931641e-02
-3.602384924888610840e-01 2.622798979282379150e-01 4.440305829048156738e-01
-5.486719608306884766e-01 2.582558989524841309e-01 -1.795770376920700073e-01
-4.058577716350555420e-01 2.624515891075134277e-01 -1.311771124601364136e-01
-3.809834718704223633e-01 1.988016813993453979e-01 6.543165445327758789e-02
-1.808112412691116333e-01 2.425235509872436523e-01 3.955999016761779785e-01
-2.802519500255584717e-01 2.669076621532440186e-01 2.496641874313354492e-01
-5.295659303665161133e-01 2.023608982563018799e-01 -9.929072856903076172e-02
-3.021185994148254395e-01 2.074276655912399292e-01 8.031016588211059570e-02
-3.509808778762817383e-01 2.014793306589126587e-01 5.911911278963088989e-02
-4.482749104499816895e-01 2.076356261968612671e-01 3.467695116996765137e-01
-4.231493771076202393e-01 1.970489621162414551e-01 1.238913983106613159e-01
-6.042417883872985840e-01 2.354246973991394043e-01 4.599195718765258789e-02
-2.902976274490356445e-01 2.070671916007995605e-01 4.303460717201232910e-01
-2.409601211547851562e-01 2.228179126977920532e-01 5.752743482589721680e-01
-4.632985591888427734e-01 2.010679841041564941e-01 2.190643250942230225e-01
-4.152380228042602539e-01 2.702670097351074219e-01 2.592492103576660156e-02
-4.156945943832397461e-01 1.989025026559829712e-01 2.414208203554153442e-01
-3.394879698753356934e-01 1.997112184762954712e-01 2.441136538982391357e-01
-2.061890810728073120e-01 2.200146168470382690e-01 3.328251242637634277e-01
-5.675674676895141602e-01 2.157317698001861572e-01 1.291969716548919678e-01
-3.087382316589355469e-01 2.203696519136428833e-01 5.764535665512084961e-01
-4.748589396476745605e-01 2.673740684986114502e-01 1.316322982311248779e-01
-2.953584790229797363e-01 2.163681387901306152e-01 5.521627068519592285e-01
-3.025341629981994629e-01 2.672871053218841553e-01 1.509938091039657593e-01
