1.489228010177612305e-01 3.723996505141258240e-02 3.621701896190643311e-02
1.281341165304183960e-02 1.191535815596580505e-01 -2.685271203517913818e-03
1.199295446276664734e-01 2.652377635240554810e-02 -3.515871986746788025e-02
8.510693907737731934e-03 1.010075807571411133e-01 1.578183099627494812e-02
6.806071102619171143e-02 3.922001272439956665e-02 -3.579113632440567017e-02
1.459974944591522217e-01 1.094662249088287354e-01 -4.550774395465850830e-02
9.096961468458175659e-02 1.761513203382492065e-02 8.349657058715820312e-03
2.200969755649566650e-01 8.686812222003936768e-02 -3.592664003372192383e-02
7.499385625123977661e-02 1.301539093255996704e-01 2.030633017420768738e-02
8.164669573307037354e-02 3.146002814173698425e-02 -3.306891396641731262e-02
1.857610046863555908e-01 9.678830951452255249e-02 3.552288189530372620e-02
8.055122196674346924e-02 1.368328928947448730e-01 1.126639917492866516e-02
1.625285148620605469e-01 1.200993657112121582e-01 -3.601516038179397583e-02
-2.951726317405700684e-03 6.774580478668212891e-02 -2.785552758723497391e-03
1.123500913381576538e-01 3.245512768626213074e-02 3.225896507501602173e-02
2.052286565303802490e-01 2.507781609892845154e-02 -2.282968536019325256e-02
2.345502078533172607e-01 1.025291159749031067e-01 6.003332324326038361e-03
3.788756579160690308e-02 3.497428447008132935e-02 -1.339778583496809006e-02
1.084095388650894165e-01 1.680061966180801392e-02 1.378238666802644730e-02
2.411810159683227539e-01 3.576165065169334412e-02 -3.753393189981579781e-03
1.670848727226257324e-01 8.444467186927795410e-02 4.212703183293342590e-02
1.215844750404357910e-01 5.826705694198608398e-02 -5.143589153885841370e-02
1.464195698499679565e-01 6.380523741245269775e-02 -5.208912491798400879e-02
2.430715858936309814e-01 7.305630296468734741e-02 -2.626633644104003906e-02
-4.674687981605529785e-03 7.537224888801574707e-02 3.539161756634712219e-03
1.006030589342117310e-01 1.105992496013641357e-01 -4.640031605958938599e-02
8.742642402648925781e-02 9.040798991918563843e-02 -5.103885754942893982e-02
1.001813262701034546e-01 1.399259269237518311e-01 6.762518547475337982e-03
1.636785268783569336e-01 1.924813538789749146e-02 2.035241946578025818e-02
1.146627739071846008e-01 1.379646211862564087e-01 -2.135475352406501770e-02
1.161479651927947998e-01 8.254449069499969482e-02 4.507863894104957581e-02
9.960637241601943970e-02 1.130873113870620728e-01 3.601555898785591125e-02
2.407314479351043701e-01 5.910293757915496826e-02 -2.723567932844161987e-02
1.362303197383880615e-01 1.162339672446250916e-01 3.370773419737815857e-02
2.478252947330474854e-01 7.215320318937301636e-02 1.500913780182600021e-02
2.339468747377395630e-01 3.428579866886138916e-02 -1.551375072449445724e-02
1.574646234512329102e-01 1.367427706718444824e-01 -6.389797665178775787e-03
1.613076031208038330e-01 7.286665588617324829e-02 4.373862221837043762e-02
1.962845474481582642e-01 1.120529919862747192e-01 -3.204680606722831726e-02
2.890673279762268066e-02 4.739708453416824341e-02 -2.473355084657669067e-02
8.248763531446456909e-02 5.422388017177581787e-02 -4.680927842855453491e-02
1.929323375225067139e-01 8.065352588891983032e-02 3.803112730383872986e-02
1.119153127074241638e-01 4.001672193408012390e-02 -4.408990591764450073e-02
1.222868263721466064e-02 1.103308051824569702e-01 -2.205857262015342712e-02
9.125308692455291748e-02 3.998925909399986267e-02 -4.155486449599266052e-02
2.057002335786819458e-01 4.229995980858802795e-02 -3.668127208948135376e-02
2.246195971965789795e-01 7.373996078968048096e-02 2.885963395237922668e-02
3.382059931755065918e-02 1.159693598747253418e-01 2.095533534884452820e-02
1.192198693752288818e-02 7.572178542613983154e-02 2.094530686736106873e-02
1.138016209006309509e-01 8.605416864156723022e-02 -5.309794843196868896e-02
8.630670607089996338e-02 1.407732665538787842e-01 1.910841092467308044e-04
1.837771385908126831e-01 1.706728711724281311e-02 -1.872988417744636536e-02
1.150692403316497803e-01 5.405111610889434814e-02 4.246836528182029724e-02
2.155179381370544434e-01 8.781845867633819580e-02 2.953422814607620239e-02
2.509623765945434570e-02 5.808767676353454590e-02 -3.049321100115776062e-02
1.665735840797424316e-01 1.124310791492462158e-01 -4.069821164011955261e-02
2.178710699081420898e-02 7.447119057178497314e-02 -3.474975004792213440e-02
1.265621185302734375e-02 4.961917176842689514e-02 -6.347054615616798401e-03
1.012358888983726501e-01 1.310160011053085327e-01 2.228805795311927795e-02
1.141118034720420837e-01 1.403243467211723328e-02 -1.543344184756278992e-02
2.308723628520965576e-01 9.599550068378448486e-02 1.733503490686416626e-02
1.806408464908599854e-01 6.627107411623001099e-02 4.100188985466957092e-02
7.456713914871215820e-02 1.999808847904205322e-02 1.859230455011129379e-03
1.153620779514312744e-01 3.842847794294357300e-02 3.625293821096420288e-02
1.960283368825912476e-01 9.158398211002349854e-02 3.473568707704544067e-02
1.330620050430297852e-01 1.272318214178085327e-01 2.518011629581451416e-02
9.037034213542938232e-02 4.969589412212371826e-02 -4.627601057291030884e-02
8.077603578567504883e-02 6.129727140069007874e-02 4.069304466247558594e-02
1.606395840644836426e-01 1.987813413143157959e-02 -2.805115655064582825e-02
2.395947724580764771e-01 7.018692046403884888e-02 2.143939957022666931e-02
2.137789130210876465e-01 1.179948300123214722e-01 -6.054750178009271622e-03
1.484252512454986572e-01 9.979201853275299072e-02 -4.908229038119316101e-02
1.382288634777069092e-01 5.130375921726226807e-02 -4.957791417837142944e-02
-2.642750740051269531e-03 1.028601527214050293e-01 -2.974958624690771103e-04
1.289840787649154663e-01 8.397424221038818359e-02 -5.329369381070137024e-02
2.346054017543792725e-01 7.645580917596817017e-02 -3.122431412339210510e-02
9.625259041786193848e-02 1.904792338609695435e-02 1.422914583235979080e-02
2.085287868976593018e-01 6.621890515089035034e-02 -4.224475473165512085e-02
5.143859237432479858e-02 6.650622189044952393e-02 3.557030111551284790e-02
2.383894473314285278e-02 1.154217123985290527e-01 1.628497615456581116e-02
1.418886184692382812e-01 1.085713505744934082e-02 -9.591855108737945557e-03
1.300183683633804321e-02 6.295441836118698120e-02 -2.538627386093139648e-02
2.010325044393539429e-01 1.100841760635375977e-01 2.298545092344284058e-02
1.244219914078712463e-01 1.334411799907684326e-01 1.862465590238571167e-02
1.374593079090118408e-01 8.513246476650238037e-02 4.460022225975990295e-02
1.877386718988418579e-01 3.086827322840690613e-02 -3.424255922436714172e-02
1.692883968353271484e-01 1.295471489429473877e-01 1.316131930798292160e-02
5.682033300399780273e-02 1.108752638101577759e-01 3.132711350917816162e-02
2.524741888046264648e-01 5.454384535551071167e-02 -1.442394219338893890e-02
3.427751362323760986e-02 1.294535398483276367e-01 1.879441551864147186e-03
1.006953269243240356e-01 9.441967308521270752e-02 4.270430281758308411e-02
1.341139674186706543e-01 2.303439378738403320e-02 2.582661807537078857e-02
9.875377267599105835e-02 1.057794168591499329e-01 3.922583535313606262e-02
1.204211264848709106e-01 7.561129331588745117e-02 -5.358977243304252625e-02
2.556937336921691895e-01 6.676600873470306396e-02 5.838604643940925598e-03
2.371362298727035522e-01 8.342821896076202393e-02 2.004284411668777466e-02
1.617879271507263184e-01 7.550452649593353271e-02 -5.157648772001266479e-02
8.042410016059875488e-02 7.362961769104003906e-02 4.234860464930534363e-02
8.902944624423980713e-02 1.280889958143234253e-01 2.453599497675895691e-02
1.070886850357055664e-01 1.050305068492889404e-01 3.988487273454666138e-02
1.429488211870193481e-01 5.904988199472427368e-02 4.381745308637619019e-02
2.191779613494873047e-01 1.000652909278869629e-01 -3.010386973619461060e-02
6.195081770420074463e-02 1.375182569026947021e-01 -1.047615334391593933e-02
6.519042700529098511e-02 1.096769496798515320e-01 3.363237529993057251e-02
1.683929711580276489e-01 9.620319306850433350e-02 3.913650289177894592e-02
9.586525708436965942e-02 1.037074923515319824e-01 -4.875573515892028809e-02
1.785719990730285645e-01 9.236665070056915283e-02 -4.682563617825508118e-02
1.350175887346267700e-01 7.884050160646438599e-02 -5.342035740613937378e-02
3.527993708848953247e-02 7.749622315168380737e-02 3.208869323134422302e-02
5.148708820343017578e-02 1.346388012170791626e-01 -1.302003115415573120e-02
2.055309414863586426e-01 1.124534755945205688e-01 -2.714391052722930908e-02
1.539212763309478760e-01 9.395628422498703003e-02 4.168679937720298767e-02
1.379220634698867798e-01 7.155174762010574341e-02 4.527033492922782898e-02
6.340262293815612793e-02 1.379314810037612915e-01 -4.246537573635578156e-04
8.939720690250396729e-02 1.224951446056365967e-01 -3.887351229786872864e-02
1.012590676546096802e-01 4.912905767560005188e-02 3.980766236782073975e-02
1.424861848354339600e-01 1.170272827148437500e-01 -4.166683182120323181e-02
1.825583279132843018e-01 1.059750318527221680e-01 3.203846514225006104e-02
1.599915474653244019e-01 1.192808896303176880e-02 -1.243738364428281784e-02
2.516027688980102539e-01 7.773794233798980713e-02 9.094205684959888458e-03
1.564837545156478882e-01 4.830882698297500610e-02 4.043588414788246155e-02
8.823700249195098877e-02 3.416746854782104492e-02 -3.697843104600906372e-02
3.931955248117446899e-02 1.284913122653961182e-01 9.285391308367252350e-03
5.264332145452499390e-02 1.307075023651123047e-01 1.288352627307176590e-02
2.216462790966033936e-01 6.151511520147323608e-02 -3.727853298187255859e-02
1.448838412761688232e-01 1.138477772474288940e-02 5.791349336504936218e-03
1.967652738094329834e-01 1.255137771368026733e-01 -6.925744004547595978e-03
6.435111165046691895e-03 1.142806857824325562e-01 -4.482376854866743088e-03
1.887770295143127441e-01 1.852484792470932007e-02 1.326369773596525192e-02
9.916532039642333984e-02 1.417692303657531738e-01 -4.340638406574726105e-03
1.920171529054641724e-01 2.071978896856307983e-02 -2.212942019104957581e-02
1.426562070846557617e-01 2.494113519787788391e-02 2.778894081711769104e-02
6.861043721437454224e-02 4.936117306351661682e-02 3.437801077961921692e-02
2.061177492141723633e-01 9.740662574768066406e-02 2.920597419142723083e-02
2.164155840873718262e-01 1.152622848749160767e-01 4.361836239695549011e-03
1.092659235000610352e-01 1.805203780531883240e-02 -2.307914197444915771e-02
2.172357887029647827e-01 2.527679502964019775e-02 9.155242703855037689e-03
1.405072212219238281e-02 9.433959424495697021e-02 -3.078101202845573425e-02
2.148520499467849731e-01 5.252381414175033569e-02 3.066046163439750671e-02
9.938218444585800171e-02 3.031591698527336121e-02 -3.590236604213714600e-02
1.414579749107360840e-01 9.485019743442535400e-02 4.249641671776771545e-02
-8.375383913516998291e-02 8.332343399524688721e-02 -5.677597597241401672e-02
-5.165602266788482666e-02 4.742538556456565857e-02 -5.238564684987068176e-02
-1.185498535633087158e-01 1.361716836690902710e-01 4.707929678261280060e-03
-8.002541959285736084e-02 3.576036170125007629e-02 -4.395275190472602844e-02
-2.115656435489654541e-02 8.615949004888534546e-02 -7.296799682080745697e-03
-4.158019647002220154e-02 1.014622896909713745e-01 -3.291891142725944519e-02
-1.414059251546859741e-01 2.759438380599021912e-02 2.393314242362976074e-02
-1.755072176456451416e-02 1.721050590276718140e-03 1.991473883390426636e-02
-8.707298338413238525e-02 5.719943717122077942e-02 -5.229278281331062317e-02
-1.418223530054092407e-01 4.483520239591598511e-02 6.722473353147506714e-02
-9.079878777265548706e-02 4.603964090347290039e-02 -4.638202860951423645e-02
-7.356013357639312744e-02 1.052213609218597412e-01 -4.982713237404823303e-02
-1.000188738107681274e-01 3.016484901309013367e-02 -3.140293061733245850e-02
-8.412767201662063599e-02 1.252781301736831665e-01 2.000091597437858582e-02
-5.491786822676658630e-02 1.024854034185409546e-01 3.191728889942169189e-02
-1.230762451887130737e-01 1.232153549790382385e-02 4.385991394519805908e-02
-2.447331696748733521e-02 1.144959405064582825e-02 4.365326836705207825e-02
-6.442331522703170776e-02 3.415565937757492065e-02 7.402334362268447876e-02
-9.283010661602020264e-02 -2.888493239879608154e-03 1.684220135211944580e-02
-1.057300195097923279e-01 2.228787913918495178e-02 -1.975464820861816406e-02
-1.178538948297500610e-01 1.313977688550949097e-02 8.080754429101943970e-03
-1.141346916556358337e-01 4.766220599412918091e-02 8.034899830818176270e-02
-6.032770127058029175e-02 1.154316440224647522e-01 1.420291326940059662e-02
-9.159409999847412109e-02 1.159978806972503662e-01 -4.421557113528251648e-02
-1.504515260457992554e-01 8.900120109319686890e-02 -2.330581471323966980e-02
-1.587469130754470825e-02 4.351355507969856262e-02 3.641899302601814270e-02
-1.001286506652832031e-01 1.137673854827880859e-01 4.834822937846183777e-02
-1.522426903247833252e-01 1.063027530908584595e-01 5.147723481059074402e-02
-7.194837182760238647e-02 3.652980178594589233e-02 -4.635212197899818420e-02
-8.824579417705535889e-03 5.804374068975448608e-02 -2.461254596710205078e-02
-1.234899461269378662e-01 1.330716907978057861e-01 2.033422142267227173e-02
-1.327268779277801514e-02 6.858086585998535156e-02 1.164406724274158478e-02
-8.762195706367492676e-03 2.397924289107322693e-02 2.627092227339744568e-02
-1.438474655151367188e-02 7.655979692935943604e-02 -1.022815238684415817e-02
-3.858671337366104126e-02 1.036143004894256592e-01 -1.999592781066894531e-02
-1.013151705265045166e-01 5.869344994425773621e-02 8.053641766309738159e-02
-9.456457942724227905e-02 -3.092318773269653320e-03 3.985764831304550171e-02
-1.431126594543457031e-01 1.122578382492065430e-01 5.064750462770462036e-02
-5.911602079868316650e-02 -1.099158823490142822e-02 3.071038052439689636e-02
-6.152987107634544373e-02 8.093956857919692993e-03 -2.428386732935905457e-02
-1.377631425857543945e-01 1.314338743686676025e-01 2.036266215145587921e-02
-1.050937920808792114e-01 1.321499645709991455e-01 1.793537475168704987e-02
-1.328908652067184448e-01 1.118914484977722168e-01 5.377328023314476013e-02
-3.149844333529472351e-02 2.815838530659675598e-02 -3.963698819279670715e-02
-1.359403431415557861e-01 3.047940507531166077e-02 6.108362227678298950e-02
-1.323580443859100342e-01 6.443405896425247192e-02 7.642671465873718262e-02
-1.712544709444046021e-01 7.949849963188171387e-02 2.638148888945579529e-02
-1.519446372985839844e-01 6.970889121294021606e-02 6.589719653129577637e-02
-5.551920086145401001e-02 1.531219482421875000e-02 -3.285503759980201721e-02
-1.100697666406631470e-01 1.113245338201522827e-01 -4.482570663094520569e-02
-6.701780855655670166e-02 1.585299521684646606e-02 7.035646587610244751e-02
-8.393133431673049927e-02 4.670070484280586243e-02 -4.887836426496505737e-02
-1.124613434076309204e-01 4.796100035309791565e-02 -3.717028349637985229e-02
-1.284515559673309326e-01 1.350007951259613037e-01 1.070954091846942902e-02
-1.459935903549194336e-01 3.325932472944259644e-02 4.675283282995223999e-02
-8.234207332134246826e-02 5.636233463883399963e-02 7.785222679376602173e-02
-7.248640060424804688e-03 1.286329329013824463e-02 4.844669718295335770e-03
-1.246663182973861694e-01 1.030109226703643799e-01 6.224660575389862061e-02
-5.144285410642623901e-02 2.740457281470298767e-02 6.788628548383712769e-02
-9.639956057071685791e-02 6.496870517730712891e-02 -5.190197750926017761e-02
-1.216291785240173340e-01 4.410081356763839722e-02 7.804777473211288452e-02
-6.901718676090240479e-02 4.180631786584854126e-02 7.567796856164932251e-02
-7.046324759721755981e-02 5.069193243980407715e-02 -5.319773033261299133e-02
-5.407555028796195984e-02 6.259628385305404663e-02 6.393762677907943726e-02
-5.614871531724929810e-02 4.236502200365066528e-02 7.034174352884292603e-02
-1.682124137878417969e-01 9.456454217433929443e-02 4.335272591561079025e-03
-7.409609854221343994e-02 -7.615499198436737061e-03 4.288219660520553589e-02
-1.604789197444915771e-01 6.058245897293090820e-02 5.288259312510490417e-02
-1.747336983680725098e-02 8.099116384983062744e-04 9.882792830467224121e-03
-5.870827287435531616e-02 8.273763209581375122e-02 5.541762337088584900e-02
-1.124782189726829529e-01 3.605308383703231812e-02 7.825883477926254272e-02
-1.532028317451477051e-01 1.262905597686767578e-01 8.487567305564880371e-03
-7.271216809749603271e-02 1.202935129404067993e-01 -3.318537771701812744e-02
-3.311986848711967468e-02 8.127441257238388062e-02 3.249440714716911316e-02
-6.914497166872024536e-02 9.456057846546173096e-02 -5.433595553040504456e-02
-1.620657444000244141e-01 1.140585690736770630e-01 3.125118836760520935e-02
-1.209097951650619507e-01 1.044079810380935669e-01 -4.348202422261238098e-02
-3.703677281737327576e-02 4.631180316209793091e-02 -4.919894784688949585e-02
-1.193610876798629761e-01 5.470422282814979553e-02 7.988091558218002319e-02
-1.769229769706726074e-02 7.585302740335464478e-02 1.162867713719606400e-02
-4.514194279909133911e-02 3.018913790583610535e-02 6.474037468433380127e-02
-1.099735647439956665e-01 6.428281217813491821e-02 -4.622061923146247864e-02
-1.688776016235351562e-01 1.004935428500175476e-01 8.169922977685928345e-03
-5.294053629040718079e-02 8.605466037988662720e-02 -5.337170138955116272e-02
-2.336382865905761719e-02 8.638945966958999634e-02 5.007403437048196793e-03
-1.265715062618255615e-01 7.866340130567550659e-02 -4.104227945208549500e-02
-1.291197240352630615e-01 8.286401629447937012e-02 7.312610000371932983e-02
-6.521318107843399048e-02 8.198867738246917725e-02 6.005260348320007324e-02
-1.568298935890197754e-01 6.021841615438461304e-02 -5.994224920868873596e-04
-9.407309442758560181e-02 -1.736283302307128906e-04 5.138049274682998657e-02
-1.223680004477500916e-01 1.351900696754455566e-01 -9.725050069391727448e-03
-1.120156943798065186e-01 3.413276374340057373e-02 -2.718669548630714417e-02
-2.176327258348464966e-02 4.035040736198425293e-03 3.365564718842506409e-02
-3.872736170887947083e-02 2.831970155239105225e-02 6.051059067249298096e-02
-1.053914651274681091e-01 1.368919014930725098e-02 6.656654179096221924e-02
-6.034032255411148071e-02 5.770126730203628540e-02 6.920429319143295288e-02
-5.972887203097343445e-02 4.295364394783973694e-02 -5.094069615006446838e-02
-6.342300772666931152e-02 1.190819218754768372e-01 -2.597946301102638245e-02
-4.968504980206489563e-02 1.121457666158676147e-01 3.760233521461486816e-04
-9.039949625730514526e-02 1.246523112058639526e-01 -3.426510840654373169e-02
-3.823866695165634155e-02 4.964260384440422058e-02 5.768285691738128662e-02
-7.074495404958724976e-02 6.330563127994537354e-02 -5.658673122525215149e-02
-2.688889577984809875e-02 8.095811307430267334e-02 2.348895370960235596e-02
-1.219029426574707031e-01 1.285546720027923584e-01 3.145273029804229736e-02
-1.126094609498977661e-01 1.616612076759338379e-02 -5.049179308116436005e-03
-1.626985669136047363e-01 8.268325775861740112e-02 -5.219253711402416229e-03
-6.347297132015228271e-02 1.213722378015518188e-01 -3.603354096412658691e-03
-1.585692614316940308e-01 1.012158766388893127e-01 5.045884475111961365e-02
-6.482107192277908325e-02 2.073228359222412109e-03 -1.522521954029798508e-02
-7.789476215839385986e-02 8.698828518390655518e-02 -5.680415406823158264e-02
-7.039427757263183594e-02 2.390194311738014221e-02 -3.798838332295417786e-02
-1.226626113057136536e-01 2.776345238089561462e-02 -1.104614231735467911e-02
-7.667583972215652466e-02 -9.030587971210479736e-03 2.540836110711097717e-02
-1.336075365543365479e-02 2.381007373332977295e-02 3.441522270441055298e-02
-1.031916290521621704e-01 2.496580034494400024e-02 7.566720992326736450e-02
-1.360324770212173462e-01 1.255641877651214600e-01 3.526026755571365356e-02
-1.271471530199050903e-01 1.262016594409942627e-01 3.580569475889205933e-02
-1.152947694063186646e-01 1.342821121215820312e-01 1.516751945018768311e-02
-4.745670035481452942e-02 4.849741607904434204e-02 6.446576118469238281e-02
-6.923992186784744263e-02 1.164637356996536255e-01 2.398231998085975647e-02
-1.300433725118637085e-01 9.128886461257934570e-02 -4.024227336049079895e-02
-3.806210681796073914e-02 7.075473666191101074e-03 -2.308906614780426025e-02
-2.505035325884819031e-02 6.837591528892517090e-02 3.420814126729965210e-02
-8.436406403779983521e-02 1.307092308998107910e-01 -6.440836004912853241e-03
-8.119903504848480225e-02 1.293950974941253662e-01 -1.234202552586793900e-02
-6.767532229423522949e-02 6.088723242282867432e-02 7.162544131278991699e-02
-1.605973839759826660e-01 5.164120718836784363e-02 3.881262987852096558e-02
-6.370054185390472412e-02 4.931689798831939697e-02 7.281778007745742798e-02
-1.475486606359481812e-01 1.296583861112594604e-01 1.118600647896528244e-02
-2.422674745321273804e-02 4.458690434694290161e-02 4.634963721036911011e-02
-5.821764469146728516e-02 6.568824499845504761e-02 -5.673730745911598206e-02
-8.955915272235870361e-02 5.835978686809539795e-02 7.907626777887344360e-02
-7.516764104366302490e-03 3.700467944145202637e-02 -2.468473836779594421e-02
-8.546549081802368164e-02 1.043529212474822998e-01 -5.152263119816780090e-02
-2.036454528570175171e-02 1.000136882066726685e-02 -1.808393746614456177e-02
-1.815411448478698730e-02 7.193159312009811401e-02 -3.291618078947067261e-02
-7.905664294958114624e-02 2.282725647091865540e-02 7.539210468530654907e-02
-7.633416354656219482e-02 9.063332527875900269e-02 5.989830568432807922e-02
-1.035885512828826904e-02 4.971835762262344360e-02 -3.036480769515037537e-02
-4.975318536162376404e-02 9.211266040802001953e-02 -4.927495867013931274e-02
-1.443065106868743896e-01 4.461002722382545471e-02 -4.337509162724018097e-03
-9.903785586357116699e-02 1.342267692089080811e-01 2.306560054421424866e-03
-2.619129046797752380e-02 2.493738755583763123e-02 -3.542239218950271606e-02
-1.359706372022628784e-01 3.083296865224838257e-02 2.180988900363445282e-03
-7.243342697620391846e-02 -9.595930576324462891e-03 3.366263955831527710e-02
-1.620554774999618530e-01 6.500130146741867065e-02 5.440782755613327026e-03
-1.637560874223709106e-02 4.940957203507423401e-02 -3.771663457155227661e-02
-1.466211527585983276e-01 1.259713172912597656e-01 -9.730120189487934113e-03
-4.116293787956237793e-02 1.059231311082839966e-01 -1.687659882009029388e-03
-2.772980928421020508e-02 8.751648664474487305e-02 -3.226074948906898499e-02
-6.860297173261642456e-02 1.036107465624809265e-01 4.292028397321701050e-02
-1.117963194847106934e-01 1.185169443488121033e-02 1.991659402847290039e-03
-8.550451695919036865e-02 1.148561388254165649e-01 4.004893824458122253e-02
-4.048049449920654297e-03 4.574676603078842163e-02 1.025074254721403122e-02
-1.283694505691528320e-01 3.174807876348495483e-02 6.925939768552780151e-02
-3.924742713570594788e-02 -9.469926357269287109e-03 2.156209945678710938e-02
-1.207402348518371582e-01 3.329290822148323059e-02 7.444429397583007812e-02
-1.090584322810173035e-01 8.940554410219192505e-02 -5.054464191198348999e-02
-1.592950969934463501e-01 1.007254198193550110e-01 -1.220900472253561020e-02
-1.680333763360977173e-01 1.083291098475456238e-01 1.578229293227195740e-02
-1.178043410181999207e-01 3.792602196335792542e-02 -2.617821097373962402e-02
-1.025645434856414795e-01 1.068989336490631104e-01 5.634766072034835815e-02
-1.407362073659896851e-01 5.514305457472801208e-02 -1.885310932993888855e-02
-7.755569368600845337e-02 2.056069672107696533e-03 -9.925561957061290741e-03
-5.132779479026794434e-03 3.327244520187377930e-02 1.884391903877258301e-02
-1.589088886976242065e-02 2.984739467501640320e-02 3.871121630072593689e-02
-9.982754290103912354e-02 1.177280545234680176e-01 -4.259273037314414978e-02
-5.628322064876556396e-02 1.149332225322723389e-01 7.806198205798864365e-03
-1.546638607978820801e-01 7.732410728931427002e-02 6.332980096340179443e-02
-3.642337396740913391e-02 9.852166473865509033e-02 1.022734399884939194e-02
-6.885556876659393311e-02 1.080677434802055359e-01 3.745356947183609009e-02
-1.059849560260772705e-02 6.207217648625373840e-02 1.352531090378761292e-02
-1.336326599121093750e-01 1.337263584136962891e-01 -5.735647864639759064e-03
-7.463748753070831299e-02 -3.788776695728302002e-03 2.869088202714920044e-04
-7.066100835800170898e-03 1.451548188924789429e-02 1.316332537680864334e-02
-6.131018698215484619e-02 9.950548410415649414e-02 4.188527539372444153e-02
-7.360993325710296631e-02 -5.096174776554107666e-03 4.996130615472793579e-02
-7.428073883056640625e-02 9.927991777658462524e-02 -5.312658473849296570e-02
-1.242161765694618225e-01 1.149152070283889771e-01 5.133352056145668030e-02
-6.642586737871170044e-02 1.144011020660400391e-01 -3.834717348217964172e-02
-1.005846560001373291e-01 7.362066209316253662e-02 -5.241457000374794006e-02
-3.793317824602127075e-02 7.452187687158584595e-02 -5.029260367155075073e-02
-2.621044963598251343e-02 9.213683754205703735e-02 -1.441394258290529251e-02
-1.313314884901046753e-01 3.258901461958885193e-02 -7.169066928327083588e-03
-1.316942274570465088e-01 4.242555424571037292e-02 -1.773513108491897583e-02
-1.062586754560470581e-01 1.627120003104209900e-02 -1.153262425214052200e-02
-1.144348606467247009e-01 1.129123419523239136e-01 5.280456319451332092e-02
-1.473143994808197021e-01 1.237563043832778931e-01 3.249442204833030701e-02
-1.597244143486022949e-01 5.700129643082618713e-02 9.668571874499320984e-03
-4.424784332513809204e-02 1.023207977414131165e-02 5.859337374567985535e-02
-2.936564385890960693e-03 4.128357023000717163e-02 -1.392132882028818130e-02
-1.233032420277595520e-01 8.997516334056854248e-02 7.060464471578598022e-02
-4.045942053198814392e-02 8.841881901025772095e-02 3.364774584770202637e-02
-4.176009446382522583e-02 1.038226038217544556e-01 8.747466839849948883e-03
-1.700060218572616577e-01 8.213414251804351807e-02 1.343438029289245605e-02
-2.779918909072875977e-02 5.693069845438003540e-02 -4.672126471996307373e-02
-2.055209130048751831e-02 1.669097691774368286e-03 -3.530248999595642090e-03
-1.531301736831665039e-01 6.012992188334465027e-02 -6.799607537686824799e-03
-3.226390853524208069e-02 -6.590045988559722900e-03 7.908589206635951996e-03
-9.508630633354187012e-02 1.337234973907470703e-01 -6.096751429140567780e-03
-1.181727945804595947e-01 1.181695759296417236e-01 4.724088311195373535e-02
-2.317356318235397339e-02 1.963017135858535767e-02 -2.991167455911636353e-02
-1.128973737359046936e-01 1.911776140332221985e-02 6.821882724761962891e-02
-1.002460792660713196e-01 8.069480955600738525e-02 -5.334246531128883362e-02
-8.858809620141983032e-02 2.091531082987785339e-02 -2.882971242070198059e-02
-4.959383606910705566e-02 1.090910136699676514e-01 -3.016738966107368469e-02
-5.776460096240043640e-02 -2.417273819446563721e-03 5.330754816532135010e-02
-4.613213986158370972e-02 9.749287366867065430e-02 -4.294776543974876404e-02
-1.363323181867599487e-01 9.226647764444351196e-02 6.742794066667556763e-02
-3.028735890984535217e-02 -6.703294813632965088e-03 1.605086214840412140e-02
-1.329908967018127441e-01 1.135431826114654541e-01 -3.344790637493133545e-02
-7.935320585966110229e-02 -5.361929535865783691e-03 8.377849124372005463e-03
-1.471760272979736328e-01 6.246247142553329468e-02 6.894385814666748047e-02
-1.003211364150047302e-01 2.314784377813339233e-02 -2.449580654501914978e-02
-1.513868570327758789e-01 9.633262455463409424e-02 -2.260813862085342407e-02
-1.154576241970062256e-02 2.907828614115715027e-02 -2.679499238729476929e-02
-1.412694454193115234e-01 3.381412103772163391e-02 6.519898306578397751e-03
-6.366311013698577881e-02 1.016997471451759338e-01 -4.935947060585021973e-02
-1.656869053840637207e-02 3.277147561311721802e-02 -3.366735205054283142e-02
-5.416702106595039368e-02 1.016474142670631409e-02 -2.767959609627723694e-02
-1.667959243059158325e-02 6.600465625524520874e-02 2.296951413154602051e-02
-3.127145022153854370e-02 9.450535476207733154e-02 7.301580626517534256e-03
-1.098324209451675415e-01 1.194290518760681152e-01 4.416616633534431458e-02
-2.625942230224609375e-03 2.560134977102279663e-02 5.099029280245304108e-03
-1.185805797576904297e-01 8.067739754915237427e-02 7.503565400838851929e-02
-1.118342578411102295e-01 1.332250833511352539e-01 -1.959137246012687683e-02
-1.199789494276046753e-01 9.326163679361343384e-03 3.248379006981849670e-02
-4.482601210474967957e-02 3.181699290871620178e-02 -4.482362419366836548e-02
-6.331073492765426636e-02 1.074463427066802979e-01 -4.461942240595817566e-02
-8.073440939188003540e-02 -5.652047693729400635e-03 4.581180587410926819e-02
-1.100806146860122681e-01 1.262784302234649658e-01 -3.257655352354049683e-02
-7.689731568098068237e-02 4.837036505341529846e-02 -5.128788575530052185e-02
-9.003809839487075806e-02 1.318018734455108643e-01 3.255629912018775940e-03
-1.649994552135467529e-01 6.431624293327331543e-02 1.492345146834850311e-02
-3.610663115978240967e-02 1.022972315549850464e-01 -1.068733911961317062e-02
-1.196910738945007324e-01 6.113515421748161316e-02 -3.965855389833450317e-02
-1.652657240629196167e-01 6.044241040945053101e-02 2.612879499793052673e-02
-5.869701504707336426e-03 4.412089288234710693e-02 -2.250544726848602295e-02
-9.276583790779113770e-02 6.530611217021942139e-02 7.804814726114273071e-02
-1.275039911270141602e-01 1.357185244560241699e-01 7.376009598374366760e-04
-8.587076514959335327e-02 8.120254427194595337e-02 6.985200941562652588e-02
-3.815533965826034546e-02 4.067666456103324890e-02 5.963644385337829590e-02
-8.391787111759185791e-02 1.290462911128997803e-01 7.265171501785516739e-03
-3.013765066862106323e-02 1.156404614448547363e-03 -1.151694264262914658e-02
-8.552943170070648193e-02 6.770142912864685059e-02 7.564592361450195312e-02
-1.040055975317955017e-01 1.339886933565139771e-01 -1.607359573245048523e-02
-3.596219420433044434e-02 -5.355797708034515381e-03 3.556029498577117920e-02
-1.115843951702117920e-01 1.356471478939056396e-01 6.475039757788181305e-03
-1.274259984493255615e-01 5.064338073134422302e-02 -2.828586846590042114e-02
-1.122264564037322998e-02 4.109361395239830017e-02 -3.103940561413764954e-02
-4.265891388058662415e-02 9.812229871749877930e-02 2.289488352835178375e-02
-4.747736826539039612e-02 5.532520264387130737e-02 6.251034885644912720e-02
-6.116077303886413574e-03 2.927010878920555115e-02 -1.860960572957992554e-02
-6.289070844650268555e-02 1.140525937080383301e-01 2.127940207719802856e-02
-1.404889672994613647e-01 2.828763425350189209e-02 4.941795766353607178e-02
-2.813417091965675354e-02 1.174000650644302368e-02 -2.506704255938529968e-02
-1.589615941047668457e-01 1.205105185508728027e-01 5.155621562153100967e-03
-5.037116631865501404e-02 9.071224182844161987e-02 4.173735901713371277e-02
-1.590840518474578857e-01 1.116248816251754761e-01 -7.779960520565509796e-03
-1.273738741874694824e-01 1.530359312891960144e-02 2.440776117146015167e-02
-8.146791160106658936e-02 9.871412068605422974e-03 6.846316158771514893e-02
-1.407588720321655273e-01 7.293798774480819702e-02 7.238711416721343994e-02
-3.566080704331398010e-02 8.615935593843460083e-02 -4.340514913201332092e-02
-1.008696258068084717e-01 4.300005733966827393e-02 -4.043198749423027039e-02
-3.646663948893547058e-02 5.992296710610389709e-02 5.215273424983024597e-02
-2.416048943996429443e-02 7.896528393030166626e-02 -3.618330880999565125e-02
-1.460641026496887207e-01 1.167256087064743042e-01 4.423878714442253113e-02
-3.679227456450462341e-02 6.940352171659469604e-02 4.692029207944869995e-02
-1.266090869903564453e-01 6.020697206258773804e-02 -3.455697745084762573e-02
-1.403228789567947388e-01 3.767414391040802002e-02 -1.411107368767261505e-03
-7.752788811922073364e-02 1.250935196876525879e-01 1.257917098701000214e-02
-1.471869647502899170e-01 7.504037767648696899e-02 -2.316587790846824646e-02
-1.114481240510940552e-01 5.977354198694229126e-02 8.051118999719619751e-02
-7.699588686227798462e-02 1.274562478065490723e-01 5.459915846586227417e-04
-1.034257262945175171e-01 3.811545670032501221e-03 1.002664864063262939e-02
-6.587933748960494995e-02 2.470099925994873047e-02 7.310047745704650879e-02
-4.479201510548591614e-02 8.429777622222900391e-02 4.271280020475387573e-02
-1.642548739910125732e-01 7.612343132495880127e-02 5.217242985963821411e-02
-2.259170264005661011e-02 4.703459143638610840e-02 -4.252353683114051819e-02
-8.654053509235382080e-02 4.435750097036361694e-02 7.995749264955520630e-02
-1.183582097291946411e-02 6.284132599830627441e-03 8.106117136776447296e-03
-9.151713550090789795e-02 6.196964532136917114e-03 -7.929678075015544891e-03
-6.000234931707382202e-02 1.314570754766464233e-02 6.706337630748748779e-02
-1.284854561090469360e-01 9.637369960546493530e-02 6.652940809726715088e-02
-5.694812536239624023e-02 4.989258944988250732e-02 6.954302638769149780e-02
-1.018791645765304565e-01 3.591347485780715942e-03 5.344367399811744690e-02
-1.659416258335113525e-01 7.427875697612762451e-02 6.372024305164813995e-03
-9.632723778486251831e-02 1.193343102931976318e-02 -1.337974239140748978e-02
-1.214388906955718994e-01 2.010805159807205200e-02 -1.017992384731769562e-03
-1.265197694301605225e-01 2.594183757901191711e-02 6.562375277280807495e-02
-1.434637606143951416e-01 5.446974560618400574e-02 6.995841115713119507e-02
-1.110185682773590088e-02 7.057446986436843872e-02 -1.276601571589708328e-02
-9.110352396965026855e-02 3.113668411970138550e-03 5.940229073166847229e-02
-6.747138500213623047e-02 1.125796586275100708e-01 2.930958569049835205e-02
-7.085227221250534058e-02 8.479929715394973755e-02 -5.703435465693473816e-02
-1.067079901695251465e-01 1.356797218322753906e-01 -5.764785222709178925e-03
-5.013926327228546143e-02 6.199594959616661072e-02 -5.527224764227867126e-02
-7.448018342256546021e-02 -1.815736293792724609e-03 5.588619410991668701e-02
-6.483097374439239502e-02 -1.019934564828872681e-02 3.516857698559761047e-02
-5.096425488591194153e-02 7.322039455175399780e-03 6.019387766718864441e-02
-1.075644940137863159e-01 4.338592290878295898e-02 8.067251741886138916e-02
-6.730067729949951172e-02 -1.016603410243988037e-02 1.847137697041034698e-02
-1.186451911926269531e-01 1.279084384441375732e-01 -2.818593755364418030e-02
-9.476940333843231201e-02 1.282873749732971191e-01 -2.903654798865318298e-02
-1.028009206056594849e-01 1.315466761589050293e-01 -2.359227091073989868e-02
-2.922507748007774353e-02 7.257414609193801880e-02 -4.516179487109184265e-02
-1.553694158792495728e-01 1.214055344462394714e-01 2.802840620279312134e-02
-1.699279248714447021e-01 7.353526353836059570e-02 3.209898620843887329e-02
-2.219072729349136353e-02 8.171710371971130371e-02 -2.979521080851554871e-02
-5.528539419174194336e-03 4.093983024358749390e-02 1.796036213636398315e-02
-5.986173450946807861e-02 1.131618991494178772e-01 -3.499336168169975281e-02
-8.665670454502105713e-02 -1.482576131820678711e-03 5.319196730852127075e-02
-6.411825865507125854e-02 7.413141429424285889e-04 5.865495279431343079e-02
-7.955931127071380615e-02 1.186899989843368530e-01 2.977744117379188538e-02
-1.511898785829544067e-01 6.866536289453506470e-02 -1.552196126431226730e-02
-9.603845328092575073e-02 3.155991435050964355e-02 7.898309081792831421e-02
-1.392412632703781128e-01 4.155710712075233459e-02 -7.961743511259555817e-03
-1.503393799066543579e-02 7.542312145233154297e-02 3.324522636830806732e-03
-1.437531709671020508e-01 2.894366532564163208e-02 3.595755249261856079e-02
-5.033253505825996399e-02 -1.062494516372680664e-02 1.466987840831279755e-02
-7.838594913482666016e-02 1.119493395090103149e-01 3.942765295505523682e-02
-5.012761801481246948e-02 -1.113766431808471680e-02 2.285702712833881378e-02
-1.327601075172424316e-01 1.169624403119087219e-01 4.833047464489936829e-02
-9.412896633148193359e-02 1.174957677721977234e-02 6.852778792381286621e-02
-1.370920836925506592e-01 8.099695295095443726e-02 -3.412938117980957031e-02
-1.584583669900894165e-01 5.033835023641586304e-02 4.578439518809318542e-02
-8.593261986970901489e-02 9.430674463510513306e-02 6.141708791255950928e-02
-1.437191367149353027e-01 4.042913764715194702e-02 6.206620857119560242e-02
-4.930853843688964844e-03 2.380350232124328613e-02 -1.107129734009504318e-02
-6.347147375345230103e-02 3.042930364608764648e-02 -4.394848272204399109e-02
-9.000453352928161621e-02 7.291893661022186279e-02 -5.528089776635169983e-02
-1.329353600740432739e-01 1.220437437295913696e-01 -2.754819393157958984e-02
-1.478909999132156372e-01 5.163815990090370178e-02 -6.756654940545558929e-03
-6.903640925884246826e-03 6.162969768047332764e-02 -2.864019945263862610e-03
-9.950955212116241455e-02 6.687612831592559814e-02 7.866523414850234985e-02
-1.238989159464836121e-01 3.388325124979019165e-02 -1.697700843214988708e-02
-7.633004337549209595e-02 1.043398380279541016e-01 4.739746078848838806e-02
-5.589597672224044800e-02 -9.236730635166168213e-03 7.736126892268657684e-03
-1.383733600378036499e-01 2.374801039695739746e-02 3.752247244119644165e-02
-1.846507191658020020e-03 3.773594647645950317e-02 4.333789460361003876e-03
-1.712806820869445801e-01 9.099768102169036865e-02 1.591493934392929077e-02
-1.293806880712509155e-01 1.301841288805007935e-01 -1.934584975242614746e-02
-1.182178035378456116e-01 1.467806100845336914e-02 5.866685509681701660e-02
-8.343274891376495361e-02 1.112320870161056519e-01 -4.731737449765205383e-02
-7.472501695156097412e-02 6.846344470977783203e-02 7.178501039743423462e-02
-1.059509813785552979e-01 6.978319585323333740e-02 -4.962389916181564331e-02
-1.465405821800231934e-01 7.611134648323059082e-02 6.904615461826324463e-02
-1.230634003877639771e-02 4.789845272898674011e-02 2.900655567646026611e-02
-1.435437798500061035e-01 1.118468120694160461e-01 -2.634904161095619202e-02
-1.509057134389877319e-01 3.726920485496520996e-02 3.849919512867927551e-02
-1.514611840248107910e-01 7.957556843757629395e-02 -2.006639167666435242e-02
-1.216771453619003296e-01 8.701013028621673584e-02 -4.492855072021484375e-02
-1.532983034849166870e-02 1.720412820577621460e-02 -2.164895087480545044e-02
-5.156145244836807251e-02 2.917297184467315674e-03 -1.874890550971031189e-02
-1.130802556872367859e-01 2.420078217983245850e-02 -1.598912850022315979e-02
-1.254233121871948242e-01 5.962404608726501465e-02 7.858160138130187988e-02
-4.067153856158256531e-02 2.085053548216819763e-02 -3.699488565325737000e-02
-4.278372228145599365e-02 6.363640725612640381e-02 5.558888614177703857e-02
-1.332082748413085938e-01 2.305359765887260437e-02 5.325454100966453552e-02
-1.088397502899169922e-01 7.967248558998107910e-02 7.524238526821136475e-02
-5.156380310654640198e-02 1.056555360555648804e-01 2.255864813923835754e-02
-5.764855071902275085e-02 1.182891279458999634e-01 -8.199064992368221283e-03
-1.179148182272911072e-01 1.109732240438461304e-01 -4.235224053263664246e-02
-7.263876497745513916e-02 2.170965075492858887e-03 6.117806956171989441e-02
-1.262985467910766602e-01 7.713834196329116821e-02 7.552748173475265503e-02
-1.411842703819274902e-01 3.065571188926696777e-02 1.307548582553863525e-02
-8.154164254665374756e-02 6.578224897384643555e-02 -5.578555539250373840e-02
-3.168991953134536743e-02 9.526719152927398682e-02 -2.620925381779670715e-02
-1.515375077724456787e-01 3.785496950149536133e-02 3.109062835574150085e-02
-5.393104255199432373e-02 1.100734472274780273e-01 1.698590628802776337e-02
-2.188801020383834839e-02 6.101015582680702209e-02 3.559704124927520752e-02
-1.115567162632942200e-01 6.796114146709442139e-03 4.972530528903007507e-02
-9.394004195928573608e-02 8.491012454032897949e-02 7.021128386259078979e-02
-1.600252240896224976e-01 9.234800934791564941e-02 -1.162149291485548019e-02
-7.008200883865356445e-02 -2.175219357013702393e-03 -5.770110525190830231e-03
-7.519481331110000610e-02 3.039498999714851379e-02 7.668721675872802734e-02
-9.573569148778915405e-02 1.269297599792480469e-01 2.561504766345024109e-02
-9.248575568199157715e-02 1.228955388069152832e-01 3.160106390714645386e-02
-1.562499403953552246e-01 4.428633302450180054e-02 3.663344308733940125e-02
-1.555899083614349365e-01 4.796022921800613403e-02 1.370733976364135742e-02
-1.566011458635330200e-02 7.482626289129257202e-02 -2.408602833747863770e-02
-1.355836987495422363e-01 2.505815401673316956e-02 1.351739559322595596e-02
-1.117533147335052490e-01 1.024907976388931274e-01 6.202327460050582886e-02
-3.438107669353485107e-03 5.077408626675605774e-02 -9.268636815249919891e-03
-5.492119491100311279e-02 3.627242147922515869e-02 -4.784829169511795044e-02
-4.302873462438583374e-02 9.884417057037353516e-03 -2.718126401305198669e-02
-2.983262389898300171e-02 3.983894735574722290e-02 5.296675860881805420e-02
-9.501328319311141968e-02 5.394939705729484558e-02 -4.857633262872695923e-02
-9.649536013603210449e-02 3.946511447429656982e-02 8.056963235139846802e-02
-1.710295677185058594e-03 3.763258457183837891e-02 -6.875946186482906342e-03
-3.127663582563400269e-02 3.961607813835144043e-02 -4.503211379051208496e-02
-4.749460145831108093e-02 1.043812930583953857e-01 -3.602245450019836426e-02
-8.743270486593246460e-02 3.408582508563995361e-02 -4.037860780954360962e-02
-1.012012436985969543e-01 7.279478013515472412e-03 -1.168534159660339355e-03
-1.088321954011917114e-02 5.262235179543495178e-02 2.345212548971176147e-02
-5.233776196837425232e-02 -6.876341998577117920e-03 4.394490644335746765e-02
-1.158087104558944702e-01 7.277330756187438965e-02 -4.582288861274719238e-02
-1.150337010622024536e-01 9.422300755977630615e-02 -4.790407046675682068e-02
-3.042724728584289551e-02 -2.003110945224761963e-03 -5.285494960844516754e-03
-2.836199849843978882e-02 -2.890087664127349854e-03 3.143759071826934814e-02
-7.929181307554244995e-02 -8.079245686531066895e-03 3.585913777351379395e-02
-8.154487609863281250e-02 3.853757679462432861e-02 7.892576605081558228e-02
-1.523406803607940674e-02 7.742433249950408936e-02 -3.356275148689746857e-03
-1.478639692068099976e-01 3.757398575544357300e-02 1.414620410650968552e-02
-4.342027008533477783e-03 2.145788073539733887e-02 1.143121346831321716e-02
-1.599712073802947998e-01 5.056999623775482178e-02 2.569618821144104004e-02
-6.337936967611312866e-02 -1.738339662551879883e-03 -9.180440567433834076e-03
-1.559256464242935181e-01 8.196930587291717529e-02 -1.531438063830137253e-02
-1.406981647014617920e-01 6.297688186168670654e-02 7.297379523515701294e-02
-1.431297510862350464e-01 8.833086490631103516e-02 -3.031532466411590576e-02
-5.020678788423538208e-02 6.630120426416397095e-02 5.972756072878837585e-02
-3.521657362580299377e-02 8.955989032983779907e-02 2.498697116971015930e-02
-4.511606320738792419e-02 -8.096449077129364014e-03 3.687372058629989624e-02
-9.529625624418258667e-02 5.475094169378280640e-02 8.051228523254394531e-02
-8.807967603206634521e-02 5.110552161931991577e-02 7.986623048782348633e-02
-1.157054677605628967e-01 7.042396813631057739e-03 4.021011665463447571e-02
-1.443028748035430908e-01 9.400888532400131226e-02 6.389726698398590088e-02
-1.588163077831268311e-01 1.105080097913742065e-01 4.152870550751686096e-02
-1.069494932889938354e-01 1.211495250463485718e-01 -3.872174397110939026e-02
-3.838043659925460815e-02 2.036371454596519470e-02 5.896852537989616394e-02
-9.008380025625228882e-02 9.152204543352127075e-02 -5.511957034468650818e-02
-1.102616786956787109e-01 3.695309162139892578e-03 2.827481925487518311e-02
-1.426125913858413696e-01 1.019262820482254028e-01 5.966345220804214478e-02
-1.326009333133697510e-01 3.814589977264404297e-02 7.055885344743728638e-02
-5.243457108736038208e-02 3.033065423369407654e-02 -4.448672011494636536e-02
-1.173234954476356506e-01 1.240768432617187500e-01 3.890082985162734985e-02
-1.715304553508758545e-01 8.418570458889007568e-02 2.062321454286575317e-02
-7.826247066259384155e-02 1.657687500119209290e-02 -2.888737246394157410e-02
-1.978434622287750244e-02 5.445658415555953979e-02 -4.090395197272300720e-02
-1.054384633898735046e-01 2.319384366273880005e-03 1.956904493272304535e-02
-9.425802528858184814e-02 1.048308908939361572e-01 5.565986409783363342e-02
-1.363171339035034180e-01 1.296037286520004272e-01 -1.491027604788541794e-02
-1.062356829643249512e-01 5.785489827394485474e-02 -4.555441811680793762e-02
-9.067049622535705566e-02 1.306650638580322266e-01 -2.079273760318756104e-02
-5.704424530267715454e-02 -5.798183381557464600e-03 -2.279065549373626709e-03
-1.695857942104339600e-01 1.024304702877998352e-01 2.874878048896789551e-02
-1.838967204093933105e-02 2.217773348093032837e-02 4.101140424609184265e-02
-1.040675863623619080e-01 5.178731679916381836e-02 8.124002814292907715e-02
-2.811355143785476685e-02 7.536607235670089722e-02 3.192795068025588989e-02
-1.367224156856536865e-01 8.543378859758377075e-02 7.041791081428527832e-02
-1.034926474094390869e-01 1.203740239143371582e-01 4.094073921442031860e-02
-1.391136050224304199e-01 4.806668311357498169e-02 -1.482492405921220779e-02
-1.108776628971099854e-01 1.044112592935562134e-01 -4.738811776041984558e-02
-1.553741842508316040e-01 1.190039217472076416e-01 -6.746848113834857941e-03
-1.358761489391326904e-01 9.779927134513854980e-02 -3.607881814241409302e-02
-1.487603485584259033e-01 1.265858411788940430e-01 2.413483336567878723e-02
-4.762223362922668457e-02 -7.280267775058746338e-03 1.054531894624233246e-03
-9.957413375377655029e-02 1.838658750057220459e-02 -1.960602775216102600e-02
-1.119440272450447083e-01 1.124268770217895508e-02 5.906003341078758240e-02
-1.549538373947143555e-01 8.815403282642364502e-02 6.046775355935096741e-02
-7.564260065555572510e-02 7.755640894174575806e-02 6.793234497308731079e-02
-1.179453805088996887e-01 1.223780959844589233e-01 -3.473406657576560974e-02
-7.600174099206924438e-02 1.208849176764488220e-01 2.200361341238021851e-02
-9.419240057468414307e-02 3.395583853125572205e-02 -3.744272515177726746e-02
-1.714672297239303589e-01 8.497899770736694336e-02 3.261557593941688538e-02
-3.567599505186080933e-02 -5.074828863143920898e-03 -1.001052558422088623e-03
-3.565412759780883789e-02 6.219716370105743408e-02 -5.081189051270484924e-02
-8.009472489356994629e-02 2.775854244828224182e-02 -3.831235691905021667e-02
-6.924875080585479736e-03 1.941387727856636047e-02 1.940723136067390442e-02
-1.519965976476669312e-01 3.990000486373901367e-02 2.216617763042449951e-02
-5.692474544048309326e-02 9.341562539339065552e-02 4.480131343007087708e-02
-1.587770879268646240e-02 6.220931187272071838e-02 -3.518589958548545837e-02
-1.019493490457534790e-01 -5.180314183235168457e-04 2.831402420997619629e-02
-6.075645983219146729e-02 -9.024918079376220703e-03 4.057521000504493713e-02
-1.454451531171798706e-01 3.279150649905204773e-02 1.990666240453720093e-02
-1.538058221340179443e-01 9.503686428070068359e-02 5.819869041442871094e-02
-8.046073466539382935e-02 1.280009746551513672e-01 -1.984892785549163818e-02
-9.512464702129364014e-02 4.285201430320739746e-05 9.430858306586742401e-03
-6.904371827840805054e-02 -6.448321044445037842e-03 3.935262560844421387e-03
-9.737846255302429199e-02 1.324252486228942871e-01 1.078582834452390671e-02
-6.874656677246093750e-02 1.234491840004920959e-01 -1.897182688117027283e-02
-3.516477718949317932e-02 9.410236775875091553e-02 1.732900366187095642e-02
-7.508687674999237061e-03 4.949387907981872559e-02 1.808134652674198151e-02
-7.916848361492156982e-02 1.169485747814178467e-01 -4.122086241841316223e-02
-1.329912543296813965e-01 2.000341191887855530e-02 4.460879042744636536e-02
-3.582582622766494751e-02 1.363189890980720520e-02 5.484147742390632629e-02
-1.158045530319213867e-01 8.394423872232437134e-02 -4.763694480061531067e-02
-8.232907950878143311e-02 1.016503050923347473e-01 5.351160466670989990e-02
-1.572818011045455933e-01 7.055396586656570435e-02 -8.100020699203014374e-03
-1.377825886011123657e-01 1.064483374357223511e-01 -3.302950784564018250e-02
-1.428442001342773438e-01 6.256677210330963135e-02 -2.158259227871894836e-02
-6.153431162238121033e-02 1.083060652017593384e-01 3.021484613418579102e-02
-2.059283107519149780e-02 3.003966435790061951e-02 4.452857375144958496e-02
-2.479775995016098022e-02 -3.178678452968597412e-03 5.387162324041128159e-03
-1.536867916584014893e-01 5.258002132177352905e-02 1.971262507140636444e-03
-9.346999228000640869e-02 1.178044453263282776e-01 4.030781984329223633e-02
-4.308611527085304260e-02 7.544754445552825928e-02 4.851695150136947632e-02
-2.457012236118316650e-02 3.890238329768180847e-02 -4.160843417048454285e-02
