-1.352238561958074570e-02 6.220465153455734253e-02 -1.978615075349807739e-01
-1.647759228944778442e-02 2.065609395503997803e-02 -1.775156259536743164e-01
-2.253101766109466553e-02 8.357672393321990967e-02 -1.977382004261016846e-01
-2.101209200918674469e-02 7.283922284841537476e-02 -2.112923264503479004e-01
-1.394266635179519653e-02 4.675839841365814209e-02 -1.924374997615814209e-01
-2.269558981060981750e-02 7.040737569332122803e-02 -2.027199864387512207e-01
-2.263008989393711090e-02 8.599582314491271973e-02 -2.052280306816101074e-01
-1.894891075789928436e-02 1.158482730388641357e-01 -2.096566557884216309e-01
-1.398124545812606812e-02 9.846051037311553955e-02 -2.046679258346557617e-01
-1.552585326135158539e-02 4.133250564336776733e-02 -1.944185793399810791e-01
-1.344964373856782913e-02 3.309587389230728149e-02 -1.694558411836624146e-01
-2.217358164489269257e-02 5.340816825628280640e-02 -1.861069500446319580e-01
-1.320022996515035629e-02 9.429804235696792603e-02 -1.922149360179901123e-01
-1.259607914835214615e-02 5.792898312211036682e-02 -1.907033473253250122e-01
-1.238588616251945496e-02 7.199712842702865601e-02 -1.796667128801345825e-01
-1.484253630042076111e-02 9.747292101383209229e-02 -1.871187686920166016e-01
-1.193259656429290771e-02 6.421317905187606812e-02 -1.842393279075622559e-01
-1.522555854171514511e-02 2.476934716105461121e-02 -1.797649115324020386e-01
-1.403890177607536316e-02 8.181291818618774414e-02 -2.054602652788162231e-01
-1.651431806385517120e-02 9.366482496261596680e-02 -2.147024720907211304e-01
-1.721807196736335754e-02 6.225200369954109192e-02 -1.699520051479339600e-01
-1.322651654481887817e-02 8.811497688293457031e-02 -1.852078288793563843e-01
-1.386133488267660141e-02 7.024259865283966064e-02 -2.020515799522399902e-01
-2.259929664433002472e-02 7.438258826732635498e-02 -1.936962604522705078e-01
-1.473610941320657730e-02 9.309156239032745361e-02 -1.840975135564804077e-01
-1.824742183089256287e-02 6.338800489902496338e-02 -2.091236710548400879e-01
-1.775821857154369354e-02 5.032082647085189819e-02 -2.028891891241073608e-01
-1.481673587113618851e-02 9.084965288639068604e-02 -2.096274197101593018e-01
-1.230371557176113129e-02 7.944029569625854492e-02 -1.860728263854980469e-01
-2.100733295083045959e-02 7.024195790290832520e-02 -1.818603873252868652e-01
-2.203725092113018036e-02 4.848682880401611328e-02 -1.859510093927383423e-01
-1.199872512370347977e-02 5.634909868240356445e-02 -1.822078824043273926e-01
-1.705969497561454773e-02 9.813269972801208496e-02 -2.160344719886779785e-01
-2.256632409989833832e-02 6.508304923772811890e-02 -1.907726675271987915e-01
-2.004001475870609283e-02 6.852749735116958618e-02 -1.777527183294296265e-01
-2.171652391552925110e-02 4.871534556150436401e-02 -1.966421306133270264e-01
-1.891561038792133331e-02 2.617865428328514099e-02 -1.849126666784286499e-01
-2.067904546856880188e-02 1.073690354824066162e-01 -2.036233097314834595e-01
-1.376467384397983551e-02 7.409440726041793823e-02 -2.026763111352920532e-01
-2.096007764339447021e-02 3.617498651146888733e-02 -1.883548945188522339e-01
-1.481235586106777191e-02 1.045427918434143066e-01 -2.078416198492050171e-01
-1.918092742562294006e-02 1.130672842264175415e-01 -2.146975994110107422e-01
-1.658819057047367096e-02 8.825971186161041260e-02 -2.141630649566650391e-01
-1.405393704771995544e-02 4.671212285757064819e-02 -1.663909256458282471e-01
-1.285219565033912659e-02 7.745927572250366211e-02 -1.798507869243621826e-01
-2.187261171638965607e-02 9.119476377964019775e-02 -1.966231167316436768e-01
-1.634091138839721680e-02 7.495337724685668945e-02 -2.106801122426986694e-01
-1.279369741678237915e-02 6.239906698465347290e-02 -1.939361542463302612e-01
-2.056240849196910858e-02 1.103192716836929321e-01 -2.101212292909622192e-01
-1.612076908349990845e-02 5.340117216110229492e-02 -2.021558433771133423e-01
-1.280481368303298950e-02 5.408643558621406555e-02 -1.903574168682098389e-01
-1.632156223058700562e-02 1.077179461717605591e-01 -2.134148031473159790e-01
-2.036076411604881287e-02 3.044638782739639282e-02 -1.790536046028137207e-01
-1.687758229672908783e-02 1.157739013433456421e-01 -2.073894441127777100e-01
-2.262475155293941498e-02 6.157488748431205750e-02 -1.983545124530792236e-01
-1.524738781154155731e-02 2.578535303473472595e-02 -1.662274301052093506e-01
-1.502069458365440369e-02 9.919346868991851807e-02 -2.103132158517837524e-01
-1.899662241339683533e-02 1.076711416244506836e-01 -1.966463923454284668e-01
-2.241307869553565979e-02 6.347765028476715088e-02 -1.887677013874053955e-01
-1.535558514297008514e-02 7.586592435836791992e-02 -2.086668312549591064e-01
-1.443318650126457214e-02 2.572970837354660034e-02 -1.763819307088851929e-01
-1.195048913359642029e-02 5.867219343781471252e-02 -1.819873750209808350e-01
-1.972087472677230835e-02 2.671111002564430237e-02 -1.769309788942337036e-01
-1.246761344373226166e-02 4.353936016559600830e-02 -1.791498661041259766e-01
-2.085255086421966553e-02 5.918072536587715149e-02 -1.780916154384613037e-01
-1.441259030252695084e-02 1.009123921394348145e-01 -2.068182677030563354e-01
-1.657068729400634766e-02 6.138686835765838623e-02 -2.064329683780670166e-01
-2.132122777402400970e-02 3.971655294299125671e-02 -1.814416050910949707e-01
-1.411485206335783005e-02 5.901254341006278992e-02 -1.689895987510681152e-01
-1.272079721093177795e-02 3.992380574345588684e-02 -1.725609898567199707e-01
-2.182865887880325317e-02 9.574026614427566528e-02 -2.121354788541793823e-01
-1.866686716675758362e-02 1.007674783468246460e-01 -1.903825551271438599e-01
-2.167701162397861481e-02 9.847742319107055664e-02 -2.123749405145645142e-01
-2.012395299971103668e-02 9.087764471769332886e-02 -2.167439162731170654e-01
-2.244553156197071075e-02 7.246295362710952759e-02 -1.913412809371948242e-01
-2.161459624767303467e-02 9.776552021503448486e-02 -2.000292241573333740e-01
-1.941561512649059296e-02 1.123613938689231873e-01 -2.032850682735443115e-01
-1.247780397534370422e-02 7.980504631996154785e-02 -1.948010325431823730e-01
-2.278684079647064209e-02 7.893748581409454346e-02 -2.032866328954696655e-01
-2.222711965441703796e-02 8.485922217369079590e-02 -1.953027546405792236e-01
-1.600231789052486420e-02 8.434461802244186401e-02 -1.781180500984191895e-01
-1.197261549532413483e-02 6.715771555900573730e-02 -1.823896616697311401e-01
-1.760412007570266724e-02 7.515138387680053711e-02 -2.126453369855880737e-01
-2.176611125469207764e-02 1.009579747915267944e-01 -2.085810750722885132e-01
-2.092092856764793396e-02 3.419898450374603271e-02 -1.833874881267547607e-01
-1.944474875926971436e-02 2.498183399438858032e-02 -1.781444698572158813e-01
-1.573142595589160919e-02 1.122252494096755981e-01 -2.021476328372955322e-01
-1.880412548780441284e-02 2.764863148331642151e-02 -1.701601296663284302e-01
-1.928322389721870422e-02 6.543377786874771118e-02 -1.746278852224349976e-01
-2.019319497048854828e-02 2.940338477492332458e-02 -1.832130253314971924e-01
-2.147954329848289490e-02 9.270437061786651611e-02 -1.950169801712036133e-01
-2.062931284308433533e-02 8.384414762258529663e-02 -1.859971731901168823e-01
-1.797735132277011871e-02 7.863162457942962646e-02 -1.770025342702865601e-01
-2.149059996008872986e-02 6.019575148820877075e-02 -1.814107894897460938e-01
-1.515010278671979904e-02 4.494857043027877808e-02 -1.955585479736328125e-01
-2.187453210353851318e-02 8.645025640726089478e-02 -2.121685147285461426e-01
-2.179092541337013245e-02 7.634892314672470093e-02 -1.880325525999069214e-01
-1.362686697393655777e-02 4.937183111906051636e-02 -1.676383316516876221e-01
-1.567441411316394806e-02 5.585811659693717957e-02 -2.023361474275588989e-01
-2.145849540829658508e-02 7.645450532436370850e-02 -2.114265263080596924e-01
-2.093258686363697052e-02 9.368059784173965454e-02 -1.927848458290100098e-01
-2.032565884292125702e-02 3.991688787937164307e-02 -1.740742325782775879e-01
-2.245966717600822449e-02 5.831152573227882385e-02 -1.980835050344467163e-01
-2.273723110556602478e-02 6.896810233592987061e-02 -1.940083354711532593e-01
-2.162033878266811371e-02 4.268108680844306946e-02 -1.909611523151397705e-01
-1.524581108242273331e-02 1.102381050586700439e-01 -2.010574787855148315e-01
-2.101079747080802917e-02 3.534846752882003784e-02 -1.859181076288223267e-01
-1.384763792157173157e-02 1.013859659433364868e-01 -1.967020034790039062e-01
-2.218644879758358002e-02 4.915967211127281189e-02 -1.910223662853240967e-01
-1.621711067855358124e-02 2.682872489094734192e-02 -1.850225478410720825e-01
-1.446627639234066010e-02 7.493511587381362915e-02 -2.056747823953628540e-01
-1.301310770213603973e-02 7.438686490058898926e-02 -1.987859010696411133e-01
-1.784842461347579956e-02 5.827751755714416504e-02 -2.067177891731262207e-01
-2.016781456768512726e-02 5.488161742687225342e-02 -1.745350509881973267e-01
-2.077483013272285461e-02 1.086037009954452515e-01 -2.069041281938552856e-01
-2.142092026770114899e-02 4.382578656077384949e-02 -1.805376410484313965e-01
-1.301018614321947098e-02 9.302915632724761963e-02 -1.942680180072784424e-01
-2.121232077479362488e-02 1.009446233510971069e-01 -2.000219523906707764e-01
-1.971983350813388824e-02 4.964824020862579346e-02 -1.721393465995788574e-01
-1.979392021894454956e-02 7.499830424785614014e-02 -1.793811619281768799e-01
-1.931428909301757812e-02 8.537982404232025146e-02 -1.827338337898254395e-01
-2.031500637531280518e-02 1.099831461906433105e-01 -2.048403918743133545e-01
-1.412562280893325806e-02 1.032353341579437256e-01 -2.024585902690887451e-01
-1.469600759446620941e-02 5.711037665605545044e-02 -2.002589106559753418e-01
-1.879347115755081177e-02 2.249199151992797852e-02 -1.772924363613128662e-01
-1.299042440950870514e-02 8.562993258237838745e-02 -1.846079826354980469e-01
-1.456238888204097748e-02 5.116159841418266296e-02 -1.665213108062744141e-01
-1.215753238648176193e-02 5.445446074008941650e-02 -1.843687444925308228e-01
-1.704156585037708282e-02 6.703910976648330688e-02 -2.092961668968200684e-01
-1.241803728044033051e-02 5.746293812990188599e-02 -1.739494651556015015e-01
-1.816928386688232422e-02 1.012560650706291199e-01 -2.175140380859375000e-01
-1.351562235504388809e-02 3.059656172990798950e-02 -1.748316735029220581e-01
-1.319904532283544540e-02 9.229046106338500977e-02 -1.999248117208480835e-01
-1.282496191561222076e-02 6.880927085876464844e-02 -1.962337940931320190e-01
-1.680280268192291260e-02 7.293613255023956299e-02 -1.733140945434570312e-01
-1.225939765572547913e-02 7.535010576248168945e-02 -1.830025315284729004e-01
-1.228556036949157715e-02 4.638771712779998779e-02 -1.786252409219741821e-01
-2.189389988780021667e-02 5.596270784735679626e-02 -2.009035050868988037e-01
-1.934183947741985321e-02 5.507788434624671936e-02 -1.720145046710968018e-01
-1.379130780696868896e-02 5.598764866590499878e-02 -1.964765191078186035e-01
-1.293475180864334106e-02 4.517985880374908447e-02 -1.696034818887710571e-01
-1.729095540940761566e-02 8.734200894832611084e-02 -1.803254038095474243e-01
-1.921603456139564514e-02 9.552505612373352051e-02 -2.176847755908966064e-01
-1.593455672264099121e-02 7.844013720750808716e-02 -1.752687245607376099e-01
-1.223437674343585968e-02 7.600367814302444458e-02 -1.916986256837844849e-01
-1.917415298521518707e-02 5.482149124145507812e-02 -2.055553346872329712e-01
-1.809948869049549103e-02 2.108327299356460571e-02 -1.728228330612182617e-01
-1.215373538434505463e-02 5.253377929329872131e-02 -1.828709244728088379e-01
-1.237307302653789520e-02 8.099786192178726196e-02 -1.928331553936004639e-01
-2.263551764190196991e-02 7.688611745834350586e-02 -2.055363506078720093e-01
-2.218058146536350250e-02 8.914728462696075439e-02 -2.105479836463928223e-01
-2.243499644100666046e-02 8.769618719816207886e-02 -1.996260881423950195e-01
-2.138822525739669800e-02 4.439274221658706665e-02 -1.948518753051757812e-01
-1.997039094567298889e-02 3.254952654242515564e-02 -1.738254874944686890e-01
-1.721766777336597443e-02 1.055415123701095581e-01 -1.921290010213851929e-01
-1.326314732432365417e-02 5.171491950750350952e-02 -1.919043511152267456e-01
-1.535324566066265106e-02 1.083396971225738525e-01 -2.089663147926330566e-01
-2.217593789100646973e-02 7.322588562965393066e-02 -1.893502920866012573e-01
-1.267148461192846298e-02 4.377321153879165649e-02 -1.714477986097335815e-01
-1.770473644137382507e-02 8.246512711048126221e-02 -1.783644109964370728e-01
-2.022344432771205902e-02 6.117129698395729065e-02 -1.761588752269744873e-01
-1.443831063807010651e-02 1.057496219873428345e-01 -2.030116319656372070e-01
-2.271217852830886841e-02 6.600650399923324585e-02 -1.931587904691696167e-01
-1.799782179296016693e-02 5.077364295721054077e-02 -1.681538820266723633e-01
-1.557136885821819305e-02 5.368835479021072388e-02 -1.666479259729385376e-01
-2.199681662023067474e-02 7.477896660566329956e-02 -2.091022580862045288e-01
-1.579119823873043060e-02 4.156342893838882446e-02 -1.645662039518356323e-01
-1.196269970387220383e-02 6.321517378091812134e-02 -1.807123571634292603e-01
-1.726587302982807159e-02 4.525151848793029785e-02 -1.661056131124496460e-01
-2.050064876675605774e-02 9.967495501041412354e-02 -2.166753411293029785e-01
-1.901110634207725525e-02 2.775197103619575500e-02 -1.866651624441146851e-01
-1.565894484519958496e-02 3.102004528045654297e-02 -1.645309925079345703e-01
-2.081600204110145569e-02 4.967214167118072510e-02 -2.008784860372543335e-01
-1.734072901308536530e-02 3.816906735301017761e-02 -1.955033540725708008e-01
-1.454446744173765182e-02 7.275540381669998169e-02 -1.733874231576919556e-01
-1.279370673000812531e-02 8.999241143465042114e-02 -1.942559778690338135e-01
-2.066810242831707001e-02 1.070192381739616394e-01 -2.142757773399353027e-01
-1.335053052753210068e-02 9.651999175548553467e-02 -1.941158622503280640e-01
-1.282226666808128357e-02 5.870534479618072510e-02 -1.721507608890533447e-01
-1.590506546199321747e-02 5.846079811453819275e-02 -1.679327338933944702e-01
-1.586746051907539368e-02 1.119819357991218567e-01 -2.088232487440109253e-01
-1.510922610759735107e-02 3.055987879633903503e-02 -1.854601502418518066e-01
-1.264403946697711945e-02 6.610421091318130493e-02 -1.753973364830017090e-01
-2.220150083303451538e-02 8.958042412996292114e-02 -1.983318477869033813e-01
-1.476788334548473358e-02 6.861439347267150879e-02 -1.715308725833892822e-01
-2.097178436815738678e-02 4.816197603940963745e-02 -1.771540343761444092e-01
-1.946689188480377197e-02 1.137941479682922363e-01 -2.061127126216888428e-01
-1.467032264918088913e-02 2.758732438087463379e-02 -1.806721687316894531e-01
-1.261064782738685608e-02 7.136038690805435181e-02 -1.953229904174804688e-01
-1.387074869126081467e-02 6.640455871820449829e-02 -2.008828371763229370e-01
-1.925374381244182587e-02 5.904066562652587891e-02 -1.727233529090881348e-01
-1.409192010760307312e-02 3.023086860775947571e-02 -1.804315447807312012e-01
-2.174833603203296661e-02 9.934749454259872437e-02 -2.032032907009124756e-01
-2.266897447407245636e-02 7.386114448308944702e-02 -2.043348550796508789e-01
-2.077774703502655029e-02 4.200869798660278320e-02 -1.955618262290954590e-01
-1.311842165887355804e-02 7.073539495468139648e-02 -1.753928512334823608e-01
-1.336755044758319855e-02 3.596881031990051270e-02 -1.814502924680709839e-01
-1.520792581140995026e-02 2.185665443539619446e-02 -1.738932281732559204e-01
-1.792593672871589661e-02 8.890491724014282227e-02 -2.162042558193206787e-01
-1.374417077749967575e-02 5.422507226467132568e-02 -1.683522462844848633e-01
-2.185764536261558533e-02 9.460233896970748901e-02 -1.992226243019104004e-01
-1.921158283948898315e-02 3.859083727002143860e-02 -1.697202771902084351e-01
-1.200364343822002411e-02 5.495606362819671631e-02 -1.802069097757339478e-01
-1.430848799645900726e-02 2.549909055233001709e-02 -1.707357466220855713e-01
-2.224339544773101807e-02 9.179983288049697876e-02 -2.008262574672698975e-01
-1.938273943960666656e-02 1.072984486818313599e-01 -2.170994877815246582e-01
-2.092070877552032471e-02 9.632033854722976685e-02 -1.945317238569259644e-01
-1.286306325346231461e-02 8.076363056898117065e-02 -1.985681951045989990e-01
-1.636396721005439758e-02 4.870392754673957825e-02 -1.658311039209365845e-01
-2.240372449159622192e-02 5.483411997556686401e-02 -1.892586201429367065e-01
-1.593850553035736084e-02 6.848107278347015381e-02 -2.078428268432617188e-01
-2.056947536766529083e-02 4.223142936825752258e-02 -1.751216650009155273e-01
-1.830384694039821625e-02 8.146931231021881104e-02 -2.149718850851058960e-01
-2.029534988105297089e-02 4.587667435407638550e-02 -1.738562285900115967e-01
-2.273022569715976715e-02 6.268925219774246216e-02 -1.944250911474227905e-01
-1.287379860877990723e-02 7.784930616617202759e-02 -1.984101980924606323e-01
-1.301776245236396790e-02 3.542039543390274048e-02 -1.725705564022064209e-01
-1.289511471986770630e-02 9.053984284400939941e-02 -1.965515613555908203e-01
-1.347906235605478287e-02 3.354590758681297302e-02 -1.796751767396926880e-01
-1.986446417868137360e-02 5.310669168829917908e-02 -2.043243795633316040e-01
-2.244584448635578156e-02 9.033849090337753296e-02 -2.069109976291656494e-01
-1.193081494420766830e-02 6.099713966250419617e-02 -1.817202866077423096e-01
-2.123584970831871033e-02 7.840034365653991699e-02 -1.860128790140151978e-01
-2.000378258526325226e-02 5.268964171409606934e-02 -1.735638976097106934e-01
-1.994522474706172943e-02 8.469493687152862549e-02 -2.158037722110748291e-01
-2.277665957808494568e-02 8.122950792312622070e-02 -2.016480565071105957e-01
-1.421777065843343735e-02 9.789495915174484253e-02 -1.891901344060897827e-01
-1.962535083293914795e-02 7.911082357168197632e-02 -1.806194931268692017e-01
-1.865179091691970825e-02 4.856543987989425659e-02 -1.690654009580612183e-01
-1.310701668262481689e-02 3.948834538459777832e-02 -1.827266961336135864e-01
-1.469090767204761505e-02 7.952053844928741455e-02 -2.075350731611251831e-01
-1.853713020682334900e-02 9.813460707664489746e-02 -2.177017629146575928e-01
-2.189391478896141052e-02 5.793805420398712158e-02 -1.835841685533523560e-01
-1.222340017557144165e-02 5.899528041481971741e-02 -1.758251488208770752e-01
-1.318290084600448608e-02 9.503898769617080688e-02 -1.966242492198944092e-01
-1.675199344754219055e-02 1.030304282903671265e-01 -1.899219900369644165e-01
-1.521674916148185730e-02 1.097273826599121094e-01 -2.064113169908523560e-01
-2.269016019999980927e-02 8.445315808057785034e-02 -2.020344138145446777e-01
-1.725524850189685822e-02 1.117388159036636353e-01 -2.143619060516357422e-01
-1.545631606131792068e-02 7.946170121431350708e-02 -2.098314911127090454e-01
-1.304018590599298477e-02 4.681790620088577271e-02 -1.877712756395339966e-01
-1.650722697377204895e-02 2.377580106258392334e-02 -1.666434407234191895e-01
-1.202522777020931244e-02 6.464126706123352051e-02 -1.871353387832641602e-01
-1.548185385763645172e-02 3.902474790811538696e-02 -1.928587406873703003e-01
-2.057787403464317322e-02 9.884037077426910400e-02 -1.947951018810272217e-01
-1.470611896365880966e-02 8.421450108289718628e-02 -2.084661126136779785e-01
-1.412915345281362534e-02 7.924685627222061157e-02 -1.769498288631439209e-01
-1.686204969882965088e-02 8.015937358140945435e-02 -2.129912674427032471e-01
-1.381921209394931793e-02 2.900007367134094238e-02 -1.762086004018783569e-01
-1.576857082545757294e-02 2.074364200234413147e-02 -1.700563877820968628e-01
-2.034058608114719391e-02 1.108581572771072388e-01 -2.068841010332107544e-01
-1.227450370788574219e-02 6.780272722244262695e-02 -1.784729510545730591e-01
-2.218970097601413727e-02 9.366285800933837891e-02 -2.021386921405792236e-01
-1.205660402774810791e-02 5.263987183570861816e-02 -1.795165538787841797e-01
-1.843396201729774475e-02 7.240711897611618042e-02 -1.752214580774307251e-01
-1.763049885630607605e-02 7.072333246469497681e-02 -2.112862169742584229e-01
-2.251283079385757446e-02 6.021929904818534851e-02 -1.898226737976074219e-01
-1.411842647939920425e-02 3.177687898278236389e-02 -1.822671145200729370e-01
-1.408807002007961273e-02 9.455902129411697388e-02 -1.867363899946212769e-01
-2.061140350997447968e-02 3.201323375105857849e-02 -1.804946362972259521e-01
-2.157709188759326935e-02 6.624212861061096191e-02 -2.074434161186218262e-01
-2.263143658638000488e-02 6.481396406888961792e-02 -2.006081938743591309e-01
-2.151113562285900116e-02 1.033609360456466675e-01 -2.098395824432373047e-01
-1.252686046063899994e-02 8.410993218421936035e-02 -1.877014935016632080e-01
-1.466818898916244507e-02 9.636957943439483643e-02 -2.090400457382202148e-01
-2.165760844945907593e-02 4.306140169501304626e-02 -1.836265325546264648e-01
-1.439901720732450485e-02 2.692214027047157288e-02 -1.781600266695022583e-01
-1.343263685703277588e-02 6.906806677579879761e-02 -1.737669557332992554e-01
-1.725149154663085938e-02 1.047177016735076904e-01 -2.161644697189331055e-01
-1.330615580081939697e-02 5.633099377155303955e-02 -1.943740844726562500e-01
-1.492658164352178574e-02 6.752386689186096191e-02 -2.049504220485687256e-01
-1.206545718014240265e-02 5.438945814967155457e-02 -1.774536818265914917e-01
-1.220364309847354889e-02 5.898356065154075623e-02 -1.875134110450744629e-01
-1.237180829048156738e-02 5.202568694949150085e-02 -1.855518370866775513e-01
-2.026121132075786591e-02 3.578588739037513733e-02 -1.917984038591384888e-01
-2.163999713957309723e-02 1.019333079457283020e-01 -2.060761451721191406e-01
-2.011612802743911743e-02 1.037184521555900574e-01 -2.169286608695983887e-01
-2.119338884949684143e-02 3.673846274614334106e-02 -1.834600120782852173e-01
-2.244867570698261261e-02 8.759749680757522583e-02 -2.081311941146850586e-01
-1.610548049211502075e-02 1.990812644362449646e-02 -1.739102602005004883e-01
-2.101123332977294922e-02 7.803414016962051392e-02 -2.128855437040328979e-01
-2.149014174938201904e-02 4.932322353124618530e-02 -1.803203821182250977e-01
-1.909152232110500336e-02 6.302160024642944336e-02 -1.734239459037780762e-01
-1.496181357651948929e-02 4.374569281935691833e-02 -1.649937778711318970e-01
-2.326646354049444199e-03 7.052466273307800293e-01 -2.717232145369052887e-02
-2.626536646857857704e-03 6.882458925247192383e-01 -3.692414611577987671e-02
-9.068533778190612793e-03 6.589733362197875977e-01 -5.108566582202911377e-02
-1.029955968260765076e-02 7.030150890350341797e-01 -4.250088706612586975e-02
-1.099309418350458145e-03 6.528143286705017090e-01 -3.795368969440460205e-02
-2.240815665572881699e-03 6.983729600906372070e-01 -3.147732093930244446e-02
-6.065441295504570007e-03 6.979579329490661621e-01 -4.077946394681930542e-02
-4.769166000187397003e-03 7.136927843093872070e-01 -2.872097864747047424e-02
-8.981790393590927124e-03 6.839240789413452148e-01 -2.166589163243770599e-02
-4.251531325280666351e-03 6.586514711380004883e-01 -4.585061222314834595e-02
6.631719879806041718e-04 6.542223691940307617e-01 -2.530780062079429626e-02
-6.589792668819427490e-03 6.780926585197448730e-01 -4.718466103076934814e-02
-9.462971240282058716e-03 6.508080959320068359e-01 -3.326197713613510132e-02
-4.963103681802749634e-03 6.587713360786437988e-01 -2.079609781503677368e-02
-5.534325726330280304e-03 6.608461737632751465e-01 -4.786784201860427856e-02
-3.073839470744132996e-04 6.968430280685424805e-01 -2.028288319706916809e-02
-1.238518953323364258e-02 6.919745802879333496e-01 -3.113006055355072021e-02
-4.423130303621292114e-04 6.970057487487792969e-01 -1.820628345012664795e-02
-5.258790683001279831e-03 6.461205482482910156e-01 -2.645642124116420746e-02
-1.047553401440382004e-02 7.136327028274536133e-01 -3.448007255792617798e-02
-7.671839557588100433e-04 6.927021741867065430e-01 -1.510602422058582306e-02
-4.102761857211589813e-03 6.406140923500061035e-01 -4.361378774046897888e-02
-8.512163534760475159e-03 6.388878226280212402e-01 -4.390287399291992188e-02
-8.905060589313507080e-03 7.076681256294250488e-01 -3.969694674015045166e-02
7.061376236379146576e-04 6.845543980598449707e-01 -1.895248889923095703e-02
-4.567820578813552856e-04 6.604105234146118164e-01 -3.581573441624641418e-02
-1.205658633261919022e-02 6.774787306785583496e-01 -3.177243098616600037e-02
-1.184261217713356018e-02 6.859288811683654785e-01 -4.789672791957855225e-02
-1.262170262634754181e-02 6.894707679748535156e-01 -4.584835097193717957e-02
1.144923269748687744e-03 6.643875837326049805e-01 -2.611979842185974121e-02
-1.042484119534492493e-02 6.926758289337158203e-01 -2.431899122893810272e-02
1.087724696844816208e-03 6.764693260192871094e-01 -2.012344077229499817e-02
-9.030455723404884338e-03 6.693949103355407715e-01 -5.068796873092651367e-02
-1.207277923822402954e-02 6.741879582405090332e-01 -3.271516785025596619e-02
-1.226698793470859528e-02 6.719859838485717773e-01 -3.426522389054298401e-02
-7.577809505164623260e-03 6.529595255851745605e-01 -2.726532146334648132e-02
-8.968819864094257355e-03 6.748854517936706543e-01 -2.325341105461120605e-02
-1.281335018575191498e-02 6.782623529434204102e-01 -4.772474616765975952e-02
-1.328250113874673843e-02 6.898806095123291016e-01 -3.653725981712341309e-02
-8.879685774445533752e-03 6.716232895851135254e-01 -2.381509542465209961e-02
-9.472435340285301208e-03 6.425577998161315918e-01 -4.579233378171920776e-02
-2.807421376928687096e-03 6.626905202865600586e-01 -1.777314767241477966e-02
-1.345796138048171997e-02 6.760097742080688477e-01 -4.402022808790206909e-02
-1.098322868347167969e-02 6.650651097297668457e-01 -3.163205832242965698e-02
-1.265806518495082855e-02 6.700373291969299316e-01 -4.831710830330848694e-02
-5.966428667306900024e-03 6.927287578582763672e-01 -4.249685630202293396e-02
-1.203096564859151840e-02 6.669555306434631348e-01 -4.966100677847862244e-02
5.075754597783088684e-05 6.897278428077697754e-01 -1.678709685802459717e-02
-5.887153558433055878e-03 6.893722414970397949e-01 -4.342199116945266724e-02
-9.258164092898368835e-03 6.445980072021484375e-01 -3.699767962098121643e-02
-1.229859143495559692e-02 7.041735649108886719e-01 -3.892289847135543823e-02
-4.407990723848342896e-03 7.095430493354797363e-01 -3.129750117659568787e-02
-1.314542163163423538e-02 6.766377091407775879e-01 -4.666469246149063110e-02
-5.870133638381958008e-03 6.997247934341430664e-01 -1.573566347360610962e-02
-3.311892738565802574e-03 6.595137119293212891e-01 -1.901525259017944336e-02
-1.355047710239887238e-02 6.811866760253906250e-01 -4.048729687929153442e-02
-1.352537330240011215e-02 6.774474978446960449e-01 -4.264188557863235474e-02
-6.410300265997648239e-03 6.364776492118835449e-01 -3.578367456793785095e-02
-2.188762649893760681e-03 6.637162566184997559e-01 -4.099186137318611145e-02
-1.357718277722597122e-02 6.859565973281860352e-01 -4.072235897183418274e-02
-2.491450635716319084e-03 6.448200345039367676e-01 -4.102100059390068054e-02
-6.785257253795862198e-03 6.559410095214843750e-01 -2.450249530375003815e-02
-7.270830683410167694e-04 6.911389827728271484e-01 -2.923678979277610779e-02
-8.533773943781852722e-03 7.025417089462280273e-01 -1.997095718979835510e-02
2.066283486783504486e-04 6.909253001213073730e-01 -1.834760606288909912e-02
6.520934402942657471e-04 6.838468909263610840e-01 -2.474300935864448547e-02
-1.906973309814929962e-03 6.465778946876525879e-01 -3.969666361808776855e-02
-3.912920132279396057e-03 6.963937282562255859e-01 -1.404896192252635956e-02
-5.272247828543186188e-03 6.862710714340209961e-01 -1.541993208229541779e-02
-4.494162276387214661e-04 6.465739607810974121e-01 -2.609755843877792358e-02
-4.653098993003368378e-03 6.500701904296875000e-01 -2.378426864743232727e-02
-1.066575478762388229e-02 6.813666224479675293e-01 -4.937664419412612915e-02
-1.052187755703926086e-02 6.525239348411560059e-01 -3.614524006843566895e-02
-1.061607617884874344e-02 6.500514745712280273e-01 -3.852488100528717041e-02
-1.014661975204944611e-04 6.677633523941040039e-01 -3.377721458673477173e-02
-1.069843303412199020e-03 6.412321329116821289e-01 -3.244552761316299438e-02
-9.172930382192134857e-03 6.615493297576904297e-01 -5.114207416772842407e-02
-1.635626424103975296e-03 6.683523058891296387e-01 -3.893721848726272583e-02
2.405080012977123260e-04 6.856395602226257324e-01 -2.688268572092056274e-02
-3.671336453408002853e-03 6.762611269950866699e-01 -4.258390516042709351e-02
-1.228883769363164902e-02 7.031396627426147461e-01 -3.232526779174804688e-02
-1.307686511427164078e-02 6.940788626670837402e-01 -4.251931980252265930e-02
-1.963425427675247192e-03 6.588694453239440918e-01 -4.070127755403518677e-02
-3.811059286817908287e-03 6.683424711227416992e-01 -4.418776184320449829e-02
-4.331166855990886688e-04 6.530210375785827637e-01 -2.183244749903678894e-02
-2.121785189956426620e-03 6.484509110450744629e-01 -2.298362925648689270e-02
-7.352511864155530930e-03 6.750615835189819336e-01 -2.001326903700828552e-02
-1.008312311023473740e-02 6.738563179969787598e-01 -2.622628770768642426e-02
-1.923987641930580139e-03 6.383383870124816895e-01 -3.175273537635803223e-02
-1.117117889225482941e-02 6.937047243118286133e-01 -4.607982188463211060e-02
-7.671419996768236160e-03 6.748368740081787109e-01 -4.899137839674949646e-02
-1.234387699514627457e-02 6.588428020477294922e-01 -4.498879238963127136e-02
-2.849599579349160194e-03 6.686852574348449707e-01 -4.204643145203590393e-02
-1.210824865847826004e-02 6.973589062690734863e-01 -3.005548380315303802e-02
-3.016264177858829498e-03 7.045547366142272949e-01 -3.045225888490676880e-02
-1.354240905493497849e-02 6.838594675064086914e-01 -4.312542825937271118e-02
-4.513413645327091217e-03 6.914620399475097656e-01 -4.028395935893058777e-02
-4.381231963634490967e-03 6.768618226051330566e-01 -1.574251241981983185e-02
-4.207957535982131958e-03 6.807343363761901855e-01 -4.271108284592628479e-02
-4.399369005113840103e-03 6.661550402641296387e-01 -1.801286451518535614e-02
-1.329109445214271545e-02 6.713940501213073730e-01 -4.238487035036087036e-02
-9.130872786045074463e-05 6.540970206260681152e-01 -3.397578373551368713e-02
-7.860788144171237946e-03 6.588564515113830566e-01 -2.549299970269203186e-02
-2.087626606225967407e-03 6.946721673011779785e-01 -3.279813379049301147e-02
-7.442482747137546539e-03 6.361854672431945801e-01 -4.149035736918449402e-02
3.063688054680824280e-04 6.603735089302062988e-01 -3.245009854435920715e-02
-8.523994125425815582e-03 7.150877714157104492e-01 -3.418766707181930542e-02
-5.291288252919912338e-03 6.921709179878234863e-01 -1.506977342069149017e-02
8.313357830047607422e-04 6.559725999832153320e-01 -2.686787769198417664e-02
6.036865524947643280e-04 6.873154640197753906e-01 -2.011496201157569885e-02
6.355396471917629242e-04 6.538545489311218262e-01 -2.849178016185760498e-02
-7.791288197040557861e-03 6.536961197853088379e-01 -5.027054995298385620e-02
-6.780750583857297897e-03 6.379149556159973145e-01 -4.551409557461738586e-02
-2.048113383352756500e-03 6.964714527130126953e-01 -3.179723769426345825e-02
5.583991296589374542e-04 6.622731685638427734e-01 -3.105710819363594055e-02
-1.854273956269025803e-03 6.544134616851806641e-01 -2.031388133764266968e-02
-1.210568100214004517e-02 7.058474421501159668e-01 -3.264791518449783325e-02
-3.570670727640390396e-03 7.128335833549499512e-01 -1.982365176081657410e-02
-8.094569668173789978e-03 6.845021247863769531e-01 -4.749215021729469299e-02
5.350275896489620209e-04 6.675941348075866699e-01 -3.079354017972946167e-02
-7.163868285715579987e-04 6.812850832939147949e-01 -3.311331942677497864e-02
-7.528793532401323318e-03 6.464359760284423828e-01 -3.044786676764488220e-02
-1.128166541457176208e-02 7.112623453140258789e-01 -3.479101136326789856e-02
-4.942998290061950684e-03 6.418163180351257324e-01 -2.855197340250015259e-02
-9.604188613593578339e-03 7.122321128845214844e-01 -3.689840808510780334e-02
-1.287044957280158997e-02 6.975034475326538086e-01 -3.443878889083862305e-02
-1.287176460027694702e-02 7.001346349716186523e-01 -3.901565447449684143e-02
-3.062798175960779190e-03 7.070249319076538086e-01 -2.880699746310710907e-02
8.326279930770397186e-04 6.613705754280090332e-01 -2.916461974382400513e-02
-3.110888646915555000e-03 6.843756437301635742e-01 -3.935959190130233765e-02
1.254182774573564529e-03 6.698266863822937012e-01 -2.381438389420509338e-02
-1.552571076899766922e-03 6.407796740531921387e-01 -3.587415069341659546e-02
-1.203687489032745361e-02 6.560835242271423340e-01 -4.400589689612388611e-02
-9.480887092649936676e-03 6.483381390571594238e-01 -4.948270320892333984e-02
-1.139312982559204102e-02 6.695411801338195801e-01 -3.151134774088859558e-02
-6.117511540651321411e-03 6.632333397865295410e-01 -2.095222100615501404e-02
-3.729992546141147614e-03 6.959454417228698730e-01 -3.688768669962882996e-02
-1.054160296916961670e-03 6.422640681266784668e-01 -2.871811017394065857e-02
-3.469502553343772888e-04 6.821522116661071777e-01 -1.501547917723655701e-02
-8.596017956733703613e-03 6.425313353538513184e-01 -3.629728034138679504e-02
-5.480070598423480988e-03 7.160535454750061035e-01 -2.813453227281570435e-02
-9.851182810962200165e-03 6.442947387695312500e-01 -4.053966328501701355e-02
-7.214038632810115814e-04 6.660244464874267578e-01 -3.634993731975555420e-02
-5.481994710862636566e-03 6.822826862335205078e-01 -4.465640708804130554e-02
-1.316651143133640289e-02 6.687983274459838867e-01 -4.382403567433357239e-02
-4.267026670277118683e-03 6.941453814506530762e-01 -3.881996497511863708e-02
-4.657209385186433792e-03 7.017780542373657227e-01 -3.645910322666168213e-02
-5.413398612290620804e-03 7.043583393096923828e-01 -1.572844199836254120e-02
-1.284560747444629669e-02 6.662164330482482910e-01 -4.657141491770744324e-02
-4.269859753549098969e-03 6.341043114662170410e-01 -3.663384541869163513e-02
-8.694825693964958191e-03 6.953201293945312500e-01 -4.490357264876365662e-02
-1.748709008097648621e-03 7.001827955245971680e-01 -2.847510576248168945e-02
3.940989263355731964e-04 6.542400717735290527e-01 -2.332317456603050232e-02
-1.317872386425733566e-02 6.957112550735473633e-01 -3.693150356411933899e-02
-1.226506382226943970e-02 6.944873332977294922e-01 -3.059606812894344330e-02
-1.020147465169429779e-03 7.016767263412475586e-01 -1.909694820642471313e-02
-7.274398114532232285e-03 6.499686837196350098e-01 -4.956414550542831421e-02
-9.723663330078125000e-03 6.572913527488708496e-01 -3.076600655913352966e-02
-6.784476339817047119e-03 6.408565640449523926e-01 -3.244304284453392029e-02
1.219954807311296463e-03 6.661090254783630371e-01 -2.296884730458259583e-02
-7.558111101388931274e-03 6.622901558876037598e-01 -2.370811812579631805e-02
-9.996009990572929382e-03 6.463881731033325195e-01 -3.874586522579193115e-02
1.108699012547731400e-03 6.612674593925476074e-01 -2.469799853861331940e-02
-4.780615679919719696e-03 6.793885231018066406e-01 -4.410523921251296997e-02
-1.156591810286045074e-03 6.551675200462341309e-01 -3.829238936305046082e-02
-2.085421234369277954e-03 7.077646255493164062e-01 -2.109828963875770569e-02
-9.505137801170349121e-03 6.502464413642883301e-01 -5.000926554203033447e-02
-1.075630448758602142e-02 6.634538769721984863e-01 -5.097378790378570557e-02
-1.203569211065769196e-02 6.593352556228637695e-01 -3.942422941327095032e-02
-3.436597064137458801e-03 6.396130323410034180e-01 -2.880324423313140869e-02
-5.761107895523309708e-03 6.365128755569458008e-01 -4.398649558424949646e-02
-5.136557854712009430e-03 6.689912080764770508e-01 -4.651812463998794556e-02
-8.090348914265632629e-03 6.403829455375671387e-01 -3.657376766204833984e-02
-1.855258829891681671e-03 7.057567834854125977e-01 -2.369902282953262329e-02
-6.224324926733970642e-03 6.867539286613464355e-01 -4.467890039086341858e-02
-2.553925849497318268e-03 6.510303020477294922e-01 -4.210456088185310364e-02
-1.339899003505706787e-02 6.841968297958374023e-01 -3.786084055900573730e-02
-1.231748610734939575e-02 6.747685074806213379e-01 -4.909181594848632812e-02
-3.436529543250799179e-03 7.024444341659545898e-01 -1.459948159754276276e-02
-1.067304983735084534e-03 6.601807475090026855e-01 -1.842759177088737488e-02
-1.129533350467681885e-02 6.548002362251281738e-01 -3.830941393971443176e-02
-4.721422214061021805e-03 7.157157659530639648e-01 -2.560067921876907349e-02
-5.700446665287017822e-03 6.770774126052856445e-01 -1.714639924466609955e-02
-1.267192699015140533e-02 6.638879776000976562e-01 -4.096573591232299805e-02
-4.649626091122627258e-03 6.612564325332641602e-01 -1.964702643454074860e-02
-2.581274369731545448e-03 6.415167450904846191e-01 -4.025869071483612061e-02
-7.787820417433977127e-03 6.418752670288085938e-01 -3.421811386942863464e-02
-9.211461991071701050e-03 6.722145676612854004e-01 -5.047358572483062744e-02
-1.119518838822841644e-02 6.727723479270935059e-01 -2.984124235808849335e-02
-1.857803668826818466e-03 6.385100483894348145e-01 -3.482262417674064636e-02
-1.248811464756727219e-02 7.017556428909301758e-01 -4.022388160228729248e-02
-4.953421186655759811e-03 7.167480587959289551e-01 -2.308297716081142426e-02
-1.146135479211807251e-02 6.809584498405456543e-01 -2.883646450936794281e-02
2.243216149508953094e-04 6.727982163429260254e-01 -1.672848872840404510e-02
-1.258645579218864441e-02 6.870349645614624023e-01 -3.237118944525718689e-02
-1.115719228982925415e-02 6.576430797576904297e-01 -4.995309561491012573e-02
-8.751924149692058563e-03 6.399943828582763672e-01 -4.031709954142570496e-02
-1.019461080431938171e-02 7.142750024795532227e-01 -2.806584350764751434e-02
-1.447527203708887100e-03 6.957231163978576660e-01 -2.992882765829563141e-02
-8.825642988085746765e-03 6.818779110908508301e-01 -4.866449162364006042e-02
-6.244453135877847672e-03 6.978328824043273926e-01 -1.610462740063667297e-02
-1.222124136984348297e-02 7.004643082618713379e-01 -3.105099126696586609e-02
-9.196764789521694183e-03 7.164421081542968750e-01 -3.255486115813255310e-02
-5.659759510308504105e-03 7.151083946228027344e-01 -2.980736270546913147e-02
-6.785575766116380692e-03 7.058182358741760254e-01 -3.840478509664535522e-02
-1.669898163527250290e-03 6.846417188644409180e-01 -3.532405197620391846e-02
-4.995553288608789444e-03 7.124035954475402832e-01 -1.775122433900833130e-02
-8.973212912678718567e-03 7.069044113159179688e-01 -2.142221480607986450e-02
-3.690179437398910522e-05 6.911869645118713379e-01 -2.527949027717113495e-02
-1.212314423173666000e-02 6.723719239234924316e-01 -4.954352974891662598e-02
-1.046606432646512985e-02 6.462342143058776855e-01 -4.500927776098251343e-02
-1.189868338406085968e-02 6.832535862922668457e-01 -4.843455180525779724e-02
-1.249806769192218781e-02 6.929261684417724609e-01 -4.492874816060066223e-02
6.581526249647140503e-04 6.673645377159118652e-01 -1.881674304604530334e-02
-3.836387768387794495e-03 6.882966756820678711e-01 -3.987062722444534302e-02
-2.975188195705413818e-03 6.946690678596496582e-01 -3.546686470508575439e-02
-5.419006571173667908e-03 6.376165747642517090e-01 -3.249083086848258972e-02
-7.125770207494497299e-03 7.002372741699218750e-01 -1.739021763205528259e-02
-5.297827534377574921e-03 6.851848959922790527e-01 -4.362135007977485657e-02
-3.314415458589792252e-03 6.815487146377563477e-01 -4.059743136167526245e-02
9.700525552034378052e-04 6.595243215560913086e-01 -2.733241766691207886e-02
-1.957655418664216995e-03 7.006878852844238281e-01 -1.509837992489337921e-02
-2.939565805718302727e-03 6.804566383361816406e-01 -1.428481005132198334e-02
8.102506399154663086e-06 6.926478743553161621e-01 -2.355683967471122742e-02
-1.086778379976749420e-02 6.701760888099670410e-01 -2.951983921229839325e-02
-9.589916095137596130e-03 7.096897959709167480e-01 -3.874363750219345093e-02
-4.323109984397888184e-03 6.831344366073608398e-01 -4.235132038593292236e-02
-1.969675533473491669e-03 6.756578683853149414e-01 -3.857846930623054504e-02
-8.067746646702289581e-03 6.988742947578430176e-01 -1.890750601887702942e-02
8.842991665005683899e-04 6.570632457733154297e-01 -2.496711723506450653e-02
-6.773055065423250198e-03 7.041738033294677734e-01 -1.719259843230247498e-02
-9.164113551378250122e-03 6.408983469009399414e-01 -4.438245669007301331e-02
-1.104476675391197205e-02 6.906195282936096191e-01 -4.709381610155105591e-02
-2.250398974865674973e-03 6.860209107398986816e-01 -3.661254048347473145e-02
-1.101295929402112961e-03 6.423280835151672363e-01 -3.458422422409057617e-02
-9.807422757148742676e-04 6.599127054214477539e-01 -3.770352900028228760e-02
8.471822366118431091e-05 6.699866652488708496e-01 -3.263363614678382874e-02
-4.302032291889190674e-03 6.724987030029296875e-01 -1.646840013563632965e-02
-5.136735737323760986e-03 7.091826796531677246e-01 -3.341002389788627625e-02
-4.609043709933757782e-03 6.806659102439880371e-01 -1.538386940956115723e-02
-9.521058760583400726e-03 7.155732512474060059e-01 -2.644276060163974762e-02
3.251759335398674011e-04 6.906766295433044434e-01 -2.162199839949607849e-02
-1.298813894391059875e-02 6.712548136711120605e-01 -3.876085206866264343e-02
3.797085955739021301e-04 6.888272166252136230e-01 -2.348768524825572968e-02
-9.962563402950763702e-03 6.830600500106811523e-01 -2.409723587334156036e-02
-1.194891985505819321e-02 7.080407738685607910e-01 -3.545521944761276245e-02
-1.081296708434820175e-02 7.006036639213562012e-01 -2.552448213100433350e-02
-9.961444884538650513e-04 6.865155696868896484e-01 -1.422742381691932678e-02
-1.178123988211154938e-02 6.542336344718933105e-01 -4.328800737857818604e-02
-3.649318590760231018e-03 6.980777978897094727e-01 -3.577705100178718567e-02
-1.311215478926897049e-02 6.718940138816833496e-01 -4.650129005312919617e-02
-9.579835459589958191e-03 6.426230072975158691e-01 -4.149625822901725769e-02
-5.357107147574424744e-05 6.469117403030395508e-01 -2.911146730184555054e-02
-3.553750226274132729e-03 7.097226977348327637e-01 -2.835507877171039581e-02
-1.320275850594043732e-02 6.855723261833190918e-01 -4.518766701221466064e-02
-1.397603191435337067e-03 7.020722031593322754e-01 -2.503862977027893066e-02
-1.026074308902025223e-02 6.534994244575500488e-01 -5.020352452993392944e-02
-3.814297961071133614e-03 6.365227103233337402e-01 -4.083039611577987671e-02
-1.256434619426727295e-02 6.676185131072998047e-01 -3.764529153704643250e-02
-7.210271432995796204e-04 6.443195939064025879e-01 -2.745114639401435852e-02
-3.522332059219479561e-03 6.525411605834960938e-01 -4.441548883914947510e-02
-8.900752291083335876e-03 6.664072871208190918e-01 -2.528797462582588196e-02
-4.966276697814464569e-03 6.972813010215759277e-01 -3.906497731804847717e-02
-8.921786211431026459e-03 6.462838053703308105e-01 -3.439750894904136658e-02
-9.561242535710334778e-03 7.166129350662231445e-01 -2.819998003542423248e-02
-8.878437802195549011e-05 6.695061326026916504e-01 -1.679249107837677002e-02
-4.324869718402624130e-03 6.551008224487304688e-01 -4.603340104222297668e-02
-4.007319919764995575e-03 7.061626315116882324e-01 -3.247467428445816040e-02
-3.337415633723139763e-03 6.924867033958435059e-01 -1.372809149324893951e-02
-1.045954041182994843e-02 6.762285828590393066e-01 -2.671198919415473938e-02
-1.651058439165353775e-03 6.616488099098205566e-01 -3.968599811196327209e-02
-1.266087591648101807e-02 6.815773844718933105e-01 -3.354905173182487488e-02
-8.784569799900054932e-03 7.009118199348449707e-01 -4.285892099142074585e-02
-1.225810311734676361e-02 6.643987298011779785e-01 -4.881678521633148193e-02
-4.888903349637985229e-04 6.711469292640686035e-01 -3.475104644894599915e-02
-3.358266316354274750e-03 6.617676019668579102e-01 -4.391254484653472900e-02
-7.655818015336990356e-03 6.646931171417236328e-01 -2.315285988152027130e-02
-1.031111739575862885e-02 6.651532649993896484e-01 -2.942094579339027405e-02
-8.364837616682052612e-03 6.551862359046936035e-01 -2.806392684578895569e-02
-9.017537347972393036e-03 6.402902007102966309e-01 -4.225058481097221375e-02
-1.011520251631736755e-02 6.987473964691162109e-01 -2.341805770993232727e-02
-2.702955389395356178e-03 6.778554320335388184e-01 -4.002077877521514893e-02
-3.657787106931209564e-03 6.528538465499877930e-01 -2.165407314896583557e-02
-1.336538046598434448e-02 6.792439818382263184e-01 -3.867408633232116699e-02
-9.315744042396545410e-03 6.941819190979003906e-01 -2.148713171482086182e-02
-1.272037159651517868e-02 6.784616708755493164e-01 -3.454906493425369263e-02
-1.338655129075050354e-02 6.872137784957885742e-01 -4.368329048156738281e-02
2.993303351104259491e-04 6.782964468002319336e-01 -2.959076687693595886e-02
-1.157552935183048248e-02 6.546232700347900391e-01 -4.030789062380790710e-02
-2.516626613214612007e-03 6.365739703178405762e-01 -3.558669611811637878e-02
-9.461709298193454742e-03 7.029350996017456055e-01 -2.202811837196350098e-02
-1.339361444115638733e-02 6.741611361503601074e-01 -4.162720590829849243e-02
-5.104183219373226166e-04 6.923921108245849609e-01 -2.745856344699859619e-02
-8.885193616151809692e-03 7.119413018226623535e-01 -2.250955998897552490e-02
-1.584546174854040146e-03 6.790652275085449219e-01 -1.430696062743663788e-02
9.737298823893070221e-04 6.684994101524353027e-01 -2.779171243309974670e-02
-2.431119792163372040e-04 6.495513319969177246e-01 -2.428909391164779663e-02
-1.344803255051374435e-03 7.035554051399230957e-01 -2.238556742668151855e-02
-1.093274913728237152e-04 6.550126075744628906e-01 -2.141741290688514709e-02
-1.898379065096378326e-03 6.657440066337585449e-01 -4.000845551490783691e-02
-7.904844358563423157e-03 6.676834225654602051e-01 -5.010089650750160217e-02
-8.349877782166004181e-03 6.872042417526245117e-01 -4.704926535487174988e-02
-1.225539948791265488e-03 6.731762886047363281e-01 -3.688582777976989746e-02
-6.102086044847965240e-04 6.624129414558410645e-01 -1.802008040249347687e-02
-6.931737065315246582e-03 7.188748717308044434e-01 -2.638630755245685577e-02
-3.718814114108681679e-03 6.570008993148803711e-01 -4.486969113349914551e-02
-7.632914930582046509e-03 6.557215452194213867e-01 -2.621841989457607269e-02
-1.294890791177749634e-02 6.682425737380981445e-01 -4.663702845573425293e-02
-1.294665504246950150e-02 6.975706219673156738e-01 -4.101433977484703064e-02
1.152624841779470444e-03 6.697020530700683594e-01 -2.582181245088577271e-02
-5.412047263234853745e-03 6.722885966300964355e-01 -4.649512842297554016e-02
-1.120636891573667526e-02 6.521661877632141113e-01 -4.014718532562255859e-02
-1.154856942594051361e-02 6.674160361289978027e-01 -3.284229338169097900e-02
-4.700610414147377014e-03 7.149443626403808594e-01 -1.974977925419807434e-02
-1.183938980102539062e-02 6.953891515731811523e-01 -2.883802168071269989e-02
-1.726858317852020264e-05 6.891811490058898926e-01 -2.651392109692096710e-02
-1.151980273425579071e-02 7.042943239212036133e-01 -2.864425815641880035e-02
4.632989875972270966e-04 6.519190073013305664e-01 -2.914157696068286896e-02
-6.978160236030817032e-03 6.836923360824584961e-01 -1.796602830290794373e-02
-3.672176506370306015e-03 6.860275268554687500e-01 -4.018995910882949829e-02
-1.318643707782030106e-02 6.802799105644226074e-01 -4.623142629861831665e-02
-8.808388374745845795e-04 6.987982988357543945e-01 -1.697120070457458496e-02
-1.347812265157699585e-02 6.819231510162353516e-01 -4.420902952551841736e-02
-8.507348597049713135e-03 7.038117051124572754e-01 -4.136630147695541382e-02
-1.258950866758823395e-02 6.998937726020812988e-01 -3.310498222708702087e-02
4.015741869807243347e-04 6.880778670310974121e-01 -1.812951266765594482e-02
-1.281465217471122742e-02 7.001367807388305664e-01 -3.519251942634582520e-02
1.235358417034149170e-03 6.707631349563598633e-01 -2.189111337065696716e-02
-2.320684958249330521e-03 6.930787563323974609e-01 -3.423596173524856567e-02
-9.501032531261444092e-03 6.525990962982177734e-01 -3.237917646765708923e-02
-2.509322483092546463e-03 6.619808077812194824e-01 -4.194641485810279846e-02
-3.668407443910837173e-03 7.090187668800354004e-01 -1.650546491146087646e-02
-2.914302749559283257e-03 6.463239192962646484e-01 -4.242485016584396362e-02
-5.352448672056198120e-03 6.538065075874328613e-01 -4.768678173422813416e-02
7.447632960975170135e-04 6.854470968246459961e-01 -2.106558717787265778e-02
-7.039605639874935150e-03 6.940922141075134277e-01 -4.359598457813262939e-02
-1.139485277235507965e-03 6.850638985633850098e-01 -3.341841697692871094e-02
1.617735251784324646e-04 6.556990146636962891e-01 -3.289196640253067017e-02
-1.805555075407028198e-03 6.439808011054992676e-01 -3.865844756364822388e-02
