-3.550667762756347656e-01 5.835757404565811157e-02 4.407894909381866455e-01
-2.531327009201049805e-01 2.211743220686912537e-02 -7.258240878582000732e-02
-2.648754417896270752e-01 5.407110601663589478e-02 8.250453472137451172e-01
-3.898063302040100098e-02 4.125083610415458679e-02 -1.427079737186431885e-01
-2.507341206073760986e-01 6.535756587982177734e-02 -6.118929982185363770e-01
-2.476585507392883301e-01 3.067190013825893402e-02 6.198929548263549805e-01
-2.347343862056732178e-01 3.370617330074310303e-02 7.048178911209106445e-01
-1.978519856929779053e-01 3.388246893882751465e-02 6.405242681503295898e-01
-2.036481797695159912e-01 2.218279242515563965e-02 -1.742974519729614258e-01
-9.096330404281616211e-02 2.852291427552700043e-02 -4.996184408664703369e-01
-1.533651947975158691e-01 2.387520298361778259e-02 -4.871995151042938232e-01
-2.945396900177001953e-01 2.326270379126071930e-02 6.966903805732727051e-03
-2.221924662590026855e-01 2.303267642855644226e-02 -5.983051657676696777e-01
-1.764739304780960083e-01 2.906932681798934937e-02 -1.033396720886230469e+00
-1.378049999475479126e-01 5.879271030426025391e-02 -1.088774561882019043e+00
-2.800727486610412598e-01 6.704053282737731934e-02 -7.987192273139953613e-02
-1.088557466864585876e-01 4.321628063917160034e-02 -1.265133261680603027e+00
-1.132625192403793335e-01 2.841354720294475555e-02 -8.189386129379272461e-01
-2.323532998561859131e-01 2.435278706252574921e-02 -7.232642173767089844e-01
-1.288051903247833252e-01 2.590051479637622833e-02 -1.581310629844665527e-01
-1.920051574707031250e-01 2.982307970523834229e-02 4.809321463108062744e-01
-3.076016604900360107e-01 2.662051841616630554e-02 -6.033867597579956055e-01
-3.468863368034362793e-01 2.669285610318183899e-02 -1.959114521741867065e-01
-1.368529498577117920e-01 6.266254186630249023e-02 3.119828999042510986e-01
-1.586036533117294312e-01 2.346701547503471375e-02 -3.633648157119750977e-01
-1.085820868611335754e-01 3.460690379142761230e-02 2.919090092182159424e-01
-1.401628106832504272e-01 2.855027467012405396e-02 1.922451853752136230e-01
-2.657575309276580811e-01 3.531495854258537292e-02 7.706601619720458984e-01
-1.960454732179641724e-01 5.961620062589645386e-02 -1.052989363670349121e+00
-2.704800367355346680e-01 3.896263241767883301e-02 -1.130118846893310547e+00
-3.994430303573608398e-01 4.608186334371566772e-02 4.744434654712677002e-01
-2.028156816959381104e-01 6.656576693058013916e-02 -6.446685791015625000e-01
-2.114319205284118652e-01 6.764905899763107300e-02 -5.062186717987060547e-01
-2.532442212104797363e-01 2.201975509524345398e-02 -3.176818788051605225e-01
-1.559127271175384521e-01 6.346487253904342651e-02 -8.884841203689575195e-01
-1.568655222654342651e-01 2.425411716103553772e-02 -6.138397455215454102e-01
-1.837538927793502808e-01 6.866590678691864014e-02 -1.017226576805114746e-01
-2.077261507511138916e-01 6.203063204884529114e-02 5.590987205505371094e-01
-2.587828040122985840e-01 5.182739347219467163e-02 8.566837310791015625e-01
-2.803275585174560547e-01 2.782465144991874695e-02 4.957964122295379639e-01
-2.486651688814163208e-01 6.277025490999221802e-02 -7.963062524795532227e-01
-3.624242842197418213e-01 3.877291083335876465e-02 6.811211109161376953e-01
-4.130690693855285645e-01 4.213045910000801086e-02 -3.505922853946685791e-02
-8.503597974777221680e-02 3.024967014789581299e-02 -7.349170446395874023e-01
-1.823750734329223633e-01 2.417791448533535004e-02 6.216007471084594727e-02
-1.327207386493682861e-01 6.444410234689712524e-02 -7.834297418594360352e-01
-3.462393283843994141e-01 6.171686947345733643e-02 1.648030579090118408e-01
-7.146811485290527344e-02 6.192134693264961243e-02 -5.901482701301574707e-01
-1.642096340656280518e-01 6.842781603336334229e-02 -2.050826251506805420e-01
-9.517209976911544800e-02 2.811842225492000580e-02 -3.811942338943481445e-01
-3.745359182357788086e-01 5.632490664720535278e-02 -2.477032989263534546e-01
-2.825262248516082764e-01 2.307165786623954773e-02 4.946264624595642090e-02
-3.247739076614379883e-01 6.406381726264953613e-02 2.926550805568695068e-02
-2.845897674560546875e-01 5.917379260063171387e-02 -8.260918855667114258e-01
-2.770742177963256836e-01 2.246659062802791595e-02 -9.252523630857467651e-02
-2.668710947036743164e-01 2.562217041850090027e-02 -7.289298772811889648e-01
-2.336170226335525513e-01 2.382616698741912842e-02 1.909635066986083984e-01
-8.073101937770843506e-02 6.333408504724502563e-02 -4.975602030754089355e-01
-1.997567415237426758e-01 5.990220978856086731e-02 6.249742507934570312e-01
-3.137357831001281738e-01 2.572013437747955322e-02 2.686839401721954346e-01
-3.065537214279174805e-01 6.547762453556060791e-02 -4.796873033046722412e-02
-2.255820930004119873e-01 2.270031720399856567e-02 -5.480858087539672852e-01
-3.812702298164367676e-01 3.325953707098960876e-02 -3.311097025871276855e-01
-1.602942943572998047e-01 2.609018795192241669e-02 -8.343999385833740234e-01
-2.229118049144744873e-01 5.621623247861862183e-02 -1.115671157836914062e+00
-2.411083877086639404e-01 6.810505688190460205e-02 5.893599987030029297e-02
-1.050209850072860718e-01 2.932483702898025513e-02 -2.678814530372619629e-02
-1.165690720081329346e-01 5.786388367414474487e-02 3.998402059078216553e-01
-2.846826910972595215e-01 6.649908423423767090e-02 1.125677824020385742e-01
-2.115000486373901367e-01 3.006978332996368408e-02 5.411411523818969727e-01
-7.765060663223266602e-02 3.391802683472633362e-02 -9.435238838195800781e-01
-3.265941739082336426e-01 2.671588212251663208e-02 2.999296486377716064e-01
-3.902436792850494385e-01 3.967618942260742188e-02 5.266834497451782227e-01
-2.378389239311218262e-01 2.503328211605548859e-02 3.047058880329132080e-01
-4.912795126438140869e-02 4.611349478363990784e-02 6.801930069923400879e-02
-2.326662391424179077e-01 6.441933661699295044e-02 4.609827101230621338e-01
-8.210103213787078857e-02 4.217548295855522156e-02 -1.181579589843750000e+00
-2.204992324113845825e-01 2.182301133871078491e-02 -2.714618146419525146e-01
-1.595504581928253174e-01 6.556615978479385376e-02 -7.427471876144409180e-01
-1.674119383096694946e-01 3.187921643257141113e-02 -1.136539340019226074e+00
-2.750565707683563232e-01 2.373315580189228058e-02 1.767844557762145996e-01
-3.184490203857421875e-01 6.448811292648315430e-02 8.952093124389648438e-02
-3.069302737712860107e-01 4.570605978369712830e-02 8.729847669601440430e-01
-6.408162415027618408e-02 3.205266594886779785e-02 -4.414107799530029297e-01
-3.472239971160888672e-01 5.880833044648170471e-02 -4.206312596797943115e-01
-1.589866727590560913e-01 6.562882661819458008e-02 2.216831445693969727e-01
-2.831284105777740479e-01 4.650160297751426697e-02 -1.101919412612915039e+00
-3.497515320777893066e-01 2.673417329788208008e-02 1.266703009605407715e-02
-2.946221828460693359e-01 2.707700617611408234e-02 -7.051237821578979492e-01
-1.362712383270263672e-01 6.342437863349914551e-02 -8.649116754531860352e-01
-4.100287556648254395e-01 4.375816881656646729e-02 3.223781287670135498e-01
-2.106471657752990723e-01 6.457391381263732910e-02 4.334609210491180420e-01
-3.545197844505310059e-01 6.084395572543144226e-02 -5.508919060230255127e-02
-1.820169985294342041e-01 6.870672106742858887e-02 -1.355617046356201172e-01
-3.826423883438110352e-01 3.095845133066177368e-02 2.656769752502441406e-02
-1.894803345203399658e-01 6.880369037389755249e-02 -2.654381990432739258e-01
-2.904757261276245117e-01 5.055555328726768494e-02 -1.032098889350891113e+00
-3.472178876399993896e-01 3.108729049563407898e-02 -5.806840658187866211e-01
-1.271202564239501953e-01 6.020387262105941772e-02 -1.018516421318054199e+00
-1.406580954790115356e-01 2.444824948906898499e-02 -3.369776904582977295e-01
-1.843317002058029175e-01 4.083970189094543457e-02 -1.299284100532531738e+00
-1.155663654208183289e-01 4.860646277666091919e-02 5.314099788665771484e-01
-2.064500600099563599e-01 6.615068018436431885e-02 3.160023987293243408e-01
-3.188519179821014404e-01 6.151977926492691040e-02 -4.923610389232635498e-01
-2.531695961952209473e-01 2.331159822642803192e-02 -5.690411329269409180e-01
-1.158299073576927185e-01 6.583517789840698242e-02 -1.134920865297317505e-01
-1.082795411348342896e-01 6.578797847032546997e-02 -4.301951527595520020e-01
-1.563629209995269775e-01 6.360340118408203125e-02 3.470031917095184326e-01
-2.046364843845367432e-01 6.749875843524932861e-02 1.797432899475097656e-01
-3.596251010894775391e-01 5.961463600397109985e-02 2.640389502048492432e-01
-3.419520258903503418e-01 2.610528655350208282e-02 -1.662579178810119629e-01
-1.043927595019340515e-01 6.539745628833770752e-02 -4.751744270324707031e-01
-2.693681418895721436e-01 2.989191189408302307e-02 5.986804962158203125e-01
-2.865361571311950684e-01 3.225168585777282715e-02 6.827799081802368164e-01
-1.598840057849884033e-01 6.755270063877105713e-02 1.300075650215148926e-02
-1.085303872823715210e-01 6.304453313350677490e-02 -8.044744729995727539e-01
-3.002898097038269043e-01 2.626959048211574554e-02 3.650545775890350342e-01
-3.041224479675292969e-01 3.399725258350372314e-02 -9.278544187545776367e-01
-2.373577356338500977e-01 6.850805878639221191e-02 -8.025313913822174072e-02
-2.904924750328063965e-01 2.518064342439174652e-02 2.969184219837188721e-01
-3.308035731315612793e-01 6.158263608813285828e-02 -3.731706738471984863e-01
-2.045394182205200195e-01 6.300409138202667236e-02 -8.919256925582885742e-01
-3.345372676849365234e-01 6.124047189950942993e-02 3.885956108570098877e-01
-1.938506662845611572e-01 2.402691170573234558e-02 9.990611672401428223e-02
-9.378261864185333252e-02 6.467764079570770264e-02 -2.858964502811431885e-01
-7.811121642589569092e-02 3.027597442269325256e-02 -3.428298830986022949e-01
-1.671437174081802368e-01 6.768932938575744629e-02 -5.124160647392272949e-01
-5.975006520748138428e-02 5.014873668551445007e-02 -1.070835590362548828e+00
-2.184426337480545044e-01 2.982470765709877014e-02 -1.046200752258300781e+00
-4.901510477066040039e-02 3.659219294786453247e-02 -7.984757423400878906e-01
-2.827755212783813477e-01 6.595010310411453247e-02 2.322203516960144043e-01
-2.165818214416503906e-01 6.822139024734497070e-02 8.210569620132446289e-02
-1.902496516704559326e-01 6.101852655410766602e-02 -1.003971695899963379e+00
-3.178514242172241211e-01 6.098631396889686584e-02 -5.380982160568237305e-01
-1.833497136831283569e-01 4.554614424705505371e-02 7.751508951187133789e-01
-2.631155252456665039e-01 2.861507982015609741e-02 -9.043910503387451172e-01
-1.020791307091712952e-01 2.736598439514636993e-02 -4.346590042114257812e-01
-3.199427127838134766e-01 2.742072567343711853e-02 3.897826969623565674e-01
-1.205683276057243347e-01 2.626757882535457611e-02 -6.154841184616088867e-01
-2.453943192958831787e-01 6.749090552330017090e-02 -3.953517377376556396e-01
-8.532497286796569824e-02 6.288921833038330078e-02 -6.553578376770019531e-01
-9.864161908626556396e-02 6.485775858163833618e-02 -2.029189020395278931e-01
-3.250336647033691406e-02 3.985908627510070801e-02 -3.546685278415679932e-01
-2.462036013603210449e-01 6.787002086639404297e-02 -3.172037601470947266e-01
-2.819640040397644043e-01 2.259981445968151093e-02 -2.403126507997512817e-01
-1.769694238901138306e-01 6.529237329959869385e-02 -7.725704908370971680e-01
-1.402661204338073730e-01 2.449859492480754852e-02 -4.591791629791259766e-01
-1.534899473190307617e-01 2.828873507678508759e-02 -9.670089483261108398e-01
-2.601649761199951172e-01 6.777633726596832275e-02 9.667828679084777832e-03
-1.504153907299041748e-01 5.703979730606079102e-02 5.689898729324340820e-01
-2.330057024955749512e-01 6.672644615173339844e-02 -5.519560575485229492e-01
-3.293709456920623779e-01 3.008395619690418243e-02 -6.642940044403076172e-01
-3.714355826377868652e-01 3.729450702667236328e-02 6.043522357940673828e-01
-3.084495067596435547e-01 6.113547831773757935e-02 -5.964316129684448242e-01
2.470399290323257446e-01 -4.698558747768402100e-01 -7.336617708206176758e-01
1.651719808578491211e-01 -4.271610379219055176e-01 -7.277947068214416504e-01
-2.408856749534606934e-01 -3.772568702697753906e-01 -7.870941162109375000e-01
-2.393915057182312012e-01 -4.894086718559265137e-01 -7.860178351402282715e-01
1.807563155889511108e-01 -3.378127813339233398e-01 -7.336320281028747559e-01
4.327406883239746094e-01 -4.501287341117858887e-01 -7.430821657180786133e-01
3.805171251296997070e-01 -3.322165012359619141e-01 -7.605076432228088379e-01
3.656712770462036133e-01 -4.744378030300140381e-01 -7.410794496536254883e-01
2.353961020708084106e-01 -5.346629023551940918e-01 -7.574054598808288574e-01
6.379372626543045044e-02 -4.357744753360748291e-01 -7.917244434356689453e-01
-1.783841997385025024e-01 -3.836435973644256592e-01 -7.295000553131103516e-01
3.853934258222579956e-02 -4.773188531398773193e-01 -7.307879328727722168e-01
1.178420186042785645e-01 -4.313348829746246338e-01 -7.908148765563964844e-01
1.461563445627689362e-02 -4.544481337070465088e-01 -7.281717061996459961e-01
1.140622496604919434e-01 -4.970743656158447266e-01 -7.858309745788574219e-01
3.942058682441711426e-01 -4.024688303470611572e-01 -7.370148897171020508e-01
2.645456194877624512e-01 -3.516063094139099121e-01 -7.342061996459960938e-01
-4.945023655891418457e-01 -4.238369464874267578e-01 -7.735694050788879395e-01
-8.422248810529708862e-02 -3.040844798088073730e-01 -7.730581760406494141e-01
2.464616149663925171e-01 -4.889229238033294678e-01 -7.822265625000000000e-01
1.980525702238082886e-01 -4.172759950160980225e-01 -7.282184958457946777e-01
1.316394656896591187e-01 -3.804963231086730957e-01 -7.276856899261474609e-01
1.448159217834472656e-01 -2.929057478904724121e-01 -7.515681385993957520e-01
-2.049238830804824829e-01 -3.524374067783355713e-01 -7.844325304031372070e-01
-2.859203815460205078e-01 -4.929433465003967285e-01 -7.836093902587890625e-01
2.283730357885360718e-01 -4.427751600742340088e-01 -7.873678803443908691e-01
3.535997271537780762e-01 -3.742213845252990723e-01 -7.360148429870605469e-01
3.090206384658813477e-01 -3.556843996047973633e-01 -7.357814311981201172e-01
-4.304883480072021484e-01 -3.735743761062622070e-01 -7.756635546684265137e-01
2.541188597679138184e-01 -5.058150887489318848e-01 -7.781040072441101074e-01
-1.542210429906845093e-01 -3.734665513038635254e-01 -7.295435667037963867e-01
3.144289255142211914e-01 -4.380773007869720459e-01 -7.331335544586181641e-01
7.816749066114425659e-02 -4.344482719898223877e-01 -7.270021438598632812e-01
-2.019541114568710327e-01 -5.174384713172912598e-01 -7.812633514404296875e-01
2.638614177703857422e-01 -3.604056537151336670e-01 -7.809948325157165527e-01
-2.908033728599548340e-01 -4.118547737598419189e-01 -7.881433963775634766e-01
4.773325324058532715e-01 -3.917721807956695557e-01 -7.475697994232177734e-01
-2.637757658958435059e-01 -4.776624739170074463e-01 -7.867819666862487793e-01
-4.680101275444030762e-01 -4.649248421192169189e-01 -7.508637309074401855e-01
3.274834752082824707e-01 -4.964794218540191650e-01 -7.438210248947143555e-01
1.073622107505798340e-01 -3.222510218620300293e-01 -7.354502081871032715e-01
3.078591078519821167e-02 -3.088237643241882324e-01 -7.752360105514526367e-01
1.024475134909152985e-02 -4.149120450019836426e-01 -7.262355089187622070e-01
-1.105176433920860291e-01 -3.367857336997985840e-01 -7.331503629684448242e-01
3.068377375602722168e-01 -4.267548024654388428e-01 -7.840378880500793457e-01
-2.614370584487915039e-01 -4.424462020397186279e-01 -7.325330376625061035e-01
-3.741730004549026489e-02 -2.992979884147644043e-01 -7.429566979408264160e-01
-8.648695796728134155e-02 -3.446907699108123779e-01 -7.850148081779479980e-01
-3.109714984893798828e-01 -3.126335740089416504e-01 -7.609577178955078125e-01
-6.365198642015457153e-02 -4.856074452400207520e-01 -7.324386835098266602e-01
3.127241730690002441e-01 -4.646131098270416260e-01 -7.818105220794677734e-01
-4.640780091285705566e-01 -4.308256208896636963e-01 -7.775290608406066895e-01
4.365282654762268066e-01 -4.829226732254028320e-01 -7.554001212120056152e-01
-2.008571326732635498e-01 -4.050020575523376465e-01 -7.903762459754943848e-01
8.631487935781478882e-02 -4.899738430976867676e-01 -7.331336140632629395e-01
1.141145527362823486e-01 -3.495786786079406738e-01 -7.844341993331909180e-01
-9.074754081666469574e-03 -3.131935000419616699e-01 -7.373045086860656738e-01
9.640487283468246460e-02 -2.907079160213470459e-01 -7.621770501136779785e-01
1.445879787206649780e-01 -4.118724167346954346e-01 -7.899262309074401855e-01
-2.598235607147216797e-01 -3.225691318511962891e-01 -7.742736935615539551e-01
6.829561293125152588e-02 -3.178486824035644531e-01 -7.361112236976623535e-01
-1.089176628738641739e-02 -4.138638973236083984e-01 -7.922002077102661133e-01
-5.043320655822753906e-01 -4.220307171344757080e-01 -7.513481974601745605e-01
1.077618822455406189e-01 -4.678221940994262695e-01 -7.300791740417480469e-01
-4.124754667282104492e-01 -5.006160736083984375e-01 -7.554139494895935059e-01
-3.486891388893127441e-01 -3.295394480228424072e-01 -7.696983218193054199e-01
2.122448980808258057e-01 -5.219489932060241699e-01 -7.754953503608703613e-01
2.063097357749938965e-01 -4.338691830635070801e-01 -7.289992570877075195e-01
-1.268437802791595459e-01 -4.630689024925231934e-01 -7.304018139839172363e-01
-3.872964978218078613e-01 -3.477467894554138184e-01 -7.731617689132690430e-01
-1.475064903497695923e-01 -4.810569286346435547e-01 -7.331639528274536133e-01
1.585107296705245972e-01 -3.578369319438934326e-01 -7.846689820289611816e-01
-3.052917122840881348e-01 -3.620146214962005615e-01 -7.824401855468750000e-01
-4.780689477920532227e-01 -3.739485144615173340e-01 -7.686623334884643555e-01
-3.366708159446716309e-01 -4.133574366569519043e-01 -7.350591421127319336e-01
-2.228327095508575439e-01 -3.555739521980285645e-01 -7.335461378097534180e-01
3.449200391769409180e-01 -5.004676580429077148e-01 -7.717860937118530273e-01
1.792532503604888916e-01 -5.371269583702087402e-01 -7.520321011543273926e-01
3.602405190467834473e-01 -3.522399067878723145e-01 -7.400043606758117676e-01
3.092894554138183594e-01 -3.367419242858886719e-01 -7.726903557777404785e-01
3.287543356418609619e-02 -5.451948642730712891e-01 -7.512974739074707031e-01
2.064732462167739868e-01 -3.573186099529266357e-01 -7.313075065612792969e-01
3.978067040443420410e-01 -3.375337421894073486e-01 -7.514297366142272949e-01
-1.389427185058593750e-01 -4.061535000801086426e-01 -7.278727293014526367e-01
-2.517144680023193359e-01 -4.822939336299896240e-01 -7.367447614669799805e-01
-2.891592383384704590e-01 -5.189539790153503418e-01 -7.762488722801208496e-01
-1.253212839365005493e-01 -5.241013765335083008e-01 -7.426703572273254395e-01
2.521106004714965820e-01 -5.276338458061218262e-01 -7.688238620758056641e-01
-2.437541261315345764e-04 -5.191541314125061035e-01 -7.831649780273437500e-01
2.228360474109649658e-01 -3.284974098205566406e-01 -7.371981739997863770e-01
-4.640014767646789551e-01 -4.074184596538543701e-01 -7.768276333808898926e-01
-3.948271870613098145e-01 -4.854721724987030029e-01 -7.779365181922912598e-01
3.326885700225830078e-01 -4.526553750038146973e-01 -7.354009151458740234e-01
3.398624062538146973e-01 -3.422407507896423340e-01 -7.717576622962951660e-01
-2.879360318183898926e-01 -4.337880611419677734e-01 -7.331504821777343750e-01
9.494672715663909912e-02 -3.992153406143188477e-01 -7.903950214385986328e-01
-1.026144623756408691e-01 -4.458971917629241943e-01 -7.921206355094909668e-01
4.304841756820678711e-01 -3.619981110095977783e-01 -7.457112073898315430e-01
6.381186842918395996e-02 -4.612046182155609131e-01 -7.289405465126037598e-01
-4.305669292807579041e-02 -2.993752360343933105e-01 -7.711825370788574219e-01
-5.194206833839416504e-01 -4.449689686298370361e-01 -7.586932182312011719e-01
-3.651815652847290039e-01 -3.904668688774108887e-01 -7.374639511108398438e-01
-3.788693994283676147e-02 -3.380143642425537109e-01 -7.838762402534484863e-01
-3.446897268295288086e-01 -4.881162345409393311e-01 -7.431302666664123535e-01
9.595973044633865356e-02 -3.238515853881835938e-01 -7.790593504905700684e-01
-1.666981577873229980e-01 -5.146310329437255859e-01 -7.830440402030944824e-01
-2.392439842224121094e-01 -3.358490467071533203e-01 -7.796185612678527832e-01
1.639358848333358765e-01 -5.323220491409301758e-01 -7.738976478576660156e-01
-1.708332747220993042e-01 -5.288119316101074219e-01 -7.460234165191650391e-01
8.484996855258941650e-02 -4.369749724864959717e-01 -7.913851737976074219e-01
3.917110562324523926e-01 -4.551677703857421875e-01 -7.397822141647338867e-01
4.079904779791831970e-02 -3.912836015224456787e-01 -7.264818549156188965e-01
-4.363699555397033691e-01 -4.923833310604095459e-01 -7.698323726654052734e-01
-3.662415742874145508e-01 -3.293540775775909424e-01 -7.513092756271362305e-01
1.251977086067199707e-01 -3.080797791481018066e-01 -7.727192044258117676e-01
-6.518237758427858353e-03 -5.354840159416198730e-01 -7.454544305801391602e-01
7.440202683210372925e-02 -4.124816656112670898e-01 -7.913279533386230469e-01
3.380257487297058105e-01 -3.240192830562591553e-01 -7.483645677566528320e-01
1.624650657176971436e-01 -4.877371191978454590e-01 -7.858851552009582520e-01
-1.738353222608566284e-01 -4.756345450878143311e-01 -7.330332994461059570e-01
-3.121784329414367676e-01 -5.229184627532958984e-01 -7.720254063606262207e-01
2.203294783830642700e-01 -5.171361565589904785e-01 -7.438134551048278809e-01
-3.296829462051391602e-01 -4.719768464565277100e-01 -7.390271425247192383e-01
-2.361915707588195801e-01 -4.571920633316040039e-01 -7.894238829612731934e-01
-3.546711802482604980e-01 -4.787263572216033936e-01 -7.822846770286560059e-01
7.016711682081222534e-02 -4.832515120506286621e-01 -7.887064814567565918e-01
-4.645874500274658203e-01 -3.582364916801452637e-01 -7.632669806480407715e-01
-1.624677926301956177e-01 -3.656051754951477051e-01 -7.874622344970703125e-01
1.257249154150485992e-03 -4.759793281555175781e-01 -7.305853366851806641e-01
4.010170102119445801e-01 -4.504620432853698730e-01 -7.763760089874267578e-01
-1.691015809774398804e-01 -4.703453183174133301e-01 -7.899521589279174805e-01
-3.047994971275329590e-01 -3.362139165401458740e-01 -7.416733503341674805e-01
-9.117469191551208496e-02 -5.466652512550354004e-01 -7.534711360931396484e-01
-4.124222993850708008e-01 -4.512698054313659668e-01 -7.813481688499450684e-01
1.155423074960708618e-01 -4.498794674873352051e-01 -7.283674478530883789e-01
-2.479413598775863647e-01 -3.038915693759918213e-01 -7.529472708702087402e-01
-7.344715297222137451e-02 -5.252124667167663574e-01 -7.419713139533996582e-01
3.903715014457702637e-01 -3.662189841270446777e-01 -7.399542331695556641e-01
3.031444549560546875e-01 -3.889054954051971436e-01 -7.825760841369628906e-01
-4.374299645423889160e-01 -3.664008975028991699e-01 -7.472677230834960938e-01
-5.998731590807437897e-03 -4.402268230915069580e-01 -7.271741032600402832e-01
-3.399357199668884277e-01 -5.174081921577453613e-01 -7.719272375106811523e-01
1.811508089303970337e-01 -3.956689834594726562e-01 -7.881296873092651367e-01
-1.920639425516128540e-01 -4.236544966697692871e-01 -7.293353080749511719e-01
8.268931508064270020e-02 -3.367870151996612549e-01 -7.825548052787780762e-01
-5.725269019603729248e-02 -3.944435715675354004e-01 -7.268050909042358398e-01
1.333583444356918335e-01 -4.387351274490356445e-01 -7.278243303298950195e-01
3.808090686798095703e-01 -5.007029175758361816e-01 -7.529027462005615234e-01
-2.586149573326110840e-01 -3.866505026817321777e-01 -7.875404953956604004e-01
-3.344182968139648438e-01 -3.778312802314758301e-01 -7.834334373474121094e-01
3.606362938880920410e-01 -5.100860595703125000e-01 -7.611849308013916016e-01
-3.171014785766601562e-01 -4.333407580852508545e-01 -7.345213294029235840e-01
2.827326655387878418e-01 -4.705616235733032227e-01 -7.352494001388549805e-01
-2.686131000518798828e-01 -4.019704461097717285e-01 -7.884102463722229004e-01
-1.174911409616470337e-01 -4.289852380752563477e-01 -7.922307252883911133e-01
-2.678725123405456543e-02 -4.003389477729797363e-01 -7.264184355735778809e-01
1.743638515472412109e-01 -4.757224321365356445e-01 -7.323237061500549316e-01
2.558246850967407227e-01 -4.980778098106384277e-01 -7.395861744880676270e-01
-9.884761273860931396e-02 -3.268148303031921387e-01 -7.808337211608886719e-01
-1.678341776132583618e-01 -4.468382894992828369e-01 -7.298482656478881836e-01
-2.324993163347244263e-02 -5.457752943038940430e-01 -7.514182925224304199e-01
3.815634250640869141e-01 -4.315441548824310303e-01 -7.790869474411010742e-01
3.272624611854553223e-01 -4.123111963272094727e-01 -7.327801585197448730e-01
-2.465093135833740234e-01 -4.524044394493103027e-01 -7.327292561531066895e-01
-7.584644109010696411e-02 -3.920400440692901611e-01 -7.910965085029602051e-01
-1.464430093765258789e-01 -3.739166855812072754e-01 -7.887665629386901855e-01
-4.763969406485557556e-02 -4.113579690456390381e-01 -7.265176177024841309e-01
-1.453153192996978760e-01 -5.208532214164733887e-01 -7.818365097045898438e-01
3.063434958457946777e-01 -3.134300410747528076e-01 -7.523730993270874023e-01
-1.409996300935745239e-01 -3.449518680572509766e-01 -7.324780225753784180e-01
3.687955737113952637e-01 -4.185558855533599854e-01 -7.800773978233337402e-01
-2.737925052642822266e-01 -5.282319784164428711e-01 -7.525748014450073242e-01
2.733268141746520996e-01 -4.902003109455108643e-01 -7.385363578796386719e-01
-3.882466554641723633e-01 -3.827179968357086182e-01 -7.397521138191223145e-01
2.117611318826675415e-01 -3.613665401935577393e-01 -7.834328413009643555e-01
3.435479402542114258e-01 -5.140498876571655273e-01 -7.568250894546508789e-01
-7.689809054136276245e-02 -3.032383322715759277e-01 -7.418707609176635742e-01
2.769038677215576172e-01 -4.049481153488159180e-01 -7.305699586868286133e-01
3.052663207054138184e-01 -5.214160084724426270e-01 -7.649393677711486816e-01
-3.968349099159240723e-02 -5.142123103141784668e-01 -7.845415472984313965e-01
1.991916894912719727e-01 -4.192611873149871826e-01 -7.885604500770568848e-01
1.566113904118537903e-02 -3.825204074382781982e-01 -7.268435359001159668e-01
3.300056234002113342e-02 -3.627209365367889404e-01 -7.877658605575561523e-01
2.455559819936752319e-01 -3.670157194137573242e-01 -7.828735113143920898e-01
-2.083335816860198975e-01 -3.130089044570922852e-01 -7.431340217590332031e-01
1.560143083333969116e-01 -3.659781515598297119e-01 -7.291747331619262695e-01
-4.575625061988830566e-01 -4.234792292118072510e-01 -7.446081638336181641e-01
-1.653562635183334351e-01 -3.032946288585662842e-01 -7.452849745750427246e-01
-7.489836215972900391e-02 -4.628211855888366699e-01 -7.295554280281066895e-01
4.745826125144958496e-01 -3.853409588336944580e-01 -7.649327516555786133e-01
1.595806628465652466e-01 -3.419365882873535156e-01 -7.323523163795471191e-01
1.481008529663085938e-01 -3.418442606925964355e-01 -7.820749282836914062e-01
2.495772987604141235e-01 -5.219657421112060547e-01 -7.479574680328369141e-01
-3.774879574775695801e-01 -4.939483404159545898e-01 -7.774023413658142090e-01
5.497587844729423523e-04 -2.863871455192565918e-01 -7.586379647254943848e-01
-1.176621913909912109e-01 -3.062024116516113281e-01 -7.733483314514160156e-01
-1.449373066425323486e-01 -3.472223877906799316e-01 -7.847765088081359863e-01
-4.879969358444213867e-01 -3.919329941272735596e-01 -7.715977430343627930e-01
2.884854674339294434e-01 -5.167453289031982422e-01 -7.711731791496276855e-01
-1.805612072348594666e-02 -2.935746312141418457e-01 -7.676765918731689453e-01
-1.174955964088439941e-01 -2.973839342594146729e-01 -7.463510036468505859e-01
-9.918618202209472656e-02 -2.944357991218566895e-01 -7.476146817207336426e-01
-5.503463372588157654e-02 -4.587594866752624512e-01 -7.917514443397521973e-01
-2.533878684043884277e-01 -3.603486716747283936e-01 -7.341849803924560547e-01
1.145580708980560303e-01 -5.380421876907348633e-01 -7.488234043121337891e-01
-3.964866399765014648e-01 -4.403705000877380371e-01 -7.830741405487060547e-01
2.003731280565261841e-01 -5.128843784332275391e-01 -7.413485050201416016e-01
-1.647714525461196899e-01 -3.978657126426696777e-01 -7.285865545272827148e-01
-4.126617908477783203e-01 -3.409562408924102783e-01 -7.533082962036132812e-01
3.482134342193603516e-01 -4.816546142101287842e-01 -7.413230538368225098e-01
3.459185957908630371e-01 -3.894260227680206299e-01 -7.800314426422119141e-01
-4.034515619277954102e-01 -3.668393194675445557e-01 -7.768763899803161621e-01
-3.824017643928527832e-01 -3.409121930599212646e-01 -7.478191256523132324e-01
2.708603739738464355e-01 -4.546737074851989746e-01 -7.326826453208923340e-01
-1.857411861419677734e-02 -3.251496255397796631e-01 -7.807979583740234375e-01
-1.806017905473709106e-01 -5.115014314651489258e-01 -7.404374480247497559e-01
-7.442031800746917725e-02 -3.262255787849426270e-01 -7.809212207794189453e-01
1.546054631471633911e-01 -4.776815772056579590e-01 -7.321791648864746094e-01
-1.275207400321960449e-01 -3.137233555316925049e-01 -7.392865419387817383e-01
-8.398710936307907104e-02 -2.883715033531188965e-01 -7.599477767944335938e-01
2.532534599304199219e-01 -3.839491903781890869e-01 -7.304019331932067871e-01
-2.078748494386672974e-01 -3.985518515110015869e-01 -7.297695279121398926e-01
1.627211272716522217e-02 -3.749148249626159668e-01 -7.893953323364257812e-01
2.873302102088928223e-01 -3.165005147457122803e-01 -7.461325526237487793e-01
-2.958754897117614746e-01 -4.723858535289764404e-01 -7.372184991836547852e-01
1.427554711699485779e-02 -3.011068701744079590e-01 -7.417263388633728027e-01
-2.670760750770568848e-01 -4.923950433731079102e-01 -7.393856644630432129e-01
-8.084664121270179749e-03 -3.533485531806945801e-01 -7.293763160705566406e-01
-2.910864949226379395e-01 -3.212001323699951172e-01 -7.458666563034057617e-01
2.797821164131164551e-01 -4.929037392139434814e-01 -7.795515656471252441e-01
-1.317944377660751343e-03 -5.508594512939453125e-01 -7.673194408416748047e-01
-4.482626914978027344e-01 -4.411303400993347168e-01 -7.446174621582031250e-01
3.739636540412902832e-01 -4.013055860996246338e-01 -7.789855003356933594e-01
-2.446160465478897095e-02 -5.408874750137329102e-01 -7.754474282264709473e-01
-1.052002906799316406e-01 -3.898021876811981201e-01 -7.907531261444091797e-01
-3.270031809806823730e-01 -4.791221618652343750e-01 -7.838314771652221680e-01
1.168173402547836304e-01 -3.308224380016326904e-01 -7.804133892059326172e-01
3.631311058998107910e-01 -4.356867671012878418e-01 -7.356697320938110352e-01
1.993779093027114868e-01 -5.345511436462402344e-01 -7.517313957214355469e-01
-7.964261621236801147e-02 -4.079797267913818359e-01 -7.268648743629455566e-01
2.720063328742980957e-01 -3.874354958534240723e-01 -7.840252518653869629e-01
7.032794505357742310e-02 -3.633325695991516113e-01 -7.283616065979003906e-01
1.222203373908996582e-01 -4.793498814105987549e-01 -7.880867123603820801e-01
8.442614972591400146e-02 -3.047715425491333008e-01 -7.407549023628234863e-01
1.830666959285736084e-01 -4.974383413791656494e-01 -7.835658788681030273e-01
-6.707399338483810425e-02 -4.226038157939910889e-01 -7.268828153610229492e-01
4.558103904128074646e-02 -3.496918976306915283e-01 -7.297934889793395996e-01
1.497389525175094604e-01 -4.606342315673828125e-01 -7.298972606658935547e-01
1.231881976127624512e-01 -4.045723378658294678e-01 -7.901232838630676270e-01
3.005419373512268066e-01 -4.176112413406372070e-01 -7.315979003906250000e-01
-3.445831537246704102e-01 -3.411060869693756104e-01 -7.435693740844726562e-01
-3.885048031806945801e-01 -4.029523730278015137e-01 -7.828775644302368164e-01
4.173118472099304199e-01 -4.189227223396301270e-01 -7.389106750488281250e-01
-4.343619942665100098e-01 -3.464127182960510254e-01 -7.555552124977111816e-01
-5.633263662457466125e-02 -4.036357104778289795e-01 -7.918611764907836914e-01
-5.508027970790863037e-02 -3.187980353832244873e-01 -7.789144515991210938e-01
-1.100380569696426392e-01 -3.673237562179565430e-01 -7.883995175361633301e-01
6.203784793615341187e-02 -5.052896738052368164e-01 -7.360422015190124512e-01
-5.670022591948509216e-02 -3.154011368751525879e-01 -7.371363043785095215e-01
-2.419231384992599487e-01 -5.347671508789062500e-01 -7.713605761528015137e-01
-2.046576142311096191e-01 -3.574911057949066162e-01 -7.326257824897766113e-01
-4.329935833811759949e-02 -5.420372486114501953e-01 -7.748312354087829590e-01
-1.084175333380699158e-01 -4.802953004837036133e-01 -7.897626757621765137e-01
6.909823417663574219e-02 -5.114886164665222168e-01 -7.840421199798583984e-01
-4.552889466285705566e-01 -3.915632963180541992e-01 -7.761000394821166992e-01
-4.360466003417968750e-01 -4.567673206329345703e-01 -7.788075208663940430e-01
-1.446393728256225586e-01 -4.990226924419403076e-01 -7.363450527191162109e-01
1.496449410915374756e-01 -5.267227888107299805e-01 -7.444563508033752441e-01
-4.424322247505187988e-01 -3.845040202140808105e-01 -7.447004318237304688e-01
4.420592784881591797e-01 -4.092813432216644287e-01 -7.730142474174499512e-01
-6.852941215038299561e-02 -5.304572582244873047e-01 -7.798340320587158203e-01
-1.960484385490417480e-01 -4.943786859512329102e-01 -7.864745259284973145e-01
3.842372894287109375e-01 -4.705592393875122070e-01 -7.753980755805969238e-01
-1.898466199636459351e-01 -3.778213560581207275e-01 -7.884418964385986328e-01
-2.807604074478149414e-01 -3.297818601131439209e-01 -7.756881713867187500e-01
-2.490139901638031006e-01 -5.001683831214904785e-01 -7.402914762496948242e-01
3.861511945724487305e-01 -4.837094247341156006e-01 -7.455188035964965820e-01
-3.767428398132324219e-01 -4.470923244953155518e-01 -7.390058636665344238e-01
-1.581054329872131348e-01 -3.324325084686279297e-01 -7.812680602073669434e-01
6.128977239131927490e-02 -4.565382599830627441e-01 -7.910935878753662109e-01
3.106250762939453125e-01 -4.069894254207611084e-01 -7.833920717239379883e-01
3.271945118904113770e-01 -4.802002310752868652e-01 -7.786841392517089844e-01
-1.086763739585876465e-01 -4.491178691387176514e-01 -7.287998795509338379e-01
-3.069550395011901855e-01 -5.100083351135253906e-01 -7.467013597488403320e-01
-5.017063617706298828e-01 -4.464033842086791992e-01 -7.709522843360900879e-01
4.488717764616012573e-03 -3.401910066604614258e-01 -7.842150330543518066e-01
-3.193448185920715332e-01 -3.664187192916870117e-01 -7.368198633193969727e-01
-3.833658099174499512e-01 -3.320534825325012207e-01 -7.655583620071411133e-01
4.622934460639953613e-01 -4.344675242900848389e-01 -7.702459692955017090e-01
8.097688853740692139e-02 -4.109084904193878174e-01 -7.263848781585693359e-01
4.441637396812438965e-01 -4.654851257801055908e-01 -7.480507493019104004e-01
1.760761886835098267e-01 -3.025539517402648926e-01 -7.672557830810546875e-01
2.513490915298461914e-01 -3.088771104812622070e-01 -7.471548318862915039e-01
-1.995117366313934326e-01 -3.753403723239898682e-01 -7.306654453277587891e-01
4.166869521141052246e-01 -4.062971174716949463e-01 -7.756040692329406738e-01
9.283405542373657227e-02 -4.535680115222930908e-01 -7.907310128211975098e-01
2.248509079217910767e-01 -3.108392953872680664e-01 -7.686116695404052734e-01
2.339133620262145996e-01 -3.530016839504241943e-01 -7.811090350151062012e-01
-3.221701085567474365e-02 -3.202831447124481201e-01 -7.354953289031982422e-01
-4.839624762535095215e-01 -4.137764871120452881e-01 -7.479025125503540039e-01
-1.721377372741699219e-01 -3.361712396144866943e-01 -7.349448204040527344e-01
-4.811769127845764160e-01 -4.348182976245880127e-01 -7.481498718261718750e-01
-3.434713482856750488e-01 -4.575560092926025391e-01 -7.852743864059448242e-01
-9.339561685919761658e-03 -3.644119799137115479e-01 -7.882891297340393066e-01
3.604326844215393066e-01 -3.628953099250793457e-01 -7.751643657684326172e-01
2.850233912467956543e-01 -5.192258954048156738e-01 -7.498748898506164551e-01
-2.189150899648666382e-01 -4.209734201431274414e-01 -7.905381917953491211e-01
2.161058187484741211e-01 -3.962694704532623291e-01 -7.870194911956787109e-01
3.219919204711914062e-01 -3.758408427238464355e-01 -7.800412178039550781e-01
-3.288398981094360352e-01 -3.917889297008514404e-01 -7.351548075675964355e-01
9.962080046534538269e-03 -4.364183843135833740e-01 -7.922880053520202637e-01
1.227393448352813721e-01 -5.201172828674316406e-01 -7.411439418792724609e-01
2.406948059797286987e-01 -3.968683481216430664e-01 -7.861253619194030762e-01
-3.651994466781616211e-02 -3.594473600387573242e-01 -7.876619100570678711e-01
-3.474038243293762207e-01 -3.691358268260955811e-01 -7.382661700248718262e-01
-3.213740512728691101e-02 -4.890640676021575928e-01 -7.327346801757812500e-01
-2.803688049316406250e-01 -3.858527839183807373e-01 -7.330366969108581543e-01
2.065197676420211792e-01 -2.979883551597595215e-01 -7.589215636253356934e-01
-2.733288407325744629e-01 -3.496605157852172852e-01 -7.367482185363769531e-01
4.086007550358772278e-02 -3.367433547973632812e-01 -7.831743955612182617e-01
-1.457481682300567627e-01 -4.008522629737854004e-01 -7.910811901092529297e-01
-2.919542193412780762e-01 -5.218531489372253418e-01 -7.506009936332702637e-01
-8.955777436494827271e-02 -3.620075881481170654e-01 -7.292564511299133301e-01
-1.355991065502166748e-01 -5.064291954040527344e-01 -7.855048179626464844e-01
-4.705938696861267090e-01 -3.870563805103302002e-01 -7.480573058128356934e-01
-3.009108901023864746e-01 -3.381413817405700684e-01 -7.771523594856262207e-01
-2.188513576984405518e-01 -5.424523353576660156e-01 -7.645292282104492188e-01
-2.967134304344654083e-02 -4.717098176479339600e-01 -7.301577329635620117e-01
-1.191024407744407654e-01 -3.990325331687927246e-01 -7.275813817977905273e-01
-1.293734088540077209e-02 -5.023450851440429688e-01 -7.868543267250061035e-01
-1.377072334289550781e-01 -5.493211746215820312e-01 -7.633047699928283691e-01
3.492401242256164551e-01 -4.985353350639343262e-01 -7.466999292373657227e-01
-5.061126947402954102e-01 -4.028132259845733643e-01 -7.698958516120910645e-01
1.148290932178497314e-02 -3.578357398509979248e-01 -7.872505784034729004e-01
-2.209187150001525879e-01 -4.430219531059265137e-01 -7.904149293899536133e-01
-2.725029587745666504e-01 -3.120989799499511719e-01 -7.489515542984008789e-01
-3.061941862106323242e-01 -3.912004828453063965e-01 -7.862178683280944824e-01
1.831197738647460938e-01 -3.585080504417419434e-01 -7.840105891227722168e-01
-1.552308201789855957e-01 -4.847500324249267578e-01 -7.886725068092346191e-01
5.133558064699172974e-02 -5.487516522407531738e-01 -7.551403641700744629e-01
-2.679244056344032288e-02 -3.651286959648132324e-01 -7.282428741455078125e-01
2.122490704059600830e-01 -3.911777734756469727e-01 -7.288131713867187500e-01
4.662587642669677734e-01 -3.654778003692626953e-01 -7.575321793556213379e-01
3.724057078361511230e-01 -4.545247852802276611e-01 -7.785466313362121582e-01
8.652024716138839722e-02 -4.667228758335113525e-01 -7.297196388244628906e-01
6.760856509208679199e-02 -3.078500330448150635e-01 -7.742502689361572266e-01
-1.536805629730224609e-01 -4.587345719337463379e-01 -7.305265665054321289e-01
6.038283556699752808e-02 -3.341807126998901367e-01 -7.323200106620788574e-01
2.102252095937728882e-01 -4.590897560119628906e-01 -7.311164736747741699e-01
-3.568337559700012207e-01 -4.416466951370239258e-01 -7.372557520866394043e-01
2.619275450706481934e-01 -4.374164044857025146e-01 -7.861204743385314941e-01
-8.318508416414260864e-02 -4.897104501724243164e-01 -7.333740592002868652e-01
2.980681061744689941e-01 -4.891112148761749268e-01 -7.791092991828918457e-01
-2.032284885644912720e-01 -4.410456120967864990e-01 -7.908598184585571289e-01
-2.665637731552124023e-01 -5.115748047828674316e-01 -7.444609999656677246e-01
-3.724432587623596191e-01 -4.731052219867706299e-01 -7.819419503211975098e-01
-1.276512145996093750e-01 -3.769503235816955566e-01 -7.286977767944335938e-01
1.012225821614265442e-01 -3.657247722148895264e-01 -7.871710658073425293e-01
3.149251937866210938e-01 -3.319247961044311523e-01 -7.418233752250671387e-01
1.351980119943618774e-01 -5.277835130691528320e-01 -7.773680686950683594e-01
-4.175770655274391174e-02 -4.499927163124084473e-01 -7.280485630035400391e-01
-5.752164870500564575e-02 -3.755781054496765137e-01 -7.276968359947204590e-01
9.538629651069641113e-02 -3.053354620933532715e-01 -7.724713087081909180e-01
1.257773675024509430e-02 -5.394366979598999023e-01 -7.474497556686401367e-01
-2.181627750396728516e-01 -3.710840940475463867e-01 -7.869727015495300293e-01
3.751521185040473938e-02 -4.926803708076477051e-01 -7.879489064216613770e-01
2.675704956054687500e-01 -3.724325001239776611e-01 -7.317723631858825684e-01
-4.235761761665344238e-01 -4.136575460433959961e-01 -7.411468625068664551e-01
3.843367695808410645e-01 -3.607201576232910156e-01 -7.724657654762268066e-01
-2.138713747262954712e-01 -4.817593693733215332e-01 -7.878150343894958496e-01
1.128869354724884033e-01 -5.452474951744079590e-01 -7.681125998497009277e-01
-1.959191709756851196e-01 -5.396978259086608887e-01 -7.714460492134094238e-01
-4.665527939796447754e-01 -4.643367230892181396e-01 -7.740663886070251465e-01
-4.856437444686889648e-01 -4.593835473060607910e-01 -7.526670694351196289e-01
2.111598998308181763e-01 -4.778952300548553467e-01 -7.336649298667907715e-01
-4.069515466690063477e-01 -4.663691818714141846e-01 -7.438398003578186035e-01
-4.219284653663635254e-01 -4.228299260139465332e-01 -7.813973426818847656e-01
-1.375759840011596680e-01 -4.262593090534210205e-01 -7.280970811843872070e-01
4.453408122062683105e-01 -3.716902434825897217e-01 -7.672059535980224609e-01
-4.452058076858520508e-01 -4.148604273796081543e-01 -7.791840434074401855e-01
-1.913708299398422241e-01 -4.533803164958953857e-01 -7.309989929199218750e-01
4.982909560203552246e-01 -3.973326981067657471e-01 -7.602733373641967773e-01
-3.497174382209777832e-01 -5.088995695114135742e-01 -7.502489089965820312e-01
-1.070209443569183350e-01 -5.088339447975158691e-01 -7.377628087997436523e-01
3.014541268348693848e-01 -3.732604980468750000e-01 -7.331736087799072266e-01
-4.313023388385772705e-02 -3.442052602767944336e-01 -7.308690547943115234e-01
1.344578415155410767e-01 -5.431329607963562012e-01 -7.684851288795471191e-01
-9.511222690343856812e-02 -5.180091261863708496e-01 -7.833791375160217285e-01
8.866278827190399170e-02 -5.282158255577087402e-01 -7.788648009300231934e-01
-3.650764226913452148e-01 -4.394609034061431885e-01 -7.850272655487060547e-01
3.551829978823661804e-02 -4.290148913860321045e-01 -7.265847921371459961e-01
4.169152379035949707e-01 -4.286498129367828369e-01 -7.760112881660461426e-01
-1.508498191833496094e-01 -3.212048709392547607e-01 -7.377715110778808594e-01
4.795826077461242676e-01 -4.224838316440582275e-01 -7.677415013313293457e-01
4.038375020027160645e-01 -4.891433715820312500e-01 -7.675033807754516602e-01
-2.931627035140991211e-01 -4.418618679046630859e-01 -7.882581949234008789e-01
-4.403488039970397949e-01 -3.580198884010314941e-01 -7.698046565055847168e-01
1.973597705364227295e-01 -3.138917684555053711e-01 -7.719054818153381348e-01
-2.547132968902587891e-01 -3.351346552371978760e-01 -7.387452125549316406e-01
-5.426573380827903748e-02 -4.352727830410003662e-01 -7.925099730491638184e-01
-1.819231659173965454e-01 -4.515015780925750732e-01 -7.909370064735412598e-01
3.297812938690185547e-01 -4.153648912906646729e-01 -7.825920581817626953e-01
-8.938864804804325104e-03 -5.050188899040222168e-01 -7.357799410820007324e-01
-3.853999823331832886e-02 -3.831335604190826416e-01 -7.904316186904907227e-01
2.009955048561096191e-01 -3.339881300926208496e-01 -7.783711552619934082e-01
3.151600956916809082e-01 -3.982506096363067627e-01 -7.323312759399414062e-01
5.525390058755874634e-02 -4.088167548179626465e-01 -7.914615273475646973e-01
-2.313327193260192871e-01 -3.092082738876342773e-01 -7.466080784797668457e-01
-5.384482815861701965e-02 -3.683568239212036133e-01 -7.888461351394653320e-01
2.930938005447387695e-01 -4.860290288925170898e-01 -7.386569976806640625e-01
-2.586986422538757324e-01 -4.229320883750915527e-01 -7.315359711647033691e-01
3.018890023231506348e-01 -5.033699274063110352e-01 -7.440872192382812500e-01
1.075258255004882812e-01 -3.696494698524475098e-01 -7.281278967857360840e-01
3.547270298004150391e-01 -4.121409058570861816e-01 -7.342794537544250488e-01
1.145047247409820557e-01 -2.895230650901794434e-01 -7.566155195236206055e-01
-2.274431884288787842e-01 -4.684183001518249512e-01 -7.337489128112792969e-01
1.586557477712631226e-01 -4.342671930789947510e-01 -7.898173332214355469e-01
4.364829137921333313e-02 -4.450705945491790771e-01 -7.917927503585815430e-01
1.803402230143547058e-02 -4.884737730026245117e-01 -7.887411117553710938e-01
4.136205315589904785e-01 -3.459218442440032959e-01 -7.627141475677490234e-01
2.099071815609931946e-02 -5.323712825775146484e-01 -7.788055539131164551e-01
5.569374561309814453e-02 -4.161889553070068359e-01 -7.262986302375793457e-01
2.430390566587448120e-01 -3.208822607994079590e-01 -7.719592452049255371e-01
-1.769728064537048340e-01 -5.464172363281250000e-01 -7.609475255012512207e-01
2.049926221370697021e-01 -4.431490004062652588e-01 -7.882109284400939941e-01
-1.713659465312957764e-01 -3.175377249717712402e-01 -7.764126062393188477e-01
-2.347487956285476685e-01 -3.427718281745910645e-01 -7.361130714416503906e-01
-2.931804656982421875e-01 -3.525176048278808594e-01 -7.373478412628173828e-01
3.376159071922302246e-01 -3.657055199146270752e-01 -7.360107898712158203e-01
-3.439969420433044434e-01 -4.170621633529663086e-01 -7.860725522041320801e-01
3.826749324798583984e-01 -3.817200064659118652e-01 -7.763828039169311523e-01
-1.261116266250610352e-01 -4.814981520175933838e-01 -7.894546389579772949e-01
3.660336136817932129e-01 -3.321035206317901611e-01 -7.479001879692077637e-01
-2.105115726590156555e-02 -4.465227723121643066e-01 -7.922372221946716309e-01
3.730396628379821777e-01 -4.944140613079071045e-01 -7.704205513000488281e-01
-3.881726264953613281e-01 -4.699582457542419434e-01 -7.428244352340698242e-01
1.240859925746917725e-01 -4.554052054882049561e-01 -7.899957895278930664e-01
1.793334931135177612e-01 -4.024063944816589355e-01 -7.277621030807495117e-01
3.746371343731880188e-02 -2.865701913833618164e-01 -7.574614882469177246e-01
-4.278156757354736328e-01 -4.747899770736694336e-01 -7.769129872322082520e-01
1.294144541025161743e-01 -3.263643980026245117e-01 -7.348427772521972656e-01
2.537374496459960938e-01 -4.340748786926269531e-01 -7.304136753082275391e-01
-3.509451635181903839e-03 -3.982935249805450439e-01 -7.263365983963012695e-01
3.796439766883850098e-01 -4.237706959247589111e-01 -7.361176609992980957e-01
6.737103313207626343e-02 -3.940134048461914062e-01 -7.264938950538635254e-01
1.712138503789901733e-01 -3.564543128013610840e-01 -7.305098176002502441e-01
-3.268876075744628906e-01 -5.214224457740783691e-01 -7.545192837715148926e-01
1.562259048223495483e-01 -3.030267357826232910e-01 -7.687865495681762695e-01
3.993074893951416016e-01 -4.235438108444213867e-01 -7.776889801025390625e-01
-2.016684710979461670e-01 -2.966768741607666016e-01 -7.558476328849792480e-01
-8.885703235864639282e-02 -3.223148286342620850e-01 -7.358216643333435059e-01
-1.905591040849685669e-01 -4.727384150028228760e-01 -7.893307209014892578e-01
7.851060479879379272e-02 -5.338584780693054199e-01 -7.455432415008544922e-01
4.800125211477279663e-02 -2.946118712425231934e-01 -7.454658150672912598e-01
2.868307828903198242e-01 -3.485613167285919189e-01 -7.358018159866333008e-01
-4.248723387718200684e-01 -3.927482664585113525e-01 -7.420685291290283203e-01
3.217475414276123047e-01 -4.760252833366394043e-01 -7.382720708847045898e-01
2.103040814399719238e-01 -5.002160668373107910e-01 -7.818552255630493164e-01
2.763966321945190430e-01 -3.150382041931152344e-01 -7.661803960800170898e-01
4.056755900382995605e-01 -3.845945596694946289e-01 -7.389741539955139160e-01
-3.563829064369201660e-01 -4.146766662597656250e-01 -7.362165451049804688e-01
-1.170686334371566772e-01 -4.635751843452453613e-01 -7.911493182182312012e-01
1.722833067178726196e-01 -3.346552252769470215e-01 -7.796668410301208496e-01
1.261965185403823853e-02 -3.327819108963012695e-01 -7.324781417846679688e-01
1.120424643158912659e-01 -5.162315964698791504e-01 -7.818419933319091797e-01
1.301522701978683472e-01 -3.559530973434448242e-01 -7.297919392585754395e-01
-4.987888336181640625e-01 -3.778548240661621094e-01 -7.578889727592468262e-01
