4.699642211198806763e-02 -5.961749702692031860e-04 5.712385475635528564e-02
8.744902163743972778e-02 -1.656587794423103333e-02 4.051441252231597900e-01
8.452641218900680542e-02 6.592385470867156982e-04 2.625600397586822510e-01
9.948353469371795654e-02 -3.903230652213096619e-03 1.039983481168746948e-01
6.742995977401733398e-02 -2.311230078339576721e-02 3.501482903957366943e-01
8.327102661132812500e-02 -2.363968640565872192e-02 -1.299806833267211914e-01
2.876956947147846222e-02 -1.670197211205959320e-02 -2.815837562084197998e-01
1.120489090681076050e-01 -1.720304973423480988e-02 1.645584106445312500e-01
1.155429929494857788e-01 -7.905335165560245514e-03 2.372187972068786621e-01
6.599309295415878296e-02 -1.369784306734800339e-02 -1.979097723960876465e-01
7.102275267243385315e-03 -3.405743092298507690e-02 8.904229104518890381e-02
-2.656778879463672638e-02 -1.059465855360031128e-02 -8.191298693418502808e-02
-1.713669113814830780e-02 -2.482242882251739502e-02 2.964156866073608398e-01
-2.883504889905452728e-02 -3.278841823339462280e-02 -1.998543739318847656e-01
-9.589603170752525330e-03 -5.017475225031375885e-03 3.253702446818351746e-02
3.970139101147651672e-02 -3.493066877126693726e-03 -4.741836339235305786e-02
1.786354929208755493e-02 -3.490838035941123962e-02 -1.537253856658935547e-01
2.265499345958232880e-02 -3.229334950447082520e-02 1.645251810550689697e-01
8.066155016422271729e-02 -2.171939983963966370e-02 3.368762433528900146e-01
9.427246451377868652e-02 -2.071093022823333740e-02 2.889850437641143799e-01
3.066764213144779205e-02 -1.243019476532936096e-03 4.332498088479042053e-02
2.324718981981277466e-03 -2.929382026195526123e-02 2.509011328220367432e-01
-2.683460898697376251e-02 -8.308773860335350037e-03 2.396183609962463379e-01
-2.339208684861660004e-02 -6.518341600894927979e-03 1.082601398229598999e-01
4.518505185842514038e-03 -2.715117484331130981e-02 3.022457957267761230e-01
1.648743450641632080e-02 -6.775118410587310791e-03 -1.202507540583610535e-01
-7.378010079264640808e-03 -7.491134107112884521e-03 -8.077432960271835327e-02
-3.441208973526954651e-03 -1.357911992818117142e-02 -2.276357710361480713e-01
4.588767886161804199e-02 -1.618828997015953064e-02 4.782983958721160889e-01
8.985328674316406250e-02 -7.644956000149250031e-03 -3.969996422529220581e-02
-5.241174250841140747e-02 -2.495370805263519287e-02 8.574064075946807861e-02
4.708109796047210693e-02 -3.322613239288330078e-02 -1.533170044422149658e-02
5.782093107700347900e-02 -3.044483624398708344e-02 -1.473712027072906494e-01
-1.895252056419849396e-02 -6.470307707786560059e-03 2.612447440624237061e-01
-4.749029874801635742e-02 -1.528491917997598648e-02 1.511418074369430542e-01
-4.337398707866668701e-02 -2.996576763689517975e-02 4.922022670507431030e-02
-2.501482330262660980e-02 -2.907971292734146118e-02 1.871339529752731323e-01
8.643047511577606201e-02 -1.805323921144008636e-02 3.861151337623596191e-01
-1.664238609373569489e-02 -1.755629479885101318e-02 -2.563975751399993896e-01
-3.480903059244155884e-02 -1.938350871205329895e-02 -2.191204726696014404e-01
2.919611707329750061e-02 -3.162788972258567810e-02 1.835308074951171875e-01
4.905633628368377686e-02 -4.674638621509075165e-03 -7.699280232191085815e-02
3.703787550330162048e-02 -4.366472363471984863e-03 4.768532216548919678e-01
6.234515458345413208e-04 -1.007895544171333313e-02 4.316429793834686279e-01
-1.054604537785053253e-02 -3.027074411511421204e-02 2.017356455326080322e-01
6.016759201884269714e-03 -3.214739263057708740e-02 -2.704586982727050781e-01
-2.774441801011562347e-02 -7.930618710815906525e-03 5.438034981489181519e-02
1.112384125590324402e-01 -8.483158424496650696e-03 9.705562889575958252e-02
3.734592720866203308e-02 -1.520969811826944351e-02 -2.612985074520111084e-01
-3.621055930852890015e-02 -1.971992477774620056e-02 2.686620056629180908e-01
9.637252986431121826e-02 -1.169011555612087250e-02 4.221325814723968506e-01
5.347649380564689636e-02 -2.366876974701881409e-02 3.676809370517730713e-01
6.878044456243515015e-02 -2.958552725613117218e-02 1.079564392566680908e-01
-1.545806415379047394e-02 -2.969191037118434906e-02 -2.915596365928649902e-01
-5.636515095829963684e-03 -3.434958308935165405e-02 -2.098372578620910645e-01
2.411294728517532349e-02 -8.708349429070949554e-03 4.854188263416290283e-01
3.329403698444366455e-02 -7.228497415781021118e-04 6.378404796123504639e-02
2.903298102319240570e-02 -1.358694769442081451e-02 -2.485820651054382324e-01
1.594049856066703796e-02 -3.883335739374160767e-04 2.655929923057556152e-01
1.329770497977733612e-02 -3.427009657025337219e-02 7.628600299358367920e-02
-2.801744826138019562e-02 -2.541134320199489594e-02 2.480252683162689209e-01
-4.729757085442543030e-03 -3.822878934442996979e-03 6.526824831962585449e-02
6.325611472129821777e-02 8.135009557008743286e-04 1.438247561454772949e-01
-6.702786311507225037e-03 -3.396617621183395386e-02 7.607944309711456299e-02
7.647370547056198120e-02 -2.661604806780815125e-02 2.079268395900726318e-01
1.215260475873947144e-02 -3.162235766649246216e-02 1.918911337852478027e-01
4.043535888195037842e-02 -2.670915611088275909e-02 3.179873526096343994e-01
3.019543364644050598e-02 -3.464647382497787476e-02 -9.440062195062637329e-02
9.423404186964035034e-02 -1.806934177875518799e-02 3.502456843852996826e-01
4.729796200990676880e-02 -1.953230611979961395e-02 4.414362907409667969e-01
6.595406681299209595e-02 1.298142597079277039e-03 1.880266964435577393e-01
-2.536784671247005463e-02 -3.277205675840377808e-02 6.462728977203369141e-02
4.432307928800582886e-02 -1.378669030964374542e-02 -2.390700876712799072e-01
8.253749459981918335e-02 -1.408556662499904633e-02 -1.477225422859191895e-01
1.013194583356380463e-02 -3.541491553187370300e-02 -1.342894136905670166e-01
1.139639019966125488e-01 -7.294323295354843140e-03 2.818907499313354492e-01
1.105310581624507904e-02 -3.553905338048934937e-02 -3.832862526178359985e-02
3.474194556474685669e-02 -1.739314943552017212e-02 4.664559364318847656e-01
9.385800361633300781e-02 -2.259865030646324158e-02 -5.586669594049453735e-02
6.255600601434707642e-02 -3.006798028945922852e-02 1.331252008676528931e-01
-4.695461690425872803e-02 -1.900780573487281799e-02 1.903125941753387451e-01
1.870177127420902252e-02 -1.318062655627727509e-03 3.569998443126678467e-01
8.581119775772094727e-02 -2.645475044846534729e-02 -1.479560136795043945e-02
-3.193378448486328125e-02 -9.646732360124588013e-03 2.220810353755950928e-01
-4.874425008893013000e-03 -1.707192137837409973e-02 -2.726821005344390869e-01
-3.896141052246093750e-02 -3.253696113824844360e-02 -6.453096121549606323e-02
-4.773726314306259155e-02 -2.932410314679145813e-02 2.190227806568145752e-02
6.256444752216339111e-02 -2.178359776735305786e-03 1.028664410114288330e-02
4.852640628814697266e-02 -1.763689145445823669e-02 4.633267819881439209e-01
-1.694610528647899628e-02 -5.051740445196628571e-03 1.641753315925598145e-01
1.133865416049957275e-01 -1.604434847831726074e-02 1.913676857948303223e-01
6.868439167737960815e-02 -2.991756796836853027e-02 7.888936996459960938e-02
-3.198971971869468689e-03 -2.799667418003082275e-03 1.444899141788482666e-01
1.730592921376228333e-02 -6.938632577657699585e-04 3.132587075233459473e-01
-2.126612700521945953e-02 -6.001830101013183594e-03 1.230377107858657837e-01
7.883144170045852661e-02 -2.568991482257843018e-02 2.296675145626068115e-01
-1.879998855292797089e-02 -3.499740362167358398e-02 -1.148194298148155212e-01
6.334886699914932251e-02 -5.714520812034606934e-04 7.165520638227462769e-02
5.086825788021087646e-02 -1.214351505041122437e-04 7.965058833360671997e-02
3.542984277009963989e-02 9.597409516572952271e-04 1.783591508865356445e-01
1.465362776070833206e-02 -7.678288966417312622e-04 2.933076918125152588e-01
7.671093195676803589e-02 -2.481571398675441742e-03 3.435844182968139648e-02
1.030761562287807465e-02 -2.655520662665367126e-02 3.209979534149169922e-01
2.484800107777118683e-02 -3.304767608642578125e-02 1.285796761512756348e-01
1.999918557703495026e-02 -4.218735732138156891e-03 -5.237319320440292358e-02
4.424540325999259949e-02 -2.427055686712265015e-02 -2.855292558670043945e-01
2.945483662188053131e-02 3.615282475948333740e-04 3.266867995262145996e-01
-1.926149614155292511e-02 -5.607802420854568481e-03 1.888102144002914429e-01
3.900400549173355103e-02 -1.859106123447418213e-05 3.876363337039947510e-01
6.669049710035324097e-02 -2.736967056989669800e-02 2.334628999233245850e-01
7.585210353136062622e-02 -2.788133174180984497e-02 -8.657000213861465454e-02
-4.314786940813064575e-02 -1.270410418510437012e-02 9.745165705680847168e-03
3.387766331434249878e-02 4.223193973302841187e-04 1.332549005746841431e-01
1.045543104410171509e-01 -2.813261002302169800e-03 2.252637743949890137e-01
3.971420228481292725e-02 8.643399924039840698e-04 3.437656760215759277e-01
2.323724329471588135e-03 -5.310365930199623108e-03 -4.370554536581039429e-02
8.596060797572135925e-03 -6.130793131887912750e-03 -8.848816901445388794e-02
7.400756701827049255e-03 -3.362252563238143921e-02 1.109183430671691895e-01
2.507963962852954865e-02 -3.059575147926807404e-02 2.237469553947448730e-01
6.431640684604644775e-02 4.577003419399261475e-04 3.967801332473754883e-01
-3.640577942132949829e-02 -1.845973730087280273e-02 -1.998404264450073242e-01
6.685758009552955627e-03 -5.276544019579887390e-03 -5.667570978403091431e-02
8.283735811710357666e-02 7.469672709703445435e-04 3.071259260177612305e-01
-1.759652607142925262e-02 -3.146707266569137573e-02 1.464568823575973511e-01
1.558631379157304764e-02 -1.007593981921672821e-02 -1.913386583328247070e-01
3.119005262851715088e-02 9.862147271633148193e-04 2.304628491401672363e-01
-2.025818638503551483e-02 -1.701512187719345093e-02 -2.403622865676879883e-01
6.149303168058395386e-02 1.539511606097221375e-03 2.016694396734237671e-01
-8.395532146096229553e-03 -2.546492032706737518e-02 3.097677826881408691e-01
4.479863867163658142e-02 -2.100028097629547119e-02 -1.642081290483474731e-01
1.303448081016540527e-01 -2.144248783588409424e-02 -1.903572082519531250e-01
-3.381863236427307129e-02 -4.865758493542671204e-02 -5.751582607626914978e-02
-6.737836450338363647e-02 -3.149297460913658142e-02 2.079477012157440186e-01
5.806037783622741699e-02 -3.006798587739467621e-02 -2.373453676700592041e-01
1.736333593726158142e-03 -5.125851184129714966e-02 -2.128063514828681946e-02
7.024183869361877441e-02 -1.258075982332229614e-02 -8.893493562936782837e-02
8.818956464529037476e-02 -2.893145754933357239e-02 7.799250632524490356e-02
-6.392525881528854370e-02 -4.574943333864212036e-02 5.160939320921897888e-02
-3.720825538039207458e-03 -3.517992794513702393e-02 2.095390260219573975e-01
6.097261235117912292e-02 -4.773392528295516968e-02 -9.329480677843093872e-02
3.382855653762817383e-02 -2.417295612394809723e-02 -1.730010509490966797e-01
7.530459761619567871e-02 -1.558101549744606018e-02 1.164620071649551392e-01
9.306817501783370972e-02 -3.845455870032310486e-02 -2.496858239173889160e-01
1.093908697366714478e-01 -1.371451281011104584e-02 1.149419695138931274e-04
1.350801289081573486e-01 -1.941675879061222076e-02 -1.043127328157424927e-01
6.817166507244110107e-02 -1.142397150397300720e-02 -6.007576361298561096e-02
-4.646969586610794067e-02 -2.334011159837245941e-02 6.054149568080902100e-02
7.417327165603637695e-02 -1.420860737562179565e-02 -1.219494119286537170e-01
4.492459446191787720e-02 -3.755331411957740784e-02 -2.378922253847122192e-01
-6.298993527889251709e-02 -3.606863319873809814e-02 9.210946969687938690e-03
-1.030273549258708954e-02 -1.784986257553100586e-02 2.106396406888961792e-01
-7.781802117824554443e-02 -3.678893670439720154e-02 1.093647330999374390e-01
8.554428815841674805e-02 -1.321609131991863251e-02 -1.129784882068634033e-01
8.742250502109527588e-02 -1.900746300816535950e-02 -1.914136856794357300e-01
1.240159645676612854e-01 -1.521656848490238190e-02 -9.732702374458312988e-02
-3.347063809633255005e-02 -3.532691299915313721e-02 2.275944203138351440e-01
6.842241436243057251e-02 -1.075854524970054626e-02 7.449557632207870483e-02
1.197382435202598572e-01 -1.419082097709178925e-02 -6.783538311719894409e-02
9.545067697763442993e-02 -1.357339136302471161e-02 -1.216425895690917969e-01
2.454116195440292358e-02 -4.570816084742546082e-02 -1.935247331857681274e-01
5.291821807622909546e-02 -4.882746934890747070e-02 -1.219625249505043030e-01
4.282990470528602600e-03 -4.773005843162536621e-02 7.329218089580535889e-02
-5.567517131567001343e-02 -4.385915398597717285e-02 -2.123461663722991943e-02
3.241343423724174500e-02 -1.592552289366722107e-02 1.833448708057403564e-01
5.664295330643653870e-02 -9.998949244618415833e-03 6.265846639871597290e-02
1.043641418218612671e-01 -4.083696752786636353e-02 -1.385532021522521973e-01
3.098293207585811615e-02 -4.583968222141265869e-02 5.482628941535949707e-02
1.049067005515098572e-01 -3.750386089086532593e-02 -2.408798038959503174e-01
-5.074655637145042419e-03 -4.578857123851776123e-02 -1.506962031126022339e-01
5.698163062334060669e-02 -1.019539125263690948e-02 7.341849803924560547e-02
9.160725772380828857e-02 -4.356686398386955261e-02 -1.420289576053619385e-01
9.338285028934478760e-02 -1.282537728548049927e-02 4.818205907940864563e-02
9.031583368778228760e-02 -4.283387586474418640e-02 -9.242435544729232788e-02
3.274792805314064026e-03 -1.322438940405845642e-02 7.173868268728256226e-02
-6.767771393060684204e-02 -4.101423546671867371e-02 1.675674021244049072e-01
-7.495407760143280029e-02 -3.771655261516571045e-02 7.335834205150604248e-02
5.877025425434112549e-02 -4.817641898989677429e-02 -1.390150934457778931e-01
1.460187137126922607e-03 -1.312453486025333405e-02 1.105757579207420349e-01
1.235854625701904297e-01 -1.597583666443824768e-02 -1.301409900188446045e-01
-5.259187519550323486e-02 -2.304131351411342621e-02 1.838398724794387817e-01
1.214938908815383911e-01 -1.596003770828247070e-02 -3.137245401740074158e-02
3.666873276233673096e-02 -2.833304367959499359e-02 -2.033762037754058838e-01
8.685386180877685547e-02 -1.738333329558372498e-02 9.764249622821807861e-02
-1.261781714856624603e-02 -1.487904600799083710e-02 1.091176047921180725e-01
-1.729127950966358185e-02 -5.042389780282974243e-02 -7.157567888498306274e-02
4.053235799074172974e-02 -1.411945931613445282e-02 1.612670421600341797e-01
-7.095194607973098755e-02 -3.462533652782440186e-02 5.887992680072784424e-02
5.504317581653594971e-02 -4.653136804699897766e-02 -1.975821405649185181e-01
1.205362305045127869e-01 -1.868410222232341766e-02 -1.816357672214508057e-01
7.466939836740493774e-02 -1.547792181372642517e-02 -1.411159038543701172e-01
1.106364354491233826e-01 -2.064782939851284027e-02 3.421090543270111084e-02
2.284239791333675385e-02 -1.236450113356113434e-02 1.443497389554977417e-01
1.179720684885978699e-01 -1.754717156291007996e-02 -1.708561480045318604e-01
-2.850310876965522766e-03 -1.937006227672100067e-02 -4.587261006236076355e-02
-4.410924389958381653e-03 -1.455993019044399261e-02 1.637071669101715088e-01
-7.120182737708091736e-03 -2.253632247447967529e-02 -7.230255752801895142e-02
-3.245759755373001099e-02 -4.811266809701919556e-02 -6.925892829895019531e-02
-5.294729769229888916e-02 -2.527726814150810242e-02 2.166697084903717041e-01
6.881542503833770752e-04 -1.667328178882598877e-02 -1.410479657351970673e-02
1.043142154812812805e-01 -2.603661827743053436e-02 -2.446664422750473022e-01
-2.043951861560344696e-02 -4.463762044906616211e-02 1.455844640731811523e-01
8.469986915588378906e-02 -1.194721832871437073e-02 -8.520948886871337891e-02
1.265082359313964844e-01 -2.228513173758983612e-02 -2.060928791761398315e-01
1.143138110637664795e-01 -2.564940042793750763e-02 -2.390454113483428955e-01
1.338884979486465454e-01 -2.922340296208858490e-02 -1.161073669791221619e-01
-5.192862451076507568e-02 -2.637406066060066223e-02 4.057889059185981750e-02
9.729874134063720703e-02 -3.537211567163467407e-02 1.822776161134243011e-03
-3.647283464670181274e-02 -4.274889081716537476e-02 -8.931320160627365112e-02
3.106806427240371704e-03 -2.021405845880508423e-02 -7.277606427669525146e-02
-7.726641371846199036e-03 -5.145597830414772034e-02 -3.098379448056221008e-02
1.331171579658985138e-02 -5.033011361956596375e-02 -4.221834708005189896e-03
-6.805619224905967712e-03 -1.481305062770843506e-02 6.218292564153671265e-02
9.308908134698867798e-02 -1.118263602256774902e-02 -5.675940960645675659e-02
7.885266095399856567e-02 -1.130865700542926788e-02 -6.579615175724029541e-02
2.393803000450134277e-02 -4.876355081796646118e-02 -1.616260260343551636e-01
1.027498394250869751e-01 -3.522524610161781311e-02 -1.683294959366321564e-02
4.837171360850334167e-02 -1.082221046090126038e-02 -8.807323873043060303e-03
1.192846894264221191e-01 -1.663390174508094788e-02 -1.553093045949935913e-01
-1.152209751307964325e-02 -4.511959478259086609e-02 1.318601816892623901e-01
-2.641325816512107849e-03 -1.816544309258460999e-02 -2.886914834380149841e-02
9.194225072860717773e-03 -4.801167175173759460e-02 6.028493493795394897e-02
7.767596095800399780e-02 -3.423993289470672607e-02 7.179508358240127563e-02
9.200508147478103638e-02 -4.323169216513633728e-02 -1.217923313379287720e-01
-6.360992044210433960e-02 -2.723103202879428864e-02 1.002681627869606018e-01
6.216987967491149902e-02 -3.672572225332260132e-02 9.014271199703216553e-02
4.316553473472595215e-03 -4.543961584568023682e-02 1.084520444273948669e-01
1.304877921938896179e-02 -1.367389783263206482e-02 9.813618846237659454e-03
-1.338111422955989838e-02 -4.611576348543167114e-02 1.202854737639427185e-01
1.021821796894073486e-01 -1.198068261146545410e-02 -7.270177453756332397e-02
-9.047577157616615295e-03 -4.657997936010360718e-02 1.091482192277908325e-01
-2.204357646405696869e-02 -2.208209782838821411e-02 -2.260858938097953796e-02
8.340825885534286499e-02 -3.754785656929016113e-02 -2.575139105319976807e-01
7.556109875440597534e-02 -3.330029919743537903e-02 8.430206030607223511e-02
7.586033642292022705e-02 -1.087695173919200897e-02 -5.064438655972480774e-02
1.070976331830024719e-01 -1.246487535536289215e-02 -1.860909909009933472e-02
9.377948194742202759e-02 -3.472744673490524292e-02 2.027513086795806885e-02
-1.247642561793327332e-03 -1.692948117852210999e-02 2.052061259746551514e-01
-6.052160635590553284e-03 -1.632188633084297180e-02 1.956861019134521484e-01
1.129250228404998779e-01 -1.369662024080753326e-02 -1.049607768654823303e-01
-3.509712964296340942e-02 -1.860535889863967896e-02 1.229401901364326477e-01
4.590181633830070496e-02 -2.544635161757469177e-02 1.800829172134399414e-01
-4.673832654953002930e-02 -4.858463257551193237e-02 -3.067038021981716156e-03
1.100159958004951477e-01 -1.435503549873828888e-02 -1.277791112661361694e-01
3.375729918479919434e-02 -4.811668768525123596e-02 -1.759580671787261963e-01
-6.559394299983978271e-02 -4.233691096305847168e-02 1.871745660901069641e-02
6.092988699674606323e-02 -4.639259725809097290e-02 -4.325440153479576111e-02
-7.742578536272048950e-02 -3.747335076332092285e-02 1.512281447649002075e-01
2.223540097475051880e-03 -1.305811665952205658e-02 9.917014092206954956e-02
6.593436747789382935e-02 -4.274894297122955322e-02 1.106241811066865921e-02
-1.778449676930904388e-02 -3.650475293397903442e-02 -1.334513574838638306e-01
-7.579933851957321167e-02 -3.249607607722282410e-02 1.355878859758377075e-01
1.305668801069259644e-01 -1.724539324641227722e-02 -1.165523827075958252e-01
1.049892306327819824e-01 -3.863470256328582764e-02 -2.300977259874343872e-01
1.118928790092468262e-01 -1.848041266202926636e-02 -1.876574754714965820e-01
-2.330345846712589264e-02 -1.936854794621467590e-02 2.389090880751609802e-02
9.232355654239654541e-02 -4.055936634540557861e-02 -5.012753233313560486e-02
-6.559485569596290588e-03 -5.018806457519531250e-02 3.413173928856849670e-02
3.890890628099441528e-02 -2.685446105897426605e-02 1.881690025329589844e-01
3.579512238502502441e-03 -5.143301561474800110e-02 -6.512948870658874512e-02
-2.188236825168132782e-02 -3.313389047980308533e-02 -1.120788380503654480e-01
3.451680392026901245e-02 -2.033371850848197937e-02 -1.410305947065353394e-01
-2.783423848450183868e-02 -2.160456404089927673e-02 4.605491645634174347e-03
1.012899577617645264e-01 -1.720673218369483948e-02 5.775848031044006348e-02
1.789798401296138763e-02 -1.328433863818645477e-02 1.616040170192718506e-01
-4.419620335102081299e-02 -4.794897139072418213e-02 -2.979151532053947449e-02
9.698008000850677490e-02 -1.522082742303609848e-02 -1.494658440351486206e-01
8.383274823427200317e-02 -1.748247072100639343e-02 -1.732642799615859985e-01
6.753634661436080933e-02 -4.214236512780189514e-02 -2.384108603000640869e-01
1.099706254899501801e-02 -2.267231233417987823e-02 -1.173007041215896606e-01
5.263721570372581482e-02 -4.725862294435501099e-02 -3.387451171875000000e-02
6.235621869564056396e-02 -1.370845548808574677e-02 1.281277388334274292e-01
-3.204168379306793213e-02 -3.830882161855697632e-02 2.101081609725952148e-01
1.760661974549293518e-02 -3.191594406962394714e-02 -1.893455386161804199e-01
-6.569843739271163940e-02 -4.546769708395004272e-02 7.600257545709609985e-02
7.445029914379119873e-02 -4.626617953181266785e-02 -1.238483041524887085e-01
4.212581738829612732e-02 -4.956150799989700317e-02 -1.319798827171325684e-01
7.455354183912277222e-02 -1.985681429505348206e-02 -1.900608986616134644e-01
4.255604371428489685e-02 -3.833947330713272095e-02 1.188126876950263977e-01
-8.079541847109794617e-03 -3.278291225433349609e-02 -1.429710686206817627e-01
-3.255025297403335571e-02 -2.222515642642974854e-02 1.382324378937482834e-02
5.530475825071334839e-02 -1.242893002927303314e-02 -6.557719409465789795e-02
5.928063392639160156e-02 -1.786848716437816620e-02 1.558342576026916504e-01
-4.761386662721633911e-02 -2.145962603390216827e-02 1.232428178191184998e-01
2.130594104528427124e-02 -4.840025305747985840e-02 2.912583202123641968e-02
-4.082433134317398071e-02 -3.133998066186904907e-02 -4.858261719346046448e-02
7.681764662265777588e-02 -2.699434943497180939e-02 1.148216500878334045e-01
-1.640820875763893127e-03 -3.840859979391098022e-02 1.866267472505569458e-01
-3.219772875308990479e-02 -4.810109362006187439e-02 9.798704087734222412e-02
-2.996533177793025970e-02 -3.867251053452491760e-02 -1.076882332563400269e-01
6.745896488428115845e-02 -4.710572585463523865e-02 -1.544934809207916260e-01
-1.463381014764308929e-02 -2.158862911164760590e-02 -4.000031203031539917e-02
-6.191768497228622437e-02 -4.338492453098297119e-02 1.515893936157226562e-01
2.671474032104015350e-02 -2.431899309158325195e-02 -1.619973033666610718e-01
8.290792256593704224e-02 -2.503305301070213318e-02 -2.342831343412399292e-01
-4.150678962469100952e-02 -2.026287466287612915e-02 1.784571260213851929e-01
-1.807985268533229828e-02 -3.823456540703773499e-02 2.030198574066162109e-01
-2.488409914076328278e-02 -1.912832446396350861e-02 3.547098115086555481e-02
-4.532838240265846252e-03 -5.088391155004501343e-02 -8.618021011352539062e-02
-5.690694600343704224e-02 -2.993570454418659210e-02 2.341287955641746521e-02
4.102582484483718872e-02 -4.972760006785392761e-02 -8.152740448713302612e-02
6.161119416356086731e-02 -1.548563130199909210e-02 -1.265710741281509399e-01
9.831615537405014038e-02 -1.209037750959396362e-02 1.736863702535629272e-02
6.390915811061859131e-02 -4.242557287216186523e-02 2.199747413396835327e-02
7.729745656251907349e-02 -4.389758035540580750e-02 -5.152574181556701660e-02
3.942361474037170410e-02 -2.526913955807685852e-02 -1.894570887088775635e-01
-4.970407113432884216e-03 -5.141274631023406982e-02 -5.751558020710945129e-02
-2.868710085749626160e-03 -4.014557972550392151e-02 1.742466092109680176e-01
1.021871790289878845e-01 -2.292900718748569489e-02 -2.277242541313171387e-01
1.378915458917617798e-02 -1.401417888700962067e-02 1.727992892265319824e-01
7.843110710382461548e-03 -2.683618851006031036e-02 -1.440432369709014893e-01
-4.485353827476501465e-02 -2.532938495278358459e-02 2.175094187259674072e-02
9.444432333111763000e-03 -4.171347618103027344e-02 1.442159265279769897e-01
3.136666491627693176e-03 -5.038954317569732666e-02 1.415680442005395889e-02
-5.746982991695404053e-02 -4.642579704523086548e-02 1.255486626178026199e-02
9.897898137569427490e-02 -4.181179031729698181e-02 -1.909831017255783081e-01
4.015382379293441772e-02 -4.811783879995346069e-02 -1.362830493599176407e-02
5.462888255715370178e-02 -4.831177741289138794e-02 -1.542184203863143921e-01
4.031416773796081543e-02 -1.215791702270507812e-02 1.370709985494613647e-01
4.536103084683418274e-02 -2.294662222266197205e-02 -1.814478784799575806e-01
3.396756201982498169e-02 -1.585872285068035126e-02 -8.588416129350662231e-02
-3.563689067959785461e-03 -4.690645635128021240e-02 9.777674078941345215e-02
-4.400383681058883667e-02 -4.512020200490951538e-02 1.459377706050872803e-01
1.125757396221160889e-01 -3.516594320535659790e-02 -5.911381170153617859e-02
3.147576004266738892e-02 -2.101211808621883392e-02 2.026063352823257446e-01
1.354216597974300385e-02 -5.115152150392532349e-02 -8.908743411302566528e-02
1.848879083991050720e-02 -1.734352111816406250e-02 -7.332225888967514038e-02
9.187141805887222290e-02 -3.065774403512477875e-02 -2.592709362506866455e-01
1.190618611872196198e-02 -5.128211528062820435e-02 -7.711370289325714111e-02
2.323193475604057312e-02 -4.149880260229110718e-02 1.247436925768852234e-01
8.646773546934127808e-02 -1.481772400438785553e-02 -1.403553783893585205e-01
4.339443892240524292e-02 -1.093681529164314270e-02 1.085530519485473633e-01
8.845872431993484497e-02 -1.053134351968765259e-02 -2.301076054573059082e-02
7.214406132698059082e-02 -4.539608955383300781e-02 -1.978013515472412109e-01
1.037727668881416321e-01 -1.612972468137741089e-02 -1.619081050157546997e-01
6.784333288669586182e-02 -9.826412424445152283e-03 1.789279282093048096e-02
-7.577640935778617859e-03 -3.699426352977752686e-02 -1.568271964788436890e-01
-7.277162745594978333e-03 -1.413930393755435944e-02 1.198270544409751892e-01
8.121437579393386841e-02 -2.104963734745979309e-02 -2.057614028453826904e-01
-3.823051229119300842e-03 -4.935344681143760681e-02 5.233277752995491028e-02
-6.041539832949638367e-03 -2.659403719007968903e-02 -1.115547344088554382e-01
1.060747206211090088e-01 -2.030341327190399170e-02 4.909132421016693115e-02
1.127477549016475677e-02 -1.318387687206268311e-02 3.105239197611808777e-02
-3.707738593220710754e-03 -1.389498077332973480e-02 1.390576511621475220e-01
-5.720316618680953979e-02 -2.386291138827800751e-02 1.497731357812881470e-01
5.048843473196029663e-02 -1.075017824769020081e-02 9.902450442314147949e-02
-1.636838354170322418e-02 -1.537872478365898132e-02 1.340246796607971191e-01
1.080956086516380310e-01 -3.100941888988018036e-02 2.804800868034362793e-03
5.985348299145698547e-02 -3.001036494970321655e-02 1.393092572689056396e-01
6.201407313346862793e-02 -2.057193592190742493e-02 -1.835400462150573730e-01
1.245939955115318298e-01 -3.021228499710559845e-02 -6.246026977896690369e-02
3.774305060505867004e-02 -5.008512735366821289e-02 -9.977369010448455811e-02
-2.278327010571956635e-02 -1.700011268258094788e-02 8.134751021862030029e-02
8.081088960170745850e-02 -4.522311687469482422e-02 -1.694858223199844360e-01
-1.772627420723438263e-02 -3.631146252155303955e-02 2.149543315172195435e-01
3.619734197854995728e-04 -3.210523724555969238e-02 2.201322168111801147e-01
6.848856806755065918e-03 -4.637970030307769775e-02 9.131849557161331177e-02
8.175139874219894409e-02 -3.489649295806884766e-02 5.528063327074050903e-02
5.410383641719818115e-02 -2.728778496384620667e-02 1.611055433750152588e-01
-4.424074292182922363e-02 -2.990434132516384125e-02 -2.686536684632301331e-02
-2.497321553528308868e-02 -5.065885186195373535e-02 -3.823545947670936584e-02
-2.493334375321865082e-02 -4.679417982697486877e-02 1.188787445425987244e-01
2.693308889865875244e-02 -1.428894698619842529e-02 -4.405527561902999878e-02
-3.871932625770568848e-02 -1.977975107729434967e-02 1.009281426668167114e-01
-2.342597581446170807e-02 -4.846406728029251099e-02 -9.021224081516265869e-02
-2.560764737427234650e-02 -1.706328243017196655e-02 1.026100218296051025e-01
1.142499521374702454e-01 -1.699057966470718384e-02 1.198361720889806747e-02
1.787196099758148193e-02 -4.557099938392639160e-02 8.486776053905487061e-02
1.382182836532592773e-01 -2.354261279106140137e-02 -1.664783060550689697e-01
7.619834691286087036e-02 -2.984580770134925842e-02 -2.512922585010528564e-01
2.205247804522514343e-02 -5.012832581996917725e-02 -1.972394436597824097e-02
8.823955804109573364e-02 -1.155977323651313782e-02 -7.474878430366516113e-02
2.377192676067352295e-02 -5.089041963219642639e-02 -8.377560973167419434e-02
1.295036077499389648e-01 -3.320046141743659973e-02 -1.734326928853988647e-01
-4.160758852958679199e-02 -3.696937114000320435e-02 -7.165837287902832031e-02
-4.438423365354537964e-02 -2.795340679585933685e-02 -9.456711821258068085e-03
-1.892719604074954987e-02 -1.680597849190235138e-02 1.834791004657745361e-01
7.817877084016799927e-02 -1.003909856081008911e-02 8.414515294134616852e-03
3.116976469755172729e-03 -4.954448342323303223e-02 3.778097033500671387e-02
-2.439974062144756317e-02 -4.570638760924339294e-02 1.344523131847381592e-01
7.951255142688751221e-02 -2.826064079999923706e-02 1.033715456724166870e-01
2.129893377423286438e-02 -2.192664705216884613e-02 -1.316991895437240601e-01
1.251202076673507690e-01 -2.194044925272464752e-02 -2.332636713981628418e-02
1.235293075442314148e-01 -3.123243711888790131e-02 -2.342055588960647583e-01
5.122982338070869446e-02 -1.180412434041500092e-02 1.211704239249229431e-01
8.721585571765899658e-02 -4.381242394447326660e-02 -1.051566824316978455e-01
8.714184910058975220e-02 -1.045887917280197144e-02 1.145107671618461609e-03
1.170735955238342285e-01 -2.155584096908569336e-02 -2.127223759889602661e-01
-3.259992599487304688e-02 -5.019733309745788574e-02 -2.357335761189460754e-02
8.011551573872566223e-03 -1.284997537732124329e-02 1.377754360437393188e-01
1.726143807172775269e-02 -2.596123702824115753e-02 2.188064157962799072e-01
6.084051728248596191e-02 -1.594322547316551208e-02 1.456824392080307007e-01
9.236195683479309082e-02 -4.261974990367889404e-02 -2.024537622928619385e-01
9.913345426321029663e-02 -3.999134898185729980e-02 -7.236637920141220093e-02
-3.315889090299606323e-02 -1.831867732107639313e-02 1.626464575529098511e-01
1.185071766376495361e-01 -3.704442456364631653e-02 -1.430901587009429932e-01
6.364288181066513062e-02 -3.118208423256874084e-02 1.254267692565917969e-01
-6.872279196977615356e-02 -4.399149119853973389e-02 1.143660023808479309e-01
-5.627544224262237549e-02 -2.682427316904067993e-02 5.703697353601455688e-02
-2.035384066402912140e-02 -4.730396717786788940e-02 1.079243198037147522e-01
1.204805001616477966e-01 -2.970986999571323395e-02 -3.750510886311531067e-02
-6.661217659711837769e-02 -2.792233601212501526e-02 1.141564100980758667e-01
4.551638662815093994e-02 -1.575346104800701141e-02 -1.059772446751594543e-01
3.660219907760620117e-02 -1.226004026830196381e-02 -2.368769049644470215e-02
1.220158785581588745e-01 -1.506563741713762283e-02 -1.103052496910095215e-01
1.121072471141815186e-01 -3.870395198464393616e-02 -1.973012983798980713e-01
8.942133933305740356e-02 -1.253673247992992401e-02 -1.000643521547317505e-01
-2.880440466105937958e-02 -3.949458152055740356e-02 2.003520429134368896e-01
-6.163979321718215942e-02 -4.087217897176742554e-02 1.808247864246368408e-01
7.607650011777877808e-02 -1.271031424403190613e-02 9.189345687627792358e-02
6.711876392364501953e-02 -2.282248437404632568e-02 -2.073053717613220215e-01
-7.564715296030044556e-02 -3.279665857553482056e-02 1.632894724607467651e-01
6.219521909952163696e-02 -4.501712322235107422e-02 -1.643447577953338623e-02
-4.918834567070007324e-02 -4.638139903545379639e-02 1.224990114569664001e-01
1.175090223550796509e-01 -3.664974868297576904e-02 -2.103793621063232422e-01
-5.313244462013244629e-02 -4.327443614602088928e-02 1.646712720394134521e-01
7.595690339803695679e-02 -4.563824832439422607e-02 -9.772215038537979126e-02
-1.636471413075923920e-02 -1.754194125533103943e-02 2.014437913894653320e-01
-4.820105433464050293e-02 -4.766072332859039307e-02 9.618956595659255981e-02
7.251214981079101562e-02 -4.537756741046905518e-02 -6.750334799289703369e-02
1.236013397574424744e-01 -3.239677473902702332e-02 -8.187550306320190430e-02
9.103830903768539429e-02 -4.361272603273391724e-02 -1.709601134061813354e-01
1.367291994392871857e-02 -4.940370097756385803e-02 -1.431706249713897705e-01
-1.291169784963130951e-02 -2.300305478274822235e-02 2.389090657234191895e-01
-7.577721029520034790e-02 -4.090455174446105957e-02 9.830956161022186279e-02
-2.247099019587039948e-02 -2.035127766430377960e-02 2.246347814798355103e-01
2.356476522982120514e-02 -1.365019194781780243e-02 -2.224245108664035797e-02
3.710891306400299072e-02 -1.382866874337196350e-02 -5.877574905753135681e-02
-3.609114885330200195e-02 -4.990001767873764038e-02 4.249370098114013672e-02
2.079141512513160706e-02 -5.100079625844955444e-02 -6.910017132759094238e-02
6.953717768192291260e-02 -4.460101574659347534e-02 -2.147380560636520386e-01
-3.802059590816497803e-02 -2.446907199919223785e-02 4.614132456481456757e-03
4.703213274478912354e-02 -4.247475042939186096e-02 6.571250408887863159e-02
2.173606865108013153e-02 -4.380348324775695801e-02 1.014566570520401001e-01
-4.432794451713562012e-02 -2.048494666814804077e-02 1.384235918521881104e-01
1.315232217311859131e-01 -2.066799812018871307e-02 -5.918772146105766296e-02
1.037635505199432373e-01 -1.277566328644752502e-02 8.714015595614910126e-03
1.220980435609817505e-01 -1.468256302177906036e-02 -7.939053326845169067e-02
2.636257931590080261e-02 -3.635323420166969299e-02 -2.146139442920684814e-01
-4.593390971422195435e-02 -3.809228166937828064e-02 -6.077006831765174866e-02
1.358974575996398926e-01 -2.943444624543190002e-02 -1.525386273860931396e-01
6.988883018493652344e-03 -1.264530792832374573e-02 8.326669037342071533e-02
-3.640623390674591064e-02 -2.029396593570709229e-02 2.021590173244476318e-01
1.009908914566040039e-01 -4.084636270999908447e-02 -2.079592049121856689e-01
1.105150431394577026e-01 -3.319267928600311279e-02 -2.617634087800979614e-02
8.281554281711578369e-02 -2.238869853317737579e-02 -2.171965092420578003e-01
-2.861761860549449921e-02 -1.856981962919235229e-02 6.780727952718734741e-02
1.078961789608001709e-01 -3.919021040201187134e-02 -1.086372137069702148e-01
-3.723499923944473267e-02 -3.218185901641845703e-02 2.397013008594512939e-01
-1.751957647502422333e-02 -5.125245079398155212e-02 -2.159395068883895874e-02
5.232852697372436523e-02 -4.828243702650070190e-02 -6.639952212572097778e-02
-5.499819666147232056e-02 -3.903071209788322449e-02 2.026056498289108276e-01
4.123274981975555420e-02 -4.739849269390106201e-02 -1.877664327621459961e-01
1.188074983656406403e-02 -4.377846419811248779e-02 1.181892231106758118e-01
2.189335972070693970e-02 -3.182119876146316528e-02 1.958457231521606445e-01
2.475041896104812622e-02 -1.209397427737712860e-02 1.588457077741622925e-02
3.779513016343116760e-02 -4.143240302801132202e-02 -2.258883863687515259e-01
-5.235714465379714966e-02 -3.941658139228820801e-02 -4.105779528617858887e-02
2.396117523312568665e-02 -5.070827901363372803e-02 -1.074006333947181702e-01
3.792178630828857422e-02 -1.290024630725383759e-02 -4.186042770743370056e-02
8.230912685394287109e-02 -4.329857230186462402e-02 -6.067690998315811157e-02
6.066817045211791992e-02 -3.880272805690765381e-02 7.433218508958816528e-02
7.578041404485702515e-02 -4.330636560916900635e-02 -2.250000089406967163e-01
-2.613695152103900909e-02 -1.689585670828819275e-02 1.406428813934326172e-01
7.130253314971923828e-02 -4.674210399389266968e-02 -1.431725621223449707e-01
1.033143997192382812e-01 -3.070065379142761230e-02 2.191662043333053589e-02
3.425710648298263550e-02 -4.577183350920677185e-02 -2.015959918498992920e-01
4.878360033035278320e-02 -1.781903952360153198e-02 1.723750978708267212e-01
-6.183696910738945007e-03 -3.737541288137435913e-02 1.986219137907028198e-01
2.660669945180416107e-02 -5.033227056264877319e-02 -4.358679056167602539e-02
-6.142934784293174744e-03 -1.429015956819057465e-02 8.200342953205108643e-02
2.303120680153369904e-02 -4.953180998563766479e-02 -1.473918259143829346e-01
8.997602760791778564e-02 -2.509188279509544373e-02 8.848930150270462036e-02
-4.989260435104370117e-02 -2.230675145983695984e-02 1.117395088076591492e-01
3.180173411965370178e-02 -4.961778968572616577e-02 -3.184977546334266663e-02
2.162133529782295227e-02 -4.009088128805160522e-02 1.410559415817260742e-01
2.386053651571273804e-02 -4.357489943504333496e-02 -2.039479762315750122e-01
-6.248956173658370972e-02 -2.577849850058555603e-02 1.706299185752868652e-01
-4.808079451322555542e-02 -2.138573676347732544e-02 1.571096330881118774e-01
5.381738394498825073e-02 -1.542023103684186935e-02 -1.146698594093322754e-01
1.080587208271026611e-01 -1.231019385159015656e-02 -3.785244002938270569e-02
-4.034920036792755127e-02 -4.756496474146842957e-02 1.067223474383354187e-01
2.225945517420768738e-02 -4.596056416630744934e-02 7.093432545661926270e-02
3.534890711307525635e-03 -4.970695823431015015e-02 -1.261224299669265747e-01
-2.732440270483493805e-02 -5.056950449943542480e-02 2.467920631170272827e-02
6.955229490995407104e-02 -1.264701783657073975e-02 1.044922918081283569e-01
5.753342062234878540e-02 -4.471428692340850830e-02 -2.188421040773391724e-01
4.164202138781547546e-03 -5.028281360864639282e-02 -1.155294328927993774e-01
9.793538600206375122e-02 -1.136193610727787018e-02 -6.455100607126951218e-03
-2.190078608691692352e-02 -3.439026325941085815e-02 2.274658083915710449e-01
3.737325593829154968e-02 -4.913135617971420288e-02 -1.559962034225463867e-01
-1.936192624270915985e-02 -4.009039700031280518e-02 1.900370866060256958e-01
-5.363197624683380127e-02 -3.019665367901325226e-02 6.710971705615520477e-03
5.656581744551658630e-02 -9.836575016379356384e-03 3.896001353859901428e-02
-8.676087483763694763e-03 -4.262255132198333740e-02 1.574638485908508301e-01
7.861427217721939087e-02 -1.218679733574390411e-02 7.943254709243774414e-02
1.356171518564224243e-01 -2.285721525549888611e-02 -1.815488189458847046e-01
5.067697912454605103e-02 -9.949568659067153931e-03 5.364387109875679016e-02
2.648938260972499847e-02 -5.011719465255737305e-02 -1.323894858360290527e-01
1.705959066748619080e-02 -5.049720406532287598e-02 -1.203843727707862854e-01
5.399657785892486572e-02 -3.447160497307777405e-02 1.256714910268783569e-01
-6.947878748178482056e-02 -3.579132258892059326e-02 4.325399920344352722e-02
-2.911753021180629730e-02 -1.795797422528266907e-02 1.764333248138427734e-01
2.296048216521739960e-02 -1.799374818801879883e-02 -9.212091565132141113e-02
-3.674151375889778137e-03 -1.861707121133804321e-02 2.186921238899230957e-01
-1.163503713905811310e-02 -1.485452055931091309e-02 9.710832685232162476e-02
-4.271309822797775269e-02 -4.410188272595405579e-02 1.594666987657546997e-01
7.605253905057907104e-02 -3.809589520096778870e-02 4.071759432554244995e-02
1.194001808762550354e-01 -1.989933103322982788e-02 -1.960781663656234741e-01
3.564108535647392273e-02 -5.003044754266738892e-02 -6.863088160753250122e-02
1.073157116770744324e-01 -1.259499415755271912e-02 -8.312810212373733521e-02
2.421559765934944153e-03 -4.409794509410858154e-02 1.280587315559387207e-01
-6.486631184816360474e-02 -2.876268699765205383e-02 8.180437237024307251e-02
8.238990604877471924e-02 -3.903465345501899719e-02 1.034029666334390640e-02
6.398060917854309082e-02 -4.766084253787994385e-02 -1.302762031555175781e-01
-3.494752198457717896e-02 -1.851390302181243896e-02 1.510899364948272705e-01
4.722793772816658020e-02 -4.377109184861183167e-02 4.786835610866546631e-02
-1.065744087100028992e-03 -4.767170548439025879e-02 8.197841048240661621e-02
1.476324535906314850e-02 -4.211938381195068359e-02 1.321670114994049072e-01
-1.515017263591289520e-02 -1.585905253887176514e-02 1.700760126113891602e-01
6.847105175256729126e-02 -2.456603571772575378e-02 -2.204422205686569214e-01
7.436938583850860596e-02 -4.400739818811416626e-02 -4.141743481159210205e-02
9.264948219060897827e-02 -1.087552309036254883e-02 -3.874846175312995911e-02
1.626212708652019501e-02 -1.205747388303279877e-02 5.465286225080490112e-02
2.508219331502914429e-02 -3.622742742300033569e-02 1.662473976612091064e-01
-2.143040858209133148e-02 -2.713291347026824951e-02 -7.613342255353927612e-02
7.610176503658294678e-02 -1.618425548076629639e-02 -1.517508327960968018e-01
-6.268097460269927979e-02 -4.569089785218238831e-02 3.615540638566017151e-02
1.346006095409393311e-01 -2.742472849786281586e-02 -2.017549723386764526e-01
4.478342831134796143e-02 -4.085953161120414734e-02 8.962821215391159058e-02
3.732510283589363098e-02 -3.194726631045341492e-02 -2.194972336292266846e-01
-1.458316110074520111e-02 -4.722399264574050903e-02 -1.226241886615753174e-01
3.803556784987449646e-03 -2.323307283222675323e-02 -1.063847243785858154e-01
2.859497442841529846e-03 -2.665842510759830475e-02 -1.322720050811767578e-01
7.155116647481918335e-02 -1.199062727391719818e-02 -7.758723944425582886e-02
2.215053513646125793e-02 -1.205387897789478302e-02 2.704429998993873596e-02
2.146427147090435028e-02 -5.084658414125442505e-02 -5.449441075325012207e-02
-3.257190436124801636e-02 -2.530374564230442047e-02 -2.495783567428588867e-02
5.311371013522148132e-02 -4.675953090190887451e-02 -2.294386364519596100e-02
6.185044348239898682e-02 -1.924898289144039154e-02 -1.709141731262207031e-01
-5.037140101194381714e-02 -4.549641907215118408e-02 1.365050971508026123e-01
9.239964187145233154e-02 -1.195000484585762024e-02 3.683594986796379089e-02
-4.538246244192123413e-02 -4.898919537663459778e-02 5.726762115955352783e-02
-1.442950032651424408e-02 -1.544815301895141602e-02 1.581318974494934082e-01
-2.310889028012752533e-02 -2.135987952351570129e-02 -9.184974245727062225e-03
1.001571193337440491e-01 -1.139082387089729309e-02 -2.865384146571159363e-02
-6.844872981309890747e-02 -4.053274542093276978e-02 2.914729341864585876e-02
6.921326369047164917e-02 -1.327092200517654419e-02 -1.010005027055740356e-01
6.953339278697967529e-02 -4.643876478075981140e-02 -1.765441000461578369e-01
-3.670809417963027954e-02 -4.064708575606346130e-02 1.938686221837997437e-01
1.044514179229736328e-01 -1.191831752657890320e-02 -5.798347666859626770e-02
6.784463673830032349e-02 -1.773535832762718201e-02 -1.619390398263931274e-01
-3.789221495389938354e-02 -3.185129165649414062e-02 -6.100336834788322449e-02
5.264578014612197876e-02 -3.084128908812999725e-02 1.496420502662658691e-01
4.694405198097229004e-02 -1.169642619788646698e-02 -3.275832161307334900e-02
8.567029237747192383e-02 -1.183503307402133942e-02 5.569644272327423096e-02
1.093780621886253357e-03 -2.182590588927268982e-02 -8.590730279684066772e-02
1.039872765541076660e-01 -1.333516649901866913e-02 -1.122355163097381592e-01
2.795008383691310883e-02 -3.325673937797546387e-02 1.799389421939849854e-01
1.266654580831527710e-01 -3.425112366676330566e-02 -1.495428085327148438e-01
1.107048541307449341e-01 -3.737873956561088562e-02 -8.529012650251388550e-02
1.172697395086288452e-01 -3.574319556355476379e-02 -9.539440274238586426e-02
9.523944556713104248e-02 -1.667169481515884399e-02 -1.689434498548507690e-01
-2.865153737366199493e-02 -4.949204623699188232e-02 6.535025686025619507e-02
-7.145044952630996704e-02 -4.208638519048690796e-02 1.390643119812011719e-01
-1.124367117881774902e-04 -1.958363130688667297e-02 -5.638185888528823853e-02
6.662192940711975098e-02 -9.831117466092109680e-03 3.193888068199157715e-02
-6.297056376934051514e-02 -2.584497258067131042e-02 1.407707482576370239e-01
8.610082790255546570e-03 -3.318103402853012085e-02 2.065225988626480103e-01
9.477308392524719238e-02 -2.653755061328411102e-02 7.059913128614425659e-02
1.305968612432479858e-01 -2.749230712652206421e-02 -7.329283654689788818e-02
7.969806343317031860e-02 -4.556440189480781555e-02 -1.504275947809219360e-01
7.155311107635498047e-02 -1.010890863835811615e-02 -1.408484391868114471e-02
-9.263856336474418640e-03 -5.065455660223960876e-02 2.174393087625503540e-02
3.899528458714485168e-02 -1.032204367220401764e-02 6.059930473566055298e-02
1.286013051867485046e-02 -3.881643712520599365e-02 1.652506142854690552e-01
-2.388373948633670807e-02 -2.891658619046211243e-02 2.444145530462265015e-01
-4.710543900728225708e-02 -2.257066220045089722e-02 2.033300697803497314e-01
4.108963161706924438e-02 -1.033108867704868317e-02 7.922272384166717529e-02
2.702922187745571136e-02 -1.376312971115112305e-02 -3.387662395834922791e-02
1.350804567337036133e-01 -2.948507480323314667e-02 -1.354876160621643066e-01
1.367102265357971191e-01 -2.064413204789161682e-02 -1.435425579547882080e-01
2.345195040106773376e-03 -1.492558978497982025e-02 1.691538095474243164e-02
-2.636730857193470001e-02 -2.492738328874111176e-02 -4.139657691121101379e-02
-2.459078095853328705e-02 -4.297692701220512390e-02 1.670485585927963257e-01
3.897343203425407410e-02 -4.768588766455650330e-02 3.510760143399238586e-04
9.480532258749008179e-02 -1.193035021424293518e-02 -8.287917822599411011e-02
-3.864073753356933594e-02 -4.887435585260391235e-02 7.682382315397262573e-02
7.046721130609512329e-02 -2.300876192748546600e-02 1.383133381605148315e-01
-1.051781885325908661e-02 -4.018479585647583008e-02 1.818264424800872803e-01
-5.219501256942749023e-02 -4.830822348594665527e-02 3.763382881879806519e-02
1.197519898414611816e-02 -2.729918435215950012e-02 -1.553948819637298584e-01
1.293559819459915161e-01 -3.085167706012725830e-02 -2.159567326307296753e-01
-9.417736902832984924e-03 -1.816274039447307587e-02 -6.942949257791042328e-03
1.973097771406173706e-02 -1.864099875092506409e-02 2.085478603839874268e-01
1.142276525497436523e-01 -3.356098011136054993e-02 -4.658138751983642578e-02
3.957468271255493164e-02 -4.989531636238098145e-02 -1.167898178100585938e-01
-1.595709659159183502e-02 -4.807238280773162842e-02 9.124465286731719971e-02
9.728936105966567993e-02 -4.236612468957901001e-02 -1.795587092638015747e-01
-3.351595997810363770e-02 -2.058485895395278931e-02 4.648778215050697327e-02
-3.293342143297195435e-02 -2.375804632902145386e-02 -5.767076276242733002e-03
5.112158507108688354e-02 -4.435730352997779846e-02 2.896405756473541260e-02
-1.262915693223476410e-02 -2.238096296787261963e-02 -5.532710254192352295e-02
5.430214107036590576e-02 -4.470239579677581787e-02 1.437268126755952835e-02
1.051267385482788086e-01 -2.142466604709625244e-02 -2.168342769145965576e-01
2.529433369636535645e-02 -1.941970735788345337e-02 -1.140330582857131958e-01
5.788883566856384277e-02 -3.643163666129112244e-02 1.025025993585586548e-01
5.323899537324905396e-02 -1.758042350411415100e-02 -1.415883004665374756e-01
5.259171873331069946e-02 -4.879884049296379089e-02 -1.008515805006027222e-01
-1.344094611704349518e-02 -1.613262295722961426e-02 5.407635122537612915e-02
-1.861249841749668121e-02 -4.759165644645690918e-02 -1.107309311628341675e-01
-5.325051397085189819e-02 -4.814886301755905151e-02 4.814472049474716187e-02
8.757317811250686646e-02 -2.727755531668663025e-02 -2.476282715797424316e-01
-1.583164371550083160e-02 -1.698006317019462585e-02 4.261165484786033630e-02
1.257006637752056122e-02 -3.516055643558502197e-02 1.910189241170883179e-01
4.735057055950164795e-02 -1.003907248377799988e-02 4.385127127170562744e-02
3.753140941262245178e-02 -4.655447602272033691e-02 2.725858986377716064e-02
8.507600426673889160e-02 -4.441136866807937622e-02 -1.801794767379760742e-01
1.240159049630165100e-01 -3.410576283931732178e-02 -1.133392229676246643e-01
5.394994840025901794e-02 -2.675367705523967743e-02 -2.178273797035217285e-01
9.996666014194488525e-02 -2.830283902585506439e-02 4.734060913324356079e-02
1.768322661519050598e-02 -2.842197008430957794e-02 -1.728880405426025391e-01
7.138354331254959106e-02 -4.269053041934967041e-02 -5.626662634313106537e-03
-3.332026302814483643e-02 -5.035504698753356934e-02 -7.935205474495887756e-03
-1.828107424080371857e-02 -5.119347199797630310e-02 -9.065201506018638611e-03
1.108948141336441040e-01 -1.503724884241819382e-02 -1.401169598102569580e-01
