-7.674263715744018555e-01 9.579519927501678467e-02 -1.478779502213001251e-02
-6.891506314277648926e-01 1.036088317632675171e-01 4.534582421183586121e-02
-7.157381176948547363e-01 8.157301694154739380e-03 2.411086112260818481e-02
-7.323724031448364258e-01 4.448350146412849426e-02 8.100278675556182861e-02
-7.791861891746520996e-01 8.703984320163726807e-02 3.042072430253028870e-02
-7.633421421051025391e-01 5.457904189825057983e-03 1.291849091649055481e-02
-6.416140794754028320e-01 1.030369997024536133e-01 -4.633844271302223206e-02
-7.404804825782775879e-01 6.311599165201187134e-02 -9.324747323989868164e-02
-7.693732976913452148e-01 7.699421048164367676e-02 -6.971916556358337402e-02
-7.137467265129089355e-01 6.907349824905395508e-02 -9.487242996692657471e-02
-8.204591870307922363e-01 6.447385251522064209e-02 1.454166881740093231e-02
-7.821266055107116699e-01 7.555857300758361816e-03 1.088537089526653290e-02
-7.430701255798339844e-01 5.850031599402427673e-02 8.136643469333648682e-02
-6.641854643821716309e-01 7.833154499530792236e-02 -8.691845089197158813e-02
-8.033899068832397461e-01 2.118150144815444946e-02 -5.178021639585494995e-02
-8.241407275199890137e-01 5.813130363821983337e-02 -3.166513890027999878e-02
-6.264779567718505859e-01 1.059004962444305420e-01 -2.445924095809459686e-02
-7.850044369697570801e-01 6.361935287714004517e-03 -1.050509512424468994e-02
-7.158588171005249023e-01 4.611231386661529541e-03 -1.879180222749710083e-02
-6.756478548049926758e-01 4.828124120831489563e-02 -9.286545962095260620e-02
-6.398950219154357910e-01 2.211483567953109741e-02 -1.443568337708711624e-02
-7.668174505233764648e-01 3.860064595937728882e-02 -8.665306121110916138e-02
-6.966685056686401367e-01 1.104798316955566406e-01 -1.575844734907150269e-02
-8.118698596954345703e-01 1.512509584426879883e-02 6.600697524845600128e-04
-6.514408588409423828e-01 1.926050707697868347e-02 1.065907441079616547e-02
-7.129786014556884766e-01 9.409537911415100098e-02 -6.830634176731109619e-02
-6.755841970443725586e-01 1.279096677899360657e-02 -3.264443576335906982e-02
-7.977632284164428711e-01 5.366785079240798950e-02 5.676870793104171753e-02
-6.742658019065856934e-01 2.941876836121082306e-02 -7.642196863889694214e-02
-5.819184780120849609e-01 7.107598334550857544e-02 -1.421297155320644379e-02
-6.506075263023376465e-01 9.590969234704971313e-02 5.719859153032302856e-02
-7.104957103729248047e-01 5.817094445228576660e-02 8.540304005146026611e-02
-6.784904599189758301e-01 2.035062015056610107e-02 4.388544708490371704e-02
-8.020858168601989746e-01 5.267396569252014160e-02 -6.713579595088958740e-02
-7.577915191650390625e-01 7.103379070758819580e-02 7.151360064744949341e-02
-8.290142416954040527e-01 5.320959910750389099e-02 -2.618663385510444641e-02
-7.613739967346191406e-01 3.525175154209136963e-03 -5.242539569735527039e-03
-8.033232092857360840e-01 6.820485740900039673e-02 -5.129843577742576599e-02
-6.028895974159240723e-01 4.555422067642211914e-02 -3.341813385486602783e-02
-7.311909198760986328e-01 5.100483819842338562e-02 -9.705890715122222900e-02
-6.940946578979492188e-01 7.048976421356201172e-02 8.362291008234024048e-02
-7.210481762886047363e-01 7.081039249897003174e-03 -4.155171662569046021e-02
-7.423330545425415039e-01 1.032172515988349915e-01 6.664777174592018127e-03
-7.841403484344482422e-01 3.127171099185943604e-02 5.893460661172866821e-02
-7.010167241096496582e-01 1.056937128305435181e-01 3.582677617669105530e-02
-6.792570352554321289e-01 1.119321584701538086e-01 3.593943081796169281e-03
-6.368757486343383789e-01 1.058517694473266602e-01 2.850533276796340942e-02
-7.393528819084167480e-01 8.623387664556503296e-02 -7.247020304203033447e-02
-6.466944813728332520e-01 9.275799989700317383e-02 -6.820205599069595337e-02
-7.771463990211486816e-01 5.114488303661346436e-03 -6.372698117047548294e-03
-5.835687518119812012e-01 7.868548482656478882e-02 9.678162634372711182e-03
-8.056596517562866211e-01 4.437923431396484375e-02 5.109226703643798828e-02
-6.253274679183959961e-01 9.349647164344787598e-02 -5.711241066455841064e-02
-7.384620308876037598e-01 1.040561050176620483e-01 -1.404758170247077942e-02
-8.151425123214721680e-01 6.861063092947006226e-02 -2.902573347091674805e-02
-8.247541785240173340e-01 4.880556091666221619e-02 -4.124245420098304749e-02
-6.306329369544982910e-01 2.609128132462501526e-02 -9.540426544845104218e-04
-6.872272491455078125e-01 1.088134050369262695e-01 2.714847400784492493e-02
-6.293850541114807129e-01 5.001447349786758423e-02 -7.232291251420974731e-02
-7.217036485671997070e-01 1.037197932600975037e-02 -5.417560786008834839e-02
-7.803906798362731934e-01 1.429698988795280457e-02 -5.523766577243804932e-02
-6.484396457672119141e-01 7.738700509071350098e-02 -8.320941776037216187e-02
-6.344490647315979004e-01 9.677077084779739380e-02 4.944885522127151489e-02
-7.530547976493835449e-01 9.875755012035369873e-02 2.060932293534278870e-02
-7.041565179824829102e-01 8.395983278751373291e-02 -8.429414778947830200e-02
-6.687487959861755371e-01 1.475317403674125671e-02 1.483714953064918518e-02
-7.908310294151306152e-01 8.438560366630554199e-02 -2.786070294678211212e-02
-6.909735798835754395e-01 3.579620271921157837e-02 -8.886019885540008545e-02
-6.649396419525146484e-01 1.452837139368057251e-02 -2.455158345401287079e-02
-8.079394698143005371e-01 3.647849708795547485e-02 4.646835476160049438e-02
-7.171112298965454102e-01 1.059164479374885559e-01 2.561199665069580078e-02
-7.792900800704956055e-01 7.396675646305084229e-03 -3.305412828922271729e-02
-6.198153495788574219e-01 7.906865328550338745e-02 -6.835167855024337769e-02
-6.416885852813720703e-01 1.104146540164947510e-01 -2.714710077270865440e-03
-6.775943636894226074e-01 7.440386712551116943e-02 -9.147712588310241699e-02
-7.689536213874816895e-01 9.385263919830322266e-02 1.876336149871349335e-02
-5.948227047920227051e-01 5.235358327627182007e-02 -3.034594655036926270e-02
-7.224475741386413574e-01 2.919261902570724487e-02 -8.700235188007354736e-02
-7.798799276351928711e-01 8.773461729288101196e-02 -3.541254997253417969e-02
-7.517322301864624023e-01 1.001591309905052185e-01 -2.013619057834148407e-02
-6.867570281028747559e-01 9.190961718559265137e-03 -2.271693199872970581e-02
-8.206059932708740234e-01 6.653442978858947754e-02 -1.673671975731849670e-02
-7.649834156036376953e-01 1.286737993359565735e-02 -5.854852870106697083e-02
-7.059461474418640137e-01 3.794873133301734924e-02 7.707660645246505737e-02
-6.533728241920471191e-01 1.104872077703475952e-01 -2.029502391815185547e-02
-7.814248204231262207e-01 5.641515552997589111e-02 -8.006665855646133423e-02
-6.525545716285705566e-01 8.599929511547088623e-02 6.904435902833938599e-02
-7.314311265945434570e-01 9.039230644702911377e-03 3.170449659228324890e-02
-7.719672918319702148e-01 2.438247576355934143e-02 -7.475348562002182007e-02
-5.871302485466003418e-01 5.786955356597900391e-02 2.794479951262474060e-03
-7.314787507057189941e-01 5.246032029390335083e-03 -3.531090542674064636e-02
-7.208198904991149902e-01 6.173058226704597473e-02 8.465120941400527954e-02
-7.539452910423278809e-01 1.244562491774559021e-02 4.078055173158645630e-02
-6.715980768203735352e-01 1.063365340232849121e-01 -4.421355202794075012e-02
-6.623017787933349609e-01 1.756353676319122314e-02 -3.917197883129119873e-02
-7.792240977287292480e-01 1.730119436979293823e-02 4.303335770964622498e-02
-8.259324431419372559e-01 6.042483821511268616e-02 -1.893042400479316711e-02
-7.119798064231872559e-01 4.844512790441513062e-03 -6.524734199047088623e-03
-7.668187618255615234e-01 8.838142454624176025e-02 -5.011653900146484375e-02
-7.188593745231628418e-01 1.369356364011764526e-02 4.327737167477607727e-02
-7.344101667404174805e-01 4.215019196271896362e-02 -9.491635859012603760e-02
-7.716158628463745117e-01 4.469387233257293701e-03 -1.610430888831615448e-02
-6.589061021804809570e-01 6.829057633876800537e-02 -9.005168080329895020e-02
-7.537116408348083496e-01 7.870084047317504883e-02 6.649883836507797241e-02
-6.851525902748107910e-01 8.559917658567428589e-02 -8.324665576219558716e-02
-6.078284978866577148e-01 5.885526537895202637e-02 4.630757495760917664e-02
-7.244466543197631836e-01 9.564109146595001221e-02 5.382202938199043274e-02
-6.616491079330444336e-01 3.419823199510574341e-02 -7.664120942354202271e-02
-7.122951745986938477e-01 7.105159759521484375e-02 8.292920887470245361e-02
-7.668471336364746094e-01 7.123688608407974243e-02 -7.791138440370559692e-02
-7.255372405052185059e-01 1.069506704807281494e-01 -9.649449959397315979e-03
-6.808518171310424805e-01 6.442660093307495117e-02 -9.553937613964080811e-02
-6.081590056419372559e-01 3.863576799631118774e-02 4.392914474010467529e-03
-7.456507086753845215e-01 8.615862578153610229e-03 -5.076873302459716797e-02
-6.216006875038146973e-01 1.024465113878250122e-01 2.736020460724830627e-02
-7.704728841781616211e-01 8.406130224466323853e-02 -5.687919631600379944e-02
-5.899903178215026855e-01 9.141951054334640503e-02 -1.935763750225305557e-03
-6.930582523345947266e-01 5.009728297591209412e-02 8.272841572761535645e-02
-6.021894812583923340e-01 9.771761298179626465e-02 1.448591426014900208e-02
-8.078029155731201172e-01 4.552961513400077820e-02 -6.393946707248687744e-02
-7.783865332603454590e-01 5.386491492390632629e-02 6.910873949527740479e-02
-6.978668570518493652e-01 8.399099111557006836e-03 -3.315763920545578003e-02
-7.603931427001953125e-01 4.334790632128715515e-02 -9.008384495973587036e-02
-6.622490882873535156e-01 9.776831418275833130e-02 5.697999894618988037e-02
-7.666767239570617676e-01 1.264209672808647156e-02 3.800996765494346619e-02
-7.832068800926208496e-01 6.353747099637985229e-03 -1.933276653289794922e-02
-6.824863553047180176e-01 8.575755357742309570e-02 7.407627999782562256e-02
-7.899689674377441406e-01 6.635993719100952148e-02 5.563277378678321838e-02
-7.109617590904235840e-01 1.237517595291137695e-02 3.753785416483879089e-02
-7.040709853172302246e-01 1.581971347332000732e-02 -6.361248344182968140e-02
-6.709457635879516602e-01 1.929231733083724976e-02 3.582882136106491089e-02
-7.084729671478271484e-01 1.025374755263328552e-01 -4.977955669164657593e-02
-7.230817079544067383e-01 5.024856328964233398e-02 8.371557295322418213e-02
-7.387124300003051758e-01 3.316380083560943604e-03 -2.071407064795494080e-02
-6.412470340728759766e-01 2.701668068766593933e-02 -4.644440859556198120e-02
-7.079170942306518555e-01 1.098099350929260254e-01 -3.260920988395810127e-03
-8.158261775970458984e-01 4.355316609144210815e-02 -5.573150888085365295e-02
-6.713154911994934082e-01 6.770116835832595825e-02 -9.317022562026977539e-02
-6.691617965698242188e-01 2.391177788376808167e-02 4.646039009094238281e-02
-6.333997845649719238e-01 6.656001508235931396e-02 -8.014109730720520020e-02
-6.991986632347106934e-01 3.376966714859008789e-02 7.234472781419754028e-02
-7.264559268951416016e-01 1.041100174188613892e-01 2.645771205425262451e-02
-7.292268872261047363e-01 3.524348139762878418e-03 -1.789106801152229309e-02
-7.613778114318847656e-01 8.375158160924911499e-02 -6.452857702970504761e-02
-8.204035758972167969e-01 5.668132007122039795e-02 2.889076620340347290e-02
-6.607725620269775391e-01 2.320179715752601624e-02 -5.651812627911567688e-02
-5.847911238670349121e-01 7.377400994300842285e-02 1.625507511198520660e-02
-6.833249926567077637e-01 6.686756759881973267e-02 8.363915234804153442e-02
-7.951141595840454102e-01 2.695831656455993652e-02 -6.577990949153900146e-02
-8.116793036460876465e-01 6.814114749431610107e-02 2.691481634974479675e-02
-6.167955398559570312e-01 3.660330176353454590e-02 2.079587243497371674e-02
-7.531315684318542480e-01 5.674339458346366882e-02 7.888090610504150391e-02
-6.360558867454528809e-01 8.075704425573348999e-02 -7.625330984592437744e-02
-6.008483171463012695e-01 9.061015397310256958e-02 -3.908183798193931580e-02
-7.094665169715881348e-01 1.062663644552230835e-01 2.938467264175415039e-02
-7.282673120498657227e-01 3.820430487394332886e-03 1.147352159023284912e-03
-5.862686634063720703e-01 7.779615372419357300e-02 -2.916774898767471313e-02
-8.133237957954406738e-01 7.262852042913436890e-02 -1.676360145211219788e-02
-7.755517363548278809e-01 3.781115263700485229e-02 6.726925820112228394e-02
-7.303783893585205078e-01 8.608080446720123291e-03 -5.008606240153312683e-02
-6.388111114501953125e-01 4.039869830012321472e-02 -6.992084532976150513e-02
-6.399990916252136230e-01 2.700300328433513641e-02 2.726574614644050598e-02
-6.164836883544921875e-01 9.805731475353240967e-02 3.437404334545135498e-02
-6.237431168556213379e-01 2.908332832157611847e-02 -6.728991866111755371e-03
-6.748066544532775879e-01 2.329208701848983765e-02 -6.644572317600250244e-02
-7.838239073753356934e-01 6.271830946207046509e-02 -7.501935213804244995e-02
-7.534564137458801270e-01 8.704187721014022827e-02 -6.369137763977050781e-02
-7.891713380813598633e-01 2.414374426007270813e-02 4.867361485958099365e-02
-7.571347355842590332e-01 3.314657509326934814e-02 7.014910876750946045e-02
-7.692210674285888672e-01 9.542103111743927002e-02 3.392610698938369751e-03
-6.309490203857421875e-01 4.543412849307060242e-02 5.473158136010169983e-02
-7.999595999717712402e-01 1.640548929572105408e-02 2.647756040096282959e-02
-6.288803219795227051e-01 7.483370602130889893e-02 -7.587286829948425293e-02
-7.475653290748596191e-01 3.749847412109375000e-03 -2.627395279705524445e-02
-7.003222107887268066e-01 6.588093936443328857e-03 -1.922148093581199646e-02
-7.131128907203674316e-01 1.079139262437820435e-01 1.673468202352523804e-02
-6.159588098526000977e-01 4.457285627722740173e-02 3.874383494257926941e-02
-6.956006288528442383e-01 1.730681955814361572e-02 -6.385079026222229004e-02
-6.695846319198608398e-01 8.708813041448593140e-02 -8.037215471267700195e-02
-7.356935143470764160e-01 7.126560062170028687e-02 7.890598475933074951e-02
-5.940264463424682617e-01 6.789907068014144897e-02 3.386888653039932251e-02
-7.609283924102783203e-01 9.825312346220016479e-02 -9.390033781528472900e-03
-6.516680717468261719e-01 5.083760619163513184e-02 7.168804854154586792e-02
-7.332993745803833008e-01 9.478662163019180298e-02 5.146864056587219238e-02
-7.108001708984375000e-01 2.794608473777770996e-02 -8.475860208272933960e-02
-6.079329848289489746e-01 4.782583191990852356e-02 3.338620439171791077e-02
-7.879196405410766602e-01 4.905752837657928467e-02 6.415158510208129883e-02
-5.882992148399353027e-01 5.944726616144180298e-02 -2.594419009983539581e-02
-7.669053077697753906e-01 7.834654301404953003e-03 -4.303008690476417542e-02
-8.323355913162231445e-01 4.789675027132034302e-02 7.089975290000438690e-03
-6.880028843879699707e-01 1.116372793912887573e-01 1.160502433776855469e-04
-7.897365093231201172e-01 8.603641390800476074e-02 1.242134161293506622e-02
-7.787660956382751465e-01 1.021290197968482971e-02 -4.515222460031509399e-02
-7.351261377334594727e-01 2.098098397254943848e-02 -7.738288491964340210e-02
-6.593344211578369141e-01 9.720346331596374512e-02 -6.461469084024429321e-02
-6.658239364624023438e-01 9.211909025907516479e-02 -7.369452714920043945e-02
-6.089846491813659668e-01 9.952387958765029907e-02 2.091198787093162537e-02
-7.387111186981201172e-01 2.977285534143447876e-03 -9.917032904922962189e-03
-6.930641531944274902e-01 1.375205442309379578e-02 3.371097892522811890e-02
-6.930657029151916504e-01 4.228210449218750000e-02 7.853177189826965332e-02
-7.764186859130859375e-01 9.232528507709503174e-02 8.798467926681041718e-03
-6.370995640754699707e-01 7.122448086738586426e-02 7.019646465778350830e-02
-6.628734469413757324e-01 1.552714034914970398e-02 9.091543033719062805e-03
-7.239782810211181641e-01 3.910813480615615845e-02 -9.427193552255630493e-02
-7.556324005126953125e-01 8.994206041097640991e-02 -5.603385716676712036e-02
-6.274852752685546875e-01 1.055555790662765503e-01 2.141339704394340515e-02
-6.325655579566955566e-01 1.026751101016998291e-01 3.579479083418846130e-02
-5.989255309104919434e-01 8.472990989685058594e-02 3.583902865648269653e-02
-6.734209656715393066e-01 1.637660712003707886e-02 2.813903242349624634e-02
-7.898359894752502441e-01 7.001709938049316406e-02 -6.318031251430511475e-02
-6.111502647399902344e-01 1.034053117036819458e-01 -5.495060235261917114e-03
-7.023178339004516602e-01 1.067257523536682129e-01 -3.702966123819351196e-02
-6.380635499954223633e-01 2.384117618203163147e-02 8.259252645075321198e-03
-7.435232400894165039e-01 3.344179317355155945e-02 7.292887568473815918e-02
-7.175773382186889648e-01 8.646351844072341919e-02 -7.914578914642333984e-02
-8.167551755905151367e-01 6.415016949176788330e-02 -3.684919327497482300e-02
-6.147767901420593262e-01 8.869785815477371216e-02 4.779314622282981873e-02
-5.931786894798278809e-01 9.312120079994201660e-02 7.608432322740554810e-03
-6.451985239982604980e-01 4.610187560319900513e-02 6.489959359169006348e-02
-6.182268857955932617e-01 1.021959185600280762e-01 -3.094211593270301819e-02
-7.503593564033508301e-01 8.912938833236694336e-02 5.313033610582351685e-02
-7.290051579475402832e-01 1.058264300227165222e-01 -1.689401641488075256e-02
-7.736774086952209473e-01 1.530001312494277954e-02 -6.055604293942451477e-02
-8.220291137695312500e-01 2.125147730112075806e-02 -1.980252191424369812e-02
-7.931188941001892090e-01 7.411368191242218018e-02 4.303004965186119080e-02
-7.425919175148010254e-01 2.622069418430328369e-02 -8.334121853113174438e-02
-8.278979063034057617e-01 5.337209254503250122e-02 1.595501042902469635e-02
-6.680960059165954590e-01 1.839243993163108826e-02 -4.907704889774322510e-02
-7.345023155212402344e-01 1.052857637405395508e-01 -5.963666364550590515e-03
-6.897097229957580566e-01 1.096724793314933777e-01 -2.701402455568313599e-02
-7.268028855323791504e-01 8.561389893293380737e-02 -7.788433134555816650e-02
-8.069177865982055664e-01 2.830599248409271240e-02 4.064543917775154114e-02
-7.091119289398193359e-01 3.514973446726799011e-02 -9.124527871608734131e-02
-8.012991547584533691e-01 7.356460392475128174e-02 3.321881964802742004e-02
-7.668842673301696777e-01 9.493720531463623047e-02 -2.415688708424568176e-02
-7.996978163719177246e-01 2.415359020233154297e-02 4.153589904308319092e-02
-5.858246088027954102e-01 5.903362110257148743e-02 -9.256662800908088684e-03
-6.666706800460815430e-01 4.801232740283012390e-02 -9.010893106460571289e-02
-7.561341524124145508e-01 9.385114163160324097e-02 -4.480184242129325867e-02
-6.129779219627380371e-01 1.022289767861366272e-01 -2.286787889897823334e-02
-6.847938299179077148e-01 1.117070615291595459e-01 -8.933391422033309937e-03
-7.930750846862792969e-01 1.836878061294555664e-02 3.682760894298553467e-02
-7.221879363059997559e-01 7.371222972869873047e-02 8.035178482532501221e-02
-7.441347241401672363e-01 1.015015840530395508e-01 -2.528899721801280975e-02
-6.844868063926696777e-01 9.351304173469543457e-02 -7.304143160581588745e-02
-7.784521579742431641e-01 6.942998617887496948e-02 6.147579103708267212e-02
-7.063381671905517578e-01 5.851704627275466919e-03 6.006434559822082520e-04
-7.077301740646362305e-01 6.631314754486083984e-03 1.036941446363925934e-02
-7.648144364356994629e-01 7.283235341310501099e-02 6.665877997875213623e-02
-7.406243085861206055e-01 9.263370186090469360e-02 -5.992186069488525391e-02
-6.308339834213256836e-01 3.969761729240417480e-02 4.672041162848472595e-02
-7.185727357864379883e-01 4.708912223577499390e-02 -9.738733619451522827e-02
-7.868164777755737305e-01 1.171604916453361511e-02 2.466429956257343292e-02
-7.436347603797912598e-01 9.886947274208068848e-02 3.239525482058525085e-02
-8.072983622550964355e-01 1.260900124907493591e-02 -8.351135067641735077e-03
-6.660760045051574707e-01 7.309458404779434204e-02 7.943598181009292603e-02
-7.681682109832763672e-01 6.104847043752670288e-02 7.225286215543746948e-02
-8.011044859886169434e-01 7.841528952121734619e-02 1.961437053978443146e-02
-7.746684551239013672e-01 2.002718299627304077e-02 4.980374872684478760e-02
-6.539714336395263672e-01 1.051016226410865784e-01 -4.513467475771903992e-02
-6.663950085639953613e-01 2.461648732423782349e-02 -6.397899985313415527e-02
-7.232425808906555176e-01 4.378214478492736816e-03 -2.459747344255447388e-02
-6.447565555572509766e-01 2.151841297745704651e-02 -2.829564176499843597e-02
-7.059297561645507812e-01 2.883039601147174835e-02 6.789372116327285767e-02
-7.047220468521118164e-01 5.129143223166465759e-02 8.415841311216354370e-02
-6.652318239212036133e-01 1.118941977620124817e-01 -1.069915574043989182e-02
-7.202532887458801270e-01 6.312303245067596436e-03 1.687623187899589539e-02
-6.927599906921386719e-01 1.076139509677886963e-01 -3.679878264665603638e-02
-7.109315991401672363e-01 1.057093366980552673e-01 -3.699121251702308655e-02
-7.540284991264343262e-01 4.405819624662399292e-02 7.706493139266967773e-02
-7.219650149345397949e-01 3.865577280521392822e-03 -7.465456612408161163e-03
-6.413837671279907227e-01 3.259762376546859741e-02 4.348948970437049866e-02
-7.235430479049682617e-01 9.234723448753356934e-02 -6.829076260328292847e-02
-6.981031298637390137e-01 2.883543446660041809e-02 -8.353120833635330200e-02
-8.120659589767456055e-01 5.285797268152236938e-02 -5.710493773221969604e-02
-6.807144880294799805e-01 3.333082795143127441e-02 -8.368758857250213623e-02
-8.018372058868408203e-01 8.038249611854553223e-02 5.390442907810211182e-03
-7.147968411445617676e-01 1.037395447492599487e-01 3.652765229344367981e-02
-6.853847503662109375e-01 1.000674366950988770e-01 5.407720431685447693e-02
-6.939724683761596680e-01 7.472228258848190308e-02 -9.244813770055770874e-02
-6.340789794921875000e-01 1.065124124288558960e-01 -2.949545159935951233e-02
-6.819936037063598633e-01 1.627242937684059143e-02 3.477048501372337341e-02
-7.740275263786315918e-01 2.619365230202674866e-02 5.838647484779357910e-02
-6.060912013053894043e-01 8.989512920379638672e-02 3.832388296723365784e-02
-7.621681690216064453e-01 7.071722298860549927e-03 2.159610949456691742e-02
-7.174047231674194336e-01 1.081291064620018005e-01 -1.334922015666961670e-02
-7.962532043457031250e-01 7.661996036767959595e-02 -4.424465820193290710e-02
-7.193012237548828125e-01 4.194500669836997986e-02 8.043841272592544556e-02
-6.031236648559570312e-01 4.409126192331314087e-02 1.430079899728298187e-02
-7.595328092575073242e-01 1.617648079991340637e-02 -6.677307188510894775e-02
-7.036070823669433594e-01 2.377611771225929260e-02 6.029734760522842407e-02
-6.863344311714172363e-01 1.095690205693244934e-02 -3.600803390145301819e-02
-7.042246460914611816e-01 8.288510143756866455e-03 1.810988038778305054e-02
-7.981941699981689453e-01 4.405735433101654053e-02 5.696847289800643921e-02
-6.580216884613037109e-01 7.035642862319946289e-02 7.808665931224822998e-02
-5.837998986244201660e-01 6.641705334186553955e-02 8.252114988863468170e-03
-7.832567691802978516e-01 8.805619180202484131e-02 -2.717497013509273529e-02
-6.723110079765319824e-01 9.858584403991699219e-02 5.681964755058288574e-02
-6.768503785133361816e-01 1.227761432528495789e-02 1.167226769030094147e-02
-8.212953209877014160e-01 3.449058532714843750e-02 -4.625264555215835571e-02
-7.305533885955810547e-01 3.394079953432083130e-02 7.451956719160079956e-02
-8.192338347434997559e-01 5.644412338733673096e-02 -4.427605494856834412e-02
-6.534937620162963867e-01 3.489899635314941406e-02 -7.290870696306228638e-02
-7.840440273284912109e-01 8.189159631729125977e-02 -4.769228771328926086e-02
-6.087484955787658691e-01 3.756006434559822083e-02 -1.174628920853137970e-02
-5.957645177841186523e-01 7.288011908531188965e-02 -4.806796461343765259e-02
-7.727661132812500000e-01 8.534685522317886353e-02 4.288445785641670227e-02
-8.252282738685607910e-01 2.404052019119262695e-02 2.394024282693862915e-03
-7.776391506195068359e-01 8.642055094242095947e-02 -4.330043494701385498e-02
-6.638584733009338379e-01 1.413658633828163147e-02 -1.350577548146247864e-02
-5.828807353973388672e-01 7.978177815675735474e-02 -1.423430070281028748e-02
-7.006654143333435059e-01 6.296820938587188721e-03 -8.046001195907592773e-03
-7.858539223670959473e-01 8.855590224266052246e-02 -1.469474937766790390e-02
-6.811742782592773438e-01 3.201404586434364319e-02 6.571479141712188721e-02
-6.197842955589294434e-01 3.562463074922561646e-02 -3.955979272723197937e-02
-7.899452447891235352e-01 8.051659911870956421e-03 2.727028913795948029e-03
-8.111183643341064453e-01 6.540310382843017578e-02 -4.477107897400856018e-02
-7.626900672912597656e-01 9.730887413024902344e-02 8.426104672253131866e-03
-6.928687691688537598e-01 2.076866105198860168e-02 5.167787894606590271e-02
-7.185107469558715820e-01 9.101128578186035156e-02 6.406596302986145020e-02
-6.450594663619995117e-01 2.010281011462211609e-02 -6.379473488777875900e-03
-7.694228291511535645e-01 3.170497715473175049e-02 6.542808562517166138e-02
-6.032405495643615723e-01 6.067348271608352661e-02 -5.493446812033653259e-02
-7.570100426673889160e-01 4.296466708183288574e-03 7.734594866633415222e-03
-6.436960101127624512e-01 1.092438399791717529e-01 1.694115810096263885e-02
-7.526890635490417480e-01 5.852434784173965454e-02 -9.159439802169799805e-02
-6.104277968406677246e-01 3.766571357846260071e-02 -2.379555441439151764e-02
-6.686399579048156738e-01 1.010709553956985474e-01 -5.836103856563568115e-02
-6.121350526809692383e-01 9.308823943138122559e-02 -4.760647565126419067e-02
-6.640740633010864258e-01 3.374834358692169189e-02 6.087934225797653198e-02
-7.423011660575866699e-01 7.727217674255371094e-02 -8.274543285369873047e-02
-7.490305304527282715e-01 6.995733827352523804e-03 2.434490248560905457e-02
-6.496692299842834473e-01 7.789359986782073975e-02 7.327415049076080322e-02
-7.397885918617248535e-01 4.643570631742477417e-03 1.247869059443473816e-02
-7.531457543373107910e-01 3.043740987777709961e-03 -8.807992562651634216e-03
-7.341927886009216309e-01 1.090939715504646301e-02 -5.756714567542076111e-02
-7.279197573661804199e-01 1.039386987686157227e-01 -3.213110566139221191e-02
-7.784551978111267090e-01 7.262241840362548828e-02 -6.910550594329833984e-02
-6.632397174835205078e-01 1.097823679447174072e-01 2.321817912161350250e-02
-7.237296104431152344e-01 1.021636575460433960e-01 3.673275560140609741e-02
-6.870352625846862793e-01 2.617399767041206360e-02 -7.687691599130630493e-02
-7.779724001884460449e-01 9.135632216930389404e-02 -2.000972628593444824e-02
-6.603361964225769043e-01 8.522820472717285156e-02 -8.061041682958602905e-02
-7.187035679817199707e-01 1.913386210799217224e-02 5.505055189132690430e-02
-6.245931386947631836e-01 2.988065406680107117e-02 -2.564958110451698303e-02
-6.771823167800903320e-01 1.083987802267074585e-01 3.064456582069396973e-02
-5.895127654075622559e-01 8.491315692663192749e-02 1.966561004519462585e-02
-6.682591438293457031e-01 9.455953538417816162e-02 6.283480674028396606e-02
-8.311960101127624512e-01 3.110782057046890259e-02 -1.793451607227325439e-02
-8.034932613372802734e-01 2.073841914534568787e-02 3.264254331588745117e-02
-6.693039536476135254e-01 1.091812103986740112e-01 -3.262457996606826782e-02
-6.758233904838562012e-01 1.101696640253067017e-01 2.184618078172206879e-02
-7.493052482604980469e-01 1.016917675733566284e-01 -7.637390866875648499e-03
-7.982125282287597656e-01 8.262538164854049683e-02 -1.255740039050579071e-02
-7.808524370193481445e-01 7.408738881349563599e-02 5.479336529970169067e-02
-6.139063835144042969e-01 5.756684020161628723e-02 -6.448957324028015137e-02
-6.194245219230651855e-01 9.777407348155975342e-02 -4.485722258687019348e-02
-7.271815538406372070e-01 2.431347593665122986e-02 -8.178417384624481201e-02
-6.853200793266296387e-01 5.543575808405876160e-02 -9.662672877311706543e-02
-7.270882129669189453e-01 1.067325770854949951e-01 1.863803714513778687e-03
-6.176245212554931641e-01 6.955530494451522827e-02 -7.006394863128662109e-02
-6.917389035224914551e-01 9.266850352287292480e-02 6.619075685739517212e-02
-8.116371631622314453e-01 1.534799858927726746e-02 -2.235064841806888580e-02
-6.599631905555725098e-01 5.257290974259376526e-02 7.594817131757736206e-02
-8.233497142791748047e-01 2.713313139975070953e-02 1.708407886326313019e-02
-7.572636604309082031e-01 2.093793824315071106e-02 -7.475627958774566650e-02
-6.269580721855163574e-01 1.075180023908615112e-01 -1.274956949055194855e-02
-7.012686133384704590e-01 1.002911627292633057e-01 -5.807918310165405273e-02
-6.982311010360717773e-01 1.106405332684516907e-01 5.999404005706310272e-03
-5.875159502029418945e-01 8.753077685832977295e-02 -1.594363898038864136e-02
-7.271773815155029297e-01 6.508423388004302979e-02 -9.505625069141387939e-02
-7.477566003799438477e-01 8.178112655878067017e-02 -7.521115988492965698e-02
-7.496292591094970703e-01 4.721906036138534546e-03 1.274857483804225922e-02
-6.585288047790527344e-01 5.927731841802597046e-02 -9.060667455196380615e-02
-6.725155711174011230e-01 8.154154568910598755e-02 7.648473232984542847e-02
-7.560602426528930664e-01 9.286089241504669189e-02 4.011190310120582581e-02
-6.224966049194335938e-01 4.954565316438674927e-02 -6.639513373374938965e-02
-6.444788575172424316e-01 3.645655512809753418e-02 5.290943384170532227e-02
-7.051308751106262207e-01 1.240305975079536438e-02 -5.493209511041641235e-02
-8.184176087379455566e-01 4.045147448778152466e-02 3.700651228427886963e-02
-6.383026242256164551e-01 5.057901516556739807e-02 -7.861583679914474487e-02
-7.948546409606933594e-01 8.634015917778015137e-03 -6.296677980571985245e-03
-7.166393995285034180e-01 8.393980562686920166e-02 7.331492006778717041e-02
-7.253686785697937012e-01 1.967504993081092834e-02 -7.516825199127197266e-02
-5.979452133178710938e-01 4.650101810693740845e-02 -2.033243328332901001e-02
-7.067912817001342773e-01 7.897476106882095337e-02 7.897162437438964844e-02
-6.718082427978515625e-01 4.055982828140258789e-02 7.179091125726699829e-02
-8.265741467475891113e-01 6.073010712862014771e-02 -6.735371425747871399e-05
-6.815727949142456055e-01 9.420683979988098145e-02 6.426495313644409180e-02
8.314892649650573730e-03 -1.342408359050750732e-02 -1.228274255990982056e-01
7.139228284358978271e-03 -1.232789084315299988e-02 2.526128292083740234e-01
-1.489914059638977051e-01 1.660904102027416229e-02 3.501199483871459961e-01
-1.070735603570938110e-01 3.230436891317367554e-02 -3.596051335334777832e-01
-1.199992820620536804e-01 3.118699230253696442e-02 3.042786121368408203e-01
1.465032249689102173e-02 1.515907887369394302e-02 1.047034561634063721e-01
1.070411503314971924e-02 -1.898146234452724457e-03 -6.890562772750854492e-01
-3.870040178298950195e-03 -1.356129720807075500e-02 6.563439965248107910e-02
-1.066324040293693542e-01 3.252737689763307571e-03 -4.490714967250823975e-01
-1.108684688806533813e-01 1.036763563752174377e-02 6.683577895164489746e-01
-1.041886806488037109e-01 1.579218730330467224e-02 7.279251217842102051e-01
-3.030035458505153656e-02 -9.283505380153656006e-03 4.461165964603424072e-01
-5.806069448590278625e-02 3.009210154414176941e-02 -1.822819411754608154e-01
-1.439174711704254150e-01 2.907049469649791718e-02 -3.293992280960083008e-01
1.425479352474212646e-02 1.444050669670104980e-02 -4.205266237258911133e-01
-8.763039112091064453e-02 -4.664107225835323334e-03 -8.094137161970138550e-02
-1.497262716293334961e-01 1.913685724139213562e-02 3.765259683132171631e-01
3.438097238540649414e-02 9.242416359484195709e-03 -1.578255593776702881e-01
-3.795313090085983276e-02 2.535855025053024292e-02 2.587667405605316162e-01
-6.283355504274368286e-02 2.857179008424282074e-02 2.800771296024322510e-01
-1.107255369424819946e-01 3.201994299888610840e-02 2.481440156698226929e-01
-2.744301594793796539e-02 2.529991790652275085e-02 4.003077372908592224e-02
-1.248999014496803284e-01 4.760119598358869553e-03 -1.947145611047744751e-01
-8.825226128101348877e-02 2.115909010171890259e-04 5.653171539306640625e-01
-4.212015494704246521e-02 2.051872760057449341e-02 5.648036003112792969e-01
-6.959549337625503540e-02 -7.881069555878639221e-03 2.802705392241477966e-02
-8.907977491617202759e-02 5.727845709770917892e-03 7.162061929702758789e-01
-8.971914649009704590e-04 1.218689884990453720e-02 5.130209922790527344e-01
1.273548603057861328e-02 -1.007788628339767456e-02 -4.349291324615478516e-01
-5.666170641779899597e-02 2.998421341180801392e-02 -7.403478771448135376e-02
-1.546192616224288940e-01 2.031957916915416718e-02 2.906662821769714355e-01
-1.301761716604232788e-02 -1.299383863806724548e-02 -1.501073539257049561e-01
-7.848450541496276855e-02 -3.830765374004840851e-03 -3.820144236087799072e-01
-9.245492517948150635e-02 2.422955259680747986e-02 6.149163842201232910e-01
1.705039292573928833e-02 -8.033083751797676086e-03 -5.114559531211853027e-01
-4.136041179299354553e-02 2.558133006095886230e-02 2.861937582492828369e-01
-2.079255506396293640e-02 2.414019033312797546e-02 -2.669819891452789307e-01
-1.164914742112159729e-01 2.887550368905067444e-02 4.385991096496582031e-01
-1.720756664872169495e-02 1.780199632048606873e-02 -6.758829355239868164e-01
4.170934855937957764e-02 3.710923250764608383e-03 1.120806634426116943e-01
-1.099584996700286865e-01 2.296399697661399841e-02 6.325180530548095703e-01
-4.260128736495971680e-02 2.649324014782905579e-02 -4.398245513439178467e-01
-9.036122262477874756e-02 3.074224852025508881e-02 -4.618207216262817383e-01
1.787132024765014648e-02 -9.185492992401123047e-03 -4.591963589191436768e-01
2.525373548269271851e-02 7.370495703071355820e-03 3.373899757862091064e-01
-1.220225840806961060e-01 3.363054990768432617e-02 -9.461447596549987793e-02
1.025666296482086182e-02 1.254219934344291687e-02 -5.838510394096374512e-01
-1.608264818787574768e-02 -1.225628145039081573e-02 2.536619901657104492e-01
-8.168710023164749146e-02 -3.095507621765136719e-03 4.568765461444854736e-01
-7.240756601095199585e-02 2.333365753293037415e-02 6.065606474876403809e-01
-1.333024054765701294e-01 3.304662555456161499e-02 -5.851610004901885986e-02
-1.228386536240577698e-02 1.506053283810615540e-02 -7.220317125320434570e-01
-1.234802231192588806e-01 3.286284208297729492e-02 -2.560868859291076660e-01
-5.105551704764366150e-02 -5.214343778789043427e-03 -5.500151515007019043e-01
-3.047814220190048218e-02 -1.039404049515724182e-02 -3.440047204494476318e-01
4.388048499822616577e-02 -5.322873592376708984e-03 -3.225842118263244629e-01
-8.196508884429931641e-02 -5.493970587849617004e-03 -1.253422796726226807e-01
-8.482345193624496460e-02 9.697955101728439331e-04 -5.804576873779296875e-01
-1.509366929531097412e-01 1.563687436282634735e-02 -2.167076170444488525e-01
-6.122523173689842224e-02 3.024638257920742035e-02 3.715464845299720764e-02
-9.524652361869812012e-02 2.933238632977008820e-02 -5.539110302925109863e-01
-6.844174116849899292e-02 -7.905777543783187866e-03 -6.481671333312988281e-02
-8.524587005376815796e-02 3.106093965470790863e-03 -6.547009348869323730e-01
-8.656458556652069092e-02 -5.086241289973258972e-03 4.292412474751472473e-02
-1.013866066932678223e-01 2.351428940892219543e-02 -7.235178351402282715e-01
2.458330243825912476e-03 -1.278980262577533722e-02 -2.385073602199554443e-01
-8.528145402669906616e-02 -1.875813119113445282e-03 -4.304362237453460693e-01
-1.817762479186058044e-02 1.886369474232196808e-02 -6.437875628471374512e-01
-9.091743826866149902e-02 -4.890114068984985352e-04 5.069890022277832031e-01
-1.387027502059936523e-01 8.438330143690109253e-03 -7.734036445617675781e-02
-1.187203675508499146e-01 3.339061047881841660e-03 -2.311871647834777832e-01
-9.694718569517135620e-02 -5.766237154603004456e-04 4.266624450683593750e-01
-4.207605868577957153e-02 2.701706066727638245e-02 1.522841900587081909e-01
-5.556143820285797119e-02 2.675385214388370514e-02 -5.489984750747680664e-01
1.750445365905761719e-02 -1.311250589787960052e-02 7.274983823299407959e-02
-1.896034926176071167e-02 -1.307595148682594299e-02 -1.227766275405883789e-02
-4.656881093978881836e-03 1.146149821579456329e-03 6.714096665382385254e-01
-5.431079864501953125e-02 -9.482087567448616028e-03 2.093608975410461426e-01
1.474243402481079102e-02 -1.342503353953361511e-02 2.178315073251724243e-03
-1.204302012920379639e-01 3.149252384901046753e-03 -1.554196923971176147e-01
2.548412233591079712e-02 -3.228297457098960876e-03 4.524648785591125488e-01
-8.650382608175277710e-02 2.664526738226413727e-02 5.212087035179138184e-01
-5.152571201324462891e-02 -2.619845792651176453e-03 -6.584409475326538086e-01
-3.661580383777618408e-03 2.029855549335479736e-02 6.591397523880004883e-02
-4.702825844287872314e-02 -2.815510146319866180e-03 6.686157584190368652e-01
2.352231740951538086e-02 1.094227004796266556e-02 2.078376561403274536e-01
2.364948391914367676e-02 -1.272795721888542175e-02 -1.045727133750915527e-01
-9.363789856433868408e-02 1.508362777531147003e-02 7.585890889167785645e-01
-1.255011260509490967e-01 9.656956419348716736e-03 -4.718037545680999756e-01
-6.951596587896347046e-02 -7.280016317963600159e-03 -1.705387979745864868e-01
-1.358005255460739136e-01 3.238895162940025330e-02 -1.859405040740966797e-01
-1.417290717363357544e-01 2.914615161716938019e-02 -3.536818921566009521e-01
-2.475331351161003113e-02 1.911763474345207214e-02 4.881322979927062988e-01
-7.743549346923828125e-02 3.066887333989143372e-02 2.202742248773574829e-01
-1.316528320312500000e-01 2.811805531382560730e-02 4.155826568603515625e-01
-4.506883770227432251e-02 2.604830265045166016e-02 -5.057294964790344238e-01
-2.378561720252037048e-02 2.457000315189361572e-02 -2.927705347537994385e-01
-6.827815622091293335e-02 2.988629601895809174e-02 -4.067841172218322754e-01
-9.278552234172821045e-02 2.855454944074153900e-02 4.471736550331115723e-01
-4.006892815232276917e-02 -1.012451015412807465e-02 -2.852535843849182129e-01
-1.269716173410415649e-01 5.998114589601755142e-03 3.318492174148559570e-01
-1.408538222312927246e-01 2.888834103941917419e-02 3.175807893276214600e-01
-3.032678738236427307e-02 4.608645103871822357e-03 -8.499731421470642090e-01
1.659520715475082397e-02 1.226068288087844849e-02 2.769260108470916748e-01
3.194123506546020508e-03 2.523213624954223633e-03 6.295661330223083496e-01
-1.969883590936660767e-02 -5.965884774923324585e-03 6.028419733047485352e-01
-4.126573354005813599e-02 2.763739787042140961e-02 2.479789033532142639e-02
3.732517361640930176e-02 -1.028500869870185852e-02 -1.857571005821228027e-01
-1.173260509967803955e-01 1.221660804003477097e-02 6.482110023498535156e-01
-1.099236607551574707e-01 3.659538924694061279e-05 -8.283728361129760742e-02
-4.929660633206367493e-02 1.976050063967704773e-02 6.293569207191467285e-01
-1.011972054839134216e-01 3.351374715566635132e-02 -3.002879023551940918e-02
-1.387184560298919678e-01 8.112347684800624847e-03 5.428672209382057190e-02
-9.598290920257568359e-02 -2.948760986328125000e-03 -1.034283787012100220e-01
-3.999479115009307861e-02 -1.148954965174198151e-02 -2.322234213352203369e-03
-4.967750981450080872e-02 -6.104564294219017029e-03 -5.116679072380065918e-01
-7.534532248973846436e-02 2.652492001652717590e-02 -6.497130990028381348e-01
1.379168778657913208e-02 1.405289117246866226e-02 -4.566920995712280273e-01
-4.665439948439598083e-02 1.800850033760070801e-02 6.657555699348449707e-01
4.617059230804443359e-02 2.459608484059572220e-03 -1.727550774812698364e-01
-6.323727220296859741e-02 1.572879031300544739e-02 -8.631494045257568359e-01
-3.813216835260391235e-02 -4.682551138103008270e-03 -6.354053020477294922e-01
-7.813565433025360107e-02 -1.003323122859001160e-03 -5.519302487373352051e-01
-1.251071318984031677e-02 2.419435419142246246e-03 7.071683406829833984e-01
-8.711335062980651855e-02 -4.124971106648445129e-03 2.785320281982421875e-01
-2.813413739204406738e-04 -1.365396380424499512e-02 3.634954616427421570e-02
-4.842945933341979980e-02 2.682317048311233521e-02 -4.813324511051177979e-01
2.292388677597045898e-02 -1.210243999958038330e-02 1.606527417898178101e-01
-3.320752829313278198e-02 2.665083296597003937e-02 -1.036252528429031372e-01
-8.085775375366210938e-02 -4.389956593513488770e-03 3.693083226680755615e-01
4.508763551712036133e-02 -4.914915189146995544e-03 1.495923548936843872e-01
2.266124635934829712e-02 -1.197338476777076721e-02 -2.415199726819992065e-01
-9.146830439567565918e-02 3.251186758279800415e-02 -2.857401967048645020e-01
-2.723962068557739258e-03 -9.282931685447692871e-03 4.648429751396179199e-01
-1.035589724779129028e-03 1.985185220837593079e-02 3.529592230916023254e-02
-1.365205049514770508e-01 2.233605086803436279e-02 -5.371139645576477051e-01
3.166496753692626953e-04 1.459658518433570862e-02 -6.259604096412658691e-01
4.476047307252883911e-02 3.754254430532455444e-03 -1.275043487548828125e-01
-2.273285388946533203e-02 4.629228264093399048e-03 7.440863251686096191e-01
-4.051527380943298340e-02 -4.675193689763545990e-03 6.260444521903991699e-01
-2.965230681002140045e-02 2.190304175019264221e-02 3.991560637950897217e-01
-1.006635427474975586e-01 3.288965672254562378e-05 -3.369436860084533691e-01
-3.913849592208862305e-03 -1.186221837997436523e-02 3.139266371726989746e-01
-7.082550227642059326e-02 3.140293806791305542e-02 -1.930784434080123901e-03
-9.379593282938003540e-02 9.078020229935646057e-04 -4.882883727550506592e-01
-1.488109827041625977e-01 1.241394132375717163e-02 -2.733038924634456635e-02
-1.442589461803436279e-01 1.026946958154439926e-02 2.295148745179176331e-02
-7.562892138957977295e-02 -8.134450763463973999e-05 -6.115106940269470215e-01
-1.598257869482040405e-01 2.580088004469871521e-02 -3.871242329478263855e-02
-7.207836955785751343e-02 4.303234629333019257e-03 -7.627161741256713867e-01
-1.639809459447860718e-03 1.717326417565345764e-02 3.088186681270599365e-01
-2.606842294335365295e-02 2.160424739122390747e-02 3.764033317565917969e-01
-1.003751009702682495e-01 2.987983636558055878e-02 -5.268403887748718262e-01
-1.255498081445693970e-01 1.107166986912488937e-02 5.589493513107299805e-01
-1.608761996030807495e-01 2.203566022217273712e-02 -9.812835603952407837e-03
-9.811992943286895752e-02 3.048159182071685791e-02 3.463808596134185791e-01
-1.281132847070693970e-01 3.334265574812889099e-02 -2.565976232290267944e-03
-7.043836265802383423e-02 -2.647243440151214600e-03 5.775617957115173340e-01
-1.321533620357513428e-01 6.022149696946144104e-03 -4.221092164516448975e-02
-6.590276211500167847e-02 2.154530957341194153e-03 -7.397266626358032227e-01
-8.151809126138687134e-02 3.015272133052349091e-02 2.989777326583862305e-01
-4.057565331459045410e-02 2.728869393467903137e-02 -3.045759499073028564e-01
-5.154959857463836670e-03 1.942348852753639221e-02 -4.444633722305297852e-01
-1.300186216831207275e-01 2.997168339788913727e-02 -4.248299598693847656e-01
-1.043053269386291504e-01 1.929200813174247742e-02 7.025167346000671387e-01
-9.550122916698455811e-02 -3.362100571393966675e-03 9.369838982820510864e-03
5.785498768091201782e-03 5.256189499050378799e-03 5.929707884788513184e-01
-6.805328279733657837e-02 3.123772144317626953e-02 -5.494648963212966919e-02
-1.490346044301986694e-01 2.114830911159515381e-02 -3.811798989772796631e-01
-9.625630080699920654e-02 1.044682227075099945e-03 5.264343023300170898e-01
2.105199545621871948e-02 -1.170667819678783417e-02 2.186708897352218628e-01
-1.314361095428466797e-01 2.482932619750499725e-02 -5.575060844421386719e-01
1.965578645467758179e-02 1.453156024217605591e-02 -4.848280176520347595e-02
-1.104493886232376099e-01 3.335960581898689270e-02 8.141195774078369141e-02
4.943881928920745850e-02 -4.046169109642505646e-03 -1.503008157014846802e-01
-5.443750321865081787e-02 2.932263165712356567e-02 5.945836380124092102e-02
-8.802221715450286865e-02 1.450278982520103455e-02 -8.219228386878967285e-01
-1.029116809368133545e-01 3.320420533418655396e-02 -2.372207939624786377e-01
-1.370579004287719727e-01 2.565678395330905914e-02 4.570358693599700928e-01
-5.047898367047309875e-02 -5.015609785914421082e-03 5.831468701362609863e-01
-4.016903787851333618e-02 1.820378005504608154e-02 -7.931790947914123535e-01
1.232535392045974731e-02 1.172247156500816345e-02 3.724928498268127441e-01
-8.940700441598892212e-03 -1.275298744440078735e-02 2.166412025690078735e-01
-1.238367334008216858e-02 -1.009460911154747009e-02 -4.464415609836578369e-01
-3.793493658304214478e-02 -1.052398420870304108e-02 2.991879880428314209e-01
-2.303561940789222717e-02 1.596150361001491547e-02 5.871764421463012695e-01
-1.628091558814048767e-02 -1.318107545375823975e-02 -4.288911446928977966e-02
-9.917369484901428223e-02 1.821591891348361969e-02 -7.817673087120056152e-01
-5.225231498479843140e-02 2.832012251019477844e-02 -3.854852020740509033e-01
3.511337935924530029e-02 -1.129910163581371307e-02 -5.408016219735145569e-02
-6.274318695068359375e-02 3.051915206015110016e-02 -2.206173986196517944e-01
-5.638758093118667603e-02 2.940923348069190979e-02 9.016846120357513428e-02
1.119633018970489502e-02 5.137088242918252945e-03 -7.152726054191589355e-01
-1.439639031887054443e-01 1.485203020274639130e-02 4.016894698143005371e-01
-6.791440397500991821e-02 -7.756138220429420471e-04 -6.374676227569580078e-01
1.652548462152481079e-02 1.372348982840776443e-02 1.836455464363098145e-01
-1.525170356035232544e-01 2.921804971992969513e-02 1.095028370618820190e-01
-1.543485745787620544e-02 -1.094503141939640045e-02 -3.776070177555084229e-01
-5.770745500922203064e-02 -9.520715102553367615e-03 4.634515568614006042e-02
-6.475254148244857788e-02 2.696844004094600677e-02 4.100551307201385498e-01
-2.525475062429904938e-02 -6.501073017716407776e-03 -6.006799936294555664e-01
-6.484628468751907349e-02 2.017636969685554504e-02 -8.094151616096496582e-01
-2.095436677336692810e-02 -9.214276447892189026e-03 4.732021093368530273e-01
-9.615175426006317139e-02 -1.864485442638397217e-03 3.354468643665313721e-01
-1.057444661855697632e-01 5.026767961680889130e-03 -5.397568941116333008e-01
-9.184609353542327881e-02 -2.110783010721206665e-03 3.909055590629577637e-01
1.737646758556365967e-02 -5.278373137116432190e-04 5.335108041763305664e-01
-1.233675032854080200e-01 3.215474262833595276e-02 -3.296949267387390137e-01
-1.158171370625495911e-01 1.377508230507373810e-02 -6.667382121086120605e-01
-1.086836457252502441e-01 3.226332738995552063e-02 2.235173135995864868e-01
3.465536981821060181e-03 -1.258380152285099030e-02 -2.628058493137359619e-01
-2.130745351314544678e-02 2.193760871887207031e-02 -5.165498256683349609e-01
3.780511021614074707e-02 -1.265750266611576080e-03 -4.736017584800720215e-01
-3.712943941354751587e-02 -9.855769574642181396e-03 3.706144988536834717e-01
-1.307112425565719604e-01 7.901042699813842773e-03 3.729189038276672363e-01
-1.332920789718627930e-02 -9.523291140794754028e-03 -4.791289269924163818e-01
-1.087600737810134888e-01 1.294184476137161255e-03 3.640086948871612549e-01
-2.549806237220764160e-02 2.371430769562721252e-02 2.086606174707412720e-01
-1.020350754261016846e-01 3.232372552156448364e-02 2.015886753797531128e-01
-6.541395932435989380e-02 2.862915955483913422e-02 -4.922079145908355713e-01
-7.471270859241485596e-02 6.348656956106424332e-03 -7.912682294845581055e-01
-8.276017010211944580e-02 3.242475539445877075e-02 -1.889423877000808716e-01
-8.036370575428009033e-02 2.291353419423103333e-02 6.383466720581054688e-01
-1.165413782000541687e-01 1.438343897461891174e-03 9.969468414783477783e-02
1.508153229951858521e-02 -1.310196705162525177e-02 -1.493718177080154419e-01
-1.493591666221618652e-01 2.967847138643264771e-02 1.535168886184692383e-01
-1.309406757354736328e-01 1.768608018755912781e-02 5.841349959373474121e-01
3.050537407398223877e-02 1.070092804729938507e-02 -2.022618204355239868e-01
1.361611485481262207e-02 -6.148921325802803040e-03 4.992585778236389160e-01
-2.665195614099502563e-02 -1.002894714474678040e-02 -3.982308804988861084e-01
-1.048526614904403687e-01 3.975083585828542709e-03 -5.061868429183959961e-01
-1.511821150779724121e-01 2.806791476905345917e-02 -2.532292604446411133e-01
-6.292847543954849243e-02 2.976936660706996918e-02 1.544194072484970093e-01
-1.376654207706451416e-02 1.463087834417819977e-02 5.556316971778869629e-01
-5.989488214254379272e-02 2.252560108900070190e-02 -7.468601465225219727e-01
3.807193785905838013e-02 -6.300617009401321411e-03 2.627550363540649414e-01
-2.661582268774509430e-02 -4.393229261040687561e-03 -6.761759519577026367e-01
