-4.165280610322952271e-02 -2.048533260822296143e-01 -1.195052359253168106e-02
-1.261638253927230835e-01 -1.706126630306243896e-01 -1.847959868609905243e-02
-1.112771555781364441e-01 -1.791280359029769897e-01 -1.886685751378536224e-02
-1.148095056414604187e-01 -1.566771566867828369e-01 1.172657590359449387e-02
-1.975014954805374146e-01 -1.813883930444717407e-01 1.370477583259344101e-02
-8.255892992019653320e-02 -1.699835211038589478e-01 9.594751521944999695e-03
-1.319987773895263672e-01 -1.854748129844665527e-01 -1.926404237747192383e-02
-5.351999402046203613e-02 -2.256501615047454834e-01 -1.122353598475456238e-02
-1.361866742372512817e-01 -2.320750057697296143e-01 6.913280114531517029e-03
-1.699974536895751953e-01 -2.056084275245666504e-01 -1.640124432742595673e-02
-5.741906911134719849e-02 -1.665612757205963135e-01 -1.098887529224157333e-02
-7.904013246297836304e-02 -1.521919667720794678e-01 -1.104181632399559021e-02
-1.230765208601951599e-01 -1.810140609741210938e-01 -1.915734820067882538e-02
-1.605860292911529541e-01 -2.316762506961822510e-01 5.642167292535305023e-03
-2.329832613468170166e-01 -1.546783000230789185e-01 -7.998642511665821075e-03
-1.674830615520477295e-01 -1.504646241664886475e-01 1.344220619648694992e-02
-2.390074729919433594e-01 -1.782489717006683350e-01 7.756884209811687469e-03
-1.625802814960479736e-01 -1.257359832525253296e-01 6.028103642165660858e-03
-6.167058646678924561e-02 -2.046188414096832275e-01 6.964019499719142914e-03
-8.494274318218231201e-02 -1.538039147853851318e-01 -1.273476891219615936e-02
-1.016240417957305908e-01 -2.415828704833984375e-01 -9.883668273687362671e-03
-1.140750646591186523e-01 -2.390652149915695190e-01 -1.140914019197225571e-02
-1.493645012378692627e-01 -1.255839318037033081e-01 -6.549155339598655701e-03
-1.574857085943222046e-01 -2.400020509958267212e-01 -4.213689826428890228e-03
-2.390152812004089355e-01 -1.892386674880981445e-01 5.438480526208877563e-03
-1.005659699440002441e-01 -1.425741761922836304e-01 6.210478954017162323e-03
-2.480041235685348511e-01 -1.598992049694061279e-01 -3.269311273470520973e-03
-1.208180412650108337e-01 -2.315554618835449219e-01 7.128109224140644073e-03
-7.710053026676177979e-02 -1.866123229265213013e-01 -1.736248470842838287e-02
-2.069066464900970459e-01 -1.776476353406906128e-01 1.312107034027576447e-02
-1.897799968719482422e-01 -1.353152394294738770e-01 -1.015578117221593857e-02
-1.086266338825225830e-01 -1.563680917024612427e-01 1.104335580021142960e-02
-1.783344447612762451e-01 -1.406270265579223633e-01 1.167593989521265030e-02
-1.045237332582473755e-01 -1.497580558061599731e-01 -1.390237174928188324e-02
-1.668010056018829346e-01 -2.181667387485504150e-01 1.010847557336091995e-02
-1.081154346466064453e-01 -1.647262573242187500e-01 1.213465165346860886e-02
-7.403258979320526123e-02 -2.318512499332427979e-01 3.259272081777453423e-03
-2.022767961025238037e-01 -1.858252137899398804e-01 1.299709919840097427e-02
-1.709455996751785278e-01 -2.047976851463317871e-01 1.271078363060951233e-02
-1.927137076854705811e-01 -2.174972891807556152e-01 7.590831257402896881e-03
-2.091579735279083252e-01 -1.620184630155563354e-01 1.292590983211994171e-02
-8.934332430362701416e-02 -2.151623219251632690e-01 -1.729392819106578827e-02
-1.090605556964874268e-01 -1.570885479450225830e-01 -1.600676961243152618e-02
-1.428464949131011963e-01 -2.241864353418350220e-01 -1.521255075931549072e-02
-2.405274957418441772e-01 -1.482520997524261475e-01 5.979482084512710571e-03
-4.345738887786865234e-02 -1.750851422548294067e-01 -8.615141734480857849e-03
-1.494480818510055542e-01 -1.633659452199935913e-01 1.448841858655214310e-02
-5.918545275926589966e-02 -1.557108908891677856e-01 -3.375526517629623413e-03
-1.375814527273178101e-01 -2.412202954292297363e-01 -8.287948556244373322e-03
-1.343519985675811768e-01 -2.158478051424026489e-01 1.142337359488010406e-02
-1.425063312053680420e-01 -2.269938588142395020e-01 8.579025045037269592e-03
-1.580740809440612793e-01 -1.921051591634750366e-01 -1.833320036530494690e-02
-1.492814570665359497e-01 -2.006614357233047485e-01 1.375746447592973709e-02
-1.453278511762619019e-01 -1.290641725063323975e-01 -8.659482933580875397e-03
-1.487591862678527832e-01 -1.365624368190765381e-01 9.939639829099178314e-03
-1.149590164422988892e-01 -1.356448978185653687e-01 -9.500144049525260925e-03
-2.401088923215866089e-01 -1.860071569681167603e-01 -5.613025277853012085e-03
-7.849191874265670776e-02 -2.250228226184844971e-01 6.097190082073211670e-03
-1.126222610473632812e-01 -1.297155767679214478e-01 -2.771338913589715958e-03
-1.822447627782821655e-01 -1.453907191753387451e-01 -1.341915968805551529e-02
-2.256214618682861328e-01 -1.430216133594512939e-01 -7.212948054075241089e-03
-1.079333648085594177e-01 -2.455648332834243774e-01 -4.332327749580144882e-03
-9.039592742919921875e-02 -1.424606740474700928e-01 -8.734938688576221466e-03
-7.457810640335083008e-02 -2.007623314857482910e-01 -1.737180911004543304e-02
-2.015629559755325317e-01 -1.995275765657424927e-01 -1.328146364539861679e-02
-6.167300790548324585e-02 -1.766905337572097778e-01 6.541881710290908813e-03
-7.537730783224105835e-02 -2.403544187545776367e-01 -1.940704300068318844e-03
-2.118304371833801270e-01 -1.827155351638793945e-01 -1.319079194217920303e-02
-2.053830772638320923e-01 -1.278601586818695068e-01 5.595861934125423431e-03
-1.012861877679824829e-01 -2.126742601394653320e-01 1.066739670932292938e-02
-1.859508752822875977e-01 -1.617422848939895630e-01 1.428090874105691910e-02
-1.239587962627410889e-01 -1.992187350988388062e-01 1.342064235359430313e-02
-1.148014068603515625e-01 -1.599928438663482666e-01 -1.683273352682590485e-02
-1.990484595298767090e-01 -2.161770313978195190e-01 6.980815902352333069e-03
-1.383306533098220825e-01 -2.006558030843734741e-01 -1.877477206289768219e-02
-7.423505187034606934e-02 -2.159642279148101807e-01 -1.620674692094326019e-02
-9.302532672882080078e-02 -1.612806469202041626e-01 -1.563025265932083130e-02
-1.967309564352035522e-01 -2.196153551340103149e-01 -8.957724086940288544e-03
-1.967579722404479980e-01 -1.842572540044784546e-01 -1.525613572448492050e-02
-2.511182129383087158e-01 -1.695992946624755859e-01 2.795871114358305931e-03
-1.949500739574432373e-01 -1.745652854442596436e-01 1.412360463291406631e-02
-2.105978131294250488e-01 -1.682751774787902832e-01 1.295967772603034973e-02
-1.573008596897125244e-01 -1.980176568031311035e-01 -1.807747036218643188e-02
-1.631240546703338623e-01 -2.257649898529052734e-01 -1.285900082439184189e-02
-2.505711913108825684e-01 -1.647757291793823242e-01 -1.946027157828211784e-03
-1.333557218313217163e-01 -1.811277568340301514e-01 1.456642989069223404e-02
-6.449579447507858276e-02 -1.521304547786712646e-01 -4.654212854802608490e-03
-2.139540761709213257e-01 -1.340243518352508545e-01 -6.431767717003822327e-03
-1.931280791759490967e-01 -1.398101150989532471e-01 -1.121467631310224533e-02
-9.477081894874572754e-02 -1.794253587722778320e-01 1.185340899974107742e-02
-1.749140322208404541e-01 -1.209915801882743835e-01 -1.519785728305578232e-03
-1.914326846599578857e-01 -2.143547236919403076e-01 -1.197137311100959778e-02
-5.043629556894302368e-02 -1.689240038394927979e-01 -9.386119432747364044e-03
-2.167894393205642700e-01 -1.338120251893997192e-01 6.949516013264656067e-03
-2.235375791788101196e-01 -1.306762397289276123e-01 2.352284500375390053e-03
-1.837264746427536011e-01 -2.285930961370468140e-01 3.582717152312397957e-03
-1.862755715847015381e-01 -1.675370782613754272e-01 1.451332774013280869e-02
-3.641875833272933960e-02 -1.920079886913299561e-01 -9.621085599064826965e-03
-5.706647038459777832e-02 -1.989306360483169556e-01 6.442931480705738068e-03
-1.915781348943710327e-01 -2.075941860675811768e-01 -1.350546162575483322e-02
-3.405573964118957520e-02 -2.088906764984130859e-01 -2.211390761658549309e-03
-2.026046514511108398e-01 -1.850839555263519287e-01 -1.446657720953226089e-02
-1.890412867069244385e-01 -2.301454693078994751e-01 -2.334673888981342316e-03
-1.019794493913650513e-01 -2.284143269062042236e-01 7.364538498222827911e-03
-5.448371171951293945e-02 -1.615661978721618652e-01 -7.236106321215629578e-03
-1.930774003267288208e-01 -1.792855411767959595e-01 -1.576360128819942474e-02
-6.182870268821716309e-02 -2.188507318496704102e-01 4.968090914189815521e-03
-3.425038605928421021e-02 -2.041736692190170288e-01 -8.957356214523315430e-03
-1.621084064245223999e-01 -1.305130422115325928e-01 -9.680668823421001434e-03
-1.806990653276443481e-01 -1.664804518222808838e-01 1.466115470975637436e-02
-1.577019691467285156e-01 -1.482128053903579712e-01 -1.509206555783748627e-02
-1.447536349296569824e-01 -1.278291046619415283e-01 5.907547660171985626e-03
-1.432024091482162476e-01 -1.656045168638229370e-01 -1.795741356909275055e-02
-2.356504499912261963e-01 -1.508567035198211670e-01 8.042271248996257782e-03
-1.546148657798767090e-01 -2.308211922645568848e-01 -1.206803414970636368e-02
-9.178670495748519897e-02 -1.908020973205566406e-01 1.165156997740268707e-02
-1.028668135404586792e-01 -2.314263731241226196e-01 -1.443928666412830353e-02
-1.299256533384323120e-01 -1.385345607995986938e-01 9.055660106241703033e-03
-1.337027549743652344e-01 -2.442428171634674072e-01 -2.665036823600530624e-03
-1.213154569268226624e-01 -1.447848081588745117e-01 9.976082481443881989e-03
-2.139131724834442139e-01 -1.642384380102157593e-01 -1.264739874750375748e-02
-2.174915075302124023e-01 -1.461829245090484619e-01 -9.621881879866123199e-03
-6.135299801826477051e-02 -1.824028789997100830e-01 -1.507789827883243561e-02
-1.165353804826736450e-01 -2.107685804367065430e-01 1.180593110620975494e-02
-1.283782273530960083e-01 -1.548043042421340942e-01 1.256649941205978394e-02
-1.172058135271072388e-01 -1.356150805950164795e-01 6.203585304319858551e-03
-8.351698517799377441e-02 -1.565743833780288696e-01 7.378075271844863892e-03
-2.348339855670928955e-01 -1.492921262979507446e-01 -6.469799205660820007e-03
-1.131067276000976562e-01 -1.460177898406982422e-01 -1.352388411760330200e-02
-1.833598315715789795e-01 -2.115996628999710083e-01 1.052889693528413773e-02
-1.867659240961074829e-01 -2.275573462247848511e-01 -7.367942482233047485e-03
-1.899534612894058228e-01 -1.694449782371520996e-01 -1.582753658294677734e-02
-2.018783688545227051e-01 -1.413281857967376709e-01 -1.069371681660413742e-02
-1.353568136692047119e-01 -1.426407992839813232e-01 1.071461010724306107e-02
-1.420637965202331543e-01 -1.754638701677322388e-01 -1.875839568674564362e-02
-1.461527049541473389e-01 -2.081978321075439453e-01 1.277240086346864700e-02
-1.260962337255477905e-01 -2.313278168439865112e-01 -1.413560751825571060e-02
-1.671453714370727539e-01 -1.861565113067626953e-01 1.476928498595952988e-02
-1.728338748216629028e-01 -1.422013938426971436e-01 -1.322956476360559464e-02
-1.638272702693939209e-01 -1.925040036439895630e-01 1.440223958343267441e-02
-6.778646260499954224e-02 -1.511237621307373047e-01 -1.233331859111785889e-04
-2.046445608139038086e-01 -1.712015420198440552e-01 1.348258834332227707e-02
-8.498881757259368896e-02 -2.373898923397064209e-01 2.319026505574584007e-03
-1.684584617614746094e-01 -1.224227249622344971e-01 -4.192547872662544250e-03
-2.316423952579498291e-01 -1.769679635763168335e-01 9.702846407890319824e-03
-1.211699768900871277e-01 -1.863800138235092163e-01 1.395717542618513107e-02
-1.789898574352264404e-01 -1.514316946268081665e-01 1.351290661841630936e-02
-1.505316644906997681e-01 -2.249913066625595093e-01 -1.441549044102430344e-02
-6.466501206159591675e-02 -1.864327788352966309e-01 7.900935597717761993e-03
-5.581231415271759033e-02 -1.994079649448394775e-01 -1.513392385095357895e-02
-1.759749948978424072e-01 -1.783546209335327148e-01 1.486324425786733627e-02
-2.063904106616973877e-01 -1.363357007503509521e-01 -8.617219515144824982e-03
-1.080027893185615540e-01 -1.390074789524078369e-01 6.125418469309806824e-03
-2.191057652235031128e-01 -1.444535255432128906e-01 9.858269244432449341e-03
-2.130884528160095215e-01 -1.502222120761871338e-01 -1.111125387251377106e-02
-3.680056333541870117e-02 -2.146896421909332275e-01 -8.441301062703132629e-03
-2.367344349622726440e-01 -1.922075301408767700e-01 -5.510586313903331757e-03
-5.611247569322586060e-02 -2.308954298496246338e-01 -9.582117199897766113e-03
-1.469431519508361816e-01 -1.521215736865997314e-01 -1.600646600127220154e-02
-1.064168661832809448e-01 -2.151370346546173096e-01 1.060851011425256729e-02
-1.311353445053100586e-01 -1.765030771493911743e-01 -1.893867552280426025e-02
-8.720624446868896484e-02 -2.394104003906250000e-01 -1.044004876166582108e-02
-9.407119452953338623e-02 -1.397342383861541748e-01 3.022085176780819893e-03
-1.478116661310195923e-01 -2.291794270277023315e-01 7.641357369720935822e-03
-1.288345754146575928e-01 -1.424574553966522217e-01 -1.340346224606037140e-02
-1.038605421781539917e-01 -1.596825718879699707e-01 1.103754900395870209e-02
-2.255511283874511719e-01 -2.026578634977340698e-01 5.657063797116279602e-03
-1.968926787376403809e-01 -1.436536759138107300e-01 1.170499436557292938e-02
-1.647616624832153320e-01 -2.124647051095962524e-01 1.157335564494132996e-02
-1.383818238973617554e-01 -1.883829534053802490e-01 -1.917427405714988708e-02
-2.093481719493865967e-01 -2.043702006340026855e-01 9.049990214407444000e-03
-4.501171410083770752e-02 -1.852798610925674438e-01 2.967674983665347099e-03
-1.178785637021064758e-01 -2.047296464443206787e-01 1.263084728270769119e-02
-4.714371263980865479e-02 -2.048161029815673828e-01 3.776993835344910622e-03
-1.720618307590484619e-01 -1.861943602561950684e-01 -1.758820191025733948e-02
-1.955546289682388306e-01 -2.273061573505401611e-01 -1.188127906061708927e-03
-1.373387575149536133e-01 -1.709353029727935791e-01 1.452447380870580673e-02
-2.400640249252319336e-01 -1.949446648359298706e-01 1.309682847931981087e-03
-1.501109302043914795e-01 -2.155975401401519775e-01 1.138906180858612061e-02
-9.638540446758270264e-02 -1.416669487953186035e-01 -9.654759429395198822e-03
-8.344782888889312744e-02 -1.945355087518692017e-01 -1.811598055064678192e-02
-9.732373058795928955e-02 -1.961923539638519287e-01 -1.884757354855537415e-02
-7.060102373361587524e-02 -1.783231943845748901e-01 -1.592635735869407654e-02
-1.385432034730911255e-01 -1.891668736934661865e-01 1.452805753797292709e-02
-1.774816513061523438e-01 -2.329231947660446167e-01 1.504098763689398766e-03
-1.801588386297225952e-01 -1.326466053724288940e-01 9.438970126211643219e-03
-1.403266042470932007e-01 -1.469624191522598267e-01 -1.492441911250352859e-02
-1.594356447458267212e-01 -1.844789981842041016e-01 -1.839559152722358704e-02
-1.071694642305374146e-01 -2.428900599479675293e-01 7.475898601114749908e-04
-1.568180471658706665e-01 -1.290437281131744385e-01 7.536338642239570618e-03
-1.503894478082656860e-01 -1.476262807846069336e-01 -1.508435327559709549e-02
-1.539443731307983398e-01 -1.430489271879196167e-01 -1.397941075265407562e-02
-2.245607674121856689e-01 -1.556331515312194824e-01 -9.992720559239387512e-03
-1.331439912319183350e-01 -2.132999747991561890e-01 -1.770876720547676086e-02
-1.652558445930480957e-01 -2.254655659198760986e-01 7.908261381089687347e-03
-1.208611130714416504e-01 -1.882951706647872925e-01 -1.934029348194599152e-02
-1.515115350484848022e-01 -1.260655820369720459e-01 5.457494407892227173e-03
-1.427827775478363037e-01 -2.122839838266372681e-01 -1.744299009442329407e-02
-1.920000612735748291e-01 -1.592729389667510986e-01 1.388467568904161453e-02
-4.963905364274978638e-02 -1.956806182861328125e-01 4.836787469685077667e-03
-1.292718648910522461e-01 -2.198036611080169678e-01 -1.681372150778770447e-02
-8.811749517917633057e-02 -1.708576083183288574e-01 1.048280298709869385e-02
-3.632256388664245605e-02 -2.157307565212249756e-01 -2.919848542660474777e-03
-6.239588558673858643e-02 -2.293338477611541748e-01 1.999605214223265648e-03
-1.396791934967041016e-01 -2.189279347658157349e-01 1.079123746603727341e-02
-2.120155096054077148e-01 -1.993020623922348022e-01 9.841880761086940765e-03
-9.232650697231292725e-02 -1.872882097959518433e-01 -1.850618235766887665e-02
-1.476476937532424927e-01 -2.421569228172302246e-01 -2.235349267721176147e-03
-1.483194977045059204e-01 -1.840414255857467651e-01 -1.887294463813304901e-02
-2.056097984313964844e-01 -1.245511397719383240e-01 -5.747745744884014130e-04
-2.034805864095687866e-01 -1.448043435811996460e-01 1.150090154260396957e-02
-6.754298508167266846e-02 -2.132888436317443848e-01 -1.588144153356552124e-02
-1.361291259527206421e-01 -1.261351406574249268e-01 3.325018333271145821e-03
-1.310028433799743652e-01 -1.278949975967407227e-01 -6.510742940008640289e-03
-1.421198695898056030e-01 -2.428584545850753784e-01 -5.018441937863826752e-03
-1.135423630475997925e-01 -2.264691889286041260e-01 -1.577693223953247070e-02
-1.887963414192199707e-01 -1.971349269151687622e-01 1.281007193028926849e-02
-1.904415935277938843e-01 -1.779458820819854736e-01 1.429849024862051010e-02
-1.405697017908096313e-01 -1.945445537567138672e-01 1.425189804285764694e-02
-2.122130095958709717e-01 -2.115999758243560791e-01 -7.875620387494564056e-03
-1.847533583641052246e-01 -2.145521938800811768e-01 -1.303556095808744431e-02
-1.087264195084571838e-01 -1.411831378936767578e-01 -1.136231236159801483e-02
-1.664624661207199097e-01 -2.187497019767761230e-01 -1.442877948284149170e-02
-2.303771078586578369e-01 -1.648865044116973877e-01 1.032248698174953461e-02
-1.254200786352157593e-01 -2.237522155046463013e-01 9.550561197102069855e-03
-1.501060575246810913e-01 -1.763220876455307007e-01 1.500667724758386612e-02
-1.212723180651664734e-01 -1.795867830514907837e-01 1.398697774857282639e-02
-1.869881153106689453e-01 -1.900710165500640869e-01 1.374275144189596176e-02
-1.688320636749267578e-01 -1.374484300613403320e-01 -1.208870206028223038e-02
-1.468223184347152710e-01 -1.366351991891860962e-01 -1.205364521592855453e-02
-7.073820382356643677e-02 -1.930848211050033569e-01 8.988304995000362396e-03
-1.720224171876907349e-01 -1.230035275220870972e-01 4.259937442839145660e-03
-3.975980728864669800e-02 -2.026334404945373535e-01 1.585508463904261589e-03
-1.177130639553070068e-01 -2.265575826168060303e-01 8.623183704912662506e-03
-1.271028667688369751e-01 -1.472795158624649048e-01 1.111835427582263947e-02
-1.519377976655960083e-01 -1.915215402841567993e-01 1.456997077912092209e-02
-1.378510892391204834e-01 -1.304475218057632446e-01 6.599500775337219238e-03
-1.555841714143753052e-01 -1.756742894649505615e-01 -1.837358623743057251e-02
-1.332866251468658447e-01 -1.929220110177993774e-01 1.419126149266958237e-02
-2.244206964969635010e-01 -1.465182900428771973e-01 9.487478993833065033e-03
-1.321155577898025513e-01 -1.640553176403045654e-01 -1.782329007983207703e-02
-1.200544238090515137e-01 -2.198469787836074829e-01 -1.703727059066295624e-02
-1.747750639915466309e-01 -1.268327832221984863e-01 -7.472478784620761871e-03
-2.025145888328552246e-01 -2.209164798259735107e-01 3.436314174905419350e-03
-8.759365230798721313e-02 -2.146175354719161987e-01 9.228403680026531219e-03
-8.472745120525360107e-02 -2.419371604919433594e-01 -1.159945037215948105e-03
-2.237858027219772339e-01 -1.906445920467376709e-01 9.476963430643081665e-03
-1.870076209306716919e-01 -1.279051005840301514e-01 7.290395908057689667e-03
-1.734239906072616577e-01 -1.836680322885513306e-01 1.475213374942541122e-02
-2.446704506874084473e-01 -1.523563563823699951e-01 5.307611078023910522e-03
-2.269404083490371704e-01 -1.709229797124862671e-01 1.088218577206134796e-02
-1.137940436601638794e-01 -2.331122756004333496e-01 6.381189450621604919e-03
-1.912410110235214233e-01 -2.005236744880676270e-01 -1.467247586697340012e-02
-1.639493256807327271e-01 -1.429204791784286499e-01 -1.374673470854759216e-02
-1.145656779408454895e-01 -1.312512159347534180e-01 2.715665614232420921e-03
-7.259497791528701782e-02 -1.711367666721343994e-01 -1.513553783297538757e-02
-6.488270312547683716e-02 -1.779115349054336548e-01 -1.506665162742137909e-02
-1.672690212726593018e-01 -1.773626208305358887e-01 -1.786040887236595154e-02
-9.528271853923797607e-02 -1.853862255811691284e-01 1.203627046197652817e-02
-4.697725921869277954e-02 -2.271489799022674561e-01 -8.031310513615608215e-03
-1.946518123149871826e-01 -1.472537815570831299e-01 -1.278681308031082153e-02
-5.618730932474136353e-02 -2.325349450111389160e-01 -1.768634188920259476e-03
-1.683429181575775146e-01 -2.327888309955596924e-01 3.925547003746032715e-03
-1.741291284561157227e-01 -1.785313040018081665e-01 -1.744090206921100616e-02
-2.133615911006927490e-01 -1.941358000040054321e-01 -1.192178856581449509e-02
-4.616307467222213745e-02 -2.133162766695022583e-01 2.370055066421627998e-03
-8.692689239978790283e-02 -1.985994726419448853e-01 1.085141953080892563e-02
-4.765271544456481934e-01 -2.830068171024322510e-01 3.887487947940826416e-02
-5.241943001747131348e-01 -4.006697237491607666e-01 -4.586639627814292908e-02
-5.298326611518859863e-01 -3.607597351074218750e-01 6.276328861713409424e-02
-4.971096813678741455e-01 -2.795331478118896484e-01 -6.753798108547925949e-03
-5.072372555732727051e-01 -3.220469355583190918e-01 -5.215780809521675110e-02
-5.118705034255981445e-01 -3.649225234985351562e-01 -6.138522922992706299e-02
-5.168821215629577637e-01 -3.126651346683502197e-01 -4.736652970314025879e-02
-4.899323880672454834e-01 -3.929718136787414551e-01 5.042441189289093018e-02
-5.036396384239196777e-01 -2.933491468429565430e-01 -3.012597374618053436e-02
-4.522375166416168213e-01 -2.867631316184997559e-01 1.425736956298351288e-02
-5.376446247100830078e-01 -3.899999260902404785e-01 -4.985430464148521423e-02
-4.877991676330566406e-01 -4.017865955829620361e-01 4.258446022868156433e-02
-4.531290233135223389e-01 -3.217844665050506592e-01 -4.146890342235565186e-02
-5.204502344131469727e-01 -3.263452351093292236e-01 6.989922374486923218e-02
-6.096698045730590820e-01 -3.495324850082397461e-01 2.428366802632808685e-02
-4.395974278450012207e-01 -3.087264299392700195e-01 5.273583158850669861e-02
-4.157965779304504395e-01 -4.120464026927947998e-01 1.595705747604370117e-02
-5.279731154441833496e-01 -4.135282635688781738e-01 9.029025211930274963e-03
-5.481578111648559570e-01 -3.044796884059906006e-01 6.090265512466430664e-02
-6.203224658966064453e-01 -3.435481190681457520e-01 5.053342320024967194e-03
-4.718402028083801270e-01 -3.817710578441619873e-01 5.862019956111907959e-02
-6.110531687736511230e-01 -3.388763368129730225e-01 2.840437181293964386e-02
-4.376320242881774902e-01 -4.214306473731994629e-01 -1.399928890168666840e-02
-4.145983457565307617e-01 -4.130211472511291504e-01 -1.733407564461231232e-02
-4.411755800247192383e-01 -4.072667956352233887e-01 3.466932848095893860e-02
-5.290867686271667480e-01 -2.875544726848602295e-01 -2.531071938574314117e-02
-4.297252297401428223e-01 -4.205094575881958008e-01 -5.598127376288175583e-03
-4.760848283767700195e-01 -3.874948620796203613e-01 -5.686099827289581299e-02
-5.937530994415283203e-01 -3.808966875076293945e-01 -1.265552453696727753e-02
-3.905728757381439209e-01 -3.382684290409088135e-01 -1.032881066203117371e-02
-4.991481006145477295e-01 -2.748091220855712891e-01 8.982885628938674927e-03
-5.508628487586975098e-01 -3.842853307723999023e-01 4.134292900562286377e-02
-5.884426236152648926e-01 -3.029119372367858887e-01 -2.645337395370006561e-02
-5.511642694473266602e-01 -4.035950303077697754e-01 1.333861984312534332e-02
-5.775359869003295898e-01 -3.552058041095733643e-01 -4.744077473878860474e-02
-4.393818974494934082e-01 -2.956954538822174072e-01 3.520982712507247925e-02
-4.932472109794616699e-01 -4.156947433948516846e-01 2.236005291342735291e-02
-5.049059391021728516e-01 -2.765897512435913086e-01 -1.890384126454591751e-03
-5.470753908157348633e-01 -4.076897203922271729e-01 5.862504709511995316e-03
-5.179347395896911621e-01 -2.926946878433227539e-01 5.848406627774238586e-02
-3.931537568569183350e-01 -3.902114033699035645e-01 2.807690948247909546e-02
-4.748231470584869385e-01 -4.057314395904541016e-01 3.928598761558532715e-02
-4.601388871669769287e-01 -3.398508131504058838e-01 -5.259787663817405701e-02
-5.780766010284423828e-01 -2.795753479003906250e-01 1.752993278205394745e-02
-4.841096997261047363e-01 -2.906659841537475586e-01 5.331241339445114136e-02
-4.728088378906250000e-01 -3.734808266162872314e-01 -5.935025215148925781e-02
-4.700516462326049805e-01 -2.831432223320007324e-01 7.099155336618423462e-04
-6.068491339683532715e-01 -3.683668971061706543e-01 -4.253606777638196945e-03
-4.878056645393371582e-01 -3.246646821498870850e-01 7.061702013015747070e-02
-5.105327367782592773e-01 -3.125583231449127197e-01 6.829261779785156250e-02
-5.626060962677001953e-01 -3.368664085865020752e-01 5.998908728361129761e-02
-5.000669956207275391e-01 -4.069318175315856934e-01 3.458015248179435730e-02
-4.618444740772247314e-01 -2.971608638763427734e-01 5.271689221262931824e-02
-4.735879004001617432e-01 -2.965487837791442871e-01 -2.602124772965908051e-02
-5.036244392395019531e-01 -3.976168036460876465e-01 -5.206756293773651123e-02
-6.150309443473815918e-01 -3.564180731773376465e-01 6.432849913835525513e-04
-4.535424113273620605e-01 -3.479593992233276367e-01 6.749660521745681763e-02
-4.527972638607025146e-01 -3.947202265262603760e-01 4.872182384133338928e-02
-3.998471498489379883e-01 -3.467340767383575439e-01 4.626755416393280029e-02
-5.218120813369750977e-01 -3.437231481075286865e-01 6.883376091718673706e-02
-5.352325439453125000e-01 -3.987113833427429199e-01 3.299709036946296692e-02
-5.737333297729492188e-01 -3.770848512649536133e-01 -4.167841002345085144e-02
-3.927223384380340576e-01 -3.282655477523803711e-01 1.514883246272802353e-03
-4.791493117809295654e-01 -4.087983369827270508e-01 -4.474511370062828064e-02
-4.849500656127929688e-01 -3.861727118492126465e-01 5.575591325759887695e-02
-3.961027264595031738e-01 -3.364287614822387695e-01 -1.593998633325099945e-02
-4.766766130924224854e-01 -3.741268217563629150e-01 6.259572505950927734e-02
-5.181271433830261230e-01 -3.878809213638305664e-01 4.977077990770339966e-02
-5.814616680145263672e-01 -3.392103314399719238e-01 5.134461447596549988e-02
-5.136847496032714844e-01 -3.056915402412414551e-01 -4.248115792870521545e-02
-4.426456987857818604e-01 -4.082026481628417969e-01 -3.975371271371841431e-02
-5.849950909614562988e-01 -3.521037399768829346e-01 -4.412206262350082397e-02
-4.945021867752075195e-01 -3.692057430744171143e-01 -6.129845231771469116e-02
-4.254764616489410400e-01 -3.726008832454681396e-01 5.542355030775070190e-02
-5.646914243698120117e-01 -3.867433965206146240e-01 -4.004639387130737305e-02
-5.361686944961547852e-01 -3.149709403514862061e-01 6.629557162523269653e-02
-6.184586882591247559e-01 -3.289208710193634033e-01 -1.403973437845706940e-02
-5.486014485359191895e-01 -2.729491293430328369e-01 1.420790329575538635e-02
-4.637118577957153320e-01 -2.925556004047393799e-01 -1.584936119616031647e-02
-6.098412871360778809e-01 -3.103130459785461426e-01 2.869228087365627289e-02
-5.780538916587829590e-01 -3.530779182910919189e-01 4.852881282567977905e-02
-3.819476366043090820e-01 -3.640215098857879639e-01 -1.450000889599323273e-02
-5.079640746116638184e-01 -3.356780707836151123e-01 7.105702161788940430e-02
-4.996896386146545410e-01 -4.221286773681640625e-01 -1.771181821823120117e-03
-4.790900945663452148e-01 -2.800125777721405029e-01 3.121293149888515472e-03
-4.291733801364898682e-01 -4.191679954528808594e-01 -1.495773531496524811e-02
-4.082358181476593018e-01 -3.612843155860900879e-01 5.140643566846847534e-02
-3.994258344173431396e-01 -3.740493953227996826e-01 -3.307919576764106750e-02
-4.269239902496337891e-01 -3.227331042289733887e-01 5.505220592021942139e-02
-6.046186685562133789e-01 -3.033731281757354736e-01 3.042930550873279572e-02
-4.030953347682952881e-01 -4.101221561431884766e-01 -3.034755121916532516e-03
-3.983483016490936279e-01 -3.242480456829071045e-01 -2.879681997001171112e-03
-5.302063226699829102e-01 -3.758392333984375000e-01 5.516980588436126709e-02
-4.942740499973297119e-01 -3.598888814449310303e-01 6.767298281192779541e-02
-5.429723262786865234e-01 -2.730710804462432861e-01 2.453401498496532440e-02
-4.622216224670410156e-01 -3.815393447875976562e-01 -5.667724460363388062e-02
-4.747489988803863525e-01 -2.797191143035888672e-01 1.057004928588867188e-02
-5.522896051406860352e-01 -3.130472898483276367e-01 -4.511279985308647156e-02
-4.158996343612670898e-01 -4.098942875862121582e-01 -2.458567731082439423e-02
-3.761672377586364746e-01 -3.778779506683349609e-01 2.155871363356709480e-03
-4.730607867240905762e-01 -3.630060553550720215e-01 6.671281158924102783e-02
-4.105312526226043701e-01 -4.139407277107238770e-01 -1.875533722341060638e-03
-5.190311074256896973e-01 -3.599801957607269287e-01 -6.110619008541107178e-02
-4.251629114151000977e-01 -3.554864823818206787e-01 -4.545292258262634277e-02
-4.712057709693908691e-01 -4.048194885253906250e-01 -4.769597947597503662e-02
-5.462785363197326660e-01 -4.051535725593566895e-01 -2.876594848930835724e-02
-5.859783887863159180e-01 -3.815223276615142822e-01 1.739809103310108185e-02
-5.643435120582580566e-01 -3.641252517700195312e-01 -5.135342851281166077e-02
-4.536012113094329834e-01 -2.971542477607727051e-01 4.883142933249473572e-02
-5.038923621177673340e-01 -3.619748950004577637e-01 6.632543355226516724e-02
-6.184188723564147949e-01 -3.111180067062377930e-01 8.759011514484882355e-03
-3.936344385147094727e-01 -3.373906016349792480e-01 3.690711781382560730e-02
-4.013005197048187256e-01 -3.811588287353515625e-01 4.079156741499900818e-02
-5.860807895660400391e-01 -2.906492948532104492e-01 3.577721118927001953e-02
-4.477263689041137695e-01 -3.318761885166168213e-01 6.565032899379730225e-02
-4.677697122097015381e-01 -3.085872232913970947e-01 6.287504732608795166e-02
-6.071076393127441406e-01 -3.014709055423736572e-01 -8.676657453179359436e-03
-5.206156969070434570e-01 -3.348269462585449219e-01 -5.732211843132972717e-02
-4.627874791622161865e-01 -4.228947162628173828e-01 8.218247443437576294e-03
-4.164009690284729004e-01 -3.591884374618530273e-01 -4.207137972116470337e-02
-5.804174542427062988e-01 -3.869727849960327148e-01 -2.556999027729034424e-02
-5.495307445526123047e-01 -2.756837904453277588e-01 3.179627656936645508e-02
-4.470728039741516113e-01 -2.960195243358612061e-01 -1.042596250772476196e-02
-5.596298575401306152e-01 -3.443102538585662842e-01 -5.379389598965644836e-02
-4.916254580020904541e-01 -3.466580212116241455e-01 -5.958738923072814941e-02
-4.941745102405548096e-01 -2.921991050243377686e-01 -2.693387307226657867e-02
-4.926564693450927734e-01 -3.122536242008209229e-01 6.794714182615280151e-02
-5.548367500305175781e-01 -4.044461250305175781e-01 5.518801510334014893e-03
-5.333533883094787598e-01 -3.523646295070648193e-01 6.483961641788482666e-02
-5.307154655456542969e-01 -3.242296874523162842e-01 6.842650473117828369e-02
-5.392859578132629395e-01 -2.937463223934173584e-01 5.714251846075057983e-02
-4.678430557250976562e-01 -3.882631659507751465e-01 -5.576173961162567139e-02
-3.795280158519744873e-01 -3.468589782714843750e-01 1.602672412991523743e-02
-4.628129899501800537e-01 -4.173371195793151855e-01 2.255705371499061584e-02
-4.083094894886016846e-01 -4.122180938720703125e-01 -9.430665522813796997e-03
-4.167717993259429932e-01 -3.378544151782989502e-01 -3.421479091048240662e-02
-4.125234484672546387e-01 -3.110192716121673584e-01 -2.769147977232933044e-05
-4.412871599197387695e-01 -2.913611531257629395e-01 1.572611927986145020e-02
-5.303896069526672363e-01 -3.953076601028442383e-01 -4.842763021588325500e-02
-3.868474066257476807e-01 -3.392129838466644287e-01 2.789319865405559540e-02
-6.012929081916809082e-01 -3.697926402091979980e-01 1.367635093629360199e-02
-3.948268294334411621e-01 -3.515325188636779785e-01 -2.485693246126174927e-02
-5.515723228454589844e-01 -3.398343622684478760e-01 -5.502083525061607361e-02
-4.885029494762420654e-01 -4.092409014701843262e-01 3.369133919477462769e-02
-5.825386047363281250e-01 -3.356916904449462891e-01 -4.475264623761177063e-02
-6.136066317558288574e-01 -3.242186307907104492e-01 -1.988952979445457458e-02
-4.767151772975921631e-01 -4.243153631687164307e-01 -1.441975124180316925e-02
-3.934065997600555420e-01 -3.802928924560546875e-01 3.563310950994491577e-02
-4.447511136531829834e-01 -3.868354260921478271e-01 5.307696014642715454e-02
-5.330877900123596191e-01 -3.023191094398498535e-01 -3.999359533190727234e-02
-5.433128476142883301e-01 -2.769137024879455566e-01 -6.232344079762697220e-03
-4.150348901748657227e-01 -3.133258223533630371e-01 3.839635848999023438e-02
-5.425019264221191406e-01 -3.115210533142089844e-01 -4.560381919145584106e-02
-4.098663330078125000e-01 -3.455997407436370850e-01 5.266025662422180176e-02
-5.413826704025268555e-01 -2.844915986061096191e-01 4.878955334424972534e-02
-5.671337842941284180e-01 -2.876218259334564209e-01 4.398323222994804382e-02
-5.573135018348693848e-01 -3.991641104221343994e-01 1.709108613431453705e-02
-4.259589314460754395e-01 -3.375131487846374512e-01 -3.914992883801460266e-02
-4.977290034294128418e-01 -4.208378195762634277e-01 7.123684976249933243e-03
-5.899186134338378906e-01 -3.847481012344360352e-01 -2.219005953520536423e-03
-3.978548049926757812e-01 -4.058459997177124023e-01 -8.776668459177017212e-03
-5.630716681480407715e-01 -3.952282071113586426e-01 -3.137334808707237244e-02
-4.289302229881286621e-01 -3.095917403697967529e-01 -1.721189729869365692e-02
-4.574962854385375977e-01 -3.339182734489440918e-01 6.810975074768066406e-02
-6.163765192031860352e-01 -3.147737383842468262e-01 2.072842046618461609e-02
-5.240922570228576660e-01 -3.864893615245819092e-01 -5.502855777740478516e-02
-5.209829211235046387e-01 -3.469249308109283447e-01 -6.002482026815414429e-02
-4.112299084663391113e-01 -3.246988058090209961e-01 4.591934010386466980e-02
-5.145515203475952148e-01 -4.120103716850280762e-01 2.179598435759544373e-02
-5.605633854866027832e-01 -3.035250306129455566e-01 -3.722632676362991333e-02
-5.555838346481323242e-01 -3.659288883209228516e-01 5.258635804057121277e-02
-5.861992835998535156e-01 -2.987229228019714355e-01 4.299880564212799072e-02
-4.438636302947998047e-01 -4.014271795749664307e-01 4.153957590460777283e-02
-5.821897387504577637e-01 -3.887274563312530518e-01 6.828581914305686951e-03
-5.912984013557434082e-01 -3.247521519660949707e-01 4.747901111841201782e-02
-4.840142726898193359e-01 -2.822084426879882812e-01 -6.937404628843069077e-03
-4.240121543407440186e-01 -4.120072126388549805e-01 2.171347476541996002e-02
-4.000082015991210938e-01 -3.353581428527832031e-01 4.256159067153930664e-02
-3.907553553581237793e-01 -3.457819223403930664e-01 -1.724546402692794800e-02
-5.411506891250610352e-01 -4.071058630943298340e-01 1.472038589417934418e-02
-4.984239339828491211e-01 -3.298487067222595215e-01 7.136419415473937988e-02
-5.747709274291992188e-01 -3.457326292991638184e-01 5.294768139719963074e-02
-5.522073507308959961e-01 -2.802672684192657471e-01 4.041269794106483459e-02
-4.926094710826873779e-01 -3.495831787586212158e-01 7.019942253828048706e-02
-5.365591645240783691e-01 -2.918282449245452881e-01 -3.010506369173526764e-02
-4.877344965934753418e-01 -3.876972198486328125e-01 -5.739225447177886963e-02
-4.255956709384918213e-01 -3.190824389457702637e-01 -2.565146982669830322e-02
-5.475626587867736816e-01 -3.986359834671020508e-01 -3.811636567115783691e-02
-5.370861291885375977e-01 -3.431549072265625000e-01 6.619125604629516602e-02
-5.248023867607116699e-01 -3.999614417552947998e-01 3.587924316525459290e-02
-4.557540416717529297e-01 -3.073783218860626221e-01 -3.075165115296840668e-02
-4.362142682075500488e-01 -3.734669983386993408e-01 -5.132654309272766113e-02
-5.867239832878112793e-01 -2.828488349914550781e-01 1.425270922482013702e-02
-4.651147127151489258e-01 -3.534262478351593018e-01 -5.728664994239807129e-02
-6.157420873641967773e-01 -3.096490502357482910e-01 -4.764354322105646133e-03
-5.847321152687072754e-01 -3.644110262393951416e-01 3.776746243238449097e-02
-6.150833964347839355e-01 -3.436336517333984375e-01 -1.903726533055305481e-02
-4.373813867568969727e-01 -4.180527329444885254e-01 -2.443811669945716858e-02
-4.095679819583892822e-01 -3.104712665081024170e-01 1.912324875593185425e-02
-4.824156165122985840e-01 -3.395386040210723877e-01 -5.674960836768150330e-02
-4.320394694805145264e-01 -3.949309885501861572e-01 4.459049180150032043e-02
-6.080918312072753906e-01 -3.645302653312683105e-01 -1.378766819834709167e-02
-4.943138957023620605e-01 -4.208025038242340088e-01 -2.403315715491771698e-02
-5.159000158309936523e-01 -3.548674285411834717e-01 6.718890368938446045e-02
-5.171654224395751953e-01 -3.372980356216430664e-01 7.016834616661071777e-02
-5.840358734130859375e-01 -3.803072869777679443e-01 -3.073889575898647308e-02
-5.414832830429077148e-01 -3.297251164913177490e-01 6.658104062080383301e-02
-4.593559205532073975e-01 -2.915430963039398193e-01 4.447045922279357910e-02
-6.068976521492004395e-01 -3.650341928005218506e-01 1.044263876974582672e-02
-4.886263608932495117e-01 -4.215684533119201660e-01 8.835569024085998535e-03
-3.807681798934936523e-01 -3.834746479988098145e-01 1.752114109694957733e-02
-5.987009406089782715e-01 -3.022907674312591553e-01 -1.892063766717910767e-02
-5.159047245979309082e-01 -3.679554164409637451e-01 6.239840760827064514e-02
-6.063086986541748047e-01 -2.961708009243011475e-01 1.817834563553333282e-03
-3.853809833526611328e-01 -3.377759456634521484e-01 1.556774135679006577e-03
-4.318296611309051514e-01 -3.267175555229187012e-01 -3.562037274241447449e-02
-6.027179956436157227e-01 -3.705504238605499268e-01 -1.601585000753402710e-02
-4.347500801086425781e-01 -3.546944260597229004e-01 -4.915337637066841125e-02
-4.270270764827728271e-01 -3.012559711933135986e-01 1.051116036251187325e-03
-4.117478728294372559e-01 -3.856012225151062012e-01 -3.911570459604263306e-02
-4.414426386356353760e-01 -3.219626545906066895e-01 -3.688320890069007874e-02
-4.276586472988128662e-01 -3.904256820678710938e-01 -4.509832710027694702e-02
-5.697247385978698730e-01 -3.735587894916534424e-01 4.056729748845100403e-02
-4.089093506336212158e-01 -4.032765328884124756e-01 -2.722451277077198029e-02
-4.380410313606262207e-01 -4.204528331756591797e-01 8.681630715727806091e-03
-4.014204442501068115e-01 -3.929101824760437012e-01 3.244293108582496643e-02
-3.911041617393493652e-01 -3.991148471832275391e-01 -1.079518906772136688e-02
-4.139409065246582031e-01 -3.147992789745330811e-01 -9.949963539838790894e-03
-5.148757100105285645e-01 -3.812807202339172363e-01 5.526022613048553467e-02
-5.555521845817565918e-01 -2.893168628215789795e-01 4.997727274894714355e-02
-4.358375966548919678e-01 -3.631958663463592529e-01 6.126440688967704773e-02
-4.294622540473937988e-01 -4.035628139972686768e-01 -3.883099183440208435e-02
-4.022467434406280518e-01 -4.025009572505950928e-01 -2.200026996433734894e-02
-4.798114001750946045e-01 -3.182976543903350830e-01 -4.662432149052619934e-02
-5.948864221572875977e-01 -3.264313638210296631e-01 -3.628423064947128296e-02
-4.376052320003509521e-01 -4.016187787055969238e-01 -4.320496320724487305e-02
-3.835696876049041748e-01 -3.449609279632568359e-01 -5.177337210625410080e-03
-5.641582012176513672e-01 -3.606003224849700928e-01 5.179589241743087769e-02
-3.975008130073547363e-01 -3.215834796428680420e-01 2.115813083946704865e-02
-4.697571992874145508e-01 -4.151384830474853516e-01 2.657159417867660522e-02
-5.610030293464660645e-01 -3.169520497322082520e-01 -4.543062299489974976e-02
-5.065546631813049316e-01 -3.238900601863861084e-01 7.067122310400009155e-02
-5.119152069091796875e-01 -3.284343183040618896e-01 -5.515584349632263184e-02
-5.962248444557189941e-01 -2.887062430381774902e-01 1.892629824578762054e-02
-3.858943283557891846e-01 -3.607041239738464355e-01 3.466419875621795654e-02
-5.083873867988586426e-01 -2.999722957611083984e-01 -3.736868873238563538e-02
-5.764677524566650391e-01 -3.850471079349517822e-01 2.285559102892875671e-02
-4.374130070209503174e-01 -3.242251873016357422e-01 6.040786579251289368e-02
-4.060546755790710449e-01 -4.042630195617675781e-01 2.238890714943408966e-02
-4.768587052822113037e-01 -2.802214324474334717e-01 3.090690448880195618e-02
-4.412375688552856445e-01 -3.148680925369262695e-01 -3.099698014557361603e-02
-4.989805817604064941e-01 -4.118047952651977539e-01 -3.998681530356407166e-02
-4.699477255344390869e-01 -2.809911966323852539e-01 2.466036379337310791e-02
-5.658213496208190918e-01 -2.803632616996765137e-01 3.424062579870223999e-02
-4.167216420173645020e-01 -3.534574210643768311e-01 5.629091337323188782e-02
-5.036102533340454102e-01 -3.669041991233825684e-01 -6.151732057332992554e-02
-4.570220410823822021e-01 -3.702026009559631348e-01 -5.695598945021629333e-02
-6.032217741012573242e-01 -2.936349511146545410e-01 1.758187264204025269e-02
-4.387730956077575684e-01 -3.445794582366943359e-01 -4.773657768964767456e-02
-5.287967920303344727e-01 -3.618544340133666992e-01 -6.009415537118911743e-02
-4.239742755889892578e-01 -3.009817302227020264e-01 9.930472820997238159e-03
-5.462220907211303711e-01 -3.790951073169708252e-01 4.770922288298606873e-02
-4.793693721294403076e-01 -3.021450042724609375e-01 6.164357811212539673e-02
-5.578714609146118164e-01 -3.918593525886535645e-01 -3.945020958781242371e-02
-4.659198820590972900e-01 -3.307384252548217773e-01 6.920146942138671875e-02
-6.003198623657226562e-01 -3.755685985088348389e-01 -3.485299181193113327e-03
-4.820300638675689697e-01 -2.927835285663604736e-01 -2.424128167331218719e-02
-3.764210939407348633e-01 -3.673685193061828613e-01 -3.796416800469160080e-03
-5.794539451599121094e-01 -3.309547901153564453e-01 5.367103591561317444e-02
-5.157932639122009277e-01 -3.818995058536529541e-01 -5.800959467887878418e-02
-4.568848609924316406e-01 -4.012393057346343994e-01 4.348326846957206726e-02
-5.941463112831115723e-01 -3.168894350528717041e-01 4.501261189579963684e-02
-5.963397622108459473e-01 -3.713475465774536133e-01 -2.626535110175609589e-02
-5.017748475074768066e-01 -2.885787189006805420e-01 5.432166531682014465e-02
-5.071322917938232422e-01 -2.732388079166412354e-01 2.151652984321117401e-02
-5.422655940055847168e-01 -3.710801601409912109e-01 5.446144565939903259e-02
-5.940753221511840820e-01 -2.995092868804931641e-01 3.782831877470016479e-02
-4.050299823284149170e-01 -3.255849778652191162e-01 -1.465956680476665497e-02
-5.761239528656005859e-01 -2.957744300365447998e-01 4.673279821872711182e-02
-4.604105353355407715e-01 -2.851939201354980469e-01 3.062680736184120178e-02
-5.628538727760314941e-01 -2.753193974494934082e-01 1.122230291366577148e-02
-5.949726104736328125e-01 -3.558471798896789551e-01 3.563031181693077087e-02
-5.149970650672912598e-01 -2.762717604637145996e-01 -4.017184954136610031e-03
-5.230364203453063965e-01 -2.847793698310852051e-01 5.117528885602951050e-02
-4.737593531608581543e-01 -2.899890244007110596e-01 -1.688342355191707611e-02
-4.208934307098388672e-01 -3.810257911682128906e-01 -4.467381164431571960e-02
-5.702866315841674805e-01 -2.916676998138427734e-01 -2.323033846914768219e-02
-4.138865470886230469e-01 -3.993667066097259521e-01 -3.395789489150047302e-02
-4.685092270374298096e-01 -3.912297785282135010e-01 5.247138813138008118e-02
-5.649876594543457031e-01 -2.955982089042663574e-01 5.148295685648918152e-02
-5.835336446762084961e-01 -2.835120260715484619e-01 -6.750007160007953644e-04
-4.304158389568328857e-01 -4.079672694206237793e-01 3.072339110076427460e-02
-5.344651341438293457e-01 -3.803628683090209961e-01 -5.541583150625228882e-02
-4.606490433216094971e-01 -2.993976175785064697e-01 -2.406272478401660919e-02
-5.277311801910400391e-01 -3.053503632545471191e-01 6.469336152076721191e-02
-4.415953457355499268e-01 -3.029386997222900391e-01 -1.763517037034034729e-02
-5.696306228637695312e-01 -3.982978463172912598e-01 -1.179699786007404327e-02
-4.978538155555725098e-01 -3.051372170448303223e-01 -4.046278446912765503e-02
-4.304298162460327148e-01 -2.969465851783752441e-01 1.320228166878223419e-02
-5.395978689193725586e-01 -4.011870920658111572e-01 -3.937375545501708984e-02
-5.499817132949829102e-01 -4.081798195838928223e-01 -5.916737485677003860e-03
-3.992109894752502441e-01 -3.577111065387725830e-01 -3.087421320378780365e-02
-4.824492037296295166e-01 -3.723213672637939453e-01 -6.041707843542098999e-02
-4.777337014675140381e-01 -3.955662250518798828e-01 -5.374844744801521301e-02
-5.599877834320068359e-01 -4.010547995567321777e-01 -2.291809767484664917e-02
-5.138214826583862305e-01 -2.940286993980407715e-01 -3.210325166583061218e-02
-5.035364031791687012e-01 -3.951759636402130127e-01 4.666497930884361267e-02
-5.273001790046691895e-01 -3.824456930160522461e-01 5.153499916195869446e-02
-4.993650019168853760e-01 -4.223847985267639160e-01 -1.179109886288642883e-02
-4.585465192794799805e-01 -3.544984459877014160e-01 6.743842363357543945e-02
-5.031763315200805664e-01 -3.498105108737945557e-01 6.969609856605529785e-02
-3.919305503368377686e-01 -3.656682968139648438e-01 3.992820903658866882e-02
-4.598305225372314453e-01 -3.615905046463012695e-01 -5.728638172149658203e-02
-4.112529754638671875e-01 -3.699276745319366455e-01 5.083193257451057434e-02
-4.861098229885101318e-01 -2.995176613330841064e-01 -3.312898054718971252e-02
-5.177876949310302734e-01 -3.917756080627441406e-01 -5.353211984038352966e-02
-3.832054734230041504e-01 -3.530496656894683838e-01 -1.163322478532791138e-02
-4.028382897377014160e-01 -3.836268186569213867e-01 -3.409856930375099182e-02
-5.919774770736694336e-01 -3.443560898303985596e-01 -4.068257659673690796e-02
-5.910575389862060547e-01 -3.513697683811187744e-01 4.121033474802970886e-02
-4.847882390022277832e-01 -2.767907381057739258e-01 1.873301155865192413e-02
-4.066801965236663818e-01 -3.928594887256622314e-01 -3.324202820658683777e-02
-5.547884702682495117e-01 -3.430022597312927246e-01 6.151011958718299866e-02
-3.823767006397247314e-01 -3.502075970172882080e-01 2.771386131644248962e-02
-4.807316958904266357e-01 -4.237138926982879639e-01 2.354147611185908318e-03
-5.750821232795715332e-01 -2.882445752620697021e-01 4.054408520460128784e-02
-4.495884180068969727e-01 -4.212776422500610352e-01 1.117850653827190399e-02
-4.996817111968994141e-01 -4.178634881973266602e-01 1.542372070252895355e-02
-4.926024675369262695e-01 -3.797590136528015137e-01 5.920320376753807068e-02
-5.641444325447082520e-01 -3.032658696174621582e-01 5.581797659397125244e-02
-4.006431698799133301e-01 -3.180904388427734375e-01 1.027078740298748016e-02
-6.028800010681152344e-01 -3.627643883228302002e-01 -2.578118816018104553e-02
-4.237267374992370605e-01 -3.304658830165863037e-01 5.658446624875068665e-02
-6.206080317497253418e-01 -3.219881653785705566e-01 1.384879648685455322e-02
-4.190708100795745850e-01 -3.054805994033813477e-01 2.880065329372882843e-02
-5.410891771316528320e-01 -2.727177143096923828e-01 9.165734052658081055e-03
-5.750293731689453125e-01 -3.251653313636779785e-01 -4.489124938845634460e-02
-5.278578996658325195e-01 -4.093783497810363770e-01 -3.378444537520408630e-02
-4.482073187828063965e-01 -3.048261702060699463e-01 -2.426439709961414337e-02
-4.223518669605255127e-01 -3.017155528068542480e-01 2.093758247792720795e-02
-3.759353756904602051e-01 -3.566121459007263184e-01 1.072068884968757629e-02
-3.881015181541442871e-01 -3.856746554374694824e-01 -1.997675932943820953e-02
-6.050690412521362305e-01 -3.250409662723541260e-01 3.717764467000961304e-02
-5.183049440383911133e-01 -2.799010872840881348e-01 -1.285564526915550232e-02
-5.470492243766784668e-01 -3.209516704082489014e-01 -4.992812126874923706e-02
-6.176007390022277832e-01 -3.303029239177703857e-01 2.132803946733474731e-02
-5.906280875205993652e-01 -3.811179101467132568e-01 -2.034955658018589020e-02
-4.320201277732849121e-01 -4.015955328941345215e-01 3.858074918389320374e-02
-4.178995788097381592e-01 -3.493012487888336182e-01 -4.011379927396774292e-02
-5.715584754943847656e-01 -3.043577373027801514e-01 -3.482277318835258484e-02
-5.493469834327697754e-01 -3.572544157505035400e-01 5.890687182545661926e-02
-4.935146272182464600e-01 -3.135706782341003418e-01 -4.598790034651756287e-02
