2.107155025005340576e-01 9.494567662477493286e-02 4.524840712547302246e-01
4.246925935149192810e-02 9.088009595870971680e-02 2.337903678417205811e-01
5.946965515613555908e-02 1.019684448838233948e-01 4.902812838554382324e-01
1.269605457782745361e-01 1.241183131933212280e-01 3.588050603866577148e-01
-4.397638887166976929e-02 1.003007516264915466e-01 -3.795334100723266602e-01
1.554391980171203613e-01 8.825308084487915039e-02 4.359220266342163086e-01
1.055889576673507690e-02 1.001735180616378784e-01 -9.898230433464050293e-01
8.324319869279861450e-02 9.927899390459060669e-02 -8.900036811828613281e-01
6.961713731288909912e-02 8.535262197256088257e-02 -6.387867331504821777e-01
4.331864416599273682e-03 1.002723276615142822e-01 1.654700040817260742e-01
1.695386171340942383e-01 1.223201006650924683e-01 3.575342297554016113e-01
-3.094274550676345825e-02 9.707497805356979370e-02 -2.330252230167388916e-01
-2.577829360961914062e-02 1.020375415682792664e-01 -8.441139757633209229e-02
8.940429240465164185e-02 8.150354027748107910e-02 -1.606430560350418091e-01
1.025118380784988403e-01 8.886096626520156860e-02 4.152612090110778809e-01
1.409697085618972778e-01 9.075256437063217163e-02 -5.373491048812866211e-01
1.721256226301193237e-01 1.145852208137512207e-01 -3.567444682121276855e-01
3.380746766924858093e-02 8.919585496187210083e-02 1.273557543754577637e-01
1.104731485247612000e-01 1.267621964216232300e-01 -1.488462090492248535e-01
6.790007650852203369e-02 8.281146734952926636e-02 -3.141646087169647217e-02
1.804029941558837891e-02 1.241878718137741089e-01 -3.201441466808319092e-01
-9.082481265068054199e-04 8.754445612430572510e-02 -6.018047928810119629e-01
-6.812810897827148438e-03 1.163518875837326050e-01 -7.868583202362060547e-01
1.937596201896667480e-01 9.102930873632431030e-02 4.164299368858337402e-01
1.361824572086334229e-03 8.670665323734283447e-02 -4.044578969478607178e-01
2.132059186697006226e-01 1.073603630065917969e-01 -8.346047997474670410e-02
-1.876825839281082153e-02 9.040019661188125610e-02 -3.854605555534362793e-01
2.012761384248733521e-01 9.133007377386093140e-02 2.271914482116699219e-02
1.520120352506637573e-01 1.055851429700851440e-01 -6.019356250762939453e-01
-2.086100727319717407e-02 9.057978540658950806e-02 -4.294506013393402100e-01
5.992531776428222656e-02 1.268401294946670532e-01 -1.349212676286697388e-01
8.587848395109176636e-02 1.266131699085235596e-01 9.824176132678985596e-02
-2.443722635507583618e-02 9.207356721162796021e-02 -6.788768768310546875e-01
6.155161932110786438e-02 1.159672737121582031e-01 -8.209859132766723633e-01
2.038864195346832275e-01 1.024297028779983521e-01 -2.107185423374176025e-01
1.202950775623321533e-01 8.589507639408111572e-02 3.299176394939422607e-01
2.484503388404846191e-02 1.237718686461448669e-01 -8.308738470077514648e-02
9.470976889133453369e-03 9.023901075124740601e-02 -8.169954419136047363e-01
1.957224905490875244e-01 9.009332954883575439e-02 3.261171877384185791e-01
-4.639871418476104736e-03 1.091978624463081360e-01 1.124031096696853638e-01
7.412739843130111694e-02 8.497463166713714600e-02 -6.118372678756713867e-01
-2.151765674352645874e-02 9.650154411792755127e-02 -8.730008602142333984e-01
8.611797541379928589e-02 1.262882649898529053e-01 -3.204890489578247070e-01
1.419989764690399170e-01 8.638143539428710938e-02 -3.790863752365112305e-01
8.374276012182235718e-02 8.753554522991180420e-02 -6.931880712509155273e-01
1.527000963687896729e-01 1.235421448945999146e-01 -1.334662586450576782e-01
1.595293879508972168e-01 9.103892743587493896e-02 -4.246855676174163818e-01
2.065091133117675781e-01 1.029187440872192383e-01 -1.833800077438354492e-01
5.108480527997016907e-02 1.234316602349281311e-01 1.554996669292449951e-01
1.653657257556915283e-01 8.591496944427490234e-02 2.489778399467468262e-01
-1.530268788337707520e-02 9.295580536127090454e-02 -1.655724495649337769e-01
7.042656838893890381e-02 1.256178766489028931e-01 1.247211098670959473e-01
1.820946037769317627e-01 8.899208158254623413e-02 -1.357723921537399292e-01
1.708873212337493896e-01 9.121653437614440918e-02 5.253236889839172363e-01
5.134704336524009705e-02 1.186509206891059875e-01 3.289550244808197021e-01
6.101287901401519775e-03 1.223739534616470337e-01 -2.118416428565979004e-01
3.176733851432800293e-02 8.357068151235580444e-02 -3.733399212360382080e-01
1.444733291864395142e-01 1.251935511827468872e-01 -4.204320162534713745e-02
7.896269857883453369e-02 1.258349567651748657e-01 1.471737623214721680e-01
1.116176471114158630e-01 1.258438080549240112e-01 2.283933460712432861e-01
2.007379233837127686e-01 1.151915639638900757e-01 -5.522679537534713745e-02
2.031157314777374268e-01 9.115026891231536865e-02 9.004282951354980469e-02
1.084605455398559570e-01 1.249868571758270264e-01 2.908195257186889648e-01
8.771954476833343506e-02 1.214722394943237305e-01 -5.986695289611816406e-01
-2.096941322088241577e-02 1.089099347591400146e-01 -3.431593626737594604e-02
1.014624610543251038e-01 1.213852018117904663e-01 4.426105022430419922e-01
1.475390791893005371e-02 1.238331347703933716e-01 -2.885499596595764160e-01
1.069635525345802307e-01 8.754262328147888184e-02 -6.137979030609130859e-01
-6.263568997383117676e-03 9.677470475435256958e-02 3.140065073966979980e-02
2.005995512008666992e-01 1.149860173463821411e-01 5.454453229904174805e-01
8.821175247430801392e-02 8.341994881629943848e-02 1.133965104818344116e-01
5.752221494913101196e-02 8.213705569505691528e-02 -2.567441463470458984e-01
7.317446172237396240e-03 1.189138218760490417e-01 2.170731127262115479e-02
1.344759464263916016e-01 8.706371486186981201e-02 -4.586684107780456543e-01
5.632556974887847900e-03 8.900594711303710938e-02 -1.101030409336090088e-01
2.123232185840606689e-01 9.789741039276123047e-02 -6.300811469554901123e-02
1.419989913702011108e-01 8.415424823760986328e-02 -2.301526069641113281e-01
-3.758890181779861450e-02 1.141365692019462585e-01 -4.909829199314117432e-01
2.204021811485290527e-02 8.549198508262634277e-02 -6.036982536315917969e-01
1.745449751615524292e-02 9.605602920055389404e-02 1.988775432109832764e-01
6.466774642467498779e-02 8.803413808345794678e-02 2.545569241046905518e-01
-1.887948065996170044e-02 1.161366403102874756e-01 -7.280284762382507324e-01
1.299618929624557495e-01 1.189338713884353638e-01 5.647131204605102539e-01
9.782212972640991211e-02 8.261745423078536987e-02 6.995408236980438232e-02
2.093085646629333496e-01 1.146351322531700134e-01 4.777467250823974609e-01
1.503067910671234131e-01 1.242945343255996704e-01 -8.705477416515350342e-02
1.200407743453979492e-02 1.039486080408096313e-01 2.428749501705169678e-01
-2.266965806484222412e-03 1.211904436349868774e-01 -2.341658174991607666e-01
6.162243336439132690e-02 9.266724437475204468e-02 3.740978240966796875e-01
7.246910035610198975e-02 1.200262755155563354e-01 3.890800476074218750e-01
1.020585745573043823e-01 8.178304135799407959e-02 -4.491428285837173462e-02
2.689447999000549316e-02 1.188155189156532288e-01 -7.722722887992858887e-01
1.666201353073120117e-01 8.722943067550659180e-02 -2.118325233459472656e-01
1.521610319614410400e-01 1.215681284666061401e-01 4.727665185928344727e-01
1.788980513811111450e-01 9.998366236686706543e-02 -4.218621253967285156e-01
1.809771955013275146e-01 8.693315088748931885e-02 1.398731768131256104e-01
3.961709141731262207e-02 1.258846819400787354e-01 -2.262824326753616333e-01
1.402555853128433228e-01 8.684676140546798706e-02 -4.127640426158905029e-01
4.073329642415046692e-02 8.713729679584503174e-02 8.757507801055908203e-02
1.615480482578277588e-01 9.966531395912170410e-02 -5.406355261802673340e-01
-2.101524919271469116e-02 9.094117581844329834e-02 -6.383823752403259277e-01
-2.842711657285690308e-02 9.239123761653900146e-02 -6.180194020271301270e-01
3.940266370773315430e-02 1.179865300655364990e-01 2.804121673107147217e-01
2.707074582576751709e-02 1.229255944490432739e-01 5.388215184211730957e-03
3.075295314192771912e-02 8.552596718072891235e-02 -6.420161724090576172e-01
1.428260207176208496e-01 8.634154498577117920e-02 3.561993241310119629e-01
4.810497164726257324e-03 8.631853759288787842e-02 -3.750424385070800781e-01
3.525979071855545044e-02 8.335290104150772095e-02 -3.119189739227294922e-01
1.247205883264541626e-01 1.223218068480491638e-01 -4.098337888717651367e-01
1.238832771778106689e-01 1.244839057326316833e-01 -2.931817770004272461e-01
2.201899290084838867e-01 9.814594686031341553e-02 6.834770739078521729e-02
1.690775752067565918e-01 1.232835650444030762e-01 9.818644821643829346e-02
1.435064822435379028e-01 9.192036092281341553e-02 5.645073652267456055e-01
1.552128791809082031e-01 1.241609603166580200e-01 2.757228612899780273e-01
1.000323742628097534e-01 8.251816034317016602e-02 -3.651407957077026367e-01
1.069126874208450317e-01 1.260996758937835693e-01 -2.570080757141113281e-01
1.112836450338363647e-01 8.451440185308456421e-02 2.419306635856628418e-01
5.038781091570854187e-02 1.257795840501785278e-01 -3.851037025451660156e-01
7.823476940393447876e-02 1.173667162656784058e-01 4.744650125503540039e-01
1.216484308242797852e-01 9.670674800872802734e-02 -7.315337061882019043e-01
1.389173269271850586e-01 1.255181729793548584e-01 2.076638340950012207e-01
2.290892601013183594e-02 8.665753155946731567e-02 -7.516165077686309814e-02
1.836393624544143677e-01 1.214536204934120178e-01 1.541528105735778809e-01
7.285656034946441650e-02 8.648969233036041260e-02 2.285557091236114502e-01
2.021304517984390259e-01 1.167895793914794922e-01 4.926250874996185303e-02
1.092218384146690369e-01 9.227893501520156860e-02 5.247848629951477051e-01
1.956558227539062500e-02 1.150905042886734009e-01 -8.731466531753540039e-01
1.316089928150177002e-01 1.223038434982299805e-01 4.523387551307678223e-01
8.346144855022430420e-02 9.267153590917587280e-02 -8.181544542312622070e-01
1.248209923505783081e-02 1.233984082937240601e-01 -4.257831871509552002e-01
1.979896724224090576e-01 9.798586368560791016e-02 -2.365844547748565674e-01
1.513139903545379639e-01 1.177407428622245789e-01 6.041440963745117188e-01
5.100474879145622253e-02 8.299724757671356201e-02 -4.687242805957794189e-01
1.433141380548477173e-01 1.242327541112899780e-01 3.296265602111816406e-01
9.855201840400695801e-02 1.262421309947967529e-01 -2.820915579795837402e-01
5.563185736536979675e-02 1.209687963128089905e-01 -6.855978369712829590e-01
1.135945469141006470e-01 1.229959577322006226e-01 -4.343570470809936523e-01
1.634573936462402344e-01 9.160278737545013428e-02 5.497081875801086426e-01
1.237567663192749023e-01 1.150929555296897888e-01 -6.360508203506469727e-01
3.051435574889183044e-02 1.195861920714378357e-01 1.807293891906738281e-01
1.549376845359802246e-01 8.763793110847473145e-02 4.076610803604125977e-01
-1.901850849390029907e-02 1.189365014433860779e-01 -4.008128345012664795e-01
1.936456859111785889e-01 1.070684567093849182e-01 -2.959384918212890625e-01
7.969191670417785645e-02 9.823881089687347412e-02 5.374945402145385742e-01
4.165627062320709229e-02 1.139684319496154785e-01 -8.893481492996215820e-01
2.275570631027221680e-01 1.089122295379638672e-01 3.532485067844390869e-01
1.689962893724441528e-01 8.565849065780639648e-02 -2.223560214042663574e-02
1.042326539754867554e-01 1.124585792422294617e-01 -7.624521255493164062e-01
2.005732804536819458e-02 8.799593895673751831e-02 -7.525762319564819336e-01
6.393223255872726440e-02 8.525406569242477417e-02 1.270028352737426758e-01
7.331929355859756470e-02 8.419150859117507935e-02 -5.698728561401367188e-01
-4.673676937818527222e-02 1.093192994594573975e-01 -4.715896844863891602e-01
4.669989645481109619e-02 1.061530560255050659e-01 -9.704927802085876465e-01
1.083666086196899414e-01 1.247930824756622314e-01 -3.565335869789123535e-01
5.852072685956954956e-02 1.263193935155868530e-01 -2.649663388729095459e-02
-4.834800958633422852e-03 1.199303641915321350e-01 -6.195261478424072266e-01
6.005497276782989502e-02 8.706122636795043945e-02 1.943247616291046143e-01
-3.221827745437622070e-02 9.729677438735961914e-02 -8.173533678054809570e-01
-1.478299498558044434e-02 1.179723963141441345e-01 -1.936783492565155029e-01
1.145795211195945740e-01 1.270134747028350830e-01 -2.622044831514358521e-02
1.051683276891708374e-01 8.477967977523803711e-02 -5.056214332580566406e-01
2.085609883069992065e-01 9.239675849676132202e-02 1.214603781700134277e-01
4.048419743776321411e-02 8.421714603900909424e-02 -5.674388408660888672e-01
1.781756430864334106e-02 9.011422842741012573e-02 4.723815619945526123e-02
-1.687412708997726440e-02 1.180158555507659912e-01 -6.396237611770629883e-01
6.035425513982772827e-02 1.266193538904190063e-01 -2.854464650154113770e-01
1.145767942070960999e-01 1.038351207971572876e-01 -7.893227934837341309e-01
8.279647678136825562e-02 1.271597146987915039e-01 -2.004229128360748291e-01
1.833028793334960938e-01 1.163376867771148682e-01 5.895090103149414062e-01
1.584713906049728394e-02 8.502478897571563721e-02 -4.595665931701660156e-01
1.740519106388092041e-01 8.601713180541992188e-02 8.488325774669647217e-02
-4.344863444566726685e-02 1.112739220261573792e-01 -6.182573437690734863e-01
-3.431335091590881348e-03 8.898338675498962402e-02 -7.000496387481689453e-01
1.473052948713302612e-01 9.081666171550750732e-02 -5.007888078689575195e-01
4.027393460273742676e-02 9.913322329521179199e-02 3.758310079574584961e-01
2.261159718036651611e-01 9.978698194026947021e-02 3.952962756156921387e-01
2.108866572380065918e-01 9.685190767049789429e-02 5.211772918701171875e-01
5.525965243577957153e-02 1.253821551799774170e-01 5.244658887386322021e-02
5.881445854902267456e-02 8.277393877506256104e-02 -9.862341731786727905e-02
1.537544578313827515e-01 1.224198415875434875e-01 -2.047789990901947021e-01
2.202135324478149414e-02 1.244579553604125977e-01 -3.643177449703216553e-01
1.327408701181411743e-01 8.266139775514602661e-02 -1.151966527104377747e-01
-6.017699837684631348e-02 9.847156703472137451e-02 5.624226331710815430e-01
-2.556629180908203125e-01 1.258411705493927002e-01 4.317228198051452637e-01
-4.993032515048980713e-01 9.746088087558746338e-02 -4.540458917617797852e-01
-2.842638194561004639e-01 8.216176182031631470e-02 -1.828575581312179565e-01
-1.676330268383026123e-01 8.526180684566497803e-02 1.945590972900390625e-02
-1.488254815340042114e-01 1.217343807220458984e-01 5.894542336463928223e-01
-1.031748950481414795e-01 1.017759367823600769e-01 -1.786762475967407227e-02
-4.535083472728729248e-02 9.967835992574691772e-02 3.709223866462707520e-01
-2.131952494382858276e-01 1.217952370643615723e-01 8.229747414588928223e-03
-3.440307080745697021e-01 1.258251965045928955e-01 2.028299421072006226e-01
-4.148412346839904785e-01 1.230133995413780212e-01 1.100634783506393433e-01
-2.018525451421737671e-01 8.265974372625350952e-02 4.661869257688522339e-02
-4.273116588592529297e-01 8.322985470294952393e-02 -1.684907823801040649e-01
-1.981144547462463379e-01 1.196462139487266541e-01 -3.151027858257293701e-02
-3.278090357780456543e-01 8.120693266391754150e-02 1.252389997243881226e-01
-4.015053510665893555e-01 1.168033108115196228e-01 4.469101428985595703e-01
-3.890461325645446777e-01 8.557274937629699707e-02 2.278872132301330566e-01
-4.451584219932556152e-01 8.846275508403778076e-02 1.576951444149017334e-01
-1.863262057304382324e-01 1.234200224280357361e-01 1.612485498189926147e-01
-2.019156813621520996e-01 8.358258008956909180e-02 -3.515595197677612305e-02
-1.745460033416748047e-01 1.244261488318443298e-01 3.105480074882507324e-01
-1.752662062644958496e-01 1.191372722387313843e-01 6.979211568832397461e-01
-4.617027044296264648e-01 1.185126304626464844e-01 -1.544455736875534058e-01
-4.586606025695800781e-01 1.106645911931991577e-01 3.434202671051025391e-01
-4.003157019615173340e-01 9.169346094131469727e-02 3.731127679347991943e-01
-4.505586624145507812e-01 9.195750951766967773e-02 -4.758586287498474121e-01
-1.856156140565872192e-01 1.248008310794830322e-01 4.530677795410156250e-01
-3.166560232639312744e-01 8.544177561998367310e-02 -3.432645797729492188e-01
-1.311002224683761597e-01 8.752565085887908936e-02 9.952023625373840332e-02
-2.482557892799377441e-01 8.156148344278335571e-02 -5.577459931373596191e-02
-1.246565729379653931e-01 1.189824044704437256e-01 6.477637887001037598e-01
-4.785856604576110840e-01 9.116246551275253296e-02 1.076357662677764893e-01
-2.721334993839263916e-01 1.251776218414306641e-01 6.789419054985046387e-02
-2.343436181545257568e-01 8.466202765703201294e-02 3.992258906364440918e-01
-1.390968412160873413e-01 1.177305206656455994e-01 8.085550367832183838e-02
-1.904921233654022217e-01 1.248357445001602173e-01 2.633784413337707520e-01
-8.519198000431060791e-02 9.174972772598266602e-02 2.323380410671234131e-01
-2.113844007253646851e-01 8.716545999050140381e-02 4.953359365463256836e-01
-2.506221830844879150e-01 1.238860860466957092e-01 5.480426549911499023e-01
-2.535223960876464844e-01 8.335430175065994263e-02 -1.785150021314620972e-01
-3.927104473114013672e-01 8.520573377609252930e-02 -3.688728213310241699e-01
-1.362689584493637085e-01 9.474691003561019897e-02 6.595413088798522949e-01
-3.128426074981689453e-01 8.046473562717437744e-02 -7.486720383167266846e-02
-1.754942238330841064e-01 8.616410940885543823e-02 -5.804349482059478760e-02
-3.604047894477844238e-01 8.988371491432189941e-02 -4.585724472999572754e-01
-3.476728200912475586e-01 1.084709167480468750e-01 -4.471132159233093262e-01
-2.676641345024108887e-01 1.266242265701293945e-01 3.046089410781860352e-01
-1.574975252151489258e-01 9.205574542284011841e-02 -1.380115002393722534e-01
-1.904535889625549316e-01 8.297805488109588623e-02 2.148806750774383545e-01
-2.837963104248046875e-01 8.150514960289001465e-02 -1.415737420320510864e-01
-2.817266285419464111e-01 9.166254103183746338e-02 5.709646940231323242e-01
-5.343422293663024902e-01 1.084595099091529846e-01 -1.993524879217147827e-01
-2.382077276706695557e-01 1.263501346111297607e-01 3.468920290470123291e-01
-1.014899909496307373e-01 9.658338874578475952e-02 6.503806114196777344e-01
-3.270146250724792480e-01 1.036980450153350830e-01 6.518802642822265625e-01
-4.041739106178283691e-01 1.224396452307701111e-01 2.602469325065612793e-01
-4.226330518722534180e-01 8.294975757598876953e-02 -1.199802309274673462e-01
-1.722635328769683838e-01 1.185965910553932190e-01 3.181055188179016113e-03
-1.153789162635803223e-01 9.199335426092147827e-02 2.075104415416717529e-02
-4.642477035522460938e-01 1.154051572084426880e-01 -2.882393598556518555e-01
-4.439557790756225586e-01 1.211632490158081055e-01 2.677267789840698242e-02
-4.042394757270812988e-01 1.186512485146522522e-01 4.019684791564941406e-01
-4.853979349136352539e-01 1.171819642186164856e-01 -9.336856007575988770e-02
-1.919474601745605469e-01 1.252601593732833862e-01 3.948742151260375977e-01
-2.324244976043701172e-01 8.406606316566467285e-02 -1.569174081087112427e-01
-4.647176265716552734e-01 1.159153655171394348e-01 2.388342916965484619e-01
-3.788685798645019531e-01 1.247363016009330750e-01 1.231249496340751648e-01
-1.764701008796691895e-01 8.451937884092330933e-02 3.339982032775878906e-01
-3.819143772125244141e-01 9.129111468791961670e-02 4.064502120018005371e-01
-2.043571174144744873e-01 8.232747018337249756e-02 1.799159795045852661e-01
-4.264942705631256104e-01 1.223457232117652893e-01 7.960391044616699219e-02
-9.957154095172882080e-02 1.174488887190818787e-01 6.294072270393371582e-01
-1.141287684440612793e-01 1.056059896945953369e-01 -4.239049553871154785e-02
-4.334652423858642578e-01 8.787937462329864502e-02 -4.174423813819885254e-01
-2.253188788890838623e-01 1.235203891992568970e-01 5.740780830383300781e-01
-4.710692763328552246e-01 8.865854144096374512e-02 5.271407216787338257e-02
-4.079322218894958496e-01 8.236563205718994141e-02 -6.923888623714447021e-02
-4.423767328262329102e-01 1.143555566668510437e-01 -3.506245613098144531e-01
-2.373563349246978760e-01 8.278576284646987915e-02 2.992984056472778320e-01
-3.499099910259246826e-01 1.131599321961402893e-01 6.051247715950012207e-01
-4.715089499950408936e-02 9.873158484697341919e-02 4.033002257347106934e-01
-1.655856221914291382e-01 8.500789105892181396e-02 4.766671359539031982e-02
-3.354192376136779785e-01 9.706551581621170044e-02 5.842524766921997070e-01
-2.073790729045867920e-01 8.213429898023605347e-02 1.431958228349685669e-01
-1.143326759338378906e-01 1.193499714136123657e-01 2.551108300685882568e-01
-3.682667911052703857e-01 1.247804537415504456e-01 5.196673423051834106e-02
-1.203701794147491455e-01 1.214169934391975403e-01 4.647706747055053711e-01
-4.514348506927490234e-01 8.752022683620452881e-02 -3.822970986366271973e-01
-2.201052904129028320e-01 8.923123031854629517e-02 5.565744638442993164e-01
-4.813637137413024902e-01 8.871819823980331421e-02 -3.428242802619934082e-01
-1.460798382759094238e-01 1.173978969454765320e-01 4.726148396730422974e-02
-2.521344423294067383e-01 1.253272742033004761e-01 1.114605665206909180e-01
-4.625031948089599609e-01 9.054999053478240967e-02 -4.398158788681030273e-01
-2.361683994531631470e-01 1.263594031333923340e-01 3.178814351558685303e-01
-2.044063210487365723e-01 1.252312362194061279e-01 2.425600886344909668e-01
-2.464218735694885254e-01 8.098333328962326050e-02 5.249370634555816650e-02
-1.161278784275054932e-01 1.211200952529907227e-01 4.264727234840393066e-01
-3.828485906124114990e-01 8.433149755001068115e-02 1.911308169364929199e-01
-1.916827857494354248e-01 8.297547698020935059e-02 7.929996401071548462e-02
-2.191927433013916016e-01 9.078916162252426147e-02 -2.806583642959594727e-01
-3.872557580471038818e-01 8.158128708600997925e-02 -1.331038624048233032e-01
-3.979822397232055664e-01 1.086670309305191040e-01 -4.651615619659423828e-01
-2.614718675613403320e-01 8.215203881263732910e-02 2.602262198925018311e-01
-5.369172096252441406e-01 9.806645661592483521e-02 -8.757199347019195557e-02
-6.199333071708679199e-02 1.144453585147857666e-01 4.980627298355102539e-01
-3.540678024291992188e-01 1.252723634243011475e-01 2.570396363735198975e-01
-1.505488753318786621e-01 8.505971729755401611e-02 2.347405850887298584e-01
-3.346169590950012207e-01 8.918228000402450562e-02 4.476495981216430664e-01
-1.866929531097412109e-01 1.149187460541725159e-01 -1.222512573003768921e-01
-4.569336175918579102e-01 1.177050620317459106e-01 -2.153949588537216187e-01
-2.186444252729415894e-01 8.179435133934020996e-02 7.039001584053039551e-02
-2.362667024135589600e-01 1.141211763024330139e-01 -2.366214543581008911e-01
-4.120717048645019531e-01 1.224428564310073853e-01 2.168189585208892822e-01
-2.034070193767547607e-01 1.113416776061058044e-01 -2.184485644102096558e-01
-2.846755385398864746e-01 1.149910464882850647e-01 -2.916799783706665039e-01
-2.647721171379089355e-01 8.284001052379608154e-02 3.025366663932800293e-01
-5.034736990928649902e-01 1.096096113324165344e-01 1.617397218942642212e-01
-5.013375878334045410e-01 9.048968553543090820e-02 -3.221691250801086426e-01
-2.022898793220520020e-01 1.204707175493240356e-01 6.713973283767700195e-01
-4.026610851287841797e-01 8.720653504133224487e-02 2.503358125686645508e-01
-3.182878792285919189e-01 1.263238340616226196e-01 1.895020455121994019e-01
-1.224893033504486084e-01 8.738105744123458862e-02 1.941523402929306030e-01
-4.750914573669433594e-01 1.126429140567779541e-01 -3.469717502593994141e-01
-4.511083364486694336e-01 8.550803363323211670e-02 -2.904329299926757812e-01
-3.074707388877868652e-01 8.233527094125747681e-02 -2.252406328916549683e-01
-4.419392943382263184e-01 8.427785336971282959e-02 -2.244796603918075562e-01
-4.134703576564788818e-01 1.026964038610458374e-01 -5.166556239128112793e-01
-4.306417107582092285e-01 1.186818778514862061e-01 3.090246319770812988e-01
-4.793028831481933594e-01 1.174908503890037537e-01 7.579427957534790039e-02
-4.376709163188934326e-01 9.475426375865936279e-02 3.313293457031250000e-01
-1.321868151426315308e-01 1.152144297957420349e-01 7.380588054656982422e-01
-3.867552876472473145e-01 1.230605691671371460e-01 -6.790976226329803467e-02
-5.029360055923461914e-01 8.962596952915191650e-02 -1.521273404359817505e-01
-3.002447783946990967e-01 1.054259017109870911e-01 -4.315046072006225586e-01
-4.296859800815582275e-01 1.218732446432113647e-01 1.381635963916778564e-01
-6.807747483253479004e-02 9.970729798078536987e-02 6.240379810333251953e-01
-1.748919188976287842e-01 1.218782886862754822e-01 1.167301014065742493e-01
-4.706906080245971680e-01 1.099257171154022217e-01 3.053097724914550781e-01
-2.827241122722625732e-01 1.214630529284477234e-01 5.925441384315490723e-01
-3.490508198738098145e-01 1.158018559217453003e-01 -3.315799832344055176e-01
-4.677927494049072266e-02 1.107789576053619385e-01 4.717644453048706055e-01
-2.556751966476440430e-01 1.122557148337364197e-01 -2.982849478721618652e-01
-3.975948691368103027e-01 1.213430613279342651e-01 -1.534204334020614624e-01
-5.300732851028442383e-01 9.431767463684082031e-02 -1.781231909990310669e-01
-3.204484581947326660e-01 8.266529440879821777e-02 -2.543693780899047852e-01
-2.125087380409240723e-01 8.416751027107238770e-02 3.680497705936431885e-01
-2.428774982690811157e-01 1.169196814298629761e-01 -1.918703168630599976e-01
-3.410408198833465576e-01 1.253063976764678955e-01 5.584578216075897217e-02
-1.303171217441558838e-01 1.212888583540916443e-01 2.825199961662292480e-01
-5.007577538490295410e-01 8.943912386894226074e-02 -2.514214515686035156e-01
-4.597122669219970703e-01 1.193268373608589172e-01 -1.011713445186614990e-01
-6.552955508232116699e-02 1.151358187198638916e-01 4.505745172500610352e-01
-3.816222250461578369e-01 8.342307806015014648e-02 -3.045094013214111328e-01
-1.171275824308395386e-01 8.782507479190826416e-02 3.240392208099365234e-01
-2.013770639896392822e-01 1.254326999187469482e-01 4.186548590660095215e-01
-3.753614127635955811e-01 1.225596368312835693e-01 3.671420216560363770e-01
-4.886529743671417236e-01 1.165835410356521606e-01 -1.262046545743942261e-01
-6.773184239864349365e-02 9.588301926851272583e-02 2.141908109188079834e-01
-2.564811110496520996e-01 1.208226531744003296e-01 -1.080279946327209473e-01
-2.655811905860900879e-01 8.064267784357070923e-02 1.999253779649734497e-02
-2.589599788188934326e-01 1.153432428836822510e-01 -2.502014040946960449e-01
-4.886031150817871094e-02 9.942653775215148926e-02 3.141860365867614746e-01
-2.898759245872497559e-01 1.258565038442611694e-01 3.939309120178222656e-01
-3.504747152328491211e-01 9.158273041248321533e-02 4.735571742057800293e-01
-4.699693322181701660e-01 9.132398664951324463e-02 1.496679633855819702e-01
-1.809116601943969727e-01 1.223402470350265503e-01 6.084667444229125977e-01
-6.006853282451629639e-02 1.024595946073532104e-01 1.877262592315673828e-01
-3.654059171676635742e-01 8.100769668817520142e-02 -2.773639559745788574e-02
-2.754854261875152588e-01 8.056093007326126099e-02 8.360256254673004150e-02
-4.394502341747283936e-01 1.190693601965904236e-01 2.577376365661621094e-01
-4.569286108016967773e-01 1.123318895697593689e-01 -3.815708756446838379e-01
-3.152258992195129395e-01 1.262358874082565308e-01 2.856503725051879883e-01
-4.242896437644958496e-01 1.211925819516181946e-01 -1.115597188472747803e-01
-4.807034730911254883e-01 8.761782944202423096e-02 -7.301492989063262939e-02
-3.523925542831420898e-01 8.069405704736709595e-02 -7.379657030105590820e-02
-5.150814056396484375e-01 1.118052527308464050e-01 -2.307582944631576538e-01
-4.705826640129089355e-01 1.189151033759117126e-01 5.670383572578430176e-03
-5.008314251899719238e-01 1.149885058403015137e-01 -1.486949771642684937e-01
-8.463039994239807129e-02 1.179384663701057434e-01 4.751359224319458008e-01
-2.753111720085144043e-01 9.569483250379562378e-02 -4.176509976387023926e-01
-5.118580460548400879e-01 9.208299964666366577e-02 -6.297911703586578369e-02
-1.529679894447326660e-01 8.959043025970458984e-02 -7.776367664337158203e-02
-4.707891941070556641e-01 1.161045804619789124e-01 -2.460079044103622437e-01
-2.792277634143829346e-01 8.083410561084747314e-02 -7.028469443321228027e-02
-1.327340155839920044e-01 9.684368968009948730e-02 6.945981383323669434e-01
-3.106682300567626953e-01 1.258617639541625977e-01 9.617902338504791260e-02
-1.648050248622894287e-01 9.280438721179962158e-02 6.375138163566589355e-01
-1.852865219116210938e-01 8.480258285999298096e-02 3.730694651603698730e-01
-1.207658648490905762e-01 1.046069562435150146e-01 -7.056418061256408691e-02
-3.012093007564544678e-01 1.231105029582977295e-01 -7.623913884162902832e-02
-1.256885975599288940e-01 1.193900555372238159e-01 1.967623531818389893e-01
-2.044389843940734863e-01 1.247099414467811584e-01 5.043045878410339355e-01
-4.467791914939880371e-01 1.206644326448440552e-01 -4.901961982250213623e-02
-2.864580154418945312e-01 9.598107635974884033e-02 6.369031667709350586e-01
-2.117081880569458008e-01 8.314532041549682617e-02 3.014779388904571533e-01
-3.332150578498840332e-01 8.378618955612182617e-02 2.743024528026580811e-01
-1.979119926691055298e-01 1.231895759701728821e-01 5.841711759567260742e-01
-3.181391656398773193e-01 8.686294406652450562e-02 -3.767477273941040039e-01
-1.774605810642242432e-01 1.247550770640373230e-01 3.730916976928710938e-01
-3.291878104209899902e-01 1.252115517854690552e-01 3.573721945285797119e-01
-3.714166879653930664e-01 9.773746132850646973e-02 5.284562706947326660e-01
-1.611223518848419189e-01 1.219557225704193115e-01 1.703889816999435425e-01
-4.662968516349792480e-01 1.184630766510963440e-01 1.258393675088882446e-01
-3.157401680946350098e-01 8.384031802415847778e-02 -2.955406308174133301e-01
-9.159921109676361084e-02 1.183008700609207153e-01 5.415821671485900879e-01
-2.889283895492553711e-01 1.246856003999710083e-01 1.637907326221466064e-02
-1.337307840585708618e-01 1.224056035280227661e-01 3.963123559951782227e-01
-2.491825819015502930e-01 1.259064972400665283e-01 1.696799695491790771e-01
-1.892811357975006104e-01 1.130251362919807434e-01 7.755595445632934570e-01
-2.944073677062988281e-01 1.230257824063301086e-01 5.314123034477233887e-01
-4.622156023979187012e-01 1.195705831050872803e-01 5.651649832725524902e-02
-1.155519336462020874e-01 1.125805452466011047e-01 3.917115181684494019e-02
-3.049591779708862305e-01 8.056931197643280029e-02 8.632785081863403320e-02
-3.744229376316070557e-01 9.765727072954177856e-02 -5.166053175926208496e-01
-5.122796893119812012e-01 1.007355004549026489e-01 1.273049861192703247e-01
-3.591648340225219727e-01 1.155460700392723083e-01 5.652484893798828125e-01
-1.651420891284942627e-01 1.228886768221855164e-01 2.103429734706878662e-01
-2.733657062053680420e-01 1.239481568336486816e-01 -6.497040390968322754e-03
-2.801121175289154053e-01 1.248727068305015564e-01 4.737513065338134766e-01
-5.217196941375732422e-01 9.558667242527008057e-02 -3.634786009788513184e-01
-3.426694869995117188e-01 9.520682692527770996e-02 -4.903364181518554688e-01
-2.339536547660827637e-01 9.804064035415649414e-02 -3.571035265922546387e-01
-2.578535676002502441e-01 8.454532921314239502e-02 3.882001638412475586e-01
-2.643536329269409180e-01 8.860529214143753052e-02 5.174000859260559082e-01
-2.846618890762329102e-01 8.137523382902145386e-02 1.929396688938140869e-01
-5.313535928726196289e-01 1.051898300647735596e-01 -3.220949172973632812e-01
-2.861163318157196045e-01 8.221894502639770508e-02 2.533430457115173340e-01
-4.735100269317626953e-01 1.021101400256156921e-01 -4.910783171653747559e-01
-3.255764544010162354e-01 1.213712990283966064e-01 -1.632066816091537476e-01
-3.483373522758483887e-01 1.257309019565582275e-01 1.778456717729568481e-01
-4.604215621948242188e-01 1.189671307802200317e-01 -1.280774921178817749e-01
-3.751966357231140137e-01 8.671125024557113647e-02 -4.097399711608886719e-01
-2.073560059070587158e-01 8.264580368995666504e-02 1.465524733066558838e-02
-3.359273076057434082e-01 8.579817414283752441e-02 3.483170568943023682e-01
-1.630508303642272949e-01 9.443710744380950928e-02 6.700022220611572266e-01
-4.376497566699981689e-01 1.208720132708549500e-01 -8.602172136306762695e-02
-2.700456678867340088e-01 1.224009245634078979e-01 -7.118558883666992188e-02
-2.188221067190170288e-01 9.338917583227157593e-02 -3.068240284919738770e-01
-1.214234232902526855e-01 8.731967210769653320e-02 2.894574403762817383e-01
-3.193160593509674072e-01 1.037598028779029846e-01 -4.622208476066589355e-01
-1.292579025030136108e-01 1.108371540904045105e-01 7.736104726791381836e-01
-4.066802263259887695e-01 8.543119579553604126e-02 1.715431511402130127e-01
-1.454377621412277222e-01 1.229955181479454041e-01 3.471370339393615723e-01
-3.848234117031097412e-01 1.239451095461845398e-01 2.421547472476959229e-01
-2.128463387489318848e-01 8.256500959396362305e-02 2.522438168525695801e-01
-2.739724814891815186e-01 1.175360679626464844e-01 -2.240566462278366089e-01
-5.140817165374755859e-01 9.159597009420394897e-02 -1.199441105127334595e-01
-1.153579652309417725e-01 1.208747997879981995e-01 3.757160604000091553e-01
-3.122772276401519775e-01 9.155843406915664673e-02 5.324157476425170898e-01
-2.539085745811462402e-01 8.101665973663330078e-02 -9.493395686149597168e-03
-1.942610591650009155e-01 8.965931087732315063e-02 -2.050474435091018677e-01
-4.672461450099945068e-01 1.142011359333992004e-01 -3.197559118270874023e-01
-2.162952721118927002e-01 1.244217902421951294e-01 1.316868662834167480e-01
-3.343001604080200195e-01 8.176136016845703125e-02 -2.163736373186111450e-01
-4.077282547950744629e-01 8.253996819257736206e-02 -3.323036432266235352e-02
-6.452956795692443848e-02 1.030614748597145081e-01 1.604980379343032837e-01
-3.491561710834503174e-01 1.233989894390106201e-01 -7.951042056083679199e-02
-2.772969007492065430e-01 1.266531646251678467e-01 2.529037892818450928e-01
-2.905586063861846924e-01 1.085732579231262207e-01 -3.922855257987976074e-01
-3.980097174644470215e-01 1.204343661665916443e-01 -1.944805532693862915e-01
-1.831498742103576660e-01 8.988737314939498901e-02 5.726445317268371582e-01
-6.567572057247161865e-02 1.142651215195655823e-01 3.586371541023254395e-01
-2.785934805870056152e-01 8.712586015462875366e-02 -3.315453529357910156e-01
-4.953987598419189453e-01 1.148213446140289307e-01 -2.042137533426284790e-01
-3.821812272071838379e-01 8.255578577518463135e-02 8.946114778518676758e-02
-2.551390826702117920e-01 1.225089058279991150e-01 -4.476043581962585449e-02
-7.871033251285552979e-02 9.357874840497970581e-02 4.875842928886413574e-01
-4.490738511085510254e-01 8.817040920257568359e-02 1.321978569030761719e-01
-2.403574734926223755e-01 8.124326169490814209e-02 2.226062119007110596e-02
-1.213124245405197144e-01 1.201165020465850830e-01 5.927781462669372559e-01
-9.323377907276153564e-02 1.156669035553932190e-01 2.131079137325286865e-01
-4.074183404445648193e-01 1.185163557529449463e-01 -2.594378590583801270e-01
-3.572845458984375000e-01 1.143700778484344482e-01 -3.648128509521484375e-01
-4.409237205982208252e-02 1.067757233977317810e-01 3.407017588615417480e-01
-9.127692878246307373e-02 1.044918745756149292e-01 7.296752929687500000e-01
-1.233984827995300293e-01 8.770526945590972900e-02 1.478808969259262085e-01
-4.935314357280731201e-01 8.909590542316436768e-02 -2.965960502624511719e-01
-3.417876362800598145e-01 1.223000511527061462e-01 -1.327324062585830688e-01
-3.714429438114166260e-01 1.181437894701957703e-01 -2.807491421699523926e-01
-3.540504872798919678e-01 8.345681428909301758e-02 2.186666727066040039e-01
-4.046516418457031250e-01 1.169383153319358826e-01 -3.091238141059875488e-01
-4.949165880680084229e-02 1.041675359010696411e-01 2.661102414131164551e-01
-1.437428593635559082e-01 8.930079638957977295e-02 -3.518731892108917236e-02
-3.617691993713378906e-01 8.125921338796615601e-02 -1.678588241338729858e-01
-3.371013104915618896e-01 1.259428262710571289e-01 1.512237340211868286e-01
-2.598623931407928467e-01 1.263643205165863037e-01 3.698917031288146973e-01
-1.556849926710128784e-01 1.231002137064933777e-01 5.204832553863525391e-01
-2.409093230962753296e-01 1.215470954775810242e-01 6.305789351463317871e-01
-4.535845816135406494e-01 8.481861650943756104e-02 -1.296551376581192017e-01
-2.560323774814605713e-01 1.250264197587966919e-01 4.890304803848266602e-01
-6.683339178562164307e-02 1.111456975340843201e-01 2.380372881889343262e-01
-1.828789412975311279e-01 1.235255450010299683e-01 5.544332861900329590e-01
-4.018038511276245117e-02 1.039555147290229797e-01 5.095133781433105469e-01
-1.410024464130401611e-01 9.013824164867401123e-02 5.446221232414245605e-01
-1.048210859298706055e-01 1.150788813829421997e-01 1.384343355894088745e-01
-7.601727545261383057e-02 1.115816757082939148e-01 6.820663809776306152e-01
-3.626907467842102051e-01 8.242509514093399048e-02 1.390136033296585083e-01
-3.268119990825653076e-01 8.300168812274932861e-02 2.472272813320159912e-01
-2.268333882093429565e-01 8.216482400894165039e-02 -3.097251057624816895e-02
-1.402201950550079346e-01 8.881811052560806274e-02 4.935223460197448730e-01
-4.039452672004699707e-01 8.297508955001831055e-02 3.675477951765060425e-02
-1.698995530605316162e-01 1.150285601615905762e-01 7.595168352127075195e-01
-2.709282338619232178e-01 1.265048533678054810e-01 3.395231962203979492e-01
-5.410286188125610352e-01 1.045337244868278503e-01 -2.536414265632629395e-01
-2.616774737834930420e-01 8.494916558265686035e-02 -2.509423494338989258e-01
-1.118158698081970215e-01 9.067787230014801025e-02 5.007324218750000000e-01
-4.024147987365722656e-01 1.220351308584213257e-01 2.917416691780090332e-01
-3.693998157978057861e-01 1.224486231803894043e-01 -1.217204183340072632e-01
-2.126419544219970703e-01 8.831515163183212280e-02 5.318927764892578125e-01
-2.926064133644104004e-01 8.477143943309783936e-02 3.705024123191833496e-01
-3.055721223354339600e-01 1.233381778001785278e-01 5.028132796287536621e-01
-2.743865847587585449e-01 8.597201108932495117e-02 -2.999639511108398438e-01
-4.432920217514038086e-01 8.575863391160964966e-02 -3.298221230506896973e-01
-4.375646710395812988e-01 1.177476420998573303e-01 -2.538738846778869629e-01
-3.497219681739807129e-01 8.933599293231964111e-02 4.258220791816711426e-01
-3.363356590270996094e-01 1.242642402648925781e-01 3.984748721122741699e-01
-4.378241598606109619e-01 8.440727740526199341e-02 -2.617067694664001465e-01
-2.279608249664306641e-01 9.933082014322280884e-02 7.268561720848083496e-01
-3.455510437488555908e-01 8.803185075521469116e-02 3.998101353645324707e-01
-3.357838392257690430e-01 1.164892464876174927e-01 -3.087686300277709961e-01
-2.107307910919189453e-01 1.146180257201194763e-01 -1.800812929868698120e-01
-4.715488553047180176e-01 8.807620406150817871e-02 2.254649996757507324e-02
-3.102817535400390625e-01 8.713413774967193604e-02 4.287056922912597656e-01
-3.604495525360107422e-01 1.240816265344619751e-01 -3.020749986171722412e-02
-4.029660224914550781e-01 8.956184238195419312e-02 3.177913427352905273e-01
-4.359391927719116211e-01 1.092934608459472656e-01 -4.508962035179138184e-01
-9.207600355148315430e-02 9.412915259599685669e-02 9.192194789648056030e-02
-5.287288427352905273e-01 9.916531294584274292e-02 1.002982258796691895e-02
-4.080618023872375488e-01 1.116279512643814087e-01 4.874898195266723633e-01
-4.961541891098022461e-01 9.080178290605545044e-02 -7.223933935165405273e-04
-3.797312974929809570e-01 1.211360618472099304e-01 4.069979786872863770e-01
-3.272301554679870605e-01 1.236964166164398193e-01 -6.287185847759246826e-02
-4.439225792884826660e-01 1.108149662613868713e-01 -4.225704669952392578e-01
-1.724650561809539795e-01 8.709628880023956299e-02 4.710217118263244629e-01
-3.742721974849700928e-01 1.244122013449668884e-01 2.413354814052581787e-02
-3.320116400718688965e-01 8.042308688163757324e-02 -4.582087695598602295e-02
-3.485917448997497559e-01 1.190754249691963196e-01 -2.488176971673965454e-01
-5.385180711746215820e-01 9.792879223823547363e-02 -1.144668608903884888e-01
-2.189343422651290894e-01 1.204953789710998535e-01 -5.081425607204437256e-02
-4.626002907752990723e-01 9.334182739257812500e-02 2.259037643671035767e-01
-3.741043806076049805e-01 9.299904853105545044e-02 4.554656147956848145e-01
-1.630147546529769897e-01 8.425376564264297485e-02 1.910171508789062500e-01
-3.239413499832153320e-01 8.440249413251876831e-02 3.156346678733825684e-01
-1.922314763069152832e-01 1.213575899600982666e-01 6.473252773284912109e-01
-1.351551264524459839e-01 1.023482233285903931e-01 -1.241824179887771606e-01
-3.985635936260223389e-01 8.821088075637817383e-02 2.921992540359497070e-01
-2.058342993259429932e-01 1.256945580244064331e-01 3.257176578044891357e-01
-2.498846203088760376e-01 8.324699103832244873e-02 3.287805914878845215e-01
-1.002303361892700195e-01 9.291791915893554688e-02 5.520461797714233398e-01
-1.250981688499450684e-01 8.696769177913665771e-02 2.376639991998672485e-01
-2.265620529651641846e-01 1.256076842546463013e-01 1.999598145484924316e-01
-2.830977439880371094e-01 8.103127777576446533e-02 1.606191545724868774e-01
-3.613067269325256348e-01 8.200519531965255737e-02 1.124602779746055603e-01
-3.207618594169616699e-01 1.245280653238296509e-01 4.215528964996337891e-01
-5.252497196197509766e-01 1.104715466499328613e-01 -2.614642679691314697e-02
-4.398731589317321777e-01 8.914394676685333252e-02 1.985249519348144531e-01
-3.084185123443603516e-01 8.209795504808425903e-02 2.227804660797119141e-01
-2.715394794940948486e-01 8.172526955604553223e-02 2.269234359264373779e-01
-1.580967903137207031e-01 1.039555296301841736e-01 -1.825470477342605591e-01
-4.852342009544372559e-01 8.747395873069763184e-02 -2.014969736337661743e-01
-4.795200824737548828e-01 1.145219653844833374e-01 2.003420293331146240e-01
-2.150984406471252441e-01 1.107606440782546997e-01 -2.495474964380264282e-01
-3.766895234584808350e-01 8.351319283246994019e-02 1.666265726089477539e-01
-5.047871470451354980e-01 1.115191727876663208e-01 -2.961560487747192383e-01
-4.605934321880340576e-01 8.532163500785827637e-02 -1.913224905729293823e-01
-1.454246491193771362e-01 1.175426691770553589e-01 7.123770117759704590e-01
-4.036019742488861084e-01 1.131253689527511597e-01 -3.969314694404602051e-01
-4.828820824623107910e-01 1.176288276910781860e-01 -5.257110297679901123e-02
-4.114727973937988281e-01 8.872067183256149292e-02 -4.487765431404113770e-01
-4.748546779155731201e-01 9.011670202016830444e-02 -4.075878858566284180e-01
-2.535158693790435791e-01 8.087713271379470825e-02 1.051519960165023804e-01
-2.838622629642486572e-01 8.064904808998107910e-02 1.099704951047897339e-01
-1.692431271076202393e-01 8.933571726083755493e-02 5.490944385528564453e-01
-2.932637333869934082e-01 8.755702525377273560e-02 4.615431427955627441e-01
-2.323412895202636719e-01 9.190862625837326050e-02 6.141900420188903809e-01
-4.584554433822631836e-01 8.581739664077758789e-02 -4.128867387771606445e-02
-2.266920804977416992e-01 1.174197867512702942e-01 -1.517485231161117554e-01
-2.164136767387390137e-01 8.373211324214935303e-02 -9.609037637710571289e-02
-1.583060026168823242e-01 9.159895032644271851e-02 6.053538322448730469e-01
-1.814504861831665039e-01 8.325491845607757568e-02 1.577290296554565430e-01
-3.634560704231262207e-01 1.217456907033920288e-01 4.324615597724914551e-01
-2.316623628139495850e-01 8.185890316963195801e-02 2.151691913604736328e-01
-2.669965624809265137e-01 1.243076324462890625e-01 5.161960721015930176e-01
-4.285421371459960938e-01 1.131499558687210083e-01 4.182139635086059570e-01
-3.335291445255279541e-01 8.896494656801223755e-02 -4.272140860557556152e-01
-4.632598161697387695e-01 8.845309168100357056e-02 8.238606154918670654e-02
-5.449665784835815430e-01 1.022143959999084473e-01 -1.471040397882461548e-01
-3.860377073287963867e-01 1.238149479031562805e-01 -6.219372153282165527e-03
-2.925463020801544189e-01 1.249647960066795349e-01 4.510501623153686523e-01
-3.554105162620544434e-01 1.246773377060890198e-01 3.129524886608123779e-01
-1.927673816680908203e-01 9.377636760473251343e-02 -2.523766160011291504e-01
-4.230629503726959229e-01 1.026258170604705811e-01 4.529832005500793457e-01
-2.181655317544937134e-01 1.254924237728118896e-01 4.524896144866943359e-01
-1.889994442462921143e-01 1.176873445510864258e-01 -6.510761380195617676e-02
-3.200788795948028564e-01 8.056731522083282471e-02 6.229201704263687134e-02
-4.882332086563110352e-01 1.160448715090751648e-01 -1.740073114633560181e-01
-3.421235084533691406e-01 9.500396251678466797e-02 5.460932254791259766e-01
-2.772110104560852051e-01 9.753626585006713867e-02 6.665287613868713379e-01
-3.734565675258636475e-01 1.247875243425369263e-01 7.706005871295928955e-02
-3.865174651145935059e-01 1.243498176336288452e-01 1.688428670167922974e-01
-2.856713235378265381e-01 8.815196901559829712e-02 4.860517978668212891e-01
-2.800883650779724121e-01 1.214718669652938843e-01 -1.187578588724136353e-01
-1.341196447610855103e-01 1.123733073472976685e-01 -2.701102197170257568e-02
-3.139376640319824219e-01 1.189388632774353027e-01 6.001411676406860352e-01
-8.198760449886322021e-02 1.175404936075210571e-01 4.252498149871826172e-01
-7.227081060409545898e-02 1.005175709724426270e-01 1.215159147977828979e-01
-1.662738174200057983e-01 8.462048321962356567e-02 3.057376146316528320e-01
-2.161195576190948486e-01 8.528854697942733765e-02 4.243397116661071777e-01
-2.450441420078277588e-01 1.242618411779403687e-01 5.565099418163299561e-02
-1.827102899551391602e-01 1.117694675922393799e-01 -1.671575456857681274e-01
-2.231001704931259155e-01 8.624972403049468994e-02 -2.043299227952957153e-01
-1.621018052101135254e-01 1.183860749006271362e-01 2.616759389638900757e-02
-8.386097848415374756e-02 1.164074763655662537e-01 3.048969507217407227e-01
-4.387565851211547852e-01 9.981731325387954712e-02 3.912410736083984375e-01
-1.321689784526824951e-01 1.220425665378570557e-01 5.003377795219421387e-01
-3.542211949825286865e-01 1.243674084544181824e-01 3.398661613464355469e-01
-4.899151325225830078e-01 8.813887834548950195e-02 -1.298427134752273560e-01
-9.822349250316619873e-02 1.184640154242515564e-01 5.780972242355346680e-01
-3.789362907409667969e-01 8.153536915779113770e-02 -2.767592668533325195e-03
-3.256930708885192871e-01 8.040342479944229126e-02 6.454780697822570801e-03
-1.577873677015304565e-01 8.627164363861083984e-02 4.051296710968017578e-01
-3.458835482597351074e-01 8.063602447509765625e-02 -1.019354164600372314e-02
-2.913034558296203613e-01 1.262055486440658569e-01 3.558306097984313965e-01
-3.934856653213500977e-01 1.220116466283798218e-01 3.286039233207702637e-01
-2.581460177898406982e-01 9.332428127527236938e-02 6.236513853073120117e-01
-2.083648592233657837e-01 8.209437131881713867e-02 1.139973029494285583e-01
-4.737104773521423340e-01 8.768266439437866211e-02 -1.289576292037963867e-02
-4.434072971343994141e-01 1.211138367652893066e-01 -8.597329258918762207e-03
-3.449994325637817383e-01 1.254270970821380615e-01 2.814962565898895264e-01
-3.634493649005889893e-01 1.205128282308578491e-01 4.684546589851379395e-01
-2.157642096281051636e-01 8.309298008680343628e-02 -5.802911520004272461e-02
-3.492762148380279541e-01 8.534397929906845093e-02 3.084329962730407715e-01
-2.202977836132049561e-01 9.438966214656829834e-02 6.655433177947998047e-01
-3.665840327739715576e-01 1.201322823762893677e-01 -2.184010893106460571e-01
-5.109452605247497559e-01 9.617294371128082275e-02 7.113498449325561523e-02
-1.667483299970626831e-01 8.816339820623397827e-02 5.069875717163085938e-01
-4.502818286418914795e-01 9.277109056711196899e-02 2.559356987476348877e-01
-1.778200268745422363e-01 1.152761653065681458e-01 -9.371271729469299316e-02
-2.933036983013153076e-01 1.265986263751983643e-01 2.290583550930023193e-01
-1.480807662010192871e-01 1.223917007446289062e-01 2.598682641983032227e-01
-3.342377841472625732e-01 1.221705824136734009e-01 4.878342151641845703e-01
-2.424631863832473755e-01 8.723833411931991577e-02 4.920263886451721191e-01
-3.996222913265228271e-01 8.215926587581634521e-02 -1.791623085737228394e-01
-2.305412590503692627e-01 1.204598397016525269e-01 -7.508516311645507812e-02
-2.036150693893432617e-01 1.218038648366928101e-01 3.140981495380401611e-02
-3.994951248168945312e-01 8.267271518707275391e-02 -2.380432039499282837e-01
-2.346518933773040771e-01 1.260988414287567139e-01 2.375001311302185059e-01
