2.681953012943267822e-01 -1.013312488794326782e-01 -1.397772282361984253e-01
1.909436732530593872e-01 -1.855239272117614746e-02 2.811461687088012695e-03
1.870183497667312622e-01 -6.943120807409286499e-02 1.363884210586547852e-01
2.159672826528549194e-01 -7.681335508823394775e-02 1.679319143295288086e-01
1.589049696922302246e-01 -7.802896946668624878e-02 -2.544331550598144531e-01
1.925606578588485718e-01 -1.786394417285919189e-02 3.049263358116149902e-02
3.130073547363281250e-01 -7.620514184236526489e-02 -5.587746575474739075e-02
3.074770569801330566e-01 -5.733891203999519348e-02 1.303200125694274902e-01
2.415857613086700439e-01 -7.180534303188323975e-02 2.577042281627655029e-01
2.468392252922058105e-01 -3.423589468002319336e-02 3.621791601181030273e-01
1.592763215303421021e-01 -2.409977465867996216e-02 2.667568624019622803e-03
2.429466843605041504e-01 -7.713635265827178955e-02 2.154846191406250000e-01
2.376037389039993286e-01 -2.128046751022338867e-02 2.345371246337890625e-01
2.410881817340850830e-01 -1.024232655763626099e-01 -1.905093938112258911e-01
2.145021855831146240e-01 -2.193930372595787048e-02 -6.146228313446044922e-02
2.975961863994598389e-01 -7.380619645118713379e-02 1.836898326873779297e-01
2.297571599483489990e-01 -1.020708605647087097e-01 -3.476614654064178467e-01
1.833627671003341675e-01 -8.969573676586151123e-02 -3.848869502544403076e-01
2.008996158838272095e-01 -8.485528826713562012e-02 2.055522054433822632e-02
2.242632210254669189e-01 -1.008707061409950256e-01 -3.741863071918487549e-01
1.830513775348663330e-01 -4.838884249329566956e-02 2.561507523059844971e-01
2.624454200267791748e-01 -4.114269465208053589e-02 3.569360375404357910e-01
1.587834954261779785e-01 -7.473824918270111084e-02 -1.350318193435668945e-01
2.086974978446960449e-01 -6.751517951488494873e-02 2.285621464252471924e-01
3.048843741416931152e-01 -8.274466544389724731e-02 -2.010147273540496826e-01
2.985130250453948975e-01 -4.735639691352844238e-02 1.648497879505157471e-01
3.009575307369232178e-01 -8.156844228506088257e-02 9.917002171277999878e-02
1.579978018999099731e-01 -2.584187686443328857e-02 -6.572763621807098389e-02
2.927486300468444824e-01 -5.101211369037628174e-02 2.637339532375335693e-01
1.738796532154083252e-01 -2.932081744074821472e-02 -2.045814990997314453e-01
1.689472049474716187e-01 -7.703150808811187744e-02 -4.354992210865020752e-01
2.054068446159362793e-01 -4.979745298624038696e-02 -4.151966273784637451e-01
2.814505100250244141e-01 -9.056383371353149414e-02 -3.619781434535980225e-01
2.437008917331695557e-01 -9.818455576896667480e-02 -6.181345134973526001e-02
2.593065202236175537e-01 -7.210023701190948486e-02 -4.345037043094635010e-01
2.254533022642135620e-01 -7.263287901878356934e-02 2.273276746273040771e-01
3.016878068447113037e-01 -9.157586842775344849e-02 -1.395554840564727783e-01
2.546746134757995605e-01 -9.470041096210479736e-02 1.684349775314331055e-02
2.688822746276855469e-01 -9.636536240577697754e-02 -1.401071995496749878e-02
2.183436304330825806e-01 -1.753614470362663269e-02 1.498492360115051270e-01
2.669624388217926025e-01 -2.885365858674049377e-02 1.399604380130767822e-01
1.898722946643829346e-01 -8.523220568895339966e-02 -4.791871607303619385e-01
2.588726878166198730e-01 -3.026052936911582947e-02 3.026834130287170410e-01
2.719850540161132812e-01 -6.381601840257644653e-02 -3.479878008365631104e-01
2.971889972686767578e-01 -8.827467262744903564e-02 -2.619683444499969482e-01
2.312505245208740234e-01 -1.026258245110511780e-01 -3.133745789527893066e-01
1.948961168527603149e-01 -2.016315609216690063e-02 2.384199202060699463e-01
2.256975322961807251e-01 -2.412538975477218628e-02 3.154641985893249512e-01
1.814316958189010620e-01 -3.219230473041534424e-02 -2.525588274002075195e-01
2.509905099868774414e-01 -3.238636255264282227e-02 3.462773263454437256e-01
1.488597691059112549e-01 -6.413535773754119873e-02 -8.439432829618453979e-02
1.894055008888244629e-01 -8.636586368083953857e-02 -6.749358773231506348e-02
2.454323172569274902e-01 -5.402282997965812683e-02 -3.755798041820526123e-01
1.809199452400207520e-01 -7.974450290203094482e-02 -1.505375653505325317e-02
2.873923778533935547e-01 -3.871836885809898376e-02 1.517592072486877441e-01
2.581193149089813232e-01 -8.241575211286544800e-02 1.758634448051452637e-01
2.809321582317352295e-01 -3.530753403902053833e-02 1.088119223713874817e-01
1.675735563039779663e-01 -2.112992107868194580e-02 5.538433045148849487e-02
2.672421336174011230e-01 -7.250533252954483032e-02 -4.090594649314880371e-01
1.853295266628265381e-01 -1.986143738031387329e-02 -3.370387852191925049e-02
1.933133155107498169e-01 -3.618105128407478333e-02 -3.014053404331207275e-01
2.614586949348449707e-01 -7.089672237634658813e-02 2.722627520561218262e-01
2.652758061885833740e-01 -9.134446084499359131e-02 6.984093040227890015e-02
2.894146144390106201e-01 -8.370696753263473511e-02 1.265013217926025391e-01
2.436177432537078857e-01 -5.570943653583526611e-02 -3.926438987255096436e-01
2.580874860286712646e-01 -9.782743453979492188e-02 -3.881949186325073242e-02
1.955664902925491333e-01 -9.530527889728546143e-02 -2.932099699974060059e-01
2.542963027954101562e-01 -5.122682452201843262e-02 -3.252657651901245117e-01
1.703679412603378296e-01 -4.809157177805900574e-02 -3.868004381656646729e-01
2.574309110641479492e-01 -7.476850599050521851e-02 -4.487736523151397705e-01
1.750216782093048096e-01 -2.187897637486457825e-02 -6.448822468519210815e-02
1.887729316949844360e-01 -4.688723757863044739e-02 -3.976292014122009277e-01
2.062176316976547241e-01 -2.665546908974647522e-02 3.216564059257507324e-01
2.580922544002532959e-01 -1.031932383775711060e-01 -2.990070283412933350e-01
2.724002301692962646e-01 -8.558514714241027832e-02 1.379033923149108887e-01
2.570592463016510010e-01 -6.386009603738784790e-02 3.152889311313629150e-01
1.930276304483413696e-01 -2.824107557535171509e-02 -2.022359967231750488e-01
2.241111993789672852e-01 -1.005707085132598877e-01 -1.994996070861816406e-01
2.147230356931686401e-01 -3.756394982337951660e-02 -2.962917685508728027e-01
2.442574501037597656e-01 -1.026024818420410156e-01 -3.548915088176727295e-01
1.390324532985687256e-01 -4.400567710399627686e-02 -1.481181234121322632e-01
2.403144687414169312e-01 -6.658255308866500854e-02 2.926962375640869141e-01
2.024773657321929932e-01 -1.796875894069671631e-02 2.085102498531341553e-01
2.468704730272293091e-01 -5.241832882165908813e-02 -3.591610491275787354e-01
2.875754833221435547e-01 -4.163519293069839478e-02 4.527978599071502686e-03
2.282824069261550903e-01 -1.906983926892280579e-02 1.031416729092597961e-01
1.911447495222091675e-01 -9.360986202955245972e-02 -3.473238050937652588e-01
3.098000288009643555e-01 -7.031688839197158813e-02 1.148986741900444031e-01
2.367781698703765869e-01 -4.363352805376052856e-02 -3.106319010257720947e-01
3.007372319698333740e-01 -6.105606630444526672e-02 2.198244333267211914e-01
2.861087322235107422e-01 -6.194278225302696228e-02 -2.635309696197509766e-01
2.392579764127731323e-01 -5.033112317323684692e-02 3.656116127967834473e-01
2.316520065069198608e-01 -6.707923114299774170e-02 -4.802628457546234131e-01
2.656433582305908203e-01 -1.028966531157493591e-01 -2.302509248256683350e-01
1.829333007335662842e-01 -2.973214350640773773e-02 -2.213805913925170898e-01
2.168001830577850342e-01 -7.189416885375976562e-02 2.145600318908691406e-01
3.111883103847503662e-01 -6.187054887413978577e-02 6.153132766485214233e-02
2.860938310623168945e-01 -8.212129771709442139e-02 1.521747708320617676e-01
2.307878583669662476e-01 -1.007490605115890503e-01 -3.967383503913879395e-01
2.561458051204681396e-01 -1.022312492132186890e-01 -3.458964228630065918e-01
2.178763449192047119e-01 -9.081067144870758057e-02 -4.974547326564788818e-01
2.008318156003952026e-01 -1.702286303043365479e-02 1.630519330501556396e-01
2.743567824363708496e-01 -3.250645846128463745e-02 9.009420126676559448e-02
2.171824276447296143e-01 -9.683324396610260010e-02 -1.221505329012870789e-01
1.689537912607192993e-01 -2.138061076402664185e-02 -1.012102141976356506e-02
2.931424081325531006e-01 -8.521503955125808716e-02 -3.036083579063415527e-01
2.176077812910079956e-01 -1.005225032567977905e-01 -2.635175883769989014e-01
2.371532022953033447e-01 -3.798341378569602966e-02 -2.487950325012207031e-01
2.045405805110931396e-01 -1.953946799039840698e-02 -2.240807190537452698e-02
1.849543899297714233e-01 -3.417004272341728210e-02 -2.783059477806091309e-01
1.719059348106384277e-01 -7.621232420206069946e-02 -2.702999114990234375e-02
2.306781858205795288e-01 -3.025494329631328583e-02 -1.657912433147430420e-01
1.894745826721191406e-01 -8.200733363628387451e-02 -4.938820004463195801e-01
2.196184992790222168e-01 -7.600389420986175537e-02 -5.185784101486206055e-01
2.197182029485702515e-01 -1.966533064842224121e-02 1.817978173494338989e-02
1.991695016622543335e-01 -6.684586405754089355e-02 2.049058973789215088e-01
1.963532865047454834e-01 -5.927607417106628418e-02 2.482387721538543701e-01
1.900006830692291260e-01 -1.870379596948623657e-02 1.922107934951782227e-01
2.249078750610351562e-01 -2.726329490542411804e-02 -1.356371194124221802e-01
2.717350423336029053e-01 -3.532291948795318604e-02 -2.982335537672042847e-02
2.945291697978973389e-01 -9.562648832798004150e-02 -1.620642095804214478e-01
2.531990706920623779e-01 -4.183750599622726440e-02 -2.363064885139465332e-01
1.648195981979370117e-01 -2.860805392265319824e-02 -1.694275885820388794e-01
2.537607252597808838e-01 -9.029875695705413818e-02 8.190683275461196899e-02
1.511612981557846069e-01 -5.895189568400382996e-02 3.350839018821716309e-03
1.961033791303634644e-01 -3.171859681606292725e-02 -2.483454942703247070e-01
1.632800400257110596e-01 -7.813155651092529297e-02 -1.486839652061462402e-01
1.453070342540740967e-01 -3.331418335437774658e-02 -8.556473255157470703e-02
1.423245668411254883e-01 -3.700258955359458923e-02 -3.862000256776809692e-02
2.487040013074874878e-01 -6.340102851390838623e-02 -4.262452125549316406e-01
2.460482418537139893e-01 -9.652075171470642090e-02 -2.452631294727325439e-02
2.387354224920272827e-01 -2.075968682765960693e-02 1.231765374541282654e-01
2.083305269479751587e-01 -4.029840975999832153e-02 -3.330327272415161133e-01
2.440987974405288696e-01 -2.448761463165283203e-02 1.188457012176513672e-02
1.670924425125122070e-01 -4.641074687242507935e-02 -3.683350086212158203e-01
1.754159927368164062e-01 -7.477404177188873291e-02 1.721396297216415405e-02
2.780303359031677246e-01 -9.105350077152252197e-02 6.119295209646224976e-02
2.859518527984619141e-01 -5.308942869305610657e-02 -1.856362521648406982e-01
1.879513114690780640e-01 -9.218394756317138672e-02 -3.624501228332519531e-01
1.394125074148178101e-01 -5.519447848200798035e-02 -1.832490265369415283e-01
2.449918538331985474e-01 -8.435120433568954468e-02 -4.917330443859100342e-01
1.864098608493804932e-01 -2.652653306722640991e-02 -1.755488663911819458e-01
2.562505900859832764e-01 -9.804934263229370117e-02 -4.139170050621032715e-01
1.504647731781005859e-01 -5.295300111174583435e-02 -3.426574766635894775e-01
2.878285646438598633e-01 -9.178009629249572754e-02 -3.175367712974548340e-01
2.617243230342864990e-01 -1.031157225370407104e-01 -2.795057594776153564e-01
2.159213572740554810e-01 -1.003765016794204712e-01 -3.191317319869995117e-01
2.620089948177337646e-01 -2.832841500639915466e-02 2.463750243186950684e-01
1.828439235687255859e-01 -5.714818835258483887e-02 -4.558244645595550537e-01
2.853613495826721191e-01 -3.955416008830070496e-02 2.708006650209426880e-02
2.390828281641006470e-01 -9.895254671573638916e-02 -8.923839032649993896e-02
2.464036047458648682e-01 -3.221962600946426392e-02 -1.355856657028198242e-01
2.399954795837402344e-01 -3.725835308432579041e-02 -2.309128642082214355e-01
3.115880489349365234e-01 -7.515631616115570068e-02 5.719659477472305298e-02
2.850943207740783691e-01 -9.914670139551162720e-02 -1.857177317142486572e-01
3.074660599231719971e-01 -8.622092753648757935e-02 -1.255928277969360352e-01
2.499794512987136841e-01 -7.570144534111022949e-02 2.337758541107177734e-01
2.107245028018951416e-01 -5.526062846183776855e-02 3.086645305156707764e-01
2.114059925079345703e-01 -1.711025461554527283e-02 1.108480468392372131e-01
1.616982668638229370e-01 -5.277994647622108459e-02 1.305538117885589600e-01
1.983737200498580933e-01 -9.454280138015747070e-02 -1.948269605636596680e-01
1.596809476613998413e-01 -5.509206280112266541e-02 -3.956064581871032715e-01
1.914005577564239502e-01 -7.668429613113403320e-02 8.157413452863693237e-02
2.793204784393310547e-01 -3.820192441344261169e-02 -1.732447743415832520e-02
2.160343527793884277e-01 -8.556136488914489746e-02 6.943517178297042847e-02
1.819500327110290527e-01 -1.855925098061561584e-02 1.366958916187286377e-01
2.191643267869949341e-01 -1.780116185545921326e-02 1.812108159065246582e-01
3.081877827644348145e-01 -8.339723944664001465e-02 5.636304616928100586e-03
1.973942369222640991e-01 -9.585709869861602783e-02 -3.228454291820526123e-01
2.611462473869323730e-01 -8.089985698461532593e-02 1.911002993583679199e-01
2.048880308866500854e-01 -1.677952706813812256e-02 1.265932321548461914e-01
1.697043329477310181e-01 -8.224679529666900635e-02 -3.893366158008575439e-01
2.383252978324890137e-01 -9.668994694948196411e-02 -4.255962371826171875e-02
2.027071714401245117e-01 -8.265422284603118896e-02 5.833900719881057739e-02
1.493811905384063721e-01 -3.822852298617362976e-02 -2.254735529422760010e-01
2.016630470752716064e-01 -3.818231076002120972e-02 -3.182345330715179443e-01
3.124631345272064209e-01 -6.698748469352722168e-02 -2.295779064297676086e-02
2.674888074398040771e-01 -3.423843160271644592e-02 -4.368846118450164795e-02
2.366748601198196411e-01 -8.630248904228210449e-02 1.114234402775764465e-01
1.779878139495849609e-01 -1.878133788704872131e-02 9.471427649259567261e-02
2.573615014553070068e-01 -2.771575748920440674e-02 2.711825370788574219e-01
2.029821723699569702e-01 -9.156124293804168701e-02 -4.690488278865814209e-01
2.322454750537872314e-01 -9.055815637111663818e-02 4.592394083738327026e-02
1.837074011564254761e-01 -8.545283228158950806e-02 -9.202569723129272461e-02
2.988672256469726562e-01 -8.673782646656036377e-02 4.681807011365890503e-02
2.234499454498291016e-01 -6.429853290319442749e-02 2.841674685478210449e-01
1.852392852306365967e-01 -6.168729066848754883e-02 -4.770911037921905518e-01
3.110953569412231445e-01 -7.647332549095153809e-02 -1.123362332582473755e-01
1.437165141105651855e-01 -3.542572632431983948e-02 -2.041844651103019714e-02
2.072666436433792114e-01 -2.903517521917819977e-02 -2.015998959541320801e-01
2.577207088470458984e-01 -8.944327384233474731e-02 -4.564716815948486328e-01
2.048832327127456665e-01 -2.638297900557518005e-02 -1.643442809581756592e-01
1.521216034889221191e-01 -2.942725270986557007e-02 -1.005101501941680908e-01
1.622165739536285400e-01 -6.891153752803802490e-02 -5.942247807979583740e-03
2.432189136743545532e-01 -5.495066940784454346e-02 3.528102636337280273e-01
1.572415679693222046e-01 -6.947397440671920776e-02 -6.005772948265075684e-02
2.821561694145202637e-01 -8.856843411922454834e-02 8.729472011327743530e-02
2.989380955696105957e-01 -7.556903362274169922e-02 1.646419167518615723e-01
2.366663068532943726e-01 -9.248288720846176147e-02 2.682136744260787964e-02
2.389690577983856201e-01 -9.985353797674179077e-02 -4.182453751564025879e-01
2.310268729925155640e-01 -9.470561891794204712e-02 -4.752027094364166260e-01
2.201455682516098022e-01 -8.778992295265197754e-02 5.240774154663085938e-02
1.835934370756149292e-01 -2.260644361376762390e-02 2.300265133380889893e-01
1.413107514381408691e-01 -3.806069493293762207e-02 -1.028096154332160950e-01
2.283295392990112305e-01 -2.020605653524398804e-02 2.466895580291748047e-01
1.976694762706756592e-01 -9.597568213939666748e-02 -3.069440722465515137e-01
2.514071464538574219e-01 -3.025078028440475464e-02 -7.537925988435745239e-02
1.815634965896606445e-01 -8.714266866445541382e-02 -4.198751151561737061e-01
2.391725480556488037e-01 -2.288369461894035339e-02 2.522391080856323242e-02
2.536856532096862793e-01 -2.518187463283538818e-02 2.344677746295928955e-01
1.534188538789749146e-01 -7.252173125743865967e-02 -3.220192193984985352e-01
2.328431308269500732e-01 -5.516023188829421997e-02 -4.142494797706604004e-01
2.253438234329223633e-01 -9.503084421157836914e-02 -4.797039180994033813e-02
1.985316723585128784e-01 -8.743156492710113525e-02 -3.105324134230613708e-02
2.912501692771911621e-01 -9.621047973632812500e-02 -1.037740111351013184e-01
2.363952845335006714e-01 -2.619075402617454529e-02 -7.289887964725494385e-02
2.476095259189605713e-01 -6.953826546669006348e-02 2.788379788398742676e-01
1.567074954509735107e-01 -2.538955584168434143e-02 -2.053056284785270691e-02
1.560888290405273438e-01 -6.660994887351989746e-02 -3.264882043004035950e-02
1.727677881717681885e-01 -8.481243252754211426e-02 -1.963720321655273438e-01
1.706501543521881104e-01 -2.037883549928665161e-02 3.408990055322647095e-02
1.531821340322494507e-01 -7.174560427665710449e-02 -1.598292887210845947e-01
2.930976450443267822e-01 -4.241139441728591919e-02 1.378682851791381836e-01
2.589380443096160889e-01 -2.593248710036277771e-02 1.627966761589050293e-01
2.119919359683990479e-01 -8.873560279607772827e-02 1.016113907098770142e-02
2.876043319702148438e-01 -7.171428948640823364e-02 -3.121328949928283691e-01
3.133567273616790771e-01 -7.173148542642593384e-02 3.487657755613327026e-02
1.763491034507751465e-01 -7.395151257514953613e-02 -4.773022532463073730e-01
2.504714727401733398e-01 -9.311317652463912964e-02 3.864623606204986572e-02
1.829565465450286865e-01 -3.751672804355621338e-02 -3.134676218032836914e-01
1.670421957969665527e-01 -8.274238556623458862e-02 -3.328546583652496338e-01
2.040437161922454834e-01 -8.779372274875640869e-02 -4.984053671360015869e-01
2.156913280487060547e-01 -8.157567679882049561e-02 1.169458255171775818e-01
2.857304513454437256e-01 -4.446517676115036011e-02 -7.319523394107818604e-02
1.721081733703613281e-01 -2.159195020794868469e-02 -4.273021593689918518e-02
2.568639814853668213e-01 -3.287763148546218872e-02 -9.186511486768722534e-02
2.086990028619766235e-01 -2.270639687776565552e-02 2.959790527820587158e-01
2.336455434560775757e-01 -1.023235842585563660e-01 -2.212365865707397461e-01
2.052822113037109375e-01 -5.777925252914428711e-02 2.827555537223815918e-01
1.998702287673950195e-01 -9.463681280612945557e-02 -4.111205339431762695e-01
2.766162157058715820e-01 -3.427741304039955139e-02 5.683190375566482544e-02
2.748222649097442627e-01 -9.339787065982818604e-02 3.053099662065505981e-02
2.226226627826690674e-01 -9.573504328727722168e-02 -4.638547897338867188e-01
2.429509162902832031e-01 -3.214441239833831787e-02 -1.495153903961181641e-01
3.023625612258911133e-01 -8.329591155052185059e-02 -2.282732427120208740e-01
1.948994249105453491e-01 -4.641985148191452026e-02 3.027046918869018555e-01
2.112052142620086670e-01 -9.486855566501617432e-02 -4.545709192752838135e-01
2.180823236703872681e-01 -2.743292599916458130e-02 -1.568377614021301270e-01
2.301307618618011475e-01 -8.756847679615020752e-02 8.217675238847732544e-02
1.565250605344772339e-01 -7.598124444484710693e-02 -2.231037914752960205e-01
2.547202110290527344e-01 -1.026996448636054993e-01 -1.773596405982971191e-01
3.090641498565673828e-01 -8.414673805236816406e-02 -3.160434961318969727e-02
2.834531962871551514e-01 -3.718660771846771240e-02 2.030645906925201416e-01
3.112457394599914551e-01 -6.349289417266845703e-02 8.997309952974319458e-02
1.729931086301803589e-01 -7.217845320701599121e-02 3.336871415376663208e-02
1.749916225671768188e-01 -5.351794138550758362e-02 -4.273842871189117432e-01
2.979014217853546143e-01 -4.729641601443290710e-02 3.569272905588150024e-02
2.437592446804046631e-01 -2.218523621559143066e-02 9.991455823183059692e-02
2.608449161052703857e-01 -2.883489057421684265e-02 2.981354296207427979e-02
2.607785463333129883e-01 -2.704304084181785583e-02 1.022733822464942932e-01
2.366932779550552368e-01 -2.700524404644966125e-02 3.319692015647888184e-01
2.247183769941329956e-01 -3.696576505899429321e-02 3.710035085678100586e-01
1.627712398767471313e-01 -3.322799131274223328e-02 -2.300901114940643311e-01
2.705284953117370605e-01 -5.670137330889701843e-02 -3.049231469631195068e-01
2.129360586404800415e-01 -2.821668982505798340e-02 -1.801176071166992188e-01
1.980054080486297607e-01 -2.291663736104965210e-02 -1.096218824386596680e-01
2.975783348083496094e-01 -5.673223361372947693e-02 2.421672940254211426e-01
2.738633155822753906e-01 -3.190894052386283875e-02 1.904348731040954590e-01
1.861692219972610474e-01 -7.910843938589096069e-02 2.541557699441909790e-02
2.070996761322021484e-01 -9.403556585311889648e-02 -1.116754114627838135e-01
2.714749276638031006e-01 -6.181219220161437988e-02 3.148572742938995361e-01
1.996718198060989380e-01 -2.279755473136901855e-02 2.819515168666839600e-01
2.864786982536315918e-01 -9.837234020233154297e-02 -1.421278715133666992e-01
2.923261523246765137e-01 -4.549271240830421448e-02 -1.752562075853347778e-02
3.031428754329681396e-01 -5.088734626770019531e-02 7.553582638502120972e-02
2.712058424949645996e-01 -3.394765779376029968e-02 -3.111355006694793701e-03
2.169622480869293213e-01 -9.357212483882904053e-02 -4.779792129993438721e-01
3.099588155746459961e-01 -8.250555396080017090e-02 -1.441841945052146912e-02
2.280730009078979492e-01 -3.687946498394012451e-02 -2.612310349941253662e-01
1.717955619096755981e-01 -3.651971742510795593e-02 -2.904787957668304443e-01
2.530400454998016357e-01 -4.482782632112503052e-02 3.726758658885955811e-01
2.129273265600204468e-01 -9.781192243099212646e-02 -1.769960522651672363e-01
2.999247312545776367e-01 -7.679902017116546631e-02 1.499517858028411865e-01
2.326943576335906982e-01 -6.036258861422538757e-02 -4.463527202606201172e-01
2.557830214500427246e-01 -4.989606142044067383e-02 -3.082409203052520752e-01
2.382959425449371338e-01 -1.016487255692481995e-01 -3.825117051601409912e-01
2.785270512104034424e-01 -4.189431294798851013e-02 3.065066039562225342e-01
2.390002608299255371e-01 -1.031088605523109436e-01 -2.410575449466705322e-01
2.407467812299728394e-01 -2.116917818784713745e-02 1.935911774635314941e-01
2.313515245914459229e-01 -5.674130097031593323e-02 3.364143073558807373e-01
1.947046518325805664e-01 -7.704809308052062988e-02 -5.131844282150268555e-01
2.706101834774017334e-01 -3.934668749570846558e-02 3.276876509189605713e-01
2.207995355129241943e-01 -1.878003403544425964e-02 2.254771590232849121e-01
1.750556826591491699e-01 -8.737626671791076660e-02 -2.927600741386413574e-01
1.893642544746398926e-01 -1.742750033736228943e-02 6.911426037549972534e-02
2.454685568809509277e-01 -2.265394106507301331e-02 2.209874391555786133e-01
2.987520694732666016e-01 -8.119019865989685059e-02 1.156067028641700745e-01
1.508975327014923096e-01 -5.448804795742034912e-02 3.804567456245422363e-02
1.769604384899139404e-01 -8.814226835966110229e-02 -3.240528702735900879e-01
2.407726347446441650e-01 -9.428990632295608521e-02 5.898281931877136230e-03
1.621012389659881592e-01 -8.016168326139450073e-02 -2.953085601329803467e-01
2.272442281246185303e-01 -5.928192660212516785e-02 3.190088868141174316e-01
2.433898746967315674e-01 -8.213263750076293945e-02 1.680954992771148682e-01
2.463704198598861694e-01 -1.012755036354064941e-01 -1.348809152841567993e-01
3.050909340381622314e-01 -6.573340296745300293e-02 -1.403662264347076416e-01
1.793116778135299683e-01 -8.318438380956649780e-02 -4.500916302204132080e-01
1.763034909963607788e-01 -2.155344188213348389e-02 1.779150068759918213e-01
2.490907907485961914e-01 -7.275311648845672607e-02 -4.651606082916259766e-01
2.087614834308624268e-01 -9.843802452087402344e-02 -2.470176219940185547e-01
2.542839646339416504e-01 -2.817096188664436340e-02 -1.083935424685478210e-02
2.752105593681335449e-01 -4.617606103420257568e-02 -1.768756210803985596e-01
2.096386700868606567e-01 -9.783672541379928589e-02 -2.060044109821319580e-01
1.694698333740234375e-01 -7.035268098115921021e-02 -4.576806724071502686e-01
2.993886470794677734e-01 -5.329574644565582275e-02 -6.553088873624801636e-02
2.560992836952209473e-01 -2.538540959358215332e-02 2.091940045356750488e-01
2.299384325742721558e-01 -3.397820889949798584e-02 -2.204893529415130615e-01
1.580033153295516968e-01 -3.785789385437965393e-02 1.542772352695465088e-01
2.705396413803100586e-01 -9.963453561067581177e-02 -9.055848419666290283e-02
1.567768007516860962e-01 -4.970922321081161499e-02 -3.579366505146026611e-01
2.297585755586624146e-01 -9.457713365554809570e-02 -2.541288733482360840e-02
2.538269758224487305e-01 -9.706114977598190308e-02 -4.289667308330535889e-01
1.665913909673690796e-01 -2.161613106727600098e-02 7.643464952707290649e-02
2.843647003173828125e-01 -9.797081351280212402e-02 -2.704572379589080811e-01
2.404007464647293091e-01 -4.823935031890869141e-02 -3.431864082813262939e-01
1.985569298267364502e-01 -6.696084141731262207e-02 -5.029789805412292480e-01
2.915237843990325928e-01 -4.372885078191757202e-02 2.208304405212402344e-01
1.565970927476882935e-01 -4.198310524225234985e-02 -3.014793097972869873e-01
2.050591707229614258e-01 -1.735486462712287903e-02 6.297377496957778931e-02
2.739808559417724609e-01 -9.079311788082122803e-02 -3.969130814075469971e-01
2.176169753074645996e-01 -8.829093724489212036e-02 3.720065206289291382e-02
2.508101165294647217e-01 -1.033766269683837891e-01 -3.133538961410522461e-01
3.046311736106872559e-01 -8.538301289081573486e-02 1.936630904674530029e-02
2.243255674839019775e-01 -7.759740203619003296e-02 1.807348132133483887e-01
3.070088922977447510e-01 -7.392966747283935547e-02 -1.675258874893188477e-01
2.748596668243408203e-01 -7.379807531833648682e-02 -3.834825754165649414e-01
1.839021444320678711e-01 -4.252576082944869995e-02 -3.607614338397979736e-01
1.642507910728454590e-01 -7.599894702434539795e-02 -4.107852280139923096e-01
1.965457201004028320e-01 -8.816523104906082153e-02 -5.501735210418701172e-02
2.029644101858139038e-01 -1.704806089401245117e-02 7.941969484090805054e-02
1.660676300525665283e-01 -4.316191002726554871e-02 -3.411160111427307129e-01
2.165365517139434814e-01 -7.406745851039886475e-02 1.950956284999847412e-01
1.421587765216827393e-01 -5.184000357985496521e-02 -2.655501067638397217e-01
2.848000526428222656e-01 -4.208517447113990784e-02 -3.947218134999275208e-02
2.192621976137161255e-01 -5.235742032527923584e-02 -4.186324775218963623e-01
1.888547837734222412e-01 -4.949439689517021179e-02 2.728000283241271973e-01
2.247190773487091064e-01 -8.029515296220779419e-02 1.545573472976684570e-01
2.011169791221618652e-01 -9.346316754817962646e-02 -4.394849240779876709e-01
2.014182209968566895e-01 -7.287701219320297241e-02 1.608700156211853027e-01
1.396016776561737061e-01 -5.209115520119667053e-02 -2.190158069133758545e-01
2.257658392190933228e-01 -1.877852529287338257e-02 2.025745511054992676e-01
1.662153601646423340e-01 -2.417854592204093933e-02 1.440973281860351562e-01
2.519127130508422852e-01 -8.597925305366516113e-02 1.344220042228698730e-01
1.966313570737838745e-01 -5.447876453399658203e-02 -4.485823214054107666e-01
2.329630404710769653e-01 -9.874199330806732178e-02 -1.020413935184478760e-01
2.460769265890121460e-01 -1.036581546068191528e-01 -2.672808170318603516e-01
2.810126543045043945e-01 -9.804458171129226685e-02 -2.998280227184295654e-01
2.902206480503082275e-01 -9.729096293449401855e-02 -1.986214816570281982e-01
2.613445520401000977e-01 -9.575898945331573486e-02 8.949339389801025391e-04
2.135718464851379395e-01 -1.951431855559349060e-02 4.637241363525390625e-05
2.377557158470153809e-01 -2.757907658815383911e-02 -9.402390569448471069e-02
1.515862643718719482e-01 -4.092155396938323975e-02 -2.678831219673156738e-01
1.987175792455673218e-01 -2.219159528613090515e-02 -9.418416023254394531e-02
1.667988002300262451e-01 -8.159689605236053467e-02 -3.643720746040344238e-01
2.122117429971694946e-01 -9.927567839622497559e-02 -3.551159501075744629e-01
1.969075053930282593e-01 -3.345600143074989319e-02 -2.692598402500152588e-01
2.798987627029418945e-01 -7.998919486999511719e-02 1.850831806659698486e-01
3.038476705551147461e-01 -5.708148702979087830e-02 1.883630156517028809e-01
2.430470883846282959e-01 -9.471582621335983276e-02 -4.654222428798675537e-01
1.437197029590606689e-01 -6.338356435298919678e-02 -2.377075254917144775e-01
2.948535084724426270e-01 -6.940868496894836426e-02 -2.547081410884857178e-01
2.536701560020446777e-01 -2.440604567527770996e-02 1.345824003219604492e-01
2.953352332115173340e-01 -9.507060050964355469e-02 -1.252142786979675293e-01
1.383991390466690063e-01 -4.963528737425804138e-02 -1.665951013565063477e-01
2.166080623865127563e-01 -9.980866312980651855e-02 -2.275442481040954590e-01
2.642606794834136963e-01 -7.773159444332122803e-02 2.193017601966857910e-01
2.058044224977493286e-01 -7.636626809835433960e-02 1.417707800865173340e-01
2.675322890281677246e-01 -3.230496495962142944e-02 2.806982398033142090e-01
1.570974886417388916e-01 -6.261647492647171021e-02 2.164862304925918579e-02
2.644867897033691406e-01 -3.984426707029342651e-02 -1.572723835706710815e-01
1.509544998407363892e-01 -3.299198672175407410e-02 -1.637251377105712891e-01
1.481189876794815063e-01 -4.292758926749229431e-02 6.702595204114913940e-02
2.259702831506729126e-01 -2.194818481802940369e-02 -2.207994088530540466e-02
1.960524171590805054e-01 -2.213912457227706909e-02 2.669240534305572510e-01
2.148678600788116455e-01 -3.553064540028572083e-02 -2.733174264430999756e-01
1.421557962894439697e-01 -6.011435016989707947e-02 -1.540545076131820679e-01
1.801143884658813477e-01 -2.592223137617111206e-02 -1.603956073522567749e-01
2.787316143512725830e-01 -9.795753657817840576e-02 -7.000830769538879395e-02
3.022021055221557617e-01 -7.208926230669021606e-02 -2.095628380775451660e-01
2.681869864463806152e-01 -7.884933054447174072e-02 -4.234535992145538330e-01
1.967609077692031860e-01 -9.205153584480285645e-02 -1.354319751262664795e-01
2.877096831798553467e-01 -9.432207047939300537e-02 -2.391469478607177734e-02
2.326145470142364502e-01 -2.972281537950038910e-02 3.536371588706970215e-01
2.122949808835983276e-01 -2.076756954193115234e-02 -3.892054408788681030e-02
3.105765879154205322e-01 -6.138993054628372192e-02 1.234918087720870972e-02
2.662118673324584961e-01 -5.094631016254425049e-02 -2.749841213226318359e-01
2.143696248531341553e-01 -9.794020652770996094e-02 -4.142047166824340820e-01
2.058075070381164551e-01 -6.125139445066452026e-02 2.639077305793762207e-01
2.787469327449798584e-01 -7.486905157566070557e-02 2.292706072330474854e-01
2.495287507772445679e-01 -3.680806607007980347e-02 -1.890384703874588013e-01
1.989830434322357178e-01 -4.314274340867996216e-02 -3.665829598903656006e-01
3.033221960067749023e-01 -5.095257610082626343e-02 9.245053678750991821e-02
1.922036558389663696e-01 -8.931539207696914673e-02 -4.537428021430969238e-01
2.613945007324218750e-01 -8.934894204139709473e-02 9.726288169622421265e-02
1.510972231626510620e-01 -6.801059097051620483e-02 -3.423590958118438721e-01
2.589629888534545898e-01 -1.011174917221069336e-01 -3.632839024066925049e-01
2.562239468097686768e-01 -8.757919073104858398e-02 1.180803850293159485e-01
2.798073887825012207e-01 -1.003183424472808838e-01 -2.415531277656555176e-01
2.176620066165924072e-01 -1.748910918831825256e-02 1.324272453784942627e-01
2.146200090646743774e-01 -1.854890584945678711e-02 3.799124062061309814e-02
1.572102010250091553e-01 -5.455610156059265137e-02 8.910685032606124878e-02
2.161839902400970459e-01 -9.719289839267730713e-02 -1.370833516120910645e-01
1.814738512039184570e-01 -8.136591315269470215e-02 -3.616165369749069214e-02
2.257191985845565796e-01 -1.852089166641235352e-02 1.184498593211174011e-01
2.287862747907638550e-01 -1.006217598915100098e-01 -1.735036671161651611e-01
1.933334171772003174e-01 -9.189781546592712402e-02 -1.608808636665344238e-01
2.219755947589874268e-01 -6.978453695774078369e-02 -5.026716589927673340e-01
2.224214822053909302e-01 -9.623340517282485962e-02 -8.364247530698776245e-02
3.087559640407562256e-01 -6.460113823413848877e-02 -8.039207756519317627e-02
2.923873364925384521e-01 -5.322934687137603760e-02 -1.372598409652709961e-01
2.519696950912475586e-01 -6.083092838525772095e-02 3.304788470268249512e-01
2.948035597801208496e-01 -7.345699518918991089e-02 -2.740642130374908447e-01
1.820671558380126953e-01 -6.329971551895141602e-02 1.663256883621215820e-01
2.544815540313720703e-01 -2.615671604871749878e-02 5.075095593929290771e-02
2.794107198715209961e-01 -1.006487831473350525e-01 -2.078999280929565430e-01
1.718548834323883057e-01 -2.044125646352767944e-02 1.080494150519371033e-01
2.331959307193756104e-01 -6.831935048103332520e-02 2.729039788246154785e-01
1.860997080802917480e-01 -2.990623936057090759e-02 2.837416827678680420e-01
1.708019077777862549e-01 -8.512716740369796753e-02 -2.634132504463195801e-01
2.723602056503295898e-01 -3.358697891235351562e-02 1.918176561594009399e-02
2.543959319591522217e-01 -8.437636494636535645e-02 1.539144515991210938e-01
1.604219079017639160e-01 -3.112106211483478546e-02 -1.917541921138763428e-01
2.951571345329284668e-01 -9.374363720417022705e-02 -6.439678370952606201e-02
1.649800240993499756e-01 -4.477930068969726562e-02 1.854157745838165283e-01
2.122917026281356812e-01 -9.070508182048797607e-02 -2.036170288920402527e-02
1.654364466667175293e-01 -8.211533725261688232e-02 -3.117624521255493164e-01
2.455195635557174683e-01 -9.168559312820434570e-02 5.410031229257583618e-02
3.038398027420043945e-01 -8.975908905267715454e-02 -7.991649955511093140e-02
1.857080757617950439e-01 -1.764841750264167786e-02 1.068398281931877136e-01
1.973761320114135742e-01 -2.057387679815292358e-02 -5.815175920724868774e-02
2.576733827590942383e-01 -1.004994064569473267e-01 -3.785108923912048340e-01
2.384523898363113403e-01 -2.433802187442779541e-02 2.987940311431884766e-01
2.444781512022018433e-01 -2.185884490609169006e-02 1.547077000141143799e-01
2.035548090934753418e-01 -3.041184321045875549e-02 -2.254137992858886719e-01
2.149938195943832397e-01 -1.001822948455810547e-01 -2.845728397369384766e-01
2.787949144840240479e-01 -6.024118140339851379e-02 -2.918252050876617432e-01
2.036566883325576782e-01 -9.146946668624877930e-02 -7.655620574951171875e-02
1.404615789651870728e-01 -5.523730441927909851e-02 -1.164018958806991577e-01
2.623207569122314453e-01 -2.712764590978622437e-02 1.774847805500030518e-01
1.752695441246032715e-01 -6.925508379936218262e-02 7.922703772783279419e-02
2.289506942033767700e-01 -3.200805187225341797e-02 -1.966932415962219238e-01
1.994559615850448608e-01 -1.750059053301811218e-02 4.647009074687957764e-02
1.617811322212219238e-01 -6.343036144971847534e-02 5.026476085186004639e-02
1.957297623157501221e-01 -9.032770991325378418e-02 -1.029003188014030457e-01
1.966836303472518921e-01 -3.697998076677322388e-02 3.236069977283477783e-01
1.860364973545074463e-01 -9.188815951347351074e-02 -2.715774178504943848e-01
2.965599596500396729e-01 -6.202381104230880737e-02 -1.912472397089004517e-01
1.797611713409423828e-01 -2.256653085350990295e-02 -9.427092969417572021e-02
2.722181379795074463e-01 -3.156641125679016113e-02 2.127820551395416260e-01
2.751510739326477051e-01 -9.895820915699005127e-02 -3.255498111248016357e-01
1.558804661035537720e-01 -3.535930812358856201e-02 1.365531980991363525e-01
2.599519789218902588e-01 -6.829300522804260254e-02 2.894887328147888184e-01
2.924034297466278076e-01 -9.101761132478713989e-02 -2.877691388130187988e-01
2.830133438110351562e-01 -5.665336921811103821e-02 -2.392794489860534668e-01
2.186290025711059570e-01 -4.443122446537017822e-02 -3.572577536106109619e-01
2.830883860588073730e-01 -3.624473884701728821e-02 1.300409138202667236e-01
1.841490268707275391e-01 -8.922578394412994385e-02 -1.795196235179901123e-01
3.036867976188659668e-01 -6.101644039154052734e-02 -1.124531328678131104e-01
2.660320699214935303e-01 -1.004572212696075439e-01 -1.056697890162467957e-01
1.675672829151153564e-01 -3.950402140617370605e-02 2.109197080135345459e-01
1.806886941194534302e-01 -1.892375573515892029e-02 1.770507544279098511e-02
2.065778374671936035e-01 -5.279505625367164612e-02 -4.347419440746307373e-01
1.702607572078704834e-01 -8.410605788230895996e-02 -2.172738313674926758e-01
1.736760437488555908e-01 -2.804068103432655334e-02 -1.848057806491851807e-01
3.065946102142333984e-01 -7.295885682106018066e-02 1.336228251457214355e-01
-1.975669711828231812e-01 -6.165194138884544373e-02 6.212330609560012817e-02
-2.174821197986602783e-01 -1.872264221310615540e-02 -9.062676876783370972e-02
-3.459573537111282349e-02 6.917831301689147949e-02 6.628541648387908936e-02
8.486196398735046387e-03 1.080484539270401001e-01 -5.831944197416305542e-02
-2.729614377021789551e-01 -6.247019395232200623e-02 -4.152082651853561401e-02
-1.873541474342346191e-01 -7.174371927976608276e-02 3.025972656905651093e-02
-2.441082000732421875e-01 -1.710351556539535522e-02 1.983275637030601501e-03
-1.586440056562423706e-01 -1.944676414132118225e-02 8.834882825613021851e-02
-1.136692687869071960e-01 7.770419865846633911e-02 -4.193994402885437012e-02
8.730351924896240234e-03 7.305093854665756226e-02 -5.451058596372604370e-02
-1.845985651016235352e-01 -2.465582266449928284e-02 -1.125869080424308777e-01
-2.052407860755920410e-01 1.590521447360515594e-02 -4.224502667784690857e-02
-2.363156229257583618e-01 -9.237211942672729492e-02 1.868868246674537659e-03
-2.523422241210937500e-01 -6.526979804039001465e-02 5.203766375780105591e-02
-2.522670328617095947e-01 -4.020285978913307190e-02 -6.297031044960021973e-02
2.443327009677886963e-02 1.027463823556900024e-01 -1.119396276772022247e-02
-1.241393238306045532e-01 -4.337281361222267151e-02 -3.859097138047218323e-02
-1.618223190307617188e-01 -6.315701454877853394e-02 -4.193240404129028320e-02
-6.305426359176635742e-02 4.409790411591529846e-02 7.914858311414718628e-02
-1.828361451625823975e-01 -7.430269569158554077e-02 -2.995385602116584778e-02
-1.897100359201431274e-02 3.437042981386184692e-02 -2.984719537198543549e-02
-1.101552993059158325e-01 7.726407051086425781e-02 -5.526580661535263062e-02
1.390288770198822021e-02 9.678767621517181396e-02 -6.029097735881805420e-02
-2.095272541046142578e-01 -9.798319078981876373e-03 6.612070649862289429e-02
-2.075037509202957153e-01 -7.630959898233413696e-02 -6.279223412275314331e-02
-2.216934561729431152e-01 -3.148161992430686951e-02 7.106404751539230347e-02
-3.503613173961639404e-02 4.253331944346427917e-02 -9.185750782489776611e-02
-1.847214102745056152e-01 1.525030191987752914e-02 -8.889319747686386108e-02
-2.809733152389526367e-02 2.785057947039604187e-02 8.779125288128852844e-03
-2.147665321826934814e-01 -3.912169486284255981e-02 7.671634852886199951e-02
-2.868615835905075073e-02 9.316435456275939941e-02 5.084249377250671387e-02
-2.407551109790802002e-01 -9.263811260461807251e-02 -2.771754562854766846e-02
-2.106797397136688232e-01 -6.639797240495681763e-02 -8.357780426740646362e-02
-1.481405496597290039e-01 5.535010993480682373e-02 -5.279870331287384033e-02
-1.677315533161163330e-01 -6.737071275711059570e-02 5.022615194320678711e-03
-1.918414533138275146e-01 -6.026865169405937195e-02 -8.628366142511367798e-02
-1.330327540636062622e-01 -3.360719420015811920e-03 -1.195658743381500244e-01
-1.440269201993942261e-01 -5.241485312581062317e-02 2.345811761915683746e-02
-1.828608810901641846e-01 -5.059340223670005798e-02 7.055385410785675049e-02
-1.135110035538673401e-01 3.089332021772861481e-03 -1.174177825450897217e-01
-2.814314961433410645e-01 -7.976658642292022705e-02 -2.934347838163375854e-03
-1.277277767658233643e-01 -3.844001889228820801e-02 -7.002545893192291260e-02
-4.911892116069793701e-03 1.134271398186683655e-01 -5.384020507335662842e-02
-1.446481645107269287e-01 3.290440142154693604e-02 7.649464905261993408e-02
-1.845900863409042358e-01 8.473112247884273529e-03 -9.802953898906707764e-02
-1.341625601053237915e-01 5.313998460769653320e-02 -8.589745312929153442e-02
-2.036675363779067993e-01 1.463377103209495544e-02 2.789288200438022614e-02
-1.978392153978347778e-02 5.846910178661346436e-02 5.085602402687072754e-02
-8.456347137689590454e-02 6.254945695400238037e-02 7.521045207977294922e-02
-2.291114330291748047e-01 -8.933204412460327148e-02 -3.497759997844696045e-02
-9.549108147621154785e-02 6.850764155387878418e-02 6.314664334058761597e-02
-1.771397441625595093e-01 -9.778530336916446686e-03 -1.144049838185310364e-01
-6.210451573133468628e-02 8.502732962369918823e-02 5.587201565504074097e-02
-7.594978064298629761e-02 2.994900569319725037e-02 -1.151245608925819397e-01
-1.943306922912597656e-01 -7.798451185226440430e-02 1.377176120877265930e-02
-5.769877135753631592e-02 3.635017573833465576e-02 7.291189581155776978e-02
-4.062595963478088379e-02 1.067930385470390320e-01 -5.654706060886383057e-02
-1.908617615699768066e-01 -7.835405319929122925e-02 -2.019350975751876831e-02
-2.664160728454589844e-02 2.671672776341438293e-02 -2.312459424138069153e-02
-1.777084916830062866e-02 1.131899356842041016e-01 1.277727447450160980e-02
-6.328053027391433716e-02 7.692067883908748627e-03 4.345367848873138428e-02
-2.427830398082733154e-01 -9.190499782562255859e-02 1.288469880819320679e-02
-1.023816689848899841e-01 6.597726792097091675e-02 -9.520249068737030029e-02
-1.217119917273521423e-01 -3.174105286598205566e-02 -7.873359322547912598e-02
-2.547007203102111816e-01 -3.264878690242767334e-02 2.060986869037151337e-02
-1.127716600894927979e-01 5.307547748088836670e-02 7.351098954677581787e-02
2.074840664863586426e-02 8.474010229110717773e-02 -1.565201394259929657e-02
-1.790568679571151733e-01 -6.781232357025146484e-02 -5.711887776851654053e-02
-2.571333050727844238e-01 -3.121314942836761475e-02 2.141827717423439026e-04
7.943719625473022461e-03 1.152151152491569519e-01 2.680717036128044128e-03
-2.006896585226058960e-02 1.152755022048950195e-01 1.006005331873893738e-03
-9.474106132984161377e-03 1.157975345849990845e-01 -4.488433524966239929e-02
-2.172232419252395630e-01 -7.989722490310668945e-02 3.719265758991241455e-02
-4.164853692054748535e-02 8.741225302219390869e-02 5.745179951190948486e-02
-2.096089720726013184e-01 -2.383720129728317261e-04 5.272644013166427612e-02
-9.917236119508743286e-02 -1.298750471323728561e-02 5.748361349105834961e-02
-6.809385120868682861e-02 2.068740129470825195e-02 -1.034343317151069641e-01
-3.878124058246612549e-02 1.099454015493392944e-01 -4.445770382881164551e-02
-2.508951425552368164e-01 -9.095925837755203247e-02 1.952109299600124359e-02
-1.837522536516189575e-01 3.457864001393318176e-02 -1.331949606537818909e-03
-1.695284992456436157e-01 -6.500265002250671387e-02 -5.145634710788726807e-02
-2.629846930503845215e-01 -5.219187214970588684e-02 -5.518141388893127441e-02
-6.762158870697021484e-02 5.955699086189270020e-02 -1.133544445037841797e-01
-1.519326716661453247e-01 5.469055846333503723e-02 -4.290509223937988281e-02
-9.028512239456176758e-02 4.501023143529891968e-02 8.543207496404647827e-02
-2.049177885055541992e-02 3.258427232503890991e-02 -1.195646729320287704e-02
-7.360172271728515625e-02 4.565181955695152283e-02 -1.172328218817710876e-01
-1.056851893663406372e-01 7.081540673971176147e-02 4.996109753847122192e-02
-8.322469890117645264e-02 7.469688355922698975e-02 -9.542643278837203979e-02
-2.382455766201019287e-01 -7.768365740776062012e-02 -6.948613375425338745e-02
-2.120312154293060303e-01 7.211804855614900589e-03 2.954828925430774689e-02
-2.607292830944061279e-01 -9.376515448093414307e-02 -2.552322670817375183e-02
1.082544028759002686e-02 6.893186271190643311e-02 -3.325147181749343872e-02
-1.948329806327819824e-01 -1.520400587469339371e-02 8.162979036569595337e-02
-1.943060308694839478e-01 -5.090195313096046448e-02 -9.856528788805007935e-02
-2.407193928956985474e-01 -1.342830155044794083e-02 -2.231514081358909607e-02
-3.840318322181701660e-02 1.100873053073883057e-01 6.607459858059883118e-03
-1.411811262369155884e-02 5.682279542088508606e-02 4.122240841388702393e-02
-1.664884090423583984e-01 4.577874764800071716e-02 -3.704326599836349487e-02
-7.392732799053192139e-02 -1.122999470680952072e-02 -1.225730404257774353e-03
-1.015763729810714722e-01 5.458845198154449463e-02 -1.098833009600639343e-01
-1.181753575801849365e-01 -3.772446513175964355e-02 -5.149652808904647827e-02
-2.181777507066726685e-01 -1.197152677923440933e-02 -8.248399943113327026e-02
-1.199951469898223877e-01 1.852473244071006775e-02 9.167347103357315063e-02
-5.708784610033035278e-02 3.957615047693252563e-02 -1.091892048716545105e-01
-8.854773640632629395e-02 3.183144703507423401e-02 -1.199226975440979004e-01
-7.942613959312438965e-02 -3.041569143533706665e-04 -8.656518906354904175e-02
-1.530129611492156982e-01 -5.685803666710853577e-02 -5.229149013757705688e-02
-1.997047215700149536e-01 2.286432124674320221e-02 -8.059708401560783386e-03
-1.837179660797119141e-01 2.396528422832489014e-02 4.648091644048690796e-02
-2.761381864547729492e-01 -9.001095592975616455e-02 -1.008015964180231094e-02
-1.292804479598999023e-01 7.005561143159866333e-02 -6.873579695820808411e-04
-1.051305830478668213e-01 8.359043300151824951e-02 -2.888406068086624146e-02
-1.662090420722961426e-01 2.336341515183448792e-02 7.044447213411331177e-02
-3.363108634948730469e-02 5.507824942469596863e-02 6.325774639844894409e-02
-2.116463780403137207e-01 1.330795697867870331e-02 -1.329248398542404175e-02
-2.058164477348327637e-01 1.780085824429988861e-02 -2.250798232853412628e-02
-3.808531165122985840e-02 2.466882020235061646e-02 -6.650938093662261963e-02
-1.259014010429382324e-03 1.120644509792327881e-01 1.675594411790370941e-02
-2.034828364849090576e-01 -4.702970758080482483e-02 7.717601954936981201e-02
-1.037521958351135254e-01 8.263702690601348877e-02 -4.449529945850372314e-02
-1.227029263973236084e-01 6.998758763074874878e-02 -5.659186094999313354e-02
-2.368672490119934082e-01 -1.650770753622055054e-02 3.125616163015365601e-02
1.497113704681396484e-02 1.094182878732681274e-01 8.014230057597160339e-03
-5.440532416105270386e-02 4.952172748744487762e-03 -4.301952570676803589e-02
-1.757708042860031128e-01 -6.763605773448944092e-02 2.658625133335590363e-02
-2.573775053024291992e-01 -5.450935289263725281e-02 -6.658231467008590698e-02
-1.307241469621658325e-01 6.352020055055618286e-02 -6.362201273441314697e-02
-2.091219574213027954e-01 1.059127412736415863e-02 -5.153741687536239624e-02
-3.765593469142913818e-02 3.055869415402412415e-02 4.276183247566223145e-02
-2.532885372638702393e-01 -8.737728744745254517e-02 2.911779843270778656e-02
-2.320725172758102417e-01 -1.652237772941589355e-02 4.252121597528457642e-02
-2.011108398437500000e-01 1.224360056221485138e-02 -6.750648468732833862e-02
-9.928984940052032471e-02 -3.626384772360324860e-03 -1.032295674085617065e-01
-1.523744761943817139e-01 -5.153687670826911926e-02 4.290391504764556885e-02
-1.055745631456375122e-01 -3.334330022335052490e-02 -8.723825216293334961e-03
-8.806669712066650391e-02 -7.463567890226840973e-03 -8.473071455955505371e-02
-2.142561376094818115e-01 7.905733771622180939e-03 1.918360777199268341e-02
-5.724273622035980225e-03 1.174272000789642334e-01 -2.186395227909088135e-03
-1.565819829702377319e-01 -4.460077732801437378e-02 6.285261362791061401e-02
-1.387683749198913574e-01 5.476392060518264771e-02 4.492321610450744629e-02
-1.354561001062393188e-01 -4.821816086769104004e-02 -4.891613125801086426e-02
-1.665121912956237793e-01 9.753493592143058777e-03 8.347690105438232422e-02
-3.988217562437057495e-02 1.069702133536338806e-01 1.917630247771739960e-02
-1.222621202468872070e-01 7.301785051822662354e-02 9.206298738718032837e-03
-3.123898804187774658e-02 2.343481034040451050e-02 -1.001624390482902527e-03
-9.027728438377380371e-02 7.827318459749221802e-02 -8.318537473678588867e-02
-1.995360553264617920e-01 4.914385732263326645e-03 -8.478631079196929932e-02
-4.967579245567321777e-02 1.016341522336006165e-01 -6.463748961687088013e-02
-2.276948094367980957e-01 -8.075390756130218506e-02 4.074385762214660645e-02
-3.014295548200607300e-02 2.449487149715423584e-02 -3.576651960611343384e-02
