-3.758490383625030518e-01 1.208045855164527893e-01 -3.923031985759735107e-01
-2.153238952159881592e-01 4.708125442266464233e-02 4.406809806823730469e-01
-3.463210165500640869e-01 1.419947147369384766e-01 -2.548820972442626953e-01
-3.760280311107635498e-01 1.311012506484985352e-01 -3.075602352619171143e-01
-3.352023363113403320e-01 1.300987601280212402e-01 4.221817255020141602e-01
-2.016862630844116211e-01 4.782932996749877930e-02 -3.092789947986602783e-01
-1.906390190124511719e-01 1.461165100336074829e-01 -1.642261743545532227e-01
-1.574859172105789185e-01 5.542624369263648987e-02 4.730711579322814941e-01
-3.559651970863342285e-01 1.268706619739532471e-01 -4.044463336467742920e-01
-2.983059883117675781e-01 3.897968307137489319e-02 -5.829320847988128662e-02
-3.364912867546081543e-01 1.401090621948242188e-01 3.057355284690856934e-01
-2.598640024662017822e-01 6.364087760448455811e-02 5.675899386405944824e-01
-7.659231126308441162e-02 6.385228037834167480e-02 -1.199309155344963074e-02
-1.323412060737609863e-01 1.371676623821258545e-01 -5.999687314033508301e-02
-1.928601711988449097e-01 1.239445060491561890e-01 -4.476688504219055176e-01
-3.485126197338104248e-01 4.674431309103965759e-02 6.744764745235443115e-02
-9.853699803352355957e-02 1.271456778049468994e-01 3.273368626832962036e-02
-4.232754707336425781e-01 7.822097837924957275e-02 8.192346990108489990e-02
-9.485353529453277588e-02 1.182329803705215454e-01 2.965036928653717041e-01
-1.012670993804931641e-01 5.109844729304313660e-02 1.343116760253906250e-01
-1.753790676593780518e-01 1.413493156433105469e-01 -2.163095474243164062e-01
-3.056206107139587402e-01 4.114659503102302551e-02 1.995670795440673828e-01
-2.103728055953979492e-01 4.488210752606391907e-02 -2.773407995700836182e-01
-2.503812909126281738e-01 3.966918215155601501e-02 3.075760602951049805e-01
-7.763428986072540283e-02 6.471572816371917725e-02 2.352702319622039795e-01
-2.104427516460418701e-01 1.344807744026184082e-01 4.577103257179260254e-01
-4.093661606311798096e-01 1.299729645252227783e-01 3.591778874397277832e-02
-4.130672812461853027e-01 8.381143212318420410e-02 -2.597405016422271729e-01
-2.093497365713119507e-01 3.737722337245941162e-02 -1.216059401631355286e-01
-4.214032590389251709e-01 1.151057854294776917e-01 1.716935038566589355e-01
-1.428275108337402344e-01 4.390846565365791321e-02 -9.383016079664230347e-02
-7.132947444915771484e-02 1.074542552232742310e-01 2.296872735023498535e-01
-3.835078477859497070e-01 9.433446079492568970e-02 -4.237987399101257324e-01
-3.984389603137969971e-01 7.996796816587448120e-02 3.202207088470458984e-01
-6.515204906463623047e-02 7.240978628396987915e-02 1.898758709430694580e-01
-4.132034182548522949e-01 7.101933658123016357e-02 -8.324261009693145752e-02
-3.097452521324157715e-01 4.339609667658805847e-02 2.485167384147644043e-01
-8.398088812828063965e-02 1.097403988242149353e-01 -1.635033786296844482e-01
-4.250469803810119629e-01 1.086912080645561218e-01 -2.142596244812011719e-01
-2.960144281387329102e-01 1.219328120350837708e-01 -5.106511116027832031e-01
-3.068123757839202881e-01 4.743168503046035767e-02 -2.622760236263275146e-01
-2.269241809844970703e-01 6.738853454589843750e-02 -4.923644959926605225e-01
-3.797696828842163086e-01 6.223582476377487183e-02 -2.263197004795074463e-01
-3.645206093788146973e-01 1.312883049249649048e-01 -3.444241583347320557e-01
-4.030647575855255127e-01 6.497065722942352295e-02 -5.229971557855606079e-02
-3.160646557807922363e-01 5.407571420073509216e-02 4.066199958324432373e-01
-2.501891851425170898e-01 5.055114999413490295e-02 -3.639713525772094727e-01
-2.000283449888229370e-01 1.310657709836959839e-01 4.813851416110992432e-01
-2.418332099914550781e-01 1.379602849483489990e-01 -3.895101547241210938e-01
-3.752723932266235352e-01 1.422150284051895142e-01 -3.387946635484695435e-02
-3.448027968406677246e-01 1.469967961311340332e-01 -1.297043859958648682e-01
-1.286022365093231201e-01 4.571021720767021179e-02 -5.709588527679443359e-02
-3.142017722129821777e-01 5.075550824403762817e-02 -2.981503605842590332e-01
-1.817819774150848389e-01 1.467887163162231445e-01 1.706553995609283447e-01
-9.081193804740905762e-02 5.862153321504592896e-02 2.556342780590057373e-01
-2.618348598480224609e-01 1.525417417287826538e-01 -1.280138492584228516e-01
-2.802209556102752686e-01 1.488110125064849854e-01 -2.373203039169311523e-01
-3.650869131088256836e-01 1.407402455806732178e-01 1.804376542568206787e-01
-1.068630814552307129e-01 4.909943789243698120e-02 9.394913911819458008e-02
-7.326874136924743652e-02 1.136036515235900879e-01 4.380420222878456116e-02
-2.860040962696075439e-01 5.224150791764259338e-02 -3.619444966316223145e-01
-3.915615379810333252e-01 7.148633897304534912e-02 -2.802056074142456055e-01
-1.790026724338531494e-01 6.534312665462493896e-02 -4.344953894615173340e-01
-1.353435516357421875e-01 1.392586231231689453e-01 5.871789902448654175e-02
-3.167948126792907715e-01 6.522284448146820068e-02 -4.420566260814666748e-01
-2.297593653202056885e-01 1.524929851293563843e-01 -6.697995960712432861e-02
-1.781202703714370728e-01 3.743377700448036194e-02 1.973106265068054199e-01
-1.369231045246124268e-01 5.196152999997138977e-02 3.886658251285552979e-01
-3.783588707447052002e-01 5.605208501219749451e-02 1.232840046286582947e-01
-2.001829892396926880e-01 7.117609679698944092e-02 6.098068952560424805e-01
-1.717845052480697632e-01 4.349150136113166809e-02 -1.910217702388763428e-01
-1.281314790248870850e-01 6.496551632881164551e-02 4.832923412322998047e-01
-4.165648818016052246e-01 7.686962932348251343e-02 -1.627793014049530029e-01
-3.218290805816650391e-01 1.432401388883590698e-01 -2.940936088562011719e-01
-2.818498611450195312e-01 4.652994126081466675e-02 -2.909405529499053955e-01
-1.546230912208557129e-01 4.322717711329460144e-02 -1.307575404644012451e-01
-1.343272924423217773e-01 1.241367235779762268e-01 4.144392609596252441e-01
-2.047813236713409424e-01 3.785637393593788147e-02 2.703087627887725830e-01
-1.242701038718223572e-01 5.388201773166656494e-02 -1.978911459445953369e-01
-1.740891337394714355e-01 5.010594800114631653e-02 4.446688592433929443e-01
-2.745730280876159668e-01 1.538525819778442383e-01 -4.585879296064376831e-02
-4.049383401870727539e-01 1.010800153017044067e-01 -3.492932021617889404e-01
-2.914743125438690186e-01 5.341437831521034241e-02 4.512290358543395996e-01
-2.397216409444808960e-01 4.085278883576393127e-02 -2.215482592582702637e-01
-1.038316637277603149e-01 5.985443666577339172e-02 -1.767572462558746338e-01
-2.649019956588745117e-01 3.758573532104492188e-02 -1.188630685210227966e-01
-2.740306556224822998e-01 1.395747065544128418e-01 4.110721647739410400e-01
-3.796395957469940186e-01 6.308732926845550537e-02 2.669878304004669189e-01
-2.706126868724822998e-01 1.474542468786239624e-01 -2.673383653163909912e-01
-4.108583331108093262e-01 7.050186395645141602e-02 1.136747300624847412e-01
-1.379067897796630859e-01 6.720340996980667114e-02 5.185840129852294922e-01
-1.486016809940338135e-01 4.069793596863746643e-02 1.825483441352844238e-01
-7.392764091491699219e-02 8.485493808984756470e-02 -1.681803464889526367e-01
-2.227353006601333618e-01 4.576424136757850647e-02 -2.990149855613708496e-01
-1.573323160409927368e-01 3.869492933154106140e-02 3.986220434308052063e-02
-3.394478261470794678e-01 1.486819684505462646e-01 6.831068545579910278e-02
-2.660925090312957764e-01 3.521392494440078735e-02 6.823264062404632568e-02
-2.426928281784057617e-01 1.536911725997924805e-01 -8.480884134769439697e-03
-1.505076587200164795e-01 1.217535138130187988e-01 4.796960353851318359e-01
-3.924300670623779297e-01 1.310434490442276001e-01 1.992748379707336426e-01
-3.342690467834472656e-01 1.476025432348251343e-01 -1.635633707046508789e-01
-3.116300404071807861e-01 1.437124311923980713e-01 3.077937662601470947e-01
-2.055057585239410400e-01 1.488775014877319336e-01 -1.374944448471069336e-01
-2.084138095378875732e-01 4.921853169798851013e-02 4.638193249702453613e-01
-1.117987781763076782e-01 1.280947029590606689e-01 2.505914568901062012e-01
-1.838361322879791260e-01 1.476541608572006226e-01 -7.068029791116714478e-02
-3.468348681926727295e-01 5.286259576678276062e-02 -2.308515906333923340e-01
-2.692334651947021484e-01 1.508429348468780518e-01 2.111766040325164795e-01
-2.686467468738555908e-01 3.647074848413467407e-02 -6.307119131088256836e-02
-1.729322820901870728e-01 1.284878849983215332e-01 4.669823944568634033e-01
-2.324129939079284668e-01 1.317417919635772705e-01 -4.401967525482177734e-01
-2.929761409759521484e-01 1.520658731460571289e-01 -1.273344457149505615e-01
-1.807570308446884155e-01 3.682697191834449768e-02 -2.254185080528259277e-02
-1.706430912017822266e-01 3.734518960118293762e-02 1.095036789774894714e-02
-3.277921080589294434e-01 4.297888651490211487e-02 1.141296029090881348e-01
-7.988418638706207275e-02 9.566842764616012573e-02 -2.061135172843933105e-01
-1.967899799346923828e-01 1.137842908501625061e-01 5.931745171546936035e-01
-1.966533362865447998e-01 1.488226950168609619e-01 -9.881257265806198120e-02
-3.572735190391540527e-01 5.015235766768455505e-02 -9.655117243528366089e-02
-3.943228721618652344e-01 1.198070719838142395e-01 -3.332464098930358887e-01
-4.218817949295043945e-01 8.954678475856781006e-02 -2.300659716129302979e-01
-2.966802716255187988e-01 1.256441920995712280e-01 5.167309641838073730e-01
-3.217744529247283936e-01 7.584506273269653320e-02 -4.966149032115936279e-01
-1.813938170671463013e-01 4.261045902967453003e-02 3.469563722610473633e-01
-3.099535703659057617e-01 1.524080932140350342e-01 -2.158523723483085632e-02
-1.200319081544876099e-01 5.798745900392532349e-02 -2.307774722576141357e-01
-1.757439970970153809e-01 5.045228078961372375e-02 -3.031438887119293213e-01
-3.485463857650756836e-01 5.226093158125877380e-02 2.634229660034179688e-01
-1.948971748352050781e-01 1.341439485549926758e-01 -3.680229187011718750e-01
-3.097667098045349121e-01 1.042707785964012146e-01 5.879359245300292969e-01
-3.915305137634277344e-01 6.172800809144973755e-02 1.433985531330108643e-01
-1.824017018079757690e-01 1.480861306190490723e-01 9.914176166057586670e-02
-1.110986620187759399e-01 5.920370668172836304e-02 3.821546435356140137e-01
-3.537432253360748291e-01 1.131874397397041321e-01 4.817045927047729492e-01
-1.921361535787582397e-01 3.513102978467941284e-02 7.012300193309783936e-02
-7.395474612712860107e-02 1.032517403364181519e-01 2.970908582210540771e-01
-1.057859063148498535e-01 1.278489977121353149e-01 -7.251968234777450562e-02
-2.860814929008483887e-01 1.232583448290824890e-01 5.420454144477844238e-01
-3.018566071987152100e-01 1.339550316333770752e-01 -4.271843731403350830e-01
-1.551022678613662720e-01 3.903381898999214172e-02 1.306094974279403687e-01
-2.744567990303039551e-01 3.749242797493934631e-02 1.959798634052276611e-01
-2.292617559432983398e-01 5.218474939465522766e-02 4.960170090198516846e-01
-3.583154976367950439e-01 1.394755542278289795e-01 2.402014732360839844e-01
-3.350872695446014404e-01 4.482972621917724609e-02 -7.526493817567825317e-02
-3.361813426017761230e-01 5.977398529648780823e-02 -3.583669066429138184e-01
-2.195792943239212036e-01 9.226068109273910522e-02 -5.581244230270385742e-01
-2.412564307451248169e-01 3.489553928375244141e-02 1.572230458259582520e-01
-4.004987180233001709e-01 1.279434710741043091e-01 -2.228711545467376709e-01
-3.019010722637176514e-01 1.305873095989227295e-01 4.742400050163269043e-01
-1.546205878257751465e-01 1.137903332710266113e-01 -4.268786013126373291e-01
-2.068562209606170654e-01 1.451099514961242676e-01 -2.379075288772583008e-01
-3.446300625801086426e-01 1.484263092279434204e-01 -1.366586983203887939e-02
-4.197264313697814941e-01 1.114843860268592834e-01 2.126387953758239746e-01
-2.385394573211669922e-01 5.924114957451820374e-02 5.509523749351501465e-01
-3.741980493068695068e-01 1.308960616588592529e-01 2.966877818107604980e-01
-2.811136543750762939e-01 5.938545987010002136e-02 -4.354232847690582275e-01
-3.933216631412506104e-01 6.358530372381210327e-02 -1.510973274707794189e-01
-3.022083044052124023e-01 1.388388574123382568e-01 3.918393552303314209e-01
-2.686119377613067627e-01 1.239843815565109253e-01 -5.069224834442138672e-01
-2.428405433893203735e-01 5.745288357138633728e-02 -4.306505024433135986e-01
-1.757091283798217773e-01 1.113765239715576172e-01 -4.796548187732696533e-01
-2.316779941320419312e-01 3.586748614907264709e-02 2.140197455883026123e-01
-2.341641783714294434e-01 7.015579938888549805e-02 6.106835603713989258e-01
-1.263576149940490723e-01 4.423636943101882935e-02 1.382462382316589355e-01
-9.305624663829803467e-02 5.918106064200401306e-02 2.838568985462188721e-01
-1.612421572208404541e-01 3.926264867186546326e-02 -3.548834472894668579e-02
-3.048743903636932373e-01 1.352858692407608032e-01 4.274341464042663574e-01
-2.106276750564575195e-01 1.506872177124023438e-01 1.385269612073898315e-01
-2.808247506618499756e-01 1.422416269779205322e-01 3.714784681797027588e-01
-3.433234095573425293e-01 4.910144954919815063e-02 2.232261896133422852e-01
-3.390536308288574219e-01 1.339232474565505981e-01 3.767834603786468506e-01
-3.415510058403015137e-01 6.518809497356414795e-02 -3.961704969406127930e-01
-3.641264438629150391e-01 5.067034810781478882e-02 -1.866050437092781067e-02
-4.092549383640289307e-01 1.251710206270217896e-01 -1.963081955909729004e-01
-3.319241702556610107e-01 1.425160318613052368e-01 2.798592150211334229e-01
-3.379820883274078369e-01 4.827983304858207703e-02 -1.735854744911193848e-01
-1.331051141023635864e-01 1.302676498889923096e-01 -2.214042246341705322e-01
1.938361376523971558e-01 1.525026410818099976e-01 4.579786211252212524e-03
1.466499119997024536e-01 3.502642363309860229e-02 2.430506050586700439e-01
6.787419319152832031e-02 4.309212788939476013e-02 3.022393584251403809e-01
3.743906617164611816e-01 1.074111238121986389e-01 -2.517254352569580078e-01
2.562696039676666260e-01 3.738114237785339355e-02 -4.657362028956413269e-02
1.605603098869323730e-01 1.479515284299850464e-01 -1.514446586370468140e-01
2.718175351619720459e-01 1.430674195289611816e-01 -1.846430748701095581e-01
-4.021002352237701416e-02 6.124684214591979980e-02 2.026075422763824463e-01
4.085115194320678711e-01 7.359745353460311890e-02 3.986239805817604065e-02
3.995379209518432617e-01 1.220934092998504639e-01 6.156656891107559204e-03
7.024889439344406128e-02 4.487631097435951233e-02 3.273029029369354248e-01
1.343028247356414795e-02 4.872698336839675903e-02 -1.108325421810150146e-01
1.603212207555770874e-01 1.498678028583526611e-01 -1.055367887020111084e-01
3.502994775772094727e-01 5.512244999408721924e-02 -9.498845040798187256e-02
6.729960441589355469e-04 4.742918536067008972e-02 1.850971430540084839e-01
3.991444706916809082e-01 6.868633627891540527e-02 4.793897271156311035e-03
1.555275917053222656e-02 1.357584297657012939e-01 -1.538506522774696350e-02
3.802937567234039307e-01 1.296572089195251465e-01 3.537984192371368408e-02
1.070206090807914734e-01 3.436842933297157288e-02 1.962696909904479980e-01
3.652694225311279297e-01 1.313560754060745239e-01 1.384042799472808838e-01
2.826237380504608154e-01 5.087395757436752319e-02 3.330047428607940674e-01
-1.913398504257202148e-02 6.278316676616668701e-02 3.036359548568725586e-01
6.030108779668807983e-02 4.291379824280738831e-02 -1.410213857889175415e-01
8.831790089607238770e-02 5.958896130323410034e-02 4.536502063274383545e-01
1.768642365932464600e-01 3.223605826497077942e-02 1.577168256044387817e-01
2.255668640136718750e-01 1.470259726047515869e-01 -1.685613840818405151e-01
-4.399557411670684814e-02 1.152668893337249756e-01 -5.390393361449241638e-02
4.244661629199981689e-01 9.161891043186187744e-02 2.291359007358551025e-03
-1.817421615123748779e-02 5.348552018404006958e-02 2.078369110822677612e-01
3.306468129158020020e-01 6.496004760265350342e-02 -2.563003301620483398e-01
-1.673787832260131836e-03 7.224375754594802856e-02 -2.566611170768737793e-01
1.770541369915008545e-01 1.511930972337722778e-01 -7.488922774791717529e-02
1.044141501188278198e-01 5.280723050236701965e-02 -2.920601367950439453e-01
1.439023613929748535e-01 1.238004192709922791e-01 4.490274488925933838e-01
1.112538576126098633e-02 1.144979298114776611e-01 -2.625879645347595215e-01
6.327994912862777710e-02 1.246228218078613281e-01 3.838481605052947998e-01
1.064971759915351868e-01 4.924045130610466003e-02 4.007590413093566895e-01
2.586450278759002686e-01 1.263193190097808838e-01 4.060906469821929932e-01
-7.157362997531890869e-02 7.685317099094390869e-02 2.617346309125423431e-02
2.691556215286254883e-01 1.390413492918014526e-01 2.875359058380126953e-01
-6.363727152347564697e-02 6.870321929454803467e-02 6.821569800376892090e-02
3.188517689704895020e-01 5.329748243093490601e-02 -1.771037280559539795e-01
2.098700404167175293e-02 4.605858027935028076e-02 2.421429157257080078e-01
-2.007509768009185791e-02 1.262110769748687744e-01 -2.045116201043128967e-02
2.174959629774093628e-01 8.075671643018722534e-02 5.237934589385986328e-01
3.004927635192871094e-01 1.199994906783103943e-01 3.967867791652679443e-01
1.748802512884140015e-01 1.109345108270645142e-01 5.073266625404357910e-01
2.774214446544647217e-01 4.357265308499336243e-02 -1.355656534433364868e-01
1.127278283238410950e-01 4.300562292337417603e-02 -2.073173522949218750e-01
3.734861910343170166e-01 5.905313044786453247e-02 1.164071261882781982e-01
-5.587370693683624268e-02 6.483059376478195190e-02 1.252673715353012085e-01
9.757909923791885376e-02 3.299866989254951477e-02 1.017058789730072021e-01
5.352634191513061523e-02 7.969827950000762939e-02 4.835686683654785156e-01
2.118071764707565308e-01 3.854105621576309204e-02 -1.489544212818145752e-01
2.503898739814758301e-01 1.434660702943801880e-01 -2.050090432167053223e-01
4.255726933479309082e-02 8.147562295198440552e-02 -3.531667888164520264e-01
5.882307887077331543e-03 9.179511666297912598e-02 4.234439134597778320e-01
-5.175156891345977783e-02 7.265014946460723877e-02 2.428777515888214111e-01
3.199464976787567139e-01 1.428695619106292725e-01 -4.386114701628684998e-02
3.346348702907562256e-01 1.313133537769317627e-01 2.526834905147552490e-01
2.136524468660354614e-01 3.595491126179695129e-02 -9.591028094291687012e-02
2.481349706649780273e-01 3.628940880298614502e-02 1.600363552570343018e-01
1.795192509889602661e-01 1.408848911523818970e-01 -2.605225145816802979e-01
3.670805096626281738e-01 1.307179182767868042e-01 -1.009433120489120483e-01
1.599205434322357178e-01 1.508661508560180664e-01 1.255227774381637573e-01
2.626128196716308594e-01 1.055453941226005554e-01 4.858973324298858643e-01
-2.224458754062652588e-02 6.365012377500534058e-02 -1.574469804763793945e-01
2.973126769065856934e-01 1.445509344339370728e-01 1.374310106039047241e-01
1.572929322719573975e-02 1.194738596677780151e-01 3.409886956214904785e-01
8.427166938781738281e-02 3.920602425932884216e-02 -1.225703805685043335e-01
2.636520266532897949e-01 1.440889090299606323e-01 2.242921292781829834e-01
-4.338800907135009766e-02 1.183959841728210449e-01 2.196880429983139038e-02
6.866113841533660889e-02 4.911332204937934875e-02 -2.266216278076171875e-01
1.693580150604248047e-01 4.824822768568992615e-02 -2.788136005401611328e-01
3.649479150772094727e-02 1.302118897438049316e-01 2.894721925258636475e-01
6.824127584695816040e-02 3.652071580290794373e-02 -2.164119109511375427e-02
3.192974030971527100e-01 4.460997134447097778e-02 4.430587217211723328e-02
-3.743404150009155273e-02 6.003193184733390808e-02 -5.514540150761604309e-02
3.422856330871582031e-01 5.173104256391525269e-02 -6.590098142623901367e-02
2.328763157129287720e-01 1.367579251527786255e-01 -2.912369668483734131e-01
6.320762634277343750e-02 1.443095505237579346e-01 5.767438560724258423e-03
3.964389562606811523e-01 7.064907252788543701e-02 1.525567770004272461e-01
2.912903428077697754e-01 1.161016672849655151e-01 4.258615374565124512e-01
3.278506100177764893e-01 4.640622064471244812e-02 8.463451266288757324e-02
3.478445112705230713e-01 5.073255673050880432e-02 4.085845872759819031e-02
2.738584876060485840e-01 8.021276444196701050e-02 -3.940852284431457520e-01
6.820917129516601562e-02 1.407564282417297363e-01 2.104386687278747559e-01
2.107724547386169434e-01 1.472383141517639160e-01 2.213355004787445068e-01
1.727227717638015747e-01 1.427839696407318115e-01 -2.371364235877990723e-01
9.990174323320388794e-02 4.049703106284141541e-02 3.061446249485015869e-01
1.377020031213760376e-01 4.304347187280654907e-02 -2.217222750186920166e-01
1.073244810104370117e-01 1.154209598898887634e-01 -3.865419626235961914e-01
6.070734560489654541e-02 3.973099216818809509e-02 2.350251972675323486e-01
2.148210108280181885e-01 4.573239013552665710e-02 3.648689985275268555e-01
8.201540261507034302e-02 4.499416425824165344e-02 -2.005160003900527954e-01
-3.208789229393005371e-02 1.130532398819923401e-01 -1.439925134181976318e-01
3.466077148914337158e-02 3.985577449202537537e-02 1.393242776393890381e-01
1.304762959480285645e-01 5.465741455554962158e-02 4.476206004619598389e-01
-3.903554379940032959e-02 8.689220994710922241e-02 3.232627511024475098e-01
2.177748680114746094e-01 4.666564613580703735e-02 -2.495173215866088867e-01
2.778939604759216309e-01 1.356097161769866943e-01 -2.651138305664062500e-01
2.724165618419647217e-01 4.081838950514793396e-02 -9.322793781757354736e-02
1.973897963762283325e-01 4.391994699835777283e-02 -2.308362722396850586e-01
-2.318064868450164795e-02 1.028496101498603821e-01 3.385305106639862061e-01
1.509634554386138916e-01 3.541292622685432434e-02 -1.121065318584442139e-01
-4.885497689247131348e-02 6.235857307910919189e-02 -7.139898836612701416e-03
1.322933137416839600e-01 1.382493078708648682e-01 3.319227099418640137e-01
2.117539942264556885e-01 4.908316582441329956e-02 -2.756964564323425293e-01
1.527079343795776367e-01 1.508423388004302979e-01 -6.257580220699310303e-02
1.160707622766494751e-01 3.234417364001274109e-02 1.290018111467361450e-01
2.894681394100189209e-01 4.679382219910621643e-02 2.721914649009704590e-01
3.607302904129028320e-02 4.226185008883476257e-02 2.192654162645339966e-01
8.251114189624786377e-02 3.579693660140037537e-02 -4.156366363167762756e-02
1.334575116634368896e-01 1.263731867074966431e-01 -3.549540340900421143e-01
1.649814248085021973e-01 3.797169402241706848e-02 -1.596325039863586426e-01
4.116485118865966797e-01 7.681269198656082153e-02 -1.628838106989860535e-02
1.512291580438613892e-01 4.019016399979591370e-02 -1.906117796897888184e-01
1.579350829124450684e-01 3.354979306459426880e-02 2.089733481407165527e-01
1.210941672325134277e-01 7.273747026920318604e-02 -3.993844091892242432e-01
1.210340559482574463e-01 1.481299549341201782e-01 1.568543165922164917e-01
1.843151301145553589e-01 7.177004963159561157e-02 5.176171064376831055e-01
5.077025294303894043e-02 5.260794609785079956e-02 3.736316263675689697e-01
2.182352840900421143e-01 1.343473494052886963e-01 3.741971552371978760e-01
2.584982812404632568e-01 1.490581929683685303e-01 -7.310409843921661377e-02
2.425327897071838379e-01 5.830114707350730896e-02 4.364095330238342285e-01
6.404995918273925781e-03 4.750138521194458008e-02 -6.392626464366912842e-02
4.634875059127807617e-02 1.396624147891998291e-01 1.631741970777511597e-01
1.875821352005004883e-01 1.452168971300125122e-01 2.613336443901062012e-01
1.558559536933898926e-01 1.471642851829528809e-01 2.202074974775314331e-01
2.317837774753570557e-01 1.479451358318328857e-01 1.913779824972152710e-01
2.726480066776275635e-01 1.271815001964569092e-01 -3.323008418083190918e-01
1.731278747320175171e-01 1.490008831024169922e-01 1.891525089740753174e-01
-5.150343477725982666e-02 7.183161377906799316e-02 -9.864152967929840088e-02
2.906807661056518555e-01 1.473366171121597290e-01 2.797789126634597778e-02
1.095223426818847656e-01 1.473621726036071777e-01 -9.168353676795959473e-02
7.977040112018585205e-02 4.268455877900123596e-02 -1.691749691963195801e-01
3.508804440498352051e-01 1.320993304252624512e-01 1.926642507314682007e-01
2.409884035587310791e-01 6.947723776102066040e-02 -3.837092220783233643e-01
-1.952241361141204834e-02 5.173850432038307190e-02 -1.091416180133819580e-02
3.432670533657073975e-01 5.101249739527702332e-02 -3.940039500594139099e-02
1.914318054914474487e-01 3.759052231907844543e-02 2.790096700191497803e-01
3.821556568145751953e-01 6.894467025995254517e-02 -1.354294121265411377e-01
-7.664087414741516113e-02 8.956205844879150391e-02 7.982185482978820801e-02
-4.329204559326171875e-03 1.107809245586395264e-01 -2.445681989192962646e-01
1.559007912874221802e-01 1.337483972311019897e-01 -3.178865611553192139e-01
2.279567122459411621e-01 3.620277717709541321e-02 2.092495858669281006e-01
5.779259651899337769e-02 1.105617731809616089e-01 -3.540595471858978271e-01
3.592396080493927002e-01 1.243012547492980957e-01 -2.077232599258422852e-01
4.808770120143890381e-02 1.169328689575195312e-01 -3.172173500061035156e-01
8.225127309560775757e-02 3.536916896700859070e-02 1.754837185144424438e-01
3.916924297809600830e-01 7.087112963199615479e-02 -1.070022135972976685e-01
2.730644345283508301e-01 6.072055175900459290e-02 4.187531769275665283e-01
6.787918508052825928e-02 3.541907668113708496e-02 4.042103886604309082e-02
-6.026089191436767578e-03 5.202000215649604797e-02 2.394104003906250000e-01
3.399803042411804199e-01 4.960848018527030945e-02 -1.547464355826377869e-02
-4.907642304897308350e-02 6.065915524959564209e-02 8.665680885314941406e-02
1.864862143993377686e-01 1.473066955804824829e-01 -1.737893372774124146e-01
2.136143594980239868e-01 4.202200099825859070e-02 -1.991287320852279663e-01
1.027827262878417969e-01 1.479366123676300049e-01 -4.916910454630851746e-02
3.357161879539489746e-01 1.183744370937347412e-01 -2.959955334663391113e-01
1.377047896385192871e-01 3.165104612708091736e-02 1.780692674219608307e-02
-1.239544153213500977e-02 1.175266057252883911e-01 2.838498651981353760e-01
2.266907095909118652e-01 3.413027152419090271e-02 1.425527334213256836e-01
2.994065284729003906e-01 4.125798121094703674e-02 7.455043494701385498e-02
4.051133096218109131e-01 1.128327697515487671e-01 1.566965281963348389e-01
2.282126247882843018e-01 4.143312200903892517e-02 -1.786524951457977295e-01
1.369631439447402954e-01 1.511640250682830811e-01 3.442351147532463074e-02
1.471668034791946411e-01 3.817671537399291992e-02 2.985215485095977783e-01
2.074875980615615845e-01 3.445040807127952576e-02 -6.445297598838806152e-02
3.851717114448547363e-01 6.328626722097396851e-02 -2.496543154120445251e-02
1.798013299703598022e-01 1.171299591660499573e-01 -4.095104634761810303e-01
2.297078520059585571e-01 3.540106490254402161e-02 1.830884367227554321e-01
7.283449172973632812e-02 5.969611927866935730e-02 -3.094779253005981445e-01
3.592613339424133301e-01 1.314315199851989746e-01 -1.279532164335250854e-01
3.026960492134094238e-01 9.022463113069534302e-02 -3.827066421508789062e-01
1.395482122898101807e-01 1.509930640459060669e-01 -2.111339196562767029e-02
8.844882249832153320e-03 4.700732976198196411e-02 2.151711285114288330e-01
3.816421329975128174e-01 1.103720590472221375e-01 2.746203541755676270e-01
3.207827806472778320e-01 4.599822685122489929e-02 -3.082907572388648987e-02
4.916459321975708008e-03 5.806792899966239929e-02 3.327623307704925537e-01
3.243871927261352539e-01 5.119218677282333374e-02 -1.322629451751708984e-01
2.308834195137023926e-01 1.370726525783538818e-01 3.432493507862091064e-01
1.115529835224151611e-01 1.096438691020011902e-01 4.965219795703887939e-01
2.006274908781051636e-01 3.990611061453819275e-02 -1.782993227243423462e-01
8.456247299909591675e-02 8.104475587606430054e-02 -3.956480622291564941e-01
4.858231544494628906e-02 1.085838526487350464e-01 4.478214681148529053e-01
1.183168888092041016e-01 1.454957574605941772e-01 2.157628983259201050e-01
1.479344069957733154e-02 1.223083734512329102e-01 3.169054388999938965e-01
2.206611037254333496e-01 1.514907181262969971e-01 9.191669523715972900e-02
3.337538242340087891e-01 1.411116272211074829e-01 5.271553993225097656e-03
4.213254451751708984e-01 9.620979428291320801e-02 -5.992310121655464172e-02
3.522222340106964111e-01 5.202367156744003296e-02 8.367899060249328613e-02
7.387781143188476562e-02 5.011338740587234497e-02 3.815641403198242188e-01
1.958876103162765503e-01 6.538704037666320801e-02 4.951092302799224854e-01
1.247143670916557312e-01 1.330223381519317627e-01 -3.056245446205139160e-01
4.220893979072570801e-02 1.254170984029769897e-01 3.463352620601654053e-01
1.622012108564376831e-01 1.306062489748001099e-01 -3.420280218124389648e-01
4.086911678314208984e-01 8.583941310644149780e-02 -1.249760389328002930e-01
2.456548064947128296e-01 1.507676988840103149e-01 6.697215884923934937e-02
1.509754955768585205e-01 1.414358168840408325e-01 3.053347468376159668e-01
-1.672376692295074463e-02 1.262688189744949341e-01 -5.026020482182502747e-02
1.766695082187652588e-01 4.203789308667182922e-02 3.458505272865295410e-01
-1.585607230663299561e-02 5.751841142773628235e-02 2.697648108005523682e-01
4.987564682960510254e-02 1.422175914049148560e-01 8.308313786983489990e-02
2.587405741214752197e-01 4.095867648720741272e-02 2.482641935348510742e-01
2.496862709522247314e-01 1.507941782474517822e-01 8.974626660346984863e-03
3.976966738700866699e-01 6.979917734861373901e-02 -4.741699621081352234e-02
1.718070209026336670e-01 1.217464283108711243e-01 4.642749130725860596e-01
1.764042526483535767e-01 5.279764905571937561e-02 4.379306733608245850e-01
1.309975832700729370e-01 3.394317626953125000e-02 -6.736512482166290283e-02
3.952940404415130615e-01 1.198676526546478271e-01 -9.971490502357482910e-02
4.029823541641235352e-01 1.194695681333541870e-01 7.793325185775756836e-02
2.858927845954895020e-01 1.445695012807846069e-01 1.715194582939147949e-01
2.494750618934631348e-01 1.375323832035064697e-01 -2.740033864974975586e-01
3.569459915161132812e-01 5.507629737257957458e-02 1.519894003868103027e-01
2.947055101394653320e-01 1.351247131824493408e-01 2.941048741340637207e-01
3.525063395500183105e-01 7.619392871856689453e-02 -2.719654440879821777e-01
-1.980513334274291992e-02 6.717100739479064941e-02 3.281709253787994385e-01
8.986552059650421143e-02 5.475545674562454224e-02 4.282258450984954834e-01
2.994976937770843506e-02 3.995788097381591797e-02 7.400092482566833496e-02
1.317197680473327637e-01 4.393262416124343872e-02 3.650090694427490234e-01
4.159379601478576660e-01 9.121109545230865479e-02 -9.833070635795593262e-02
2.086639255285263062e-01 3.274564072489738464e-02 1.253499984741210938e-01
1.022793129086494446e-01 1.358204483985900879e-01 -2.603467106819152832e-01
2.798883616924285889e-01 1.201142072677612305e-01 -3.607823252677917480e-01
1.750282943248748779e-02 1.265885680913925171e-01 -1.920258998870849609e-01
9.958586841821670532e-02 3.365157544612884521e-02 -7.338881492614746094e-03
3.080897033214569092e-01 1.451667249202728271e-01 2.586841583251953125e-03
2.239344716072082520e-01 1.519340872764587402e-01 4.603113979101181030e-02
3.459605276584625244e-01 1.375705003738403320e-01 1.010224893689155579e-01
3.447403013706207275e-02 4.065792635083198547e-02 -1.914489641785621643e-02
2.137013971805572510e-01 1.189724504947662354e-01 -4.008367955684661865e-01
3.506666719913482666e-01 5.212531983852386475e-02 1.128704398870468140e-01
1.222273930907249451e-01 1.121448129415512085e-01 -4.061495363712310791e-01
6.667314469814300537e-02 1.199897080659866333e-01 4.171855151653289795e-01
4.929326474666595459e-02 1.296293139457702637e-01 3.212460577487945557e-01
-6.932538747787475586e-02 8.937008678913116455e-02 -5.383459851145744324e-02
2.960003316402435303e-01 1.450491547584533691e-01 -8.834391832351684570e-02
1.650822162628173828e-02 4.344476759433746338e-02 1.637547016143798828e-01
7.608707249164581299e-02 7.896433770656585693e-02 5.023825168609619141e-01
2.350403964519500732e-01 5.359334126114845276e-02 4.134300947189331055e-01
1.926814019680023193e-01 4.528987035155296326e-02 3.737470507621765137e-01
1.273997128009796143e-02 4.968750476837158203e-02 2.704575657844543457e-01
6.917504966259002686e-02 6.668795645236968994e-02 4.680850207805633545e-01
2.890082597732543945e-01 4.212434589862823486e-02 -7.228066027164459229e-02
7.906049489974975586e-03 5.824530497193336487e-02 -1.982700675725936890e-01
2.498969137668609619e-01 1.272614002227783203e-01 -3.486971259117126465e-01
7.088863849639892578e-02 1.097618862986564636e-01 4.672988057136535645e-01
3.788945078849792480e-01 1.298910081386566162e-01 -1.658976450562477112e-02
7.586748898029327393e-02 1.458189785480499268e-01 7.435557246208190918e-02
-5.654205381870269775e-02 1.000426411628723145e-01 -1.079563498497009277e-01
2.939511537551879883e-01 4.109375551342964172e-02 1.276396214962005615e-01
-6.284281611442565918e-03 1.166452541947364807e-01 -2.071591019630432129e-01
1.969534009695053101e-01 1.522013396024703979e-01 7.509673386812210083e-02
1.514368653297424316e-01 4.660220444202423096e-02 -2.622620463371276855e-01
1.291718930006027222e-01 1.432114094495773315e-01 2.670159339904785156e-01
3.465162515640258789e-01 1.255331635475158691e-01 -2.314700186252593994e-01
3.176705241203308105e-01 4.822156578302383423e-02 -1.037630289793014526e-01
-2.066743373870849609e-02 6.978741288185119629e-02 -2.002177834510803223e-01
3.774670958518981934e-01 5.967645719647407532e-02 8.367484807968139648e-02
1.116644293069839478e-01 3.222480416297912598e-02 4.780161380767822266e-02
1.517070084810256958e-01 5.678003653883934021e-02 -3.392353057861328125e-01
2.541930079460144043e-01 4.836538061499595642e-02 -2.352534532546997070e-01
2.357623875141143799e-01 1.262845993041992188e-01 4.224838316440582275e-01
9.020578861236572266e-02 1.445873528718948364e-01 -1.150296926498413086e-01
5.311197042465209961e-02 1.285229474306106567e-01 -2.535327076911926270e-01
7.680659741163253784e-02 5.264222621917724609e-02 -2.664405405521392822e-01
2.472929507493972778e-01 4.313151538372039795e-02 3.012457787990570068e-01
2.878536283969879150e-01 1.273894011974334717e-01 3.690960705280303955e-01
2.128482758998870850e-01 1.505582779645919800e-01 -9.359970688819885254e-02
9.675552695989608765e-02 3.857838362455368042e-02 2.740152776241302490e-01
2.988441586494445801e-01 1.387192010879516602e-01 -2.006152868270874023e-01
3.690795302391052246e-01 1.323453933000564575e-01 -4.333816096186637878e-02
3.124898076057434082e-01 4.374348744750022888e-02 5.418978631496429443e-03
2.153891921043395996e-01 1.253313869237899780e-01 4.377748966217041016e-01
-6.505216658115386963e-02 1.022071465849876404e-01 1.551250815391540527e-01
6.115052103996276855e-02 3.865151107311248779e-02 -6.271247565746307373e-02
1.256311237812042236e-01 5.546189844608306885e-02 -3.225485086441040039e-01
1.332767307758331299e-01 1.508328914642333984e-01 6.152041256427764893e-02
2.682236433029174805e-01 3.754181787371635437e-02 1.927714794874191284e-03
1.146927624940872192e-01 1.495012193918228149e-01 -1.458291709423065186e-02
1.145158857107162476e-01 1.451913714408874512e-01 -1.524244695901870728e-01
2.506180405616760254e-01 1.314262747764587402e-01 3.776183128356933594e-01
9.032684564590454102e-02 3.693726286292076111e-02 2.345283180475234985e-01
9.655970335006713867e-02 1.191016584634780884e-01 4.494304656982421875e-01
1.825295984745025635e-01 3.296280279755592346e-02 1.807295531034469604e-01
1.088581681251525879e-01 1.493024677038192749e-01 3.773926198482513428e-02
3.453940153121948242e-01 6.179894506931304932e-02 2.902228236198425293e-01
3.245368003845214844e-01 7.104642689228057861e-02 3.914936780929565430e-01
2.975240945816040039e-01 5.932106450200080872e-02 3.760745227336883545e-01
1.959499567747116089e-01 5.347261205315589905e-02 -3.164072930812835693e-01
7.631893455982208252e-02 3.669500350952148438e-02 2.010083645582199097e-01
3.241217136383056641e-01 5.649170279502868652e-02 2.999971210956573486e-01
2.273033857345581055e-01 1.516369432210922241e-01 -2.271458134055137634e-02
3.702716529369354248e-02 4.083051532506942749e-02 1.878826022148132324e-01
3.792592883110046387e-02 4.702967777848243713e-02 2.987620830535888672e-01
7.334139198064804077e-02 6.799487769603729248e-02 -3.496294319629669189e-01
2.264592945575714111e-01 1.425460577011108398e-01 2.849660515785217285e-01
1.096852421760559082e-01 9.440065175294876099e-02 5.255303978919982910e-01
1.210200786590576172e-01 1.189227998256683350e-01 4.651363193988800049e-01
2.156607657670974731e-01 3.283664956688880920e-02 1.016467362642288208e-01
2.050800472497940063e-01 3.538771346211433411e-02 2.243091762065887451e-01
1.064237952232360840e-02 1.113974452018737793e-01 3.786078393459320068e-01
5.196533352136611938e-02 3.816859051585197449e-02 1.666569113731384277e-01
3.193846344947814941e-01 1.422837376594543457e-01 1.095685586333274841e-01
2.500814199447631836e-02 1.370806097984313965e-01 -4.389752075076103210e-02
2.310375273227691650e-01 3.516539558768272400e-02 -4.329178854823112488e-02
3.875730931758880615e-01 7.672330737113952637e-02 2.507544755935668945e-01
1.617924124002456665e-01 1.375318765640258789e-01 -2.887949943542480469e-01
3.306916952133178711e-01 1.415601223707199097e-01 4.674973338842391968e-02
1.690795421600341797e-01 8.241797238588333130e-02 -4.348436594009399414e-01
1.415660679340362549e-01 3.715618699789047241e-02 -1.418408304452896118e-01
8.099765330553054810e-02 1.361197233200073242e-01 -2.282409667968750000e-01
2.845588326454162598e-01 1.313071697950363159e-01 3.438469171524047852e-01
2.660447955131530762e-01 4.345479235053062439e-02 2.742813229560852051e-01
7.634837925434112549e-02 3.479049354791641235e-02 1.235803514719009399e-01
1.128970235586166382e-01 1.284684240818023682e-01 -3.283977806568145752e-01
1.236219555139541626e-01 1.419416815042495728e-01 -2.152343392372131348e-01
-5.070067942142486572e-02 8.032371848821640015e-02 -1.416178047657012939e-01
2.007077634334564209e-02 5.173107981681823730e-02 -1.665389686822891235e-01
1.439936459064483643e-02 1.315625309944152832e-01 2.061061263084411621e-01
-4.372145235538482666e-02 9.442470222711563110e-02 3.007959127426147461e-01
4.166096448898315430e-02 3.842296823859214783e-02 1.083149909973144531e-01
-4.828800261020660400e-02 6.352418661117553711e-02 1.797920912504196167e-01
9.190924465656280518e-02 1.470127403736114502e-01 1.088142395019531250e-01
1.818574517965316772e-01 3.704435750842094421e-02 -1.411496996879577637e-01
2.400127351284027100e-01 9.824863076210021973e-02 5.134266018867492676e-01
1.063284352421760559e-01 3.497368097305297852e-02 -6.607377529144287109e-02
3.564789295196533203e-01 1.273388862609863281e-01 2.324711829423904419e-01
1.496651917695999146e-01 1.369674205780029297e-01 3.536710441112518311e-01
4.079098701477050781e-01 1.025818735361099243e-01 1.985775828361511230e-01
1.730961650609970093e-01 3.568451479077339172e-02 2.541950345039367676e-01
2.003568261861801147e-01 9.459535777568817139e-02 5.336394309997558594e-01
2.376311719417572021e-01 3.798972442746162415e-02 2.322503030300140381e-01
3.232725560665130615e-01 4.631751775741577148e-02 1.324730366468429565e-01
1.147021055221557617e-01 5.221416428685188293e-02 4.265683293342590332e-01
7.691802829504013062e-02 3.516364842653274536e-02 1.290068030357360840e-03
2.353108525276184082e-01 4.561667144298553467e-02 3.453420102596282959e-01
9.505636245012283325e-02 4.694995284080505371e-02 -2.348905503749847412e-01
2.487957775592803955e-01 1.224074885249137878e-01 -3.735905289649963379e-01
1.244092732667922974e-01 3.526885807514190674e-02 -9.452231228351593018e-02
3.479610681533813477e-01 6.643195450305938721e-02 3.174119889736175537e-01
2.930566370487213135e-01 1.461604386568069458e-01 -6.088239327073097229e-02
-1.068027317523956299e-02 1.299040317535400391e-01 3.797512128949165344e-02
1.206041723489761353e-01 3.183192014694213867e-02 9.611973166465759277e-02
2.491640746593475342e-01 8.807771652936935425e-02 -4.243364632129669189e-01
1.955485045909881592e-01 1.272693276405334473e-01 -3.659086227416992188e-01
3.219026327133178711e-01 5.755013599991798401e-02 -2.153479456901550293e-01
2.546586096286773682e-01 1.422971934080123901e-01 2.634393870830535889e-01
3.214900791645050049e-01 4.771214351058006287e-02 -7.702048122882843018e-02
7.707636058330535889e-02 1.037801653146743774e-01 -3.905273079872131348e-01
2.723989486694335938e-01 1.397853791713714600e-01 -2.280949652194976807e-01
7.824987173080444336e-03 4.444090649485588074e-02 1.598013192415237427e-02
1.108357235789299011e-01 4.152935743331909180e-02 3.282147347927093506e-01
-3.544688224792480469e-04 5.491494387388229370e-02 -1.462413668632507324e-01
-5.473136901855468750e-03 1.310571134090423584e-01 6.760682910680770874e-03
3.319044113159179688e-01 1.382587403059005737e-01 -1.194694042205810547e-01
8.398500829935073853e-02 1.276192516088485718e-01 -3.052005469799041748e-01
-2.799309790134429932e-02 8.577765524387359619e-02 -2.270545363426208496e-01
1.750996410846710205e-01 1.524386107921600342e-01 2.704660966992378235e-02
3.786220252513885498e-01 5.976625531911849976e-02 4.316956177353858948e-02
2.833001613616943359e-01 4.179067537188529968e-02 2.002887874841690063e-01
-4.041075706481933594e-03 5.923579633235931396e-02 -1.763739585876464844e-01
4.159043729305267334e-02 1.373304724693298340e-01 1.987179070711135864e-01
2.103250920772552490e-01 1.493488252162933350e-01 1.762625873088836670e-01
3.177695870399475098e-01 1.035838499665260315e-01 4.296247661113739014e-01
2.623023688793182373e-01 5.294415354728698730e-02 -2.693579494953155518e-01
2.031237483024597168e-01 3.281654044985771179e-02 -1.039784029126167297e-02
1.796003878116607666e-01 1.450858414173126221e-01 -2.082315981388092041e-01
1.366658806800842285e-01 1.483755409717559814e-01 1.756525337696075439e-01
5.326050519943237305e-02 1.342172026634216309e-01 -1.976230889558792114e-01
1.508850455284118652e-01 1.334156841039657593e-01 3.858163356781005859e-01
3.727961182594299316e-01 1.315383613109588623e-01 6.932337582111358643e-02
3.599050939083099365e-01 6.501588970422744751e-02 -1.829721182584762573e-01
3.530851006507873535e-02 1.021940708160400391e-01 -3.437404334545135498e-01
8.114301413297653198e-02 3.407078981399536133e-02 7.809327542781829834e-02
3.961758017539978027e-01 7.948081940412521362e-02 2.282300144433975220e-01
2.391545176506042480e-01 3.470563516020774841e-02 1.216167658567428589e-01
3.931247293949127197e-01 1.123876571655273438e-01 -1.725248694419860840e-01
2.579083442687988281e-01 1.474569290876388550e-01 -1.227448135614395142e-01
-2.664999663829803467e-02 5.232087522745132446e-02 8.099913597106933594e-02
-4.662559926509857178e-02 5.988816916942596436e-02 3.780451416969299316e-02
3.159713447093963623e-01 1.382559835910797119e-01 2.108370065689086914e-01
2.726170718669891357e-01 6.964311003684997559e-02 4.586452841758728027e-01
3.576037287712097168e-01 1.155304983258247375e-01 3.167867362499237061e-01
1.175504177808761597e-01 1.466827541589736938e-01 -1.265336126089096069e-01
3.344548940658569336e-01 1.230488270521163940e-01 3.237134516239166260e-01
1.605197787284851074e-03 1.306248009204864502e-01 1.636653244495391846e-01
7.793175429105758667e-02 1.305405944585800171e-01 -2.760309278964996338e-01
1.299702823162078857e-01 3.644822537899017334e-02 2.646878957748413086e-01
2.868964970111846924e-01 9.364427626132965088e-02 4.788402020931243896e-01
1.884986013174057007e-01 3.279818966984748840e-02 -3.221299871802330017e-02
3.929819464683532715e-01 1.237847730517387390e-01 -4.900011792778968811e-02
-4.484266042709350586e-03 1.264511048793792725e-01 -1.174775660037994385e-01
1.428962498903274536e-01 5.022941529750823975e-02 4.213058054447174072e-01
1.355336308479309082e-01 3.418563678860664368e-02 2.198004722595214844e-01
2.018491029739379883e-01 1.516142338514328003e-01 1.067668423056602478e-01
9.949599951505661011e-02 6.893130391836166382e-02 -3.743821382522583008e-01
2.577947676181793213e-01 6.066783517599105835e-02 -3.288984596729278564e-01
3.709915280342102051e-02 1.342146247625350952e-01 2.389908879995346069e-01
4.165068268775939941e-01 8.145100623369216919e-02 9.568218886852264404e-02
2.875284254550933838e-01 4.659280553460121155e-02 -1.613812446594238281e-01
1.364036500453948975e-01 6.416666507720947266e-02 -3.737928867340087891e-01
3.878684043884277344e-01 1.059319376945495605e-01 -2.161660790443420410e-01
2.727937102317810059e-01 1.026168838143348694e-01 -4.096664786338806152e-01
-4.689289629459381104e-02 1.170476526021957397e-01 4.704211279749870300e-02
4.292510449886322021e-02 1.228676885366439819e-01 -2.768115997314453125e-01
4.098487496376037598e-01 1.075259819626808167e-01 -1.146350800991058350e-01
2.044743597507476807e-01 1.103148311376571655e-01 -4.274854660034179688e-01
-5.726784467697143555e-03 9.610357135534286499e-02 -2.799202203750610352e-01
1.803533583879470825e-01 1.475642621517181396e-01 2.210740447044372559e-01
2.751415967941284180e-01 5.330710113048553467e-02 3.663869500160217285e-01
3.640449047088623047e-02 1.194843351840972900e-01 3.791742324829101562e-01
2.411708235740661621e-02 1.380447596311569214e-01 4.039095342159271240e-02
3.675685226917266846e-01 1.317341029644012451e-01 1.144910156726837158e-01
2.981563210487365723e-01 7.500379532575607300e-02 4.451643824577331543e-01
6.557550281286239624e-02 4.084963351488113403e-02 2.654761970043182373e-01
2.043175399303436279e-01 1.310100853443145752e-01 -3.429612517356872559e-01
-2.363543212413787842e-02 5.149785429239273071e-02 5.531057715415954590e-02
4.034213721752166748e-02 6.670362502336502075e-02 -3.060128390789031982e-01
3.124305307865142822e-01 7.812366634607315063e-02 -3.473282754421234131e-01
1.591622829437255859e-01 4.473460838198661804e-02 3.766255378723144531e-01
-2.698609232902526855e-02 6.203015893697738647e-02 -1.273206323385238647e-01
-7.017284631729125977e-03 6.831856817007064819e-02 -2.277142405509948730e-01
2.785587608814239502e-01 3.833238035440444946e-02 4.537701979279518127e-02
-6.750275194644927979e-02 1.032828390598297119e-01 1.149465143680572510e-02
1.511187404394149780e-01 3.112525120377540588e-02 8.578240871429443359e-02
3.266387283802032471e-01 6.348167359828948975e-02 3.487763404846191406e-01
2.362707406282424927e-01 1.447474062442779541e-01 2.460458427667617798e-01
3.790233135223388672e-01 8.509619534015655518e-02 -2.376136481761932373e-01
9.349077939987182617e-03 1.277561485767364502e-01 2.452738136053085327e-01
2.668691277503967285e-01 1.487269550561904907e-01 1.007389128208160400e-01
1.336029171943664551e-01 3.209258615970611572e-02 1.475727260112762451e-01
1.798217892646789551e-01 3.966385126113891602e-02 3.155515789985656738e-01
3.378726541996002197e-01 1.393500119447708130e-01 -5.945653095841407776e-02
1.292525529861450195e-01 3.260013088583946228e-02 -2.103247120976448059e-02
3.148268163204193115e-01 7.213681191205978394e-02 -3.221320509910583496e-01
3.184832930564880371e-01 4.715933278203010559e-02 1.853956282138824463e-01
9.987650811672210693e-02 5.969997495412826538e-02 -3.327696919441223145e-01
3.031942248344421387e-01 1.023427248001098633e-01 4.513084888458251953e-01
2.514017224311828613e-01 1.490536481142044067e-01 1.324002444744110107e-01
2.860998213291168213e-01 5.094505473971366882e-02 -2.180734574794769287e-01
-1.877199113368988037e-02 1.139846295118331909e-01 -1.865600198507308960e-01
9.119465947151184082e-02 1.397320628166198730e-01 2.721190452575683594e-01
2.958208918571472168e-01 1.464625000953674316e-01 -2.665277943015098572e-02
9.426370263099670410e-03 1.340814083814620972e-01 1.155267804861068726e-01
3.102632164955139160e-01 1.419103741645812988e-01 1.593872159719467163e-01
1.934840083122253418e-01 1.381878852844238281e-01 -2.884270250797271729e-01
7.701975107192993164e-02 1.405042558908462524e-01 2.353294640779495239e-01
3.062830567359924316e-01 5.968118831515312195e-02 -2.631790041923522949e-01
2.451403886079788208e-01 1.485285907983779907e-01 1.598729789257049561e-01
2.784170806407928467e-01 3.848621621727943420e-02 9.802237153053283691e-02
1.800032258033752441e-01 1.288563460111618042e-01 4.233101010322570801e-01
2.625273466110229492e-01 1.463710069656372070e-01 1.822139769792556763e-01
1.371418535709381104e-01 9.528242051601409912e-02 -4.367947280406951904e-01
3.907938599586486816e-01 6.799461692571640015e-02 -7.459859549999237061e-02
