3.319169878959655762e-01 -1.442148536443710327e-01 1.576053798198699951e-01
2.817749083042144775e-01 -5.030766502022743225e-02 2.878007590770721436e-01
2.685560882091522217e-01 -1.463056653738021851e-01 2.625163793563842773e-01
4.097941517829895020e-01 -5.012841522693634033e-02 1.484183371067047119e-01
1.003912016749382019e-01 -9.523545205593109131e-02 -3.439939618110656738e-01
3.774044513702392578e-01 -4.981339350342750549e-02 -1.391741037368774414e-01
3.888787627220153809e-01 -1.314353346824645996e-01 1.076578497886657715e-01
1.095238626003265381e-01 -7.940933108329772949e-02 -3.163349628448486328e-01
3.941667079925537109e-01 -1.127686500549316406e-01 2.616018950939178467e-01
2.266587316989898682e-01 -4.557578265666961670e-02 -1.973361521959304810e-01
6.119853258132934570e-02 -7.731471955776214600e-02 -2.601886093616485596e-01
4.508857131004333496e-01 -9.068495035171508789e-02 -6.628608703613281250e-02
8.438076823949813843e-02 -1.556697487831115723e-01 -2.029374986886978149e-01
3.403223454952239990e-01 -1.430542320013046265e-01 -5.922874063253402710e-02
2.947408854961395264e-01 -1.181322783231735229e-01 3.735299110412597656e-01
3.349061906337738037e-01 -9.626074135303497314e-02 -2.988907694816589355e-01
3.521609306335449219e-01 -4.744462668895721436e-02 -1.577694118022918701e-01
1.229841634631156921e-01 -1.451433598995208740e-01 3.188211619853973389e-01
3.758403658866882324e-02 -1.289655268192291260e-01 -2.887829840183258057e-01
4.659895598888397217e-02 -1.632896065711975098e-01 -8.266080170869827271e-02
4.609306454658508301e-01 -7.079061865806579590e-02 4.377682507038116455e-02
3.230810463428497314e-01 -1.491623967885971069e-01 7.195594161748886108e-02
1.798465698957443237e-01 -1.334560364484786987e-01 3.715479969978332520e-01
3.804951310157775879e-01 -1.240489408373832703e-01 2.305265069007873535e-01
2.346111088991165161e-01 -1.618633866310119629e-01 -3.416042774915695190e-02
4.266676306724548340e-01 -5.139182135462760925e-02 7.433243095874786377e-03
3.817993700504302979e-01 -5.593788996338844299e-02 -1.718486100435256958e-01
1.537123471498489380e-01 -1.664445102214813232e-01 -7.149972766637802124e-02
-2.426325529813766479e-01 3.707089126110076904e-01 -2.294847965240478516e-01
-2.350844591856002808e-01 3.470514118671417236e-01 -1.375473439693450928e-01
-1.135605722665786743e-01 5.308414697647094727e-01 1.748844385147094727e-01
-2.290879786014556885e-01 6.433460712432861328e-01 1.384921967983245850e-01
-1.294372528791427612e-01 4.251792132854461670e-01 1.477878838777542114e-01
-2.206803262233734131e-01 3.764294981956481934e-01 -2.656732201576232910e-01
-1.392220854759216309e-01 5.071468353271484375e-01 -4.773884266614913940e-02
-2.627177834510803223e-01 5.484536886215209961e-01 -6.933916360139846802e-02
-2.940883338451385498e-01 4.552524983882904053e-01 -7.235587388277053833e-02
-2.455585300922393799e-01 5.328875184059143066e-01 3.839669525623321533e-01
-3.050526976585388184e-01 5.725030303001403809e-01 2.119877338409423828e-01
-1.556312739849090576e-01 6.003798842430114746e-01 4.401981234550476074e-01
-1.322836726903915405e-01 3.754678964614868164e-01 -7.933347672224044800e-02
-2.748574018478393555e-01 6.304934620857238770e-01 1.477748751640319824e-01
-1.659071743488311768e-01 6.334069371223449707e-01 4.547820985317230225e-01
-2.678491175174713135e-01 4.631341397762298584e-01 2.090362459421157837e-01
-1.502765119075775146e-01 5.118002891540527344e-01 -7.048692554235458374e-02
-2.982569038867950439e-01 5.636507868766784668e-01 2.697318494319915771e-01
-2.430237978696823120e-01 3.868508338928222656e-01 5.845345929265022278e-02
-2.730848491191864014e-01 4.295442700386047363e-01 -1.766062378883361816e-01
-1.850579380989074707e-01 5.875060558319091797e-01 2.114052325487136841e-02
-1.423596739768981934e-01 4.493355751037597656e-01 2.380593866109848022e-01
-1.531404852867126465e-01 5.811747908592224121e-01 7.352462410926818848e-02
-1.589090973138809204e-01 5.817241072654724121e-01 4.410735964775085449e-01
-2.242953330278396606e-01 6.319593787193298340e-01 1.044051870703697205e-01
-1.720185130834579468e-01 5.633864998817443848e-01 4.444739818572998047e-01
-2.197297364473342896e-01 5.499670505523681641e-01 -8.651266247034072876e-02
-2.632905840873718262e-01 4.159103333950042725e-01 9.455338120460510254e-02
-3.002477884292602539e-01 6.046617031097412109e-01 2.081398069858551025e-01
-2.060072273015975952e-01 3.727890253067016602e-01 7.242042571306228638e-02
-1.869483888149261475e-01 3.386570811271667480e-01 -6.585269421339035034e-02
-1.835070550441741943e-01 3.877405524253845215e-01 1.269252747297286987e-01
-1.295575201511383057e-01 5.300300717353820801e-01 3.287061154842376709e-01
-1.950727254152297974e-01 6.428314447402954102e-01 1.641889512538909912e-01
-2.125424593687057495e-01 6.749194860458374023e-01 2.715955972671508789e-01
-1.618696600198745728e-01 4.922965168952941895e-01 3.440988361835479736e-01
-3.030068278312683105e-01 5.917432308197021484e-01 2.230962812900543213e-01
-2.191338390111923218e-01 5.865258574485778809e-01 -1.063283532857894897e-02
-1.414049863815307617e-01 4.013992249965667725e-01 1.177532598376274109e-01
-1.302735805511474609e-01 5.950576066970825195e-01 2.948261201381683350e-01
-1.131786555051803589e-01 4.382808208465576172e-01 1.788806170225143433e-02
-1.675072610378265381e-01 3.774016499519348145e-01 8.701292425394058228e-02
-1.242261677980422974e-01 5.573776364326477051e-01 1.387095302343368530e-01
-2.818455696105957031e-01 5.924071073532104492e-01 5.756798759102821350e-02
-2.970197796821594238e-01 4.911555051803588867e-01 -5.442307144403457642e-02
-2.506373524665832520e-01 6.322129964828491211e-01 1.125476062297821045e-01
-1.488960683345794678e-01 4.588069915771484375e-01 2.685679495334625244e-01
-1.681496798992156982e-01 5.931144952774047852e-01 6.613461673259735107e-02
-2.722845673561096191e-01 4.792394340038299561e-01 2.320860922336578369e-01
-2.251176834106445312e-01 5.705404281616210938e-01 4.541226029396057129e-01
-2.785546183586120605e-01 4.701131880283355713e-01 -1.442700922489166260e-01
-1.541931182146072388e-01 5.908449888229370117e-01 9.716781973838806152e-02
-1.860122382640838623e-01 3.729512095451354980e-01 8.107088506221771240e-02
-2.881183624267578125e-01 4.431616365909576416e-01 -1.094963327050209045e-01
-2.486100345849990845e-01 5.061695575714111328e-01 3.368472158908843994e-01
-1.857686340808868408e-01 6.587232351303100586e-01 4.715102016925811768e-01
-1.098167151212692261e-01 4.785402417182922363e-01 9.149754047393798828e-02
-1.442792415618896484e-01 6.155777573585510254e-01 2.317993044853210449e-01
-1.623828411102294922e-01 6.530066728591918945e-01 3.587976396083831787e-01
-1.136274486780166626e-01 4.469700753688812256e-01 1.115378364920616150e-01
-1.847095638513565063e-01 5.358485579490661621e-01 4.217277765274047852e-01
-2.485625445842742920e-01 5.640699863433837891e-01 -5.334610491991043091e-02
-2.753330767154693604e-01 6.535961627960205078e-01 3.777290880680084229e-01
-1.450726389884948730e-01 4.004530012607574463e-01 -1.810429692268371582e-01
-1.243378072977066040e-01 5.013223290443420410e-01 2.107620239257812500e-04
-3.039331734180450439e-01 5.365146398544311523e-01 4.000513255596160889e-02
-2.836751639842987061e-01 4.452682733535766602e-01 -1.355157494544982910e-01
-2.556320428848266602e-01 4.268319904804229736e-01 1.503931581974029541e-01
-2.143309116363525391e-01 5.927508473396301270e-01 4.808793067932128906e-01
-2.063738703727722168e-01 4.663703739643096924e-01 3.081184923648834229e-01
-1.967951804399490356e-01 5.858327150344848633e-01 2.740502357482910156e-03
-1.146649196743965149e-01 5.353942513465881348e-01 2.237623631954193115e-01
-2.709336578845977783e-01 5.508930087089538574e-01 3.591904342174530029e-01
-2.034111171960830688e-01 6.255895495414733887e-01 9.918082505464553833e-02
-2.640718221664428711e-01 4.931178092956542969e-01 2.822662889957427979e-01
-1.169691830873489380e-01 5.500177145004272461e-01 2.101998627185821533e-01
-1.248175129294395447e-01 4.132575988769531250e-01 -9.148209542036056519e-02
-1.420072466135025024e-01 3.615503311157226562e-01 -1.231574788689613342e-01
-2.431740015745162964e-01 4.356707930564880371e-01 2.008157670497894287e-01
-1.586966067552566528e-01 3.513574004173278809e-01 -1.892298460006713867e-01
-2.383487075567245483e-01 3.547821640968322754e-01 -7.697127014398574829e-02
-2.519220411777496338e-01 6.088178753852844238e-01 4.931297898292541504e-02
-3.055216968059539795e-01 5.205407738685607910e-01 1.445230245590209961e-01
-1.685064882040023804e-01 5.678451657295227051e-01 3.018416464328765869e-03
-2.764477133750915527e-01 4.411399960517883301e-01 1.216703057289123535e-01
-2.985469400882720947e-01 5.273566246032714844e-01 -9.291239082813262939e-03
-2.968325018882751465e-01 5.757722258567810059e-01 2.889197766780853271e-01
-2.623545527458190918e-01 5.004017353057861328e-01 2.998957931995391846e-01
-2.406706809997558594e-01 6.724414229393005371e-01 2.533638775348663330e-01
-2.740452885627746582e-01 3.957630991935729980e-01 -7.904877513647079468e-02
-2.169606089591979980e-01 3.379448056221008301e-01 -1.162943765521049500e-01
-2.637588381767272949e-01 3.808977007865905762e-01 -1.506866812705993652e-01
-2.302955836057662964e-01 4.331783354282379150e-01 2.152877151966094971e-01
-1.529868543148040771e-01 4.505389630794525146e-01 -1.650194823741912842e-01
-1.314174532890319824e-01 5.119730830192565918e-01 3.156605660915374756e-01
-2.908963561058044434e-01 4.836388230323791504e-01 1.689407378435134888e-01
-2.552106380462646484e-01 5.271815657615661621e-01 -1.139416769146919250e-01
-1.257175207138061523e-01 3.968931436538696289e-01 -8.400227874517440796e-02
-2.181719392538070679e-01 3.839050531387329102e-01 9.597525745630264282e-02
-1.500818580389022827e-01 3.670659065246582031e-01 -1.853527426719665527e-01
-2.802733182907104492e-01 5.189293622970581055e-01 -8.598796278238296509e-02
-1.869435608386993408e-01 4.098851680755615234e-01 1.875538378953933716e-01
-1.419825851917266846e-01 5.710387825965881348e-01 8.433288335800170898e-02
-1.360994279384613037e-01 5.868191719055175781e-01 3.736925125122070312e-01
-2.570154666900634766e-01 4.048761427402496338e-01 7.951713353395462036e-02
-2.479735761880874634e-01 3.957485556602478027e-01 -2.368376255035400391e-01
-2.994046509265899658e-01 4.752905666828155518e-01 8.074179291725158691e-02
-1.603312194347381592e-01 5.563836693763732910e-01 4.244747757911682129e-01
-2.455897927284240723e-01 6.718388795852661133e-01 4.523890316486358643e-01
-2.289553880691528320e-01 4.650540649890899658e-01 -2.141780853271484375e-01
-1.363594830036163330e-01 3.811474144458770752e-01 2.827931940555572510e-02
-1.337547302246093750e-01 4.442148506641387939e-01 -1.171975061297416687e-01
-1.172074154019355774e-01 5.222101211547851562e-01 9.006581455469131470e-02
-2.061684727668762207e-01 3.573724627494812012e-01 1.516673713922500610e-02
-2.214740216732025146e-01 3.564005494117736816e-01 -1.229991763830184937e-02
-2.757419347763061523e-01 6.569987535476684570e-01 2.732003033161163330e-01
-1.401693820953369141e-01 3.914563655853271484e-01 -1.640216112136840820e-01
-2.260393500328063965e-01 6.767244338989257812e-01 4.690762460231781006e-01
-2.208633422851562500e-01 6.728720068931579590e-01 2.538015544414520264e-01
-1.319406628608703613e-01 5.703021287918090820e-01 1.294433176517486572e-01
-2.363750636577606201e-01 6.314600706100463867e-01 4.863462448120117188e-01
-2.193103879690170288e-01 3.374289870262145996e-01 -1.386240422725677490e-01
-1.883832812309265137e-01 6.773943901062011719e-01 3.859252929687500000e-01
-1.244134828448295593e-01 5.413352251052856445e-01 8.880607038736343384e-02
-2.350032180547714233e-01 3.481891155242919922e-01 -1.159585043787956238e-01
-1.109421998262405396e-01 5.070545673370361328e-01 1.324127316474914551e-01
-1.582763046026229858e-01 3.595370054244995117e-01 6.452620029449462891e-03
-2.041961103677749634e-01 6.667150259017944336e-01 2.434268295764923096e-01
-1.638953387737274170e-01 6.498026847839355469e-01 4.144490063190460205e-01
-2.792115211486816406e-01 6.538819670677185059e-01 3.407484292984008789e-01
-2.589809000492095947e-01 6.423556208610534668e-01 1.544606089591979980e-01
-1.679066121578216553e-01 6.580170392990112305e-01 3.982611596584320068e-01
-1.155329942703247070e-01 4.840395748615264893e-01 2.065193206071853638e-01
-3.054619729518890381e-01 5.751609802246093750e-01 1.523037850856781006e-01
-1.893444806337356567e-01 3.356360793113708496e-01 -8.666022866964340210e-02
-1.384971439838409424e-01 4.794706702232360840e-01 -9.014364331960678101e-02
-1.533851474523544312e-01 4.065385758876800537e-01 1.559993475675582886e-01
-1.255787909030914307e-01 4.966650903224945068e-01 2.755709886550903320e-01
-1.415145993232727051e-01 4.215753078460693359e-01 -1.610450446605682373e-01
-1.159434840083122253e-01 4.228238761425018311e-01 -6.331689655780792236e-03
-2.055588364601135254e-01 4.310958385467529297e-01 2.336930632591247559e-01
-1.308275163173675537e-01 4.016562998294830322e-01 -1.239526942372322083e-01
-2.450506389141082764e-01 6.809713840484619141e-01 4.265353679656982422e-01
-2.851556837558746338e-01 6.454291343688964844e-01 2.905022203922271729e-01
-2.775440812110900879e-01 6.461288928985595703e-01 2.189480364322662354e-01
-2.487044185400009155e-01 6.833281517028808594e-01 3.904704153537750244e-01
-2.239903807640075684e-01 6.858031749725341797e-01 3.310112059116363525e-01
-2.844086587429046631e-01 4.332683086395263672e-01 5.116086453199386597e-02
-1.183685958385467529e-01 5.347617864608764648e-01 2.720369398593902588e-01
-1.802121996879577637e-01 5.206133127212524414e-01 3.996048271656036377e-01
-1.098860949277877808e-01 4.704933762550354004e-01 1.093415543437004089e-01
-1.262368112802505493e-01 3.905737102031707764e-01 -2.654045820236206055e-04
-1.212541460990905762e-01 4.282823801040649414e-01 1.183536499738693237e-01
-2.695536911487579346e-01 6.376647949218750000e-01 4.212441146373748779e-01
-1.546497195959091187e-01 5.580973029136657715e-01 1.210669428110122681e-02
-1.211059689521789551e-01 5.501979589462280273e-01 2.927544414997100830e-01
-1.426469832658767700e-01 6.044660806655883789e-01 1.913682371377944946e-01
-1.750518679618835449e-01 3.455820977687835693e-01 -3.373900800943374634e-02
-2.664355635643005371e-01 5.664812922477722168e-01 3.892286121845245361e-01
-1.208829730749130249e-01 5.026601552963256836e-01 2.124141901731491089e-02
-1.292070746421813965e-01 5.506978631019592285e-01 3.413085937500000000e-01
-1.102894097566604614e-01 4.633069336414337158e-01 6.856253743171691895e-02
-2.594162225723266602e-01 3.897389769554138184e-01 -2.016468942165374756e-01
-1.256956458091735840e-01 4.132676422595977783e-01 9.670596569776535034e-02
-1.123367175459861755e-01 4.621057510375976562e-01 2.723594754934310913e-02
-1.264665573835372925e-01 5.525544881820678711e-01 1.076835840940475464e-01
-1.301735639572143555e-01 4.251709580421447754e-01 -1.172970756888389587e-01
-1.266126930713653564e-01 4.380722343921661377e-01 -9.297186881303787231e-02
-2.325396537780761719e-01 6.663875579833984375e-01 2.222518175840377808e-01
-1.987110823392868042e-01 5.562655925750732422e-01 -6.306593865156173706e-02
-2.121689766645431519e-01 5.454429388046264648e-01 4.325019419193267822e-01
-1.704105883836746216e-01 5.856596231460571289e-01 4.196742177009582520e-02
-2.911748886108398438e-01 6.163982748985290527e-01 1.646527796983718872e-01
-1.238934025168418884e-01 3.946025967597961426e-01 -4.926346987485885620e-02
-1.818961352109909058e-01 5.968222618103027344e-01 4.927834123373031616e-02
-2.936490178108215332e-01 6.266853213310241699e-01 2.615180313587188721e-01
-2.876656949520111084e-01 4.632049798965454102e-01 -1.154122427105903625e-01
-1.503611356019973755e-01 6.060326695442199707e-01 1.590382903814315796e-01
-2.506313323974609375e-01 3.678659796714782715e-01 -5.773010104894638062e-02
-2.557743191719055176e-01 5.585606694221496582e-01 4.017274975776672363e-01
-1.642685532569885254e-01 3.386946320533752441e-01 -1.350283622741699219e-01
-1.564060151576995850e-01 6.359701156616210938e-01 2.579392790794372559e-01
-2.559513151645660400e-01 6.172135472297668457e-01 7.508474588394165039e-02
-1.846494078636169434e-01 3.570058941841125488e-01 2.320764958858489990e-02
-1.138118356466293335e-01 4.319125413894653320e-01 4.744647443294525146e-02
-1.358111351728439331e-01 5.626713037490844727e-01 3.727114796638488770e-01
-2.535678148269653320e-01 3.659583032131195068e-01 -1.022083535790443420e-01
-1.369630396366119385e-01 3.847257494926452637e-01 -1.460219919681549072e-01
-1.581689119338989258e-01 4.138236641883850098e-01 -2.079859972000122070e-01
-1.603934615850448608e-01 4.627405703067779541e-01 2.908180356025695801e-01
-3.068747818470001221e-01 5.141244530677795410e-01 9.811545908451080322e-02
-1.996670812368392944e-01 3.653672933578491211e-01 5.105730146169662476e-02
-2.647392451763153076e-01 6.062790751457214355e-01 4.280790984630584717e-01
-2.996248900890350342e-01 4.959832429885864258e-01 1.436345875263214111e-01
-1.876473128795623779e-01 5.398875474929809570e-01 -8.408013731241226196e-02
-2.156682610511779785e-01 6.703978776931762695e-01 4.830683767795562744e-01
-2.198621183633804321e-01 4.576414227485656738e-01 2.813930511474609375e-01
-1.240690276026725769e-01 5.188357234001159668e-01 3.647793084383010864e-02
-2.300861030817031860e-01 3.460528552532196045e-01 -1.984013020992279053e-01
-1.159893050789833069e-01 5.361005663871765137e-01 1.469309031963348389e-01
-2.332749366760253906e-01 4.922187030315399170e-01 3.341410756111145020e-01
-1.648254692554473877e-01 4.568733274936676025e-01 -1.808203160762786865e-01
-2.853280305862426758e-01 6.342146396636962891e-01 2.044711410999298096e-01
-2.711651027202606201e-01 6.654979586601257324e-01 3.511681556701660156e-01
-1.596860289573669434e-01 3.442258834838867188e-01 -8.154166489839553833e-02
-2.928123474121093750e-01 5.224004983901977539e-01 -4.242625087499618530e-02
-1.318008303642272949e-01 4.362772405147552490e-01 1.833287179470062256e-01
-2.611612677574157715e-01 5.209686756134033203e-01 3.378709256649017334e-01
-3.006284534931182861e-01 5.328254103660583496e-01 2.135111689567565918e-01
-1.289006471633911133e-01 5.748872160911560059e-01 3.381876349449157715e-01
-1.752353459596633911e-01 3.817745149135589600e-01 1.063977032899856567e-01
-3.043503761291503906e-01 5.407928824424743652e-01 1.952961087226867676e-01
-3.017534017562866211e-01 5.765954256057739258e-01 1.076982319355010986e-01
-1.970773637294769287e-01 4.864388704299926758e-01 -1.803134679794311523e-01
-2.681452035903930664e-01 5.735493302345275879e-01 -1.305387169122695923e-02
-1.154987812042236328e-01 4.480059742927551270e-01 1.330512911081314087e-01
-1.497154682874679565e-01 5.967508554458618164e-01 1.305875331163406372e-01
-3.014115095138549805e-01 5.117709040641784668e-01 1.671191155910491943e-01
-2.665166556835174561e-01 4.957242906093597412e-01 -1.442646682262420654e-01
-2.750379443168640137e-01 5.671054124832153320e-01 3.679727613925933838e-01
-2.863643765449523926e-01 6.015996932983398438e-01 9.549789875745773315e-02
-1.207326054573059082e-01 4.031385183334350586e-01 -2.625790983438491821e-02
-1.256111860275268555e-01 4.023782610893249512e-01 5.636479333043098450e-02
-2.549481987953186035e-01 5.831491351127624512e-01 4.299776256084442139e-01
-2.169879674911499023e-01 3.366406857967376709e-01 -1.856095790863037109e-01
-1.892248839139938354e-01 3.314191102981567383e-01 -1.814686655998229980e-01
-2.723060250282287598e-01 6.075046658515930176e-01 7.375904172658920288e-02
-2.886720597743988037e-01 4.317676424980163574e-01 -8.302380889654159546e-02
-1.426717787981033325e-01 4.332766830921173096e-01 2.036595046520233154e-01
-1.479733884334564209e-01 6.100389361381530762e-01 4.132286012172698975e-01
-2.604291439056396484e-01 4.774636030197143555e-01 -1.746755838394165039e-01
-3.054342269897460938e-01 5.712541341781616211e-01 1.350083351135253906e-01
-1.141835525631904602e-01 5.110431909561157227e-01 2.260981202125549316e-01
-2.500362098217010498e-01 6.831805706024169922e-01 3.679382801055908203e-01
-1.577072590589523315e-01 4.307559728622436523e-01 2.213890552520751953e-01
-2.834100723266601562e-01 6.317712068557739258e-01 3.660963475704193115e-01
-1.617059409618377686e-01 4.162152409553527832e-01 1.911882311105728149e-01
-1.715582013130187988e-01 4.199595451354980469e-01 2.079969942569732666e-01
-1.648371517658233643e-01 4.734132885932922363e-01 3.146916031837463379e-01
-1.977856904268264771e-01 3.480313122272491455e-01 -2.487727403640747070e-01
-1.362455338239669800e-01 4.827448129653930664e-01 2.867036461830139160e-01
-1.402860283851623535e-01 5.891318917274475098e-01 1.468419134616851807e-01
-2.968742549419403076e-01 4.539881944656372070e-01 -1.124589890241622925e-02
-1.772744357585906982e-01 3.581048846244812012e-01 -2.429813742637634277e-01
-1.664491444826126099e-01 6.109729409217834473e-01 1.213793456554412842e-01
-2.774410545825958252e-01 5.099110007286071777e-01 -1.050100997090339661e-01
-2.438293099403381348e-01 5.896611809730529785e-01 -1.835696399211883545e-03
-2.362834513187408447e-01 3.571549654006958008e-01 -2.202378511428833008e-01
-2.996993064880371094e-01 5.479708909988403320e-01 2.423625290393829346e-01
-3.010378479957580566e-01 5.191397070884704590e-01 1.855830252170562744e-01
-2.591609358787536621e-01 6.614227294921875000e-01 4.343982636928558350e-01
-2.086377739906311035e-01 4.189783334732055664e-01 -2.568047940731048584e-01
-1.544735878705978394e-01 5.756542086601257324e-01 5.511088669300079346e-02
-2.486218810081481934e-01 6.431334018707275391e-01 4.701664447784423828e-01
-1.625875681638717651e-01 5.231042504310607910e-01 -7.724455744028091431e-02
-1.441057920455932617e-01 6.205813288688659668e-01 3.711933493614196777e-01
-1.265857964754104614e-01 5.754280090332031250e-01 1.892146170139312744e-01
-2.058642059564590454e-01 3.449432253837585449e-01 -4.169639199972152710e-02
-2.804182767868041992e-01 4.125597476959228516e-01 -1.907465606927871704e-02
-2.686557173728942871e-01 5.812515020370483398e-01 4.230551421642303467e-03
-2.599718272686004639e-01 3.877141177654266357e-01 4.610419273376464844e-05
-2.344782054424285889e-01 4.770620763301849365e-01 -1.983626186847686768e-01
-1.236273646354675293e-01 4.641129374504089355e-01 -5.308295041322708130e-02
-2.940354347229003906e-01 6.174448728561401367e-01 3.046922385692596436e-01
-2.258660495281219482e-01 3.707109689712524414e-01 3.833857923746109009e-02
-1.772843003273010254e-01 4.787237048149108887e-01 -1.714285910129547119e-01
-2.746824324131011963e-01 5.317551493644714355e-01 3.218196332454681396e-01
-2.930654287338256836e-01 5.088378190994262695e-01 2.137232124805450439e-01
-2.577765882015228271e-01 4.490009248256683350e-01 2.022137045860290527e-01
-2.408485710620880127e-01 5.056988000869750977e-01 -1.574200987815856934e-01
-1.761396080255508423e-01 6.660008430480957031e-01 3.383583724498748779e-01
-1.813964396715164185e-01 6.618188619613647461e-01 4.545992016792297363e-01
-2.585776448249816895e-01 6.289741396903991699e-01 4.506307244300842285e-01
-2.829287648200988770e-01 5.132399201393127441e-01 2.648488283157348633e-01
-1.316162347793579102e-01 5.927691459655761719e-01 3.334316313266754150e-01
-2.591133415699005127e-01 4.651901721954345703e-01 2.364191710948944092e-01
-1.145259290933609009e-01 4.668925404548645020e-01 1.687875688076019287e-01
-1.644830852746963501e-01 5.420040488243103027e-01 -4.462515562772750854e-02
-1.217297315597534180e-01 4.734315574169158936e-01 2.231789827346801758e-01
-1.133864745497703552e-01 5.297477841377258301e-01 2.021735310554504395e-01
-1.543305665254592896e-01 3.460595011711120605e-01 -1.221408024430274963e-01
-2.808354198932647705e-01 5.549374818801879883e-01 -2.542158216238021851e-02
-1.756468564271926880e-01 4.994130432605743408e-01 3.658674955368041992e-01
-1.632576286792755127e-01 3.450911641120910645e-01 -5.953330546617507935e-02
-1.257462203502655029e-01 5.460248589515686035e-01 3.228163123130798340e-01
-2.436574548482894897e-01 5.872550010681152344e-01 4.513507485389709473e-01
-2.495757490396499634e-01 4.744690358638763428e-01 2.758770287036895752e-01
-1.650780737400054932e-01 6.086546778678894043e-01 4.609784483909606934e-01
-2.952581048011779785e-01 6.005687713623046875e-01 1.337665617465972900e-01
-2.921050786972045898e-01 4.565669000148773193e-01 8.203335851430892944e-02
-2.686264812946319580e-01 3.894240856170654297e-01 -5.294170230627059937e-02
-1.694847941398620605e-01 6.355897188186645508e-01 1.974949240684509277e-01
-1.858361661434173584e-01 6.751995086669921875e-01 4.034388661384582520e-01
-2.953038811683654785e-01 6.145983338356018066e-01 1.892056763172149658e-01
-1.287110447883605957e-01 4.743766188621520996e-01 2.513654232025146484e-01
-2.474088668823242188e-01 3.797915577888488770e-01 1.788109540939331055e-02
-1.591891050338745117e-01 3.883055746555328369e-01 -2.196831405162811279e-01
-1.754740029573440552e-01 5.487532019615173340e-01 4.323296248912811279e-01
-2.348151057958602905e-01 6.603681445121765137e-01 1.983890235424041748e-01
-1.435129940509796143e-01 5.103718638420104980e-01 3.440025448799133301e-01
-1.405613422393798828e-01 4.663383960723876953e-01 -1.143446192145347595e-01
-1.848504841327667236e-01 4.292117953300476074e-01 2.340519130229949951e-01
-2.541398704051971436e-01 3.921249210834503174e-01 -2.210219502449035645e-01
-3.033569455146789551e-01 4.956370294094085693e-01 1.035982891917228699e-01
-1.618630886077880859e-01 6.408283710479736328e-01 4.303653240203857422e-01
-1.625887900590896606e-01 3.429595232009887695e-01 -1.741767525672912598e-01
-2.410432398319244385e-01 6.857552528381347656e-01 3.473478555679321289e-01
-3.014410734176635742e-01 5.016138553619384766e-01 -1.718949526548385620e-02
-1.833450943231582642e-01 4.686239361763000488e-01 3.155296146869659424e-01
-2.627396285533905029e-01 4.259903430938720703e-01 -2.061023712158203125e-01
-1.522933244705200195e-01 3.795582056045532227e-01 -2.015981674194335938e-01
-2.697192728519439697e-01 4.125832319259643555e-01 5.662889778614044189e-02
-1.736436635255813599e-01 6.296371817588806152e-01 1.633208096027374268e-01
-2.737866640090942383e-01 6.227403283119201660e-01 1.201895475387573242e-01
-2.599364519119262695e-01 3.831496238708496094e-01 -2.303703874349594116e-02
-2.923536300659179688e-01 4.387288093566894531e-01 -3.078698366880416870e-02
-1.832358241081237793e-01 4.422870278358459473e-01 -2.216559052467346191e-01
-1.232483237981796265e-01 5.256158709526062012e-01 2.980919778347015381e-01
-1.833605617284774780e-01 5.924367904663085938e-01 4.764649271965026855e-01
-3.028405010700225830e-01 4.812939763069152832e-01 4.209110885858535767e-02
-1.968414336442947388e-01 3.518334925174713135e-01 -7.326453924179077148e-04
-1.761678159236907959e-01 3.334000706672668457e-01 -1.605388224124908447e-01
-1.651929318904876709e-01 3.570311367511749268e-01 -2.191424965858459473e-01
-1.113557368516921997e-01 4.532708823680877686e-01 4.233376681804656982e-02
-1.795748025178909302e-01 5.757238268852233887e-01 4.615176320075988770e-01
-1.538676619529724121e-01 4.646276533603668213e-01 -1.502686142921447754e-01
-1.810548603534698486e-01 4.535273313522338867e-01 2.856236100196838379e-01
-2.926260828971862793e-01 5.051999092102050781e-01 -6.432966142892837524e-02
-2.931755185127258301e-01 5.731235146522521973e-01 4.998821765184402466e-02
-2.259619235992431641e-01 6.824915409088134766e-01 3.050953149795532227e-01
-1.367537677288055420e-01 3.847305774688720703e-01 4.545634984970092773e-02
-2.751659452915191650e-01 5.170632004737854004e-01 2.965564131736755371e-01
-2.956810593605041504e-01 4.724591970443725586e-01 -6.855801492929458618e-02
-1.385399252176284790e-01 3.710123300552368164e-01 -1.147671788930892944e-02
-2.231748998165130615e-01 4.971519410610198975e-01 3.531726896762847900e-01
-2.097892910242080688e-01 5.775871276855468750e-01 -2.628042548894882202e-02
-2.854250669479370117e-01 6.418507695198059082e-01 2.498717904090881348e-01
-2.365475594997406006e-01 5.596155524253845215e-01 4.310617148876190186e-01
-2.364563643932342529e-01 4.740403294563293457e-01 2.958950996398925781e-01
-2.483221888542175293e-01 4.626049995422363281e-01 2.533404827117919922e-01
-2.929163575172424316e-01 4.658589065074920654e-01 -8.691159635782241821e-02
-3.004531264305114746e-01 4.771182239055633545e-01 -2.482476085424423218e-02
-1.667036116123199463e-01 4.306906759738922119e-01 -2.108410596847534180e-01
-2.457655072212219238e-01 5.432449579238891602e-01 3.982591331005096436e-01
-1.117371469736099243e-01 4.466951787471771240e-01 7.481789588928222656e-02
-2.970389425754547119e-01 4.619654715061187744e-01 -4.869893938302993774e-02
-2.938132286071777344e-01 4.969555437564849854e-01 1.845223009586334229e-01
-3.077545166015625000e-01 5.444864630699157715e-01 1.463334262371063232e-01
-2.762394249439239502e-01 5.900393724441528320e-01 3.863729834556579590e-01
-1.493216902017593384e-01 6.184458136558532715e-01 2.128167450428009033e-01
-1.938509196043014526e-01 5.098039507865905762e-01 3.865998089313507080e-01
-2.533475756645202637e-01 6.002374291419982910e-01 2.928085625171661377e-02
-1.943960934877395630e-01 5.132658481597900391e-01 -1.375972926616668701e-01
-2.668479084968566895e-01 6.469902992248535156e-01 1.863366663455963135e-01
-2.783862948417663574e-01 4.859755933284759521e-01 -1.307749450206756592e-01
-1.900931447744369507e-01 6.194734573364257812e-01 4.930924475193023682e-01
-1.195449829101562500e-01 5.571519732475280762e-01 2.659573256969451904e-01
-1.893044114112854004e-01 5.298413038253784180e-01 -1.043889746069908142e-01
-1.206128671765327454e-01 4.197390377521514893e-01 -6.224023550748825073e-02
-2.227089852094650269e-01 5.101575255393981934e-01 3.751538395881652832e-01
-1.291218101978302002e-01 5.862141847610473633e-01 2.164482474327087402e-01
-2.562618553638458252e-01 5.410149097442626953e-01 -8.978959172964096069e-02
-2.115558236837387085e-01 6.528899669647216797e-01 4.986349046230316162e-01
-2.043773233890533447e-01 5.565350055694580078e-01 4.483161270618438721e-01
-1.571330428123474121e-01 3.705170452594757080e-01 4.916751384735107422e-02
-3.051173686981201172e-01 5.097028017044067383e-01 1.222142502665519714e-01
-2.063387632369995117e-01 4.898107349872589111e-01 3.512745797634124756e-01
-2.359457910060882568e-01 4.631584584712982178e-01 2.745313048362731934e-01
-2.306345999240875244e-01 5.892243385314941406e-01 4.676226377487182617e-01
-2.159422039985656738e-01 5.649266839027404785e-01 -5.597961694002151489e-02
-3.035729229450225830e-01 4.864578545093536377e-01 1.931075006723403931e-02
-2.102015465497970581e-01 4.427893757820129395e-01 2.572228908538818359e-01
-2.183628529310226440e-01 3.988983035087585449e-01 1.408364772796630859e-01
-2.846719324588775635e-01 4.613487720489501953e-01 1.422725617885589600e-01
-1.586878299713134766e-01 5.111364126205444336e-01 3.690651953220367432e-01
-2.123049199581146240e-01 3.412461876869201660e-01 -7.455208152532577515e-02
-1.370747983455657959e-01 5.370134115219116211e-01 1.890061795711517334e-02
-2.646476924419403076e-01 5.766943693161010742e-01 4.042734801769256592e-01
-2.843771278858184814e-01 4.682356119155883789e-01 1.620302796363830566e-01
-1.871254146099090576e-01 6.485165357589721680e-01 1.998808383941650391e-01
-2.010307908058166504e-01 4.551200270652770996e-01 -2.218566238880157471e-01
-3.044732511043548584e-01 4.928574264049530029e-01 6.883744895458221436e-02
-2.615769803524017334e-01 4.809210300445556641e-01 2.640441656112670898e-01
-1.197773888707160950e-01 5.544847249984741211e-01 1.728078126907348633e-01
-1.302031725645065308e-01 3.899060189723968506e-01 -1.104495748877525330e-01
-2.780055999755859375e-01 4.130145311355590820e-01 7.852047681808471680e-03
-2.250009477138519287e-01 5.258312821388244629e-01 -1.300433278083801270e-01
-2.250190824270248413e-01 6.538348197937011719e-01 1.745626777410507202e-01
-1.498234122991561890e-01 6.345590949058532715e-01 3.158645629882812500e-01
-2.448766082525253296e-01 4.437988400459289551e-01 2.172629833221435547e-01
-2.460957467555999756e-01 3.629107177257537842e-01 -1.988672912120819092e-01
-2.723393440246582031e-01 6.183956265449523926e-01 4.130611717700958252e-01
-1.285573244094848633e-01 5.895918607711791992e-01 2.519547045230865479e-01
-1.934605240821838379e-01 3.769075274467468262e-01 -2.659422159194946289e-01
-2.684494554996490479e-01 6.685055494308471680e-01 3.207463920116424561e-01
-2.752777338027954102e-01 4.457326233386993408e-01 1.397811025381088257e-01
-1.385673731565475464e-01 5.406600832939147949e-01 3.667862415313720703e-01
-2.350643873214721680e-01 6.777695417404174805e-01 2.776305675506591797e-01
-2.238215804100036621e-01 4.891864955425262451e-01 -1.853344440460205078e-01
-1.229562833905220032e-01 4.837716817855834961e-01 -2.257827669382095337e-02
-2.134005129337310791e-01 5.161159634590148926e-01 -1.440232694149017334e-01
-2.154235094785690308e-01 3.351520895957946777e-01 -1.630323827266693115e-01
-2.857832014560699463e-01 5.025269389152526855e-01 2.337748110294342041e-01
-2.921668291091918945e-01 5.986405014991760254e-01 3.270136117935180664e-01
-1.508334279060363770e-01 6.303634643554687500e-01 3.941708207130432129e-01
-2.822723388671875000e-01 4.247210621833801270e-01 3.034704923629760742e-02
-3.008929193019866943e-01 6.004317998886108398e-01 2.453510165214538574e-01
-2.690910398960113525e-01 3.924270570278167725e-01 -3.533660620450973511e-02
-2.902288138866424561e-01 5.549766421318054199e-01 3.010241389274597168e-01
-2.452546209096908569e-01 3.576325178146362305e-01 -1.757743954658508301e-01
-1.109769120812416077e-01 5.039066672325134277e-01 1.773105263710021973e-01
-1.561855524778366089e-01 3.920862972736358643e-01 1.192846000194549561e-01
-1.378301978111267090e-01 5.472395420074462891e-01 3.950007259845733643e-02
-1.535623073577880859e-01 4.261155128479003906e-01 -1.894975006580352783e-01
-2.663762271404266357e-01 3.825510144233703613e-01 -1.014946028590202332e-01
-1.796287298202514648e-01 3.531744778156280518e-01 5.766265094280242920e-03
-2.031949162483215332e-01 3.860893547534942627e-01 1.169611066579818726e-01
-1.312972605228424072e-01 4.727925360202789307e-01 -7.489304989576339722e-02
-2.956990897655487061e-01 4.508379101753234863e-01 6.266623735427856445e-03
-1.896210312843322754e-01 4.397589862346649170e-01 2.577325701713562012e-01
-2.883803844451904297e-01 4.956704378128051758e-01 -9.068825095891952515e-02
-2.060247808694839478e-01 6.823854446411132812e-01 3.317427635192871094e-01
-2.524670958518981934e-01 6.804490089416503906e-01 3.327128887176513672e-01
-1.875415593385696411e-01 3.419000506401062012e-01 -4.645600169897079468e-02
-1.748343706130981445e-01 4.915235340595245361e-01 -1.498395204544067383e-01
-2.330098599195480347e-01 6.829652786254882812e-01 4.443440437316894531e-01
-1.197192072868347168e-01 4.606461524963378906e-01 -3.571409732103347778e-02
-2.002683877944946289e-01 3.329375386238098145e-01 -1.189310178160667419e-01
-2.814141511917114258e-01 5.892674326896667480e-01 3.689867258071899414e-01
-2.577603757381439209e-01 6.602834463119506836e-01 2.209437191486358643e-01
-1.317350715398788452e-01 5.519021749496459961e-01 7.708339393138885498e-02
-1.952015459537506104e-01 4.976683855056762695e-01 3.672772645950317383e-01
-2.797560691833496094e-01 4.171821475028991699e-01 -1.355289220809936523e-01
-2.480024844408035278e-01 3.688847422599792480e-01 -3.672898560762405396e-02
-2.105312645435333252e-01 3.931642174720764160e-01 -2.689288556575775146e-01
-1.234680041670799255e-01 5.685403943061828613e-01 2.968304455280303955e-01
-2.055116742849349976e-01 5.418007373809814453e-01 -9.592106193304061890e-02
-1.173316538333892822e-01 4.166536033153533936e-01 3.328151255846023560e-02
-1.163335442543029785e-01 4.359630346298217773e-01 -2.654279023408889771e-02
-1.147877424955368042e-01 4.678877294063568115e-01 7.636040449142456055e-03
-1.191571056842803955e-01 5.056013464927673340e-01 2.574394047260284424e-01
-2.188053727149963379e-01 4.338526129722595215e-01 -2.461806237697601318e-01
-2.265870720148086548e-01 6.065949797630310059e-01 3.537764400243759155e-02
-2.102333754301071167e-01 4.140574038028717041e-01 1.893126368522644043e-01
-2.099257409572601318e-01 5.037798881530761719e-01 -1.620690822601318359e-01
-1.533281356096267700e-01 6.285187005996704102e-01 4.141428172588348389e-01
-1.252520680427551270e-01 4.791662395000457764e-01 -4.064738005399703979e-02
-2.120800465345382690e-01 6.422457098960876465e-01 1.423362493515014648e-01
-1.237739101052284241e-01 4.099111557006835938e-01 7.341488450765609741e-02
-1.430364847183227539e-01 3.894516825675964355e-01 8.429481089115142822e-02
-2.758082747459411621e-01 6.329622268676757812e-01 4.007140696048736572e-01
-1.397390663623809814e-01 5.167615413665771484e-01 -3.171146661043167114e-02
-1.244059354066848755e-01 4.549202322959899902e-01 1.987733989953994751e-01
-3.067167103290557861e-01 5.672129392623901367e-01 1.703153252601623535e-01
-1.102476567029953003e-01 4.810628890991210938e-01 1.436103731393814087e-01
-3.022414445877075195e-01 5.570009350776672363e-01 6.400492787361145020e-02
-1.698852032423019409e-01 6.615281701087951660e-01 3.771018385887145996e-01
-2.927079796791076660e-01 4.530682563781738281e-01 6.326368451118469238e-02
-3.038150668144226074e-01 5.054976940155029297e-01 7.514916360378265381e-03
-2.756826877593994141e-01 4.317311048507690430e-01 9.572242200374603271e-02
-2.277969121932983398e-01 4.123229384422302246e-01 1.658714562654495239e-01
-1.701415479183197021e-01 5.335513353347778320e-01 4.103576540946960449e-01
-2.216024398803710938e-01 3.907191157341003418e-01 1.127011775970458984e-01
-2.935469448566436768e-01 5.265764594078063965e-01 2.441544532775878906e-01
-2.218372672796249390e-01 4.789904654026031494e-01 3.217382729053497314e-01
-1.265670806169509888e-01 5.701920390129089355e-01 1.667202711105346680e-01
-2.358106672763824463e-01 3.945735096931457520e-01 -2.549960017204284668e-01
-2.002194225788116455e-01 6.753962039947509766e-01 4.612703621387481689e-01
-1.683670878410339355e-01 4.982400238513946533e-01 -1.297743916511535645e-01
-1.754599660634994507e-01 6.596856713294982910e-01 2.906786799430847168e-01
-1.917842924594879150e-01 5.736544728279113770e-01 -1.955238729715347290e-02
-1.817091107368469238e-01 4.711680412292480469e-01 -1.868164837360382080e-01
-1.792544424533843994e-01 3.836723864078521729e-01 -2.533071041107177734e-01
-2.086984366178512573e-01 4.061899185180664062e-01 1.699794977903366089e-01
-1.370022892951965332e-01 6.105061173439025879e-01 2.836061418056488037e-01
-2.729381322860717773e-01 3.945770263671875000e-01 -1.189674362540245056e-01
-1.836545765399932861e-01 6.623620986938476562e-01 2.718264758586883545e-01
-2.063660174608230591e-01 6.863832473754882812e-01 3.958643078804016113e-01
-2.827714383602142334e-01 4.357244372367858887e-01 7.173782587051391602e-02
-2.715524137020111084e-01 5.346272587776184082e-01 -7.991237193346023560e-02
-2.587812542915344238e-01 3.951400816440582275e-01 3.752288967370986938e-02
-1.102426201105117798e-01 4.613853394985198975e-01 8.814266324043273926e-02
-3.052460253238677979e-01 5.795170068740844727e-01 1.928991675376892090e-01
-1.192131862044334412e-01 5.598422288894653320e-01 2.387448400259017944e-01
-1.551783978939056396e-01 4.125821292400360107e-01 1.744017452001571655e-01
-2.102927863597869873e-01 6.261212825775146484e-01 5.001698136329650879e-01
-1.407154649496078491e-01 4.402146935462951660e-01 -1.439397633075714111e-01
-2.863726019859313965e-01 5.569458603858947754e-01 3.190224468708038330e-01
-2.921474575996398926e-01 4.656342864036560059e-01 1.120950430631637573e-01
-1.895908117294311523e-01 4.810090959072113037e-01 3.389220237731933594e-01
-1.792344748973846436e-01 4.522872567176818848e-01 -2.066632807254791260e-01
-1.667175889015197754e-01 5.121754407882690430e-01 -1.041682735085487366e-01
-2.445451319217681885e-01 4.931820034980773926e-01 -1.724585890769958496e-01
-2.308926582336425781e-01 4.227665662765502930e-01 1.887391805648803711e-01
-2.043029665946960449e-01 6.552385091781616211e-01 1.957032680511474609e-01
-1.614777445793151855e-01 5.533961057662963867e-01 -1.459290832281112671e-02
-1.803868114948272705e-01 6.218206286430358887e-01 1.222603991627693176e-01
-1.784255355596542358e-01 6.471816301345825195e-01 2.167218625545501709e-01
-2.974931001663208008e-01 6.064194440841674805e-01 2.844061851501464844e-01
-1.908413767814636230e-01 6.070841550827026367e-01 6.273970007896423340e-02
-2.551736235618591309e-01 4.697406888008117676e-01 -3.119493722915649414e-01
-2.521672248840332031e-01 5.944405198097229004e-01 8.893860876560211182e-02
-1.378568410873413086e-01 8.499484062194824219e-01 1.058238446712493896e-01
-1.108178347349166870e-01 6.940977573394775391e-01 7.228261232376098633e-02
-2.710926830768585205e-01 6.367698907852172852e-01 -3.505413830280303955e-01
-1.426460146903991699e-01 7.832989692687988281e-01 -6.631092727184295654e-02
-1.174142733216285706e-01 6.107359528541564941e-01 -4.406516999006271362e-02
-2.336251437664031982e-01 8.096985816955566406e-01 -1.838269382715225220e-01
-2.611946463584899902e-01 5.457808375358581543e-01 -3.841531574726104736e-01
-1.223385334014892578e-01 7.566902637481689453e-01 -3.599341958761215210e-03
-2.843346893787384033e-01 8.237852454185485840e-01 1.404667049646377563e-01
-1.555888503789901733e-01 7.048189640045166016e-01 -2.016556859016418457e-01
-1.646809875965118408e-01 4.919163882732391357e-01 -2.553217411041259766e-01
-1.212706565856933594e-01 5.858848690986633301e-01 -3.055698610842227936e-02
-1.361604332923889160e-01 8.187675476074218750e-01 2.835119143128395081e-02
-2.336369156837463379e-01 7.016636729240417480e-01 -3.144940733909606934e-01
-3.046180903911590576e-01 7.854944467544555664e-01 -2.176644280552864075e-02
-2.518447637557983398e-01 8.491171598434448242e-01 -1.091303974390029907e-01
-2.762725949287414551e-01 6.657461524009704590e-01 1.103901714086532593e-01
-1.851749420166015625e-01 8.764385581016540527e-01 3.227116465568542480e-01
-1.537429690361022949e-01 5.845558643341064453e-01 -2.642112970352172852e-01
-1.602276116609573364e-01 6.435223817825317383e-01 2.111269682645797729e-01
-3.092251420021057129e-01 6.156556606292724609e-01 -1.534810811281204224e-01
-2.905451953411102295e-01 6.639128923416137695e-01 -2.992187440395355225e-01
-1.695991754531860352e-01 5.288547873497009277e-01 4.300876334309577942e-02
-1.336835026741027832e-01 7.853530645370483398e-01 2.650454938411712646e-01
-1.586078256368637085e-01 6.439124941825866699e-01 -2.560843229293823242e-01
-2.695823907852172852e-01 4.947872459888458252e-01 -3.244456946849822998e-01
-2.704013586044311523e-01 5.978450775146484375e-01 -3.684372901916503906e-01
-1.784350574016571045e-01 4.614520072937011719e-01 -2.290237396955490112e-01
-1.293540894985198975e-01 8.347103595733642578e-01 1.845707744359970093e-01
-1.702394485473632812e-01 8.498150706291198730e-01 -3.730444610118865967e-02
-1.148597225546836853e-01 7.574585676193237305e-01 7.986895740032196045e-02
-2.898970842361450195e-01 8.425723910331726074e-01 4.599072411656379700e-02
-1.293585598468780518e-01 7.663533687591552734e-01 -3.185049071907997131e-02
-1.842987090349197388e-01 9.223925471305847168e-01 1.421294659376144409e-01
-2.555831968784332275e-01 6.133341789245605469e-01 1.064070910215377808e-01
-2.148568630218505859e-01 8.117387890815734863e-01 3.167686462402343750e-01
-1.137195900082588196e-01 6.775534152984619141e-01 -1.944495737552642822e-02
-1.634280830621719360e-01 5.712801218032836914e-01 1.150785684585571289e-01
-3.077594935894012451e-01 6.483274102210998535e-01 -6.422576308250427246e-02
-1.275458484888076782e-01 6.959915757179260254e-01 -1.064026057720184326e-01
-1.533132046461105347e-01 5.481030941009521484e-01 5.787744000554084778e-02
-1.734450459480285645e-01 8.357083797454833984e-01 -7.206135988235473633e-02
-2.703219652175903320e-01 7.406871914863586426e-01 1.852229684591293335e-01
-1.695264279842376709e-01 6.273198723793029785e-01 1.983019113540649414e-01
-1.851588040590286255e-01 4.698063433170318604e-01 -2.929986417293548584e-01
-2.974866628646850586e-01 5.931910276412963867e-01 -7.733599841594696045e-02
-2.553643584251403809e-01 4.960666894912719727e-01 -1.046185940504074097e-01
-2.786751985549926758e-01 7.395339012145996094e-01 1.582752615213394165e-01
-1.534357964992523193e-01 8.870831727981567383e-01 2.447538673877716064e-01
-2.861493229866027832e-01 7.617539167404174805e-01 -2.054611742496490479e-01
-1.410427838563919067e-01 7.985287904739379883e-01 -3.503971546888351440e-02
-2.304866313934326172e-01 9.290357828140258789e-01 1.384934931993484497e-01
-3.125751018524169922e-01 7.039438486099243164e-01 -1.409429907798767090e-01
-1.156203150749206543e-01 6.412251591682434082e-01 7.309153676033020020e-02
-1.211724057793617249e-01 5.879454612731933594e-01 -6.159309297800064087e-02
-2.737207710742950439e-01 5.547454357147216797e-01 -3.451260179281234741e-02
-3.028725385665893555e-01 6.056896448135375977e-01 -9.356068074703216553e-02
-2.737694084644317627e-01 8.809570074081420898e-01 7.280765473842620850e-02
-1.323137581348419189e-01 8.245025277137756348e-01 6.822218000888824463e-02
-2.542257010936737061e-01 7.788992524147033691e-01 -2.247494161128997803e-01
-2.467228025197982788e-01 6.171985268592834473e-01 -3.761039376258850098e-01
-1.993378400802612305e-01 4.880639910697937012e-01 -3.672789409756660461e-02
-2.878957688808441162e-01 6.294133663177490234e-01 2.794799581170082092e-02
-2.627302706241607666e-01 8.970440626144409180e-01 1.402054876089096069e-01
-2.606528997421264648e-01 4.728460311889648438e-01 -2.916358709335327148e-01
-1.212267801165580750e-01 7.278339266777038574e-01 2.009318768978118896e-01
-3.013403713703155518e-01 7.675280570983886719e-01 5.368775501847267151e-02
-1.220914199948310852e-01 6.482486724853515625e-01 1.311324238777160645e-01
-2.990629374980926514e-01 7.270675897598266602e-01 -2.120551019906997681e-01
-2.900987863540649414e-01 5.923936367034912109e-01 -3.642937168478965759e-02
-1.201898530125617981e-01 7.087222337722778320e-01 1.842899620532989502e-01
-2.853090167045593262e-01 5.619115829467773438e-01 -6.986290216445922852e-02
-2.549643814563751221e-01 4.756398200988769531e-01 -3.325624167919158936e-01
-3.050027191638946533e-01 7.385308742523193359e-01 -1.655184775590896606e-01
-3.036282658576965332e-01 6.177356243133544922e-01 -7.702041417360305786e-02
-3.110755681991577148e-01 7.280531525611877441e-01 -1.225495785474777222e-01
-2.088460475206375122e-01 6.858819723129272461e-01 -3.129630088806152344e-01
-1.526454687118530273e-01 5.059579014778137207e-01 -2.147019654512405396e-01
-1.984087675809860229e-01 4.522028267383575439e-01 -2.805075943470001221e-01
-1.360876560211181641e-01 5.442118644714355469e-01 -1.620221287012100220e-01
-1.283143013715744019e-01 8.258598446846008301e-01 1.136537641286849976e-01
-1.406837552785873413e-01 6.816371083259582520e-01 -1.745053529739379883e-01
-1.737788617610931396e-01 4.720241427421569824e-01 -2.515892088413238525e-01
-1.215018630027770996e-01 7.932749986648559570e-01 8.310835063457489014e-02
-2.223862409591674805e-01 7.694670557975769043e-01 2.943738102912902832e-01
-2.682200968265533447e-01 6.411199569702148438e-01 1.081224530935287476e-01
-1.615663170814514160e-01 7.649980783462524414e-01 -1.510431170463562012e-01
-2.986233830451965332e-01 6.320487856864929199e-01 -2.910417914390563965e-01
-1.705477982759475708e-01 7.144075036048889160e-01 2.833417952060699463e-01
-1.790749430656433105e-01 8.133003711700439453e-01 -1.218135654926300049e-01
-1.294323503971099854e-01 5.975028276443481445e-01 8.237743377685546875e-02
-2.753682732582092285e-01 5.791711211204528809e-01 2.605136483907699585e-03
-2.736962437629699707e-01 8.491675257682800293e-01 1.762204319238662720e-01
-2.198721617460250854e-01 9.236015677452087402e-01 2.440294027328491211e-01
-2.217873483896255493e-01 7.927905321121215820e-01 3.042127192020416260e-01
-1.618434488773345947e-01 5.802301168441772461e-01 -2.891769409179687500e-01
-2.618503272533416748e-01 6.492794156074523926e-01 1.335751563310623169e-01
-1.239164769649505615e-01 6.505659818649291992e-01 -1.164950728416442871e-01
