-4.787248671054840088e-01 -6.206325888633728027e-01 -5.483386516571044922e-01
-5.461686849594116211e-01 -7.363291382789611816e-01 -5.147848725318908691e-01
-2.001168876886367798e-01 -6.600968241691589355e-01 -2.366248816251754761e-01
-4.165296554565429688e-01 -7.098749279975891113e-01 -4.852526485919952393e-01
-3.456449210643768311e-01 -6.769675612449645996e-01 -4.557397365570068359e-01
-4.108186364173889160e-01 -7.225773930549621582e-01 -4.133813083171844482e-01
-4.049672484397888184e-01 -6.988709568977355957e-01 -2.852231860160827637e-01
-5.379774570465087891e-01 -6.460959911346435547e-01 -4.884827733039855957e-01
-5.763124227523803711e-01 -7.273296117782592773e-01 -6.152052283287048340e-01
-2.012903094291687012e-01 -6.442816853523254395e-01 -2.809295654296875000e-01
-6.377421021461486816e-01 -6.939346194267272949e-01 -6.301003694534301758e-01
-2.289318740367889404e-01 -6.276742219924926758e-01 -3.429378569126129150e-01
-3.467227816581726074e-01 -6.532602906227111816e-01 -2.138360291719436646e-01
-3.123036026954650879e-01 -6.118957996368408203e-01 -4.408906996250152588e-01
-1.240922510623931885e-01 -6.156358122825622559e-01 -1.474294811487197876e-01
-4.641897678375244141e-01 -6.300448179244995117e-01 -3.903396129608154297e-01
-2.910009324550628662e-01 -5.872401595115661621e-01 -2.489601522684097290e-01
-2.878780364990234375e-01 -6.885881423950195312e-01 -3.323206603527069092e-01
-4.068600833415985107e-01 -6.085909605026245117e-01 -3.545351624488830566e-01
-3.393495976924896240e-01 -5.884872078895568848e-01 -3.227366507053375244e-01
-4.897270202636718750e-01 -7.103250622749328613e-01 -5.756579637527465820e-01
-5.513247251510620117e-01 -7.102495431900024414e-01 -6.334479451179504395e-01
-4.418990612030029297e-01 -7.106323242187500000e-01 -5.180821418762207031e-01
-2.631396055221557617e-01 -6.885311007499694824e-01 -2.534290552139282227e-01
-5.752885341644287109e-01 -6.637755632400512695e-01 -5.219952464103698730e-01
-3.667565286159515381e-01 -6.113856434822082520e-01 -2.840421795845031738e-01
-3.434020578861236572e-01 -5.980272293090820312e-01 -4.457855224609375000e-01
-3.983798921108245850e-01 -6.084638833999633789e-01 -3.402574360370635986e-01
-3.049413561820983887e-01 -6.524090766906738281e-01 -1.764668524265289307e-01
-4.715399742126464844e-01 -6.150313019752502441e-01 -4.747213125228881836e-01
-3.872057199478149414e-01 -7.013560533523559570e-01 -4.658651351928710938e-01
-1.425458937883377075e-01 -6.144090294837951660e-01 -2.028081268072128296e-01
-2.861121892929077148e-01 -6.685460209846496582e-01 -1.705751121044158936e-01
-3.614540398120880127e-01 -5.910943150520324707e-01 -3.528620898723602295e-01
-5.222901701927185059e-01 -7.093771100044250488e-01 -4.126796424388885498e-01
-4.323842227458953857e-01 -6.881195902824401855e-01 -5.474394559860229492e-01
-6.052569150924682617e-01 -6.689336895942687988e-01 -5.913885831832885742e-01
-5.243097543716430664e-01 -6.581586599349975586e-01 -6.331396698951721191e-01
-1.360253691673278809e-01 -5.852469205856323242e-01 -1.674489676952362061e-01
-3.552242517471313477e-01 -6.120719909667968750e-01 -4.794005155563354492e-01
-2.124667912721633911e-01 -6.267453432083129883e-01 -3.190389871597290039e-01
-4.997159540653228760e-01 -6.773698925971984863e-01 -3.800864517688751221e-01
-5.255848169326782227e-01 -7.321206331253051758e-01 -5.490483045578002930e-01
-4.402798414230346680e-01 -6.085577011108398438e-01 -4.263015389442443848e-01
-5.436141490936279297e-01 -6.422104835510253906e-01 -5.186687111854553223e-01
-2.265136241912841797e-01 -6.761445403099060059e-01 -2.033727616071701050e-01
-2.911697328090667725e-01 -6.417553424835205078e-01 -4.197719097137451172e-01
-3.666206896305084229e-01 -6.262552142143249512e-01 -2.571421861648559570e-01
-3.865197598934173584e-01 -6.392015814781188965e-01 -5.251402854919433594e-01
-3.032030463218688965e-01 -6.694073677062988281e-01 -4.074487090110778809e-01
-4.627770185470581055e-01 -7.238780260086059570e-01 -5.035918951034545898e-01
-6.009933948516845703e-01 -7.321906089782714844e-01 -5.727871060371398926e-01
-4.274983406066894531e-01 -6.312019824981689453e-01 -3.303963243961334229e-01
-5.091229677200317383e-01 -7.299384474754333496e-01 -5.400463938713073730e-01
-4.221078157424926758e-01 -7.014209032058715820e-01 -5.135595202445983887e-01
-1.433992832899093628e-01 -6.351602077484130859e-01 -1.557993888854980469e-01
-3.804033696651458740e-01 -7.030065655708312988e-01 -4.510971307754516602e-01
-3.289726078510284424e-01 -6.863234043121337891e-01 -4.139451980590820312e-01
-2.635615766048431396e-01 -6.486072540283203125e-01 -3.768154680728912354e-01
-1.217263638973236084e-01 -5.958402752876281738e-01 -1.486186087131500244e-01
-2.975222170352935791e-01 -6.098183989524841309e-01 -2.009718716144561768e-01
-4.359510540962219238e-01 -6.048875451087951660e-01 -4.703047275543212891e-01
-3.371000289916992188e-01 -5.858643054962158203e-01 -3.890125453472137451e-01
-4.298182427883148193e-01 -7.167276144027709961e-01 -4.825044870376586914e-01
-3.746664822101593018e-01 -6.831855177879333496e-01 -4.847639799118041992e-01
-2.424661219120025635e-01 -5.922167897224426270e-01 -1.762116849422454834e-01
-1.651942878961563110e-01 -5.776003599166870117e-01 -2.005563974380493164e-01
-5.233684778213500977e-01 -7.225594520568847656e-01 -5.828698873519897461e-01
-2.993847727775573730e-01 -5.875221490859985352e-01 -3.875972628593444824e-01
-3.277124464511871338e-01 -5.872001647949218750e-01 -3.080916404724121094e-01
-3.523680269718170166e-01 -6.007960438728332520e-01 -2.913631796836853027e-01
-4.321889281272888184e-01 -6.850488185882568359e-01 -2.998946607112884521e-01
-2.783272564411163330e-01 -5.791718959808349609e-01 -3.357879817485809326e-01
-1.873042732477188110e-01 -5.887602567672729492e-01 -1.359485834836959839e-01
-3.321593999862670898e-01 -6.134096384048461914e-01 -2.350957989692687988e-01
-5.423931479454040527e-01 -6.786434650421142578e-01 -4.404511749744415283e-01
-1.612126529216766357e-01 -5.996285676956176758e-01 -1.021487116813659668e-01
-4.013736844062805176e-01 -6.197763681411743164e-01 -3.148874342441558838e-01
-3.419330120086669922e-01 -5.907088518142700195e-01 -4.208128452301025391e-01
-2.386101037263870239e-01 -6.429440975189208984e-01 -1.277023851871490479e-01
-5.141137838363647461e-01 -6.768454909324645996e-01 -6.315535902976989746e-01
-3.664025664329528809e-01 -5.976429581642150879e-01 -3.255703449249267578e-01
-3.745878934860229492e-01 -6.936559677124023438e-01 -2.555624842643737793e-01
-4.558810293674468994e-01 -6.146216392517089844e-01 -4.289417266845703125e-01
-3.927701711654663086e-01 -7.192661762237548828e-01 -3.421869874000549316e-01
-4.594153165817260742e-01 -7.202159762382507324e-01 -3.670981228351593018e-01
-5.861446857452392578e-01 -6.686358451843261719e-01 -5.350270271301269531e-01
-4.170138239860534668e-01 -6.031876206398010254e-01 -4.830708801746368408e-01
-5.647754669189453125e-01 -7.114970088005065918e-01 -4.696286320686340332e-01
-3.218296766281127930e-01 -5.828855037689208984e-01 -3.352368175983428955e-01
-3.113405108451843262e-01 -5.909883379936218262e-01 -2.637178301811218262e-01
-4.080188572406768799e-01 -6.821193099021911621e-01 -5.270257592201232910e-01
-4.406237602233886719e-01 -7.246452569961547852e-01 -4.632605016231536865e-01
-2.789708971977233887e-01 -6.097013950347900391e-01 -1.813163012266159058e-01
-4.235752224922180176e-01 -6.676563024520874023e-01 -2.903867363929748535e-01
-4.408522546291351318e-01 -6.067882776260375977e-01 -4.451549351215362549e-01
-4.061031341552734375e-01 -6.634169816970825195e-01 -5.405954122543334961e-01
-4.909873306751251221e-01 -6.277529001235961914e-01 -5.728569030761718750e-01
-2.524816393852233887e-01 -6.577095985412597656e-01 -3.477038145065307617e-01
-1.256070733070373535e-01 -6.070884466171264648e-01 -1.651134341955184937e-01
-5.310771465301513672e-01 -6.380083560943603516e-01 -5.955229997634887695e-01
-5.362867116928100586e-01 -7.291867733001708984e-01 -5.744024515151977539e-01
-4.638590812683105469e-01 -6.686728596687316895e-01 -5.935070514678955078e-01
-3.774701654911041260e-01 -6.195603609085083008e-01 -5.056163072586059570e-01
-3.784487247467041016e-01 -6.540915369987487793e-01 -2.458048164844512939e-01
-3.929232954978942871e-01 -6.795549392700195312e-01 -5.123459696769714355e-01
-5.217187404632568359e-01 -7.264623045921325684e-01 -4.385803639888763428e-01
-4.917211830615997314e-01 -7.315177917480468750e-01 -5.062373280525207520e-01
-5.343456864356994629e-01 -6.792072057723999023e-01 -6.449000835418701172e-01
-2.516012191772460938e-01 -5.752328038215637207e-01 -2.810626626014709473e-01
-5.552470684051513672e-01 -6.631275415420532227e-01 -4.819229245185852051e-01
-3.779316246509552002e-01 -5.984333157539367676e-01 -3.431558012962341309e-01
-4.051086604595184326e-01 -5.999535918235778809e-01 -4.678170382976531982e-01
-6.054551005363464355e-01 -7.106669545173645020e-01 -6.645986437797546387e-01
-6.332763433456420898e-01 -7.054655551910400391e-01 -6.676362752914428711e-01
-4.945926964282989502e-01 -7.046077847480773926e-01 -5.907657146453857422e-01
-4.151557087898254395e-01 -6.563619971275329590e-01 -5.521198511123657227e-01
-4.004585444927215576e-01 -6.215420961380004883e-01 -5.249019861221313477e-01
-4.711880981922149658e-01 -7.313911318778991699e-01 -4.680105447769165039e-01
-5.564141273498535156e-01 -6.570716500282287598e-01 -6.402045488357543945e-01
-2.246688753366470337e-01 -5.742779374122619629e-01 -2.594624459743499756e-01
-4.942983984947204590e-01 -6.213932633399963379e-01 -5.316137075424194336e-01
-3.337253034114837646e-01 -5.988880395889282227e-01 -2.698823809623718262e-01
-6.140526533126831055e-01 -7.298790216445922852e-01 -6.027066111564636230e-01
-5.259328484535217285e-01 -6.490270495414733887e-01 -4.557693302631378174e-01
-5.086547732353210449e-01 -6.694160699844360352e-01 -3.976475894451141357e-01
-4.791074991226196289e-01 -6.496766209602355957e-01 -6.025877594947814941e-01
-2.670570015907287598e-01 -6.772820949554443359e-01 -1.762870997190475464e-01
-4.095697700977325439e-01 -7.220687866210937500e-01 -3.573207557201385498e-01
-5.831162333488464355e-01 -6.725409030914306641e-01 -6.619068384170532227e-01
-6.024765968322753906e-01 -7.059775590896606445e-01 -5.274460315704345703e-01
-5.449311733245849609e-01 -7.363853454589843750e-01 -5.341854095458984375e-01
-5.785824656486511230e-01 -6.778286099433898926e-01 -5.025825500488281250e-01
-5.580648779869079590e-01 -6.723816990852355957e-01 -6.561839580535888672e-01
-2.021035850048065186e-01 -6.664456725120544434e-01 -1.775713115930557251e-01
-2.120188772678375244e-01 -6.006551980972290039e-01 -1.326375007629394531e-01
-5.119865536689758301e-01 -6.454156637191772461e-01 -4.381372630596160889e-01
-3.541170954704284668e-01 -6.158663630485534668e-01 -2.580722570419311523e-01
-2.914938330650329590e-01 -5.970961451530456543e-01 -4.035395085811614990e-01
-3.236702084541320801e-01 -6.593688726425170898e-01 -4.481946229934692383e-01
-5.796266794204711914e-01 -7.322598695755004883e-01 -5.966333150863647461e-01
-2.192663997411727905e-01 -5.740959644317626953e-01 -2.367883771657943726e-01
-4.590950310230255127e-01 -7.180088162422180176e-01 -5.199618935585021973e-01
-5.839072465896606445e-01 -6.555089950561523438e-01 -5.936062335968017578e-01
-1.603092104196548462e-01 -5.780372023582458496e-01 -1.683102697134017944e-01
-5.861252546310424805e-01 -6.991007328033447266e-01 -6.669985055923461914e-01
-4.302342534065246582e-01 -6.420681476593017578e-01 -3.177669644355773926e-01
-2.414920777082443237e-01 -5.751356482505798340e-01 -2.518354654312133789e-01
-4.077379703521728516e-01 -5.982605218887329102e-01 -4.426154792308807373e-01
-1.932435333728790283e-01 -6.503673791885375977e-01 -2.517264485359191895e-01
-2.728145420551300049e-01 -5.952291488647460938e-01 -2.018979340791702271e-01
-5.242016315460205078e-01 -6.310772895812988281e-01 -5.356677174568176270e-01
-3.371117711067199707e-01 -6.066073775291442871e-01 -2.547164857387542725e-01
-3.288004398345947266e-01 -6.929805278778076172e-01 -3.960444927215576172e-01
-5.013741850852966309e-01 -6.241323351860046387e-01 -5.021640658378601074e-01
-4.059832692146301270e-01 -7.160198092460632324e-01 -3.235787749290466309e-01
-2.130524516105651855e-01 -5.836086869239807129e-01 -1.710879206657409668e-01
-1.928147822618484497e-01 -6.382215619087219238e-01 -1.049101054668426514e-01
-1.619967520236968994e-01 -5.821101665496826172e-01 -1.419076323509216309e-01
-4.112743437290191650e-01 -6.785563826560974121e-01 -2.768929302692413330e-01
-1.348138749599456787e-01 -5.844482779502868652e-01 -1.504907459020614624e-01
-3.491379916667938232e-01 -6.055983304977416992e-01 -4.652521610260009766e-01
-4.689500033855438232e-01 -7.293930053710937500e-01 -4.829633235931396484e-01
-3.547641932964324951e-01 -5.879050493240356445e-01 -3.930011689662933350e-01
-3.946049213409423828e-01 -6.405274271965026855e-01 -2.740690410137176514e-01
-5.321691036224365234e-01 -6.338753104209899902e-01 -5.600604414939880371e-01
-3.224545717239379883e-01 -6.709581613540649414e-01 -1.961065679788589478e-01
-3.951923251152038574e-01 -6.971400976181030273e-01 -4.869275391101837158e-01
-4.634809195995330811e-01 -6.167736053466796875e-01 -5.366964340209960938e-01
-2.475886046886444092e-01 -6.462069153785705566e-01 -3.556977808475494385e-01
-1.769862025976181030e-01 -6.086601614952087402e-01 -1.004318296909332275e-01
-2.737583220005035400e-01 -6.916257739067077637e-01 -2.408691495656967163e-01
-6.009870767593383789e-01 -6.785705685615539551e-01 -5.479993820190429688e-01
-1.884878724813461304e-01 -5.754605531692504883e-01 -2.288192659616470337e-01
-3.320134878158569336e-01 -5.840317010879516602e-01 -3.624006509780883789e-01
-3.665260672569274902e-01 -7.091038227081298828e-01 -4.047559499740600586e-01
-2.838712036609649658e-01 -6.723923683166503906e-01 -3.719335794448852539e-01
-1.499529480934143066e-01 -6.405719518661499023e-01 -1.382660418748855591e-01
-4.281473755836486816e-01 -7.263969182968139648e-01 -3.957720100879669189e-01
-1.688135862350463867e-01 -5.833080410957336426e-01 -2.331644743680953979e-01
-5.985766649246215820e-01 -6.684590578079223633e-01 -6.491921544075012207e-01
-3.593885898590087891e-01 -6.503947973251342773e-01 -2.274522334337234497e-01
-1.571086198091506958e-01 -5.959964394569396973e-01 -2.323779910802841187e-01
-4.959658682346343994e-01 -7.287595272064208984e-01 -5.284804701805114746e-01
-1.788375675678253174e-01 -6.194152235984802246e-01 -2.692315578460693359e-01
-4.579412341117858887e-01 -6.238700151443481445e-01 -5.587946772575378418e-01
-4.552874565124511719e-01 -6.114647388458251953e-01 -4.490487277507781982e-01
-5.045478940010070801e-01 -7.097996473312377930e-01 -3.924714922904968262e-01
-1.728950291872024536e-01 -5.789874196052551270e-01 -1.601815372705459595e-01
-5.157983899116516113e-01 -6.429319381713867188e-01 -6.113053560256958008e-01
-2.248403877019882202e-01 -6.752932667732238770e-01 -2.213801741600036621e-01
-3.835064470767974854e-01 -5.940155982971191406e-01 -4.340042173862457275e-01
-4.437947869300842285e-01 -6.131110787391662598e-01 -4.085974395275115967e-01
-2.741820216178894043e-01 -6.231154203414916992e-01 -1.613520234823226929e-01
-2.793670594692230225e-01 -6.936334967613220215e-01 -2.578682601451873779e-01
-2.423949837684631348e-01 -5.870658159255981445e-01 -3.368040025234222412e-01
-2.467533797025680542e-01 -5.787937045097351074e-01 -2.281277030706405640e-01
-3.695110082626342773e-01 -6.902101635932922363e-01 -4.656630158424377441e-01
-4.519554376602172852e-01 -6.259505152702331543e-01 -3.798884153366088867e-01
-2.123213559389114380e-01 -6.229634881019592285e-01 -1.127808392047882080e-01
-5.932102799415588379e-01 -7.155447006225585938e-01 -5.157445073127746582e-01
-5.407180190086364746e-01 -6.375393271446228027e-01 -5.434669256210327148e-01
-3.067999482154846191e-01 -6.919702887535095215e-01 -2.199760377407073975e-01
-2.475396245718002319e-01 -6.803067326545715332e-01 -2.711224853992462158e-01
-5.200179815292358398e-01 -6.849107742309570312e-01 -4.045942425727844238e-01
-2.868754863739013672e-01 -6.903824806213378906e-01 -2.156903594732284546e-01
-4.757314622402191162e-01 -7.104979157447814941e-01 -3.629513680934906006e-01
-1.529351025819778442e-01 -5.795679092407226562e-01 -1.837848275899887085e-01
-1.500633060932159424e-01 -6.197060346603393555e-01 -2.141785174608230591e-01
-3.889739811420440674e-01 -5.981574654579162598e-01 -4.620127677917480469e-01
-5.481159687042236328e-01 -7.299100756645202637e-01 -5.831526517868041992e-01
-2.669191062450408936e-01 -6.512563228607177734e-01 -1.478802859783172607e-01
-3.411839902400970459e-01 -6.900260448455810547e-01 -4.243387877941131592e-01
-5.687819719314575195e-01 -6.834483742713928223e-01 -4.790948033332824707e-01
-3.092027902603149414e-01 -6.568787693977355957e-01 -4.317162632942199707e-01
-6.103150844573974609e-01 -7.213956713676452637e-01 -5.527292490005493164e-01
-3.746939003467559814e-01 -5.936543345451354980e-01 -3.650012314319610596e-01
-4.711994230747222900e-01 -7.293469905853271484e-01 -4.104715883731842041e-01
-3.952179551124572754e-01 -6.571907401084899902e-01 -5.321239829063415527e-01
-2.443941384553909302e-01 -6.822537779808044434e-01 -2.143985033035278320e-01
-3.121466636657714844e-01 -6.459037065505981445e-01 -4.437606632709503174e-01
-1.562465131282806396e-01 -5.869397521018981934e-01 -2.194534093141555786e-01
-4.392172992229461670e-01 -6.621944904327392578e-01 -5.732862949371337891e-01
-4.225210249423980713e-01 -7.107474803924560547e-01 -3.180578052997589111e-01
-4.443346261978149414e-01 -6.072153449058532715e-01 -4.836663007736206055e-01
-3.952620327472686768e-01 -7.124657630920410156e-01 -4.429716169834136963e-01
-4.027625322341918945e-01 -7.069023847579956055e-01 -4.737276434898376465e-01
-3.605925440788269043e-01 -6.228646039962768555e-01 -4.942942559719085693e-01
-2.206382006406784058e-01 -6.417097449302673340e-01 -3.184714615345001221e-01
-4.830043315887451172e-01 -7.135586142539978027e-01 -5.613548755645751953e-01
-2.608269453048706055e-01 -5.792793631553649902e-01 -2.445750832557678223e-01
-1.854938119649887085e-01 -5.763955712318420410e-01 -1.824991554021835327e-01
-1.179926395416259766e-01 -6.087333559989929199e-01 -1.164301037788391113e-01
-5.096113681793212891e-01 -6.312174797058105469e-01 -4.790499210357666016e-01
-1.957542747259140015e-01 -6.067081689834594727e-01 -2.983006834983825684e-01
-2.426774203777313232e-01 -6.133111715316772461e-01 -1.424501985311508179e-01
-4.241332113742828369e-01 -6.019827723503112793e-01 -4.573681950569152832e-01
-3.066559433937072754e-01 -7.012760043144226074e-01 -2.846130728721618652e-01
-2.401257008314132690e-01 -6.730155348777770996e-01 -2.866041660308837891e-01
-3.014703094959259033e-01 -6.384263038635253906e-01 -1.764961332082748413e-01
-3.802922070026397705e-01 -6.368723511695861816e-01 -2.606642544269561768e-01
-4.683828353881835938e-01 -6.451045274734497070e-01 -3.673822283744812012e-01
-1.340194940567016602e-01 -6.049154400825500488e-01 -1.884111166000366211e-01
-3.361949026584625244e-01 -6.795668601989746094e-01 -4.383739531040191650e-01
-2.353891134262084961e-01 -6.790505051612854004e-01 -2.323718070983886719e-01
-2.706079185009002686e-01 -6.439418792724609375e-01 -3.910627365112304688e-01
-1.890901923179626465e-01 -6.390983462333679199e-01 -2.664020359516143799e-01
-2.667230665683746338e-01 -6.649175882339477539e-01 -3.584302067756652832e-01
-5.686213374137878418e-01 -6.505558490753173828e-01 -5.549239516258239746e-01
-2.944944798946380615e-01 -6.708435416221618652e-01 -3.918629884719848633e-01
-3.030173182487487793e-01 -6.964747309684753418e-01 -3.287329077720642090e-01
-1.724645495414733887e-01 -5.952382683753967285e-01 -2.574059963226318359e-01
-3.757414221763610840e-01 -7.165577411651611328e-01 -3.318376839160919189e-01
-2.633332014083862305e-01 -5.984356403350830078e-01 -1.843996345996856689e-01
-5.811017751693725586e-01 -7.182896137237548828e-01 -6.410680413246154785e-01
-6.207233071327209473e-01 -7.007516026496887207e-01 -6.739667057991027832e-01
-4.574019908905029297e-01 -7.303040027618408203e-01 -4.224267601966857910e-01
-3.858800232410430908e-01 -7.175468206405639648e-01 -3.944874107837677002e-01
-4.337017536163330078e-01 -6.752654910087585449e-01 -5.615475773811340332e-01
-6.401553153991699219e-01 -6.988279223442077637e-01 -6.538696289062500000e-01
-2.277789860963821411e-01 -5.944800376892089844e-01 -3.325322866439819336e-01
-5.158749818801879883e-01 -7.078047990798950195e-01 -6.065045595169067383e-01
-6.399787664413452148e-01 -7.035498023033142090e-01 -6.185122728347778320e-01
-5.943856239318847656e-01 -6.618912220001220703e-01 -6.264615654945373535e-01
-2.928691506385803223e-01 -6.470044851303100586e-01 -1.667174249887466431e-01
-1.811681389808654785e-01 -6.571612358093261719e-01 -1.803990900516510010e-01
-5.498021245002746582e-01 -6.667419672012329102e-01 -4.659023880958557129e-01
-3.842101097106933594e-01 -6.722662448883056641e-01 -2.491116076707839966e-01
-4.133219122886657715e-01 -6.507111787796020508e-01 -2.874474227428436279e-01
-5.648595094680786133e-01 -7.362287640571594238e-01 -5.422834157943725586e-01
-5.418803691864013672e-01 -7.349738478660583496e-01 -5.486089587211608887e-01
-2.372359037399291992e-01 -5.852990150451660156e-01 -1.897421777248382568e-01
-3.884188830852508545e-01 -7.197643518447875977e-01 -3.636292219161987305e-01
-4.479631185531616211e-01 -6.711785197257995605e-01 -3.174638450145721436e-01
-1.660915911197662354e-01 -6.456727981567382812e-01 -1.216378509998321533e-01
-2.113709747791290283e-01 -6.640923619270324707e-01 -2.505635023117065430e-01
-4.445492029190063477e-01 -6.413831114768981934e-01 -5.740829706192016602e-01
-6.079234480857849121e-01 -6.755445003509521484e-01 -6.587818861007690430e-01
-4.076970219612121582e-01 -6.084912419319152832e-01 -5.043554306030273438e-01
-5.938118100166320801e-01 -6.921587586402893066e-01 -5.163363814353942871e-01
-5.418769121170043945e-01 -6.665414571762084961e-01 -4.525044858455657959e-01
-5.306185483932495117e-01 -7.363278269767761230e-01 -5.128109455108642578e-01
-5.123897790908813477e-01 -6.270195841789245605e-01 -5.437757372856140137e-01
-4.468526244163513184e-01 -6.774681210517883301e-01 -5.731564760208129883e-01
-3.348501026630401611e-01 -6.286979913711547852e-01 -2.172870934009552002e-01
-3.131493330001831055e-01 -6.800168156623840332e-01 -4.030310511589050293e-01
-2.199841588735580444e-01 -6.104218959808349609e-01 -3.331533968448638916e-01
-2.509323954582214355e-01 -6.843966245651245117e-01 -2.464051842689514160e-01
-5.604919195175170898e-01 -6.589750647544860840e-01 -5.013634562492370605e-01
-2.582796812057495117e-01 -5.762828588485717773e-01 -2.666987478733062744e-01
-2.198607921600341797e-01 -5.813106298446655273e-01 -1.858324408531188965e-01
-1.456494182348251343e-01 -6.334301233291625977e-01 -1.087653934955596924e-01
-2.546312510967254639e-01 -6.856864094734191895e-01 -2.242937535047531128e-01
-4.852339625358581543e-01 -6.329374909400939941e-01 -4.203302264213562012e-01
-2.424982041120529175e-01 -6.770256757736206055e-01 -1.789079904556274414e-01
-3.117747306823730469e-01 -6.963038444519042969e-01 -2.348855137825012207e-01
-2.109591066837310791e-01 -5.746970772743225098e-01 -2.529781460762023926e-01
-3.468792140483856201e-01 -6.051678657531738281e-01 -2.712625861167907715e-01
-2.379896044731140137e-01 -6.476939320564270020e-01 -3.390009105205535889e-01
-2.786392867565155029e-01 -6.059077978134155273e-01 -4.014827013015747070e-01
-2.178533822298049927e-01 -6.544346213340759277e-01 -2.928525805473327637e-01
-5.176894068717956543e-01 -6.658928990364074707e-01 -4.144664108753204346e-01
-6.353304982185363770e-01 -7.141539454460144043e-01 -6.562798023223876953e-01
-2.812527418136596680e-01 -6.887112259864807129e-01 -3.163786232471466064e-01
-3.848085403442382812e-01 -6.653161048889160156e-01 -5.165560245513916016e-01
-1.405548900365829468e-01 -5.950905084609985352e-01 -1.036805212497711182e-01
-2.122411727905273438e-01 -6.599782109260559082e-01 -2.672239840030670166e-01
-2.968857288360595703e-01 -6.790254116058349609e-01 -3.788796365261077881e-01
-4.137353599071502686e-01 -6.279709339141845703e-01 -3.165009319782257080e-01
-2.113157957792282104e-01 -5.979075431823730469e-01 -3.153415918350219727e-01
-4.609574079513549805e-01 -6.937758922576904297e-01 -5.713392496109008789e-01
-2.526690065860748291e-01 -6.332892775535583496e-01 -3.734266161918640137e-01
-2.869866788387298584e-01 -6.114960908889770508e-01 -4.145604968070983887e-01
-1.471642106771469116e-01 -6.259409785270690918e-01 -9.416377544403076172e-02
-1.846620887517929077e-01 -6.212273240089416504e-01 -9.813421964645385742e-02
-4.821210801601409912e-01 -6.381025314331054688e-01 -5.930053591728210449e-01
-2.976202368736267090e-01 -6.132087707519531250e-01 -4.269327819347381592e-01
-4.191237390041351318e-01 -7.160345315933227539e-01 -4.684025645256042480e-01
-3.883582055568695068e-01 -6.088518500328063965e-01 -3.226473927497863770e-01
-4.213873445987701416e-01 -7.031150460243225098e-01 -3.041202425956726074e-01
-2.300413697957992554e-01 -6.014353036880493164e-01 -1.466319561004638672e-01
-3.286140263080596924e-01 -7.048276066780090332e-01 -3.409705460071563721e-01
-5.807332992553710938e-01 -7.150979042053222656e-01 -4.957116842269897461e-01
-2.679544687271118164e-01 -6.881581544876098633e-01 -2.171129435300827026e-01
-2.637288570404052734e-01 -6.118882894515991211e-01 -1.631893813610076904e-01
-5.745546817779541016e-01 -7.067553997039794922e-01 -6.542445421218872070e-01
-2.390677481889724731e-01 -6.308287978172302246e-01 -3.557888269424438477e-01
-3.577939569950103760e-01 -6.451097726821899414e-01 -4.964096844196319580e-01
-3.703504502773284912e-01 -5.909981131553649902e-01 -4.144245088100433350e-01
-4.766133427619934082e-01 -7.320991754531860352e-01 -4.356518387794494629e-01
-4.753531217575073242e-01 -6.435149312019348145e-01 -3.805470466613769531e-01
-4.209679663181304932e-01 -6.770583391189575195e-01 -5.467332601547241211e-01
-2.422474175691604614e-01 -6.600969433784484863e-01 -1.410511881113052368e-01
-2.554998993873596191e-01 -5.866749286651611328e-01 -3.491090536117553711e-01
-4.914152920246124268e-01 -6.215056180953979492e-01 -4.871472716331481934e-01
-1.725863814353942871e-01 -5.915066003799438477e-01 -1.207160949707031250e-01
-4.860754013061523438e-01 -7.332818508148193359e-01 -4.500130116939544678e-01
-1.696317344903945923e-01 -6.499287486076354980e-01 -1.855080872774124146e-01
-1.924891471862792969e-01 -5.744323134422302246e-01 -2.126867324113845825e-01
-3.311008512973785400e-01 -6.996786594390869141e-01 -2.475056648254394531e-01
-2.310260385274887085e-01 -5.760765671730041504e-01 -2.263038158416748047e-01
-3.528923094272613525e-01 -6.926290392875671387e-01 -2.398343533277511597e-01
-2.847618758678436279e-01 -5.868553519248962402e-01 -3.750204145908355713e-01
-2.968481183052062988e-01 -6.558114290237426758e-01 -4.161838293075561523e-01
-3.416310250759124756e-01 -7.070954442024230957e-01 -2.801389694213867188e-01
-6.022429466247558594e-01 -7.204470634460449219e-01 -5.363876819610595703e-01
-5.845560431480407715e-01 -6.991819143295288086e-01 -4.970913231372833252e-01
-6.113509535789489746e-01 -6.709697842597961426e-01 -6.114246845245361328e-01
-3.029548823833465576e-01 -5.800472497940063477e-01 -3.274675011634826660e-01
-2.162926197052001953e-01 -5.759360790252685547e-01 -2.104072570800781250e-01
-2.146987020969390869e-01 -5.919721126556396484e-01 -1.504581719636917114e-01
-3.545442819595336914e-01 -6.994600296020507812e-01 -2.538941204547882080e-01
-3.733790218830108643e-01 -6.508434414863586426e-01 -5.115087628364562988e-01
-3.629044592380523682e-01 -7.109017968177795410e-01 -2.952911257743835449e-01
-4.247098863124847412e-01 -6.038151383399963379e-01 -4.187162518501281738e-01
-3.157312273979187012e-01 -5.825376510620117188e-01 -3.212490081787109375e-01
-5.509562492370605469e-01 -6.919139027595520020e-01 -4.464412927627563477e-01
-6.294413805007934570e-01 -7.224478721618652344e-01 -6.022812128067016602e-01
-3.227658867835998535e-01 -6.533843278884887695e-01 -1.916487962007522583e-01
-1.560657769441604614e-01 -6.377936005592346191e-01 -1.933391541242599487e-01
-5.142449140548706055e-01 -6.357061862945556641e-01 -5.942628383636474609e-01
-5.959572196006774902e-01 -7.192397117614746094e-01 -6.472578644752502441e-01
-4.141630530357360840e-01 -7.200444340705871582e-01 -4.407043159008026123e-01
-3.320323228836059570e-01 -7.001359462738037109e-01 -3.763482272624969482e-01
-3.949321806430816650e-01 -6.135098934173583984e-01 -5.094894170761108398e-01
-5.293838977813720703e-01 -7.149802446365356445e-01 -6.065103411674499512e-01
-4.237449765205383301e-01 -6.091748476028442383e-01 -3.842307627201080322e-01
-4.586612582206726074e-01 -6.822688579559326172e-01 -3.282420635223388672e-01
-4.017847478389739990e-01 -6.271313428878784180e-01 -3.013533353805541992e-01
-4.304924607276916504e-01 -6.323023438453674316e-01 -5.571426153182983398e-01
-6.282578706741333008e-01 -7.072281837463378906e-01 -5.805761814117431641e-01
-3.753328621387481689e-01 -5.915465950965881348e-01 -3.957589268684387207e-01
-5.636143684387207031e-01 -6.523224115371704102e-01 -5.295926332473754883e-01
-5.912505984306335449e-01 -7.311083078384399414e-01 -6.077246665954589844e-01
-3.396357893943786621e-01 -7.093499898910522461e-01 -3.260989487171173096e-01
-2.551963031291961670e-01 -6.328637599945068359e-01 -1.396054476499557495e-01
-4.956365227699279785e-01 -6.885235309600830078e-01 -6.105661392211914062e-01
-3.322559893131256104e-01 -6.454243063926696777e-01 -2.024415433406829834e-01
-5.367604494094848633e-01 -7.206225395202636719e-01 -4.432032704353332520e-01
-2.594850063323974609e-01 -5.812280774116516113e-01 -3.356638550758361816e-01
-1.678962558507919312e-01 -6.209844350814819336e-01 -9.206387400627136230e-02
-6.017434597015380859e-01 -7.325609922409057617e-01 -5.897703170776367188e-01
-3.147611320018768311e-01 -6.871593594551086426e-01 -3.885532319545745850e-01
-3.170752525329589844e-01 -5.980309844017028809e-01 -2.494187355041503906e-01
-3.883664608001708984e-01 -6.163053512573242188e-01 -3.036216795444488525e-01
-3.598321080207824707e-01 -7.137877345085144043e-01 -3.254823982715606689e-01
-1.759237051010131836e-01 -6.397095918655395508e-01 -2.383545786142349243e-01
-2.891776561737060547e-01 -5.911294817924499512e-01 -2.329146265983581543e-01
-4.383960962295532227e-01 -6.998144984245300293e-01 -5.367999076843261719e-01
-3.801185488700866699e-01 -7.128610014915466309e-01 -4.130367636680603027e-01
-1.839789897203445435e-01 -6.528998017311096191e-01 -2.204417139291763306e-01
-3.362269401550292969e-01 -7.086616754531860352e-01 -3.097086846828460693e-01
-4.591769278049468994e-01 -6.222024559974670410e-01 -4.039938449859619141e-01
-2.700848579406738281e-01 -5.839539170265197754e-01 -2.337641119956970215e-01
-2.384870499372482300e-01 -5.991947650909423828e-01 -1.580608487129211426e-01
-2.699800133705139160e-01 -6.842681765556335449e-01 -1.962204128503799438e-01
-4.816578924655914307e-01 -6.244394183158874512e-01 -4.421516954898834229e-01
-4.889859557151794434e-01 -6.913079619407653809e-01 -3.644547462463378906e-01
-1.890823841094970703e-01 -6.593696475028991699e-01 -2.032931894063949585e-01
-2.455108016729354858e-01 -6.805272102355957031e-01 -1.944158524274826050e-01
-3.011392652988433838e-01 -5.996186137199401855e-01 -2.250491976737976074e-01
-1.466893255710601807e-01 -5.852769613265991211e-01 -1.280288100242614746e-01
-4.728717207908630371e-01 -6.970799565315246582e-01 -3.480564951896667480e-01
-5.797389149665832520e-01 -6.594059467315673828e-01 -5.469371080398559570e-01
-1.654621511697769165e-01 -6.346055865287780762e-01 -9.905970096588134766e-02
-3.393121063709259033e-01 -6.208890676498413086e-01 -4.733756184577941895e-01
-2.311492413282394409e-01 -6.543619632720947266e-01 -3.173460364341735840e-01
-3.756341934204101562e-01 -6.362453103065490723e-01 -5.142664909362792969e-01
-3.888455033302307129e-01 -6.004615426063537598e-01 -3.545821309089660645e-01
-3.034633994102478027e-01 -6.892021298408508301e-01 -3.619403243064880371e-01
-1.287156343460083008e-01 -6.044260263442993164e-01 -9.565889835357666016e-02
-5.727953910827636719e-01 -6.597466468811035156e-01 -6.429620981216430664e-01
-4.570266008377075195e-01 -7.290200591087341309e-01 -4.055621325969696045e-01
-3.563672304153442383e-01 -6.699668765068054199e-01 -2.229958772659301758e-01
-3.308469057083129883e-01 -7.038359045982360840e-01 -2.655883133411407471e-01
-3.639918267726898193e-01 -6.349368691444396973e-01 -2.435822337865829468e-01
-4.229600131511688232e-01 -6.083750724792480469e-01 -5.070743560791015625e-01
-2.967439293861389160e-01 -6.965644955635070801e-01 -3.098232448101043701e-01
-2.824713289737701416e-01 -5.778253674507141113e-01 -3.163636922836303711e-01
-2.670172452926635742e-01 -5.861177444458007812e-01 -3.582861423492431641e-01
-5.060812830924987793e-01 -6.526772975921630859e-01 -4.140374362468719482e-01
-4.586250483989715576e-01 -6.811470985412597656e-01 -5.819392204284667969e-01
-4.764599800109863281e-01 -6.670007705688476562e-01 -3.550925552845001221e-01
-2.950440049171447754e-01 -5.803014636039733887e-01 -3.476394116878509521e-01
-3.379789292812347412e-01 -6.505145430564880371e-01 -4.722605347633361816e-01
-4.889356493949890137e-01 -6.233559250831604004e-01 -4.655345380306243896e-01
-3.308906257152557373e-01 -6.099956035614013672e-01 -4.564333260059356689e-01
-5.375573635101318359e-01 -6.882255673408508301e-01 -4.280658364295959473e-01
-5.012161731719970703e-01 -6.388270854949951172e-01 -6.007204055786132812e-01
-2.146656066179275513e-01 -6.580806374549865723e-01 -1.321947574615478516e-01
-2.541040182113647461e-01 -5.953555703163146973e-01 -3.636457920074462891e-01
-3.647853434085845947e-01 -6.965130567550659180e-01 -4.447023570537567139e-01
-5.647602677345275879e-01 -6.467804908752441406e-01 -5.748628973960876465e-01
-4.596247673034667969e-01 -6.362343430519104004e-01 -5.793942213058471680e-01
-5.185616612434387207e-01 -7.345074415206909180e-01 -5.230723023414611816e-01
-3.507237732410430908e-01 -5.928608179092407227e-01 -4.327606558799743652e-01
-4.276565015316009521e-01 -6.241896152496337891e-01 -3.446992635726928711e-01
-6.270977258682250977e-01 -6.922361254692077637e-01 -5.902057290077209473e-01
-5.057489275932312012e-01 -7.155372500419616699e-01 -5.818781256675720215e-01
-5.130176544189453125e-01 -6.904171109199523926e-01 -6.240072846412658691e-01
-4.049758613109588623e-01 -6.001839041709899902e-01 -3.922108411788940430e-01
-1.751132160425186157e-01 -6.542821526527404785e-01 -1.548628807067871094e-01
-4.735917448997497559e-01 -6.829715371131896973e-01 -5.948208570480346680e-01
-2.566357254981994629e-01 -6.786814928054809570e-01 -3.027300834655761719e-01
-2.791574895381927490e-01 1.824214756488800049e-01 -1.801137179136276245e-01
-3.039619326591491699e-01 5.207104980945587158e-02 -2.117961198091506958e-01
-2.531713843345642090e-01 1.159611344337463379e-01 -1.562338024377822876e-01
-3.052280545234680176e-01 7.931108772754669189e-02 -6.148760914802551270e-01
-2.700235545635223389e-01 7.718576490879058838e-02 -6.534806489944458008e-01
-3.018711209297180176e-01 2.986607700586318970e-02 -2.565120756626129150e-01
-2.726690769195556641e-01 9.239947050809860229e-02 -6.632051467895507812e-01
-2.682729363441467285e-01 1.281650364398956299e-01 -5.089789628982543945e-01
-2.586698532104492188e-01 7.861328125000000000e-02 -4.690008461475372314e-01
-2.542184591293334961e-01 -6.355158984661102295e-03 6.394580006599426270e-03
-2.953210175037384033e-01 3.775159269571304321e-02 -7.156941890716552734e-01
-2.960844635963439941e-01 1.702310442924499512e-01 -3.141695857048034668e-01
-2.755397260189056396e-01 4.749557003378868103e-02 -7.137824296951293945e-01
-3.079547584056854248e-01 1.023136228322982788e-01 -3.810017704963684082e-01
-2.852629125118255615e-01 1.709206700325012207e-01 -4.333716034889221191e-01
-2.659508287906646729e-01 1.624923944473266602e-01 7.548254728317260742e-02
-2.509935200214385986e-01 2.341980487108230591e-02 -2.373795658349990845e-01
-3.018787503242492676e-01 5.375821143388748169e-02 -1.188362091779708862e-01
-2.730549573898315430e-01 1.503023803234100342e-01 -4.715006053447723389e-01
-2.599358856678009033e-01 8.476921916007995605e-02 -4.851231873035430908e-01
-2.876993417739868164e-01 6.768409907817840576e-02 2.104174494743347168e-01
-2.570634484291076660e-01 3.118766099214553833e-02 -4.414307773113250732e-01
-2.825431525707244873e-01 -2.831252664327621460e-02 -2.111380547285079956e-01
-2.580993473529815674e-01 -1.967576891183853149e-02 -6.351666152477264404e-02
-2.607762217521667480e-01 7.279487699270248413e-02 -5.190492868423461914e-01
-2.570132613182067871e-01 2.242239564657211304e-02 -4.249736666679382324e-01
-3.071825206279754639e-01 9.211043268442153931e-02 -2.740322053432464600e-01
-2.795933783054351807e-01 1.021733358502388000e-01 -7.060063481330871582e-01
-2.955093383789062500e-01 1.668050587177276611e-01 -4.145656824111938477e-01
-2.933113574981689453e-01 1.544279754161834717e-01 1.981072127819061279e-02
-2.791123688220977783e-01 -3.321687877178192139e-02 -2.604069411754608154e-01
-2.643515765666961670e-01 1.337837874889373779e-01 -4.106221199035644531e-01
-3.052963316440582275e-01 5.741398409008979797e-02 -2.574411928653717041e-01
-2.716875374317169189e-01 9.797805547714233398e-02 -6.424980759620666504e-01
-2.622427940368652344e-01 1.294133663177490234e-01 -3.862254619598388672e-01
-2.475067377090454102e-01 4.069067165255546570e-02 -4.468494653701782227e-02
-2.881194055080413818e-01 -7.228463888168334961e-03 -7.788805663585662842e-02
-2.661212682723999023e-01 6.586354970932006836e-02 -6.119860410690307617e-01
-2.808608710765838623e-01 -1.951547712087631226e-02 -5.275794267654418945e-01
-2.565752863883972168e-01 5.312912911176681519e-02 -4.438011348247528076e-01
-2.842262387275695801e-01 -1.859737187623977661e-02 -9.956215322017669678e-02
-2.520006597042083740e-01 8.906348794698715210e-02 -2.555453181266784668e-01
-2.869112491607666016e-01 8.427692204713821411e-02 2.337384521961212158e-01
-2.485129684209823608e-01 7.309739291667938232e-02 1.375619173049926758e-01
-2.911444902420043945e-01 3.559959679841995239e-02 8.799955248832702637e-02
-2.596415579319000244e-01 1.506210267543792725e-01 -2.608172595500946045e-02
-2.685405910015106201e-01 1.706679761409759521e-01 -1.489254832267761230e-01
-2.655878663063049316e-01 1.608793437480926514e-01 -2.179204523563385010e-01
-2.899940907955169678e-01 8.229196071624755859e-02 1.909847557544708252e-01
-3.024211525917053223e-01 1.489969640970230103e-01 -4.142451286315917969e-01
-2.508971989154815674e-01 1.078302264213562012e-01 8.429381251335144043e-02
-2.758974730968475342e-01 9.600629657506942749e-02 -6.884402036666870117e-01
-2.496552169322967529e-01 1.006076633930206299e-01 5.007013678550720215e-03
-2.978639602661132812e-01 8.983369916677474976e-02 5.232793092727661133e-02
-3.063693046569824219e-01 1.143847107887268066e-01 -2.519165277481079102e-01
-3.053220212459564209e-01 4.598886892199516296e-02 -3.646600246429443359e-01
-3.080032169818878174e-01 1.015411838889122009e-01 -4.012259840965270996e-01
-2.987757027149200439e-01 9.026442468166351318e-02 -7.215846180915832520e-01
-2.572886347770690918e-01 9.791580587625503540e-02 -3.933429718017578125e-01
-2.884153723716735840e-01 9.083547443151473999e-02 2.159531414508819580e-01
-2.956344485282897949e-01 3.231650963425636292e-02 -1.943075656890869141e-02
-3.035399317741394043e-01 1.202196776866912842e-01 -1.294083297252655029e-01
-2.484203428030014038e-01 4.722328484058380127e-02 -1.565914601087570190e-01
-2.533757984638214111e-01 1.250837445259094238e-01 -2.138777077198028564e-02
-2.767585813999176025e-01 8.017939329147338867e-02 -7.162869572639465332e-01
-2.639651298522949219e-01 1.433499902486801147e-02 -5.401486158370971680e-01
-3.013226091861724854e-01 1.548378467559814453e-01 -3.740148544311523438e-01
-3.037533760070800781e-01 5.806672945618629456e-02 -1.756221652030944824e-01
-2.812905311584472656e-01 1.494839042425155640e-01 1.949600279331207275e-01
-2.925977706909179688e-01 2.997592091560363770e-03 -1.110470145940780640e-01
-2.650527358055114746e-01 5.033744871616363525e-02 -5.998007655143737793e-01
-3.006590604782104492e-01 2.980388328433036804e-02 -1.947423070669174194e-01
-3.072708845138549805e-01 7.909711450338363647e-02 -3.030916750431060791e-01
-2.847261130809783936e-01 -2.688370645046234131e-02 -3.578261137008666992e-01
-2.808463573455810547e-01 1.785122454166412354e-01 -1.074223220348358154e-02
-2.872755527496337891e-01 1.430024504661560059e-01 1.594370901584625244e-01
-2.623263597488403320e-01 1.223157644271850586e-01 2.921889424324035645e-01
-3.031924068927764893e-01 6.212391331791877747e-02 -1.390134990215301514e-01
-2.970098555088043213e-01 2.739772200584411621e-03 -4.538981318473815918e-01
-2.561168968677520752e-01 9.840337187051773071e-02 -3.602869510650634766e-01
-3.025576770305633545e-01 7.079236954450607300e-02 -9.461577981710433960e-02
-2.498186677694320679e-01 5.143785104155540466e-02 -2.332010567188262939e-01
-2.579216957092285156e-01 1.246370822191238403e-01 -2.939669787883758545e-01
-2.587381601333618164e-01 5.629922449588775635e-02 -4.904214739799499512e-01
-2.597625851631164551e-01 6.961651146411895752e-03 -4.433709383010864258e-01
-2.654989361763000488e-01 1.745326071977615356e-02 2.634074389934539795e-01
-2.681976854801177979e-01 -2.950523048639297485e-02 -3.550143241882324219e-01
-2.480663955211639404e-01 8.266918361186981201e-02 3.893689811229705811e-02
-2.747464478015899658e-01 -2.045928686857223511e-02 2.267101407051086426e-02
-2.863315343856811523e-01 1.650902777910232544e-01 -4.873564541339874268e-01
-2.550357282161712646e-01 -6.764315068721771240e-03 -2.247467041015625000e-01
-3.024915158748626709e-01 9.081566333770751953e-02 -6.812022626399993896e-02
-3.059850335121154785e-01 1.299043744802474976e-01 -3.496332764625549316e-01
-2.828998863697052002e-01 1.805540323257446289e-01 -5.854332447052001953e-02
-3.046409785747528076e-01 1.328837722539901733e-01 -4.828297197818756104e-01
-2.955424785614013672e-01 1.635652184486389160e-01 -9.761190414428710938e-02
-2.956013083457946777e-01 1.549343019723892212e-01 -3.349879384040832520e-02
-2.715663909912109375e-01 5.486153811216354370e-02 -6.805015802383422852e-01
-2.493969500064849854e-01 1.640747860074043274e-02 -3.790989518165588379e-02
-2.975329756736755371e-01 1.392909884452819824e-01 -6.885081529617309570e-03
-2.712244689464569092e-01 1.321160048246383667e-01 -5.364702939987182617e-01
-2.554643750190734863e-01 1.349096894264221191e-01 -3.767718374729156494e-02
-2.500724792480468750e-01 9.698040783405303955e-02 1.261827051639556885e-01
-2.942748963832855225e-01 1.572426706552505493e-01 -1.646995544433593750e-02
-2.871240377426147461e-01 1.169479340314865112e-01 2.175145149230957031e-01
-2.900004982948303223e-01 1.786837577819824219e-01 -2.985330224037170410e-01
-2.522458434104919434e-01 9.709098190069198608e-02 2.152659296989440918e-01
-3.012037873268127441e-01 1.502842754125595093e-01 -1.907458305358886719e-01
-2.570906281471252441e-01 -9.162224829196929932e-03 6.769898533821105957e-02
-2.750132083892822266e-01 1.512950658798217773e-01 2.168007194995880127e-01
-2.665196061134338379e-01 -2.110506594181060791e-02 -4.175437688827514648e-01
-2.567960917949676514e-01 1.270797848701477051e-01 -2.367146611213684082e-01
-2.925021648406982422e-01 -6.683014333248138428e-03 -2.106758654117584229e-01
-2.801220715045928955e-01 1.321055144071578979e-01 2.571547627449035645e-01
-3.005991280078887939e-01 5.549504235386848450e-02 -6.880829334259033203e-01
-2.476235330104827881e-01 7.544668763875961304e-02 -8.294641971588134766e-03
-2.478248178958892822e-01 6.262405961751937866e-02 1.085552573204040527e-01
-2.483026832342147827e-01 6.240784376859664917e-02 -1.440143585205078125e-01
-2.952428758144378662e-01 1.562260091304779053e-03 -5.272976160049438477e-01
-2.880281507968902588e-01 1.750784218311309814e-01 -3.868260383605957031e-01
-2.492817640304565430e-01 8.650781214237213135e-02 -1.262858211994171143e-01
-2.874094545841217041e-01 6.551899015903472900e-03 3.158859908580780029e-02
-2.538728117942810059e-01 1.268212497234344482e-01 5.291759967803955078e-02
-2.850866615772247314e-01 -3.169111907482147217e-03 1.442177593708038330e-02
-2.542076110839843750e-01 1.494333520531654358e-02 1.796408593654632568e-01
-3.056393861770629883e-01 5.469194054603576660e-02 -2.994357347488403320e-01
-2.653996348381042480e-01 1.630582362413406372e-01 4.845216870307922363e-02
-2.695724368095397949e-01 1.733518242835998535e-01 -8.299817144870758057e-02
-2.755597531795501709e-01 1.503270268440246582e-01 -5.036766529083251953e-01
-3.026337623596191406e-01 1.227998435497283936e-01 -1.030344069004058838e-01
-2.645228505134582520e-01 1.602177023887634277e-01 -1.832610815763473511e-01
-2.892486453056335449e-01 7.088132202625274658e-03 -1.030460000038146973e-03
-2.803676128387451172e-01 9.041555225849151611e-03 1.459074318408966064e-01
-3.061880171298980713e-01 1.233413219451904297e-01 -2.852393984794616699e-01
-2.913097441196441650e-01 1.034846901893615723e-02 -6.567934751510620117e-01
-2.894621193408966064e-01 1.531149446964263916e-01 9.188163280487060547e-02
-2.500277161598205566e-01 1.000306755304336548e-01 -7.918477058410644531e-02
-2.867887020111083984e-01 1.821813285350799561e-01 -2.161454856395721436e-01
-2.595892548561096191e-01 1.418833732604980469e-01 -2.157706618309020996e-01
-2.550669610500335693e-01 -1.200616359710693359e-02 -1.143992617726325989e-01
-2.863795161247253418e-01 6.543029844760894775e-02 -7.691546082496643066e-01
-3.008512258529663086e-01 8.382006734609603882e-02 -2.485695481300354004e-02
-2.546433806419372559e-01 1.282843798398971558e-01 9.547013044357299805e-02
-2.617125809192657471e-01 3.316282108426094055e-02 -5.362249612808227539e-01
-2.504294812679290771e-01 6.994681805372238159e-02 2.167533934116363525e-01
-2.519447803497314453e-01 4.319065064191818237e-02 2.314710617065429688e-01
-2.965297102928161621e-01 1.063379347324371338e-01 7.838934659957885742e-02
-2.604834437370300293e-01 7.406733930110931396e-02 3.478634953498840332e-01
-3.003333508968353271e-01 2.244006097316741943e-02 -5.549231767654418945e-01
-2.840075194835662842e-01 1.095530614256858826e-01 2.600136399269104004e-01
-2.936581671237945557e-01 1.416373550891876221e-01 6.712722778320312500e-02
-3.039073348045349121e-01 1.278607547283172607e-01 -1.698506921529769897e-01
-2.483536005020141602e-01 2.878274396061897278e-02 -8.153757452964782715e-02
-3.042509555816650391e-01 1.053664982318878174e-01 -6.179456710815429688e-01
-2.585114538669586182e-01 1.465154588222503662e-01 1.599417626857757568e-02
-2.600268125534057617e-01 -2.729870378971099854e-03 1.554552614688873291e-01
-3.019657731056213379e-01 1.499799340963363647e-01 -2.334116399288177490e-01
-2.501785755157470703e-01 2.004478499293327332e-02 9.425678849220275879e-02
-2.659058570861816406e-01 1.595457196235656738e-01 -2.475675344467163086e-01
-2.729690372943878174e-01 1.831910014152526855e-02 2.436771094799041748e-01
-2.976067066192626953e-01 1.244491934776306152e-01 3.216335177421569824e-02
-2.641867697238922119e-01 -2.108152210712432861e-02 -3.755299448966979980e-01
-2.506220042705535889e-01 1.082116961479187012e-01 2.684113383293151855e-02
-2.482054829597473145e-01 7.590025663375854492e-02 -9.549617767333984375e-02
-2.577076256275177002e-01 6.112608686089515686e-02 -4.666461944580078125e-01
-3.013073503971099854e-01 2.150877565145492554e-02 -4.872128665447235107e-01
-2.983319461345672607e-01 1.610625833272933960e-01 -1.746383011341094971e-01
-2.543057203292846680e-01 2.395793050527572632e-02 2.186281681060791016e-01
-2.979534864425659180e-01 1.302049309015274048e-01 1.099221408367156982e-02
-3.042900562286376953e-01 1.289227008819580078e-01 -1.930360347032546997e-01
-3.056016266345977783e-01 1.329673826694488525e-01 -3.888205289840698242e-01
-2.881782352924346924e-01 1.812583506107330322e-01 -2.334074974060058594e-01
-2.735739350318908691e-01 1.152127608656883240e-01 -6.230090856552124023e-01
