1.699824929237365723e-01 -4.190340042114257812e-01 5.309687852859497070e-01
3.075898289680480957e-01 -1.011905074119567871e-01 -2.934965193271636963e-01
-3.379095345735549927e-02 -6.628051996231079102e-01 3.221333920955657959e-01
-7.582101225852966309e-02 8.127093315124511719e-03 2.372234165668487549e-01
-2.324966639280319214e-01 -6.436128616333007812e-01 -2.094621956348419189e-02
-1.168753653764724731e-01 2.046036720275878906e-02 1.654888838529586792e-01
2.211728990077972412e-01 -7.283968925476074219e-01 2.213095873594284058e-01
-3.289856314659118652e-01 -2.836769521236419678e-01 2.552548646926879883e-01
1.915763616561889648e-01 -5.939295291900634766e-01 4.390217661857604980e-01
2.366787493228912354e-01 2.179002761840820312e-02 9.660594910383224487e-02
-1.698286980390548706e-01 -1.365302503108978271e-01 -3.902819454669952393e-01
4.086270555853843689e-02 -5.771976709365844727e-01 4.515415132045745850e-01
2.267282307147979736e-01 3.054213523864746094e-02 3.424404188990592957e-02
3.905035853385925293e-01 -5.962992310523986816e-01 3.120981752872467041e-01
6.214872002601623535e-03 -1.417139023542404175e-01 4.613565504550933838e-01
-8.823844790458679199e-02 -7.284638881683349609e-01 -5.776148289442062378e-02
2.136955410242080688e-01 -6.258860826492309570e-01 4.015378952026367188e-01
1.685004085302352905e-01 -2.757918238639831543e-01 5.251701474189758301e-01
-2.797870039939880371e-01 -5.095859766006469727e-01 2.450913935899734497e-01
-9.077347815036773682e-03 -7.327516078948974609e-01 1.781466454267501831e-01
1.024032086133956909e-01 -7.390711307525634766e-01 2.162356823682785034e-01
3.684055209159851074e-01 -4.111164808273315430e-01 -3.961234688758850098e-01
4.790143370628356934e-01 -5.699219703674316406e-01 -1.250271201133728027e-01
-3.640463948249816895e-01 -3.860130310058593750e-01 -1.936718076467514038e-01
-3.063423037528991699e-01 -2.756453454494476318e-01 -3.254501521587371826e-01
-3.945395946502685547e-01 -2.982749640941619873e-01 2.864822000265121460e-02
1.305478811264038086e-01 -5.536016821861267090e-01 4.779463410377502441e-01
4.140400290489196777e-01 -5.954192876815795898e-01 -2.295388579368591309e-01
2.147511392831802368e-01 -1.874437183141708374e-01 4.730777740478515625e-01
-1.227668672800064087e-01 -5.484610795974731445e-02 -3.306662738323211670e-01
5.270656943321228027e-01 -4.909284710884094238e-01 -6.886356323957443237e-02
3.448512554168701172e-01 -2.149515897035598755e-01 -3.688123524188995361e-01
5.425248146057128906e-01 -4.151212871074676514e-01 -5.553901195526123047e-02
-1.438776552677154541e-01 -5.779551267623901367e-01 -3.630526661872863770e-01
4.213033914566040039e-01 -6.658147573471069336e-01 -1.410087198019027710e-02
2.744568288326263428e-01 -7.053443789482116699e-02 3.172032535076141357e-01
2.678654789924621582e-01 -8.168727159500122070e-03 -1.451279222965240479e-01
1.594698801636695862e-02 -7.473335266113281250e-01 1.433874815702438354e-01
-3.908407092094421387e-01 -2.484756708145141602e-01 -3.602798655629158020e-02
2.793020904064178467e-01 -2.243351787328720093e-01 -4.286786019802093506e-01
3.039629384875297546e-02 -7.608942985534667969e-01 7.604556530714035034e-02
-1.784328669309616089e-01 4.886597394943237305e-03 -1.407925635576248169e-01
-2.178304642438888550e-01 -2.981364727020263672e-03 -5.416226759552955627e-02
-3.772716522216796875e-01 -4.338603913784027100e-01 -6.957697216421365738e-03
1.520139351487159729e-02 -2.202184796333312988e-01 -5.025297999382019043e-01
-2.023532837629318237e-01 -1.971891671419143677e-01 -4.079220294952392578e-01
4.147716164588928223e-01 -1.974864751100540161e-01 -2.659772932529449463e-01
4.150930643081665039e-01 -5.636404752731323242e-01 -2.658610641956329346e-01
9.465183317661285400e-02 -3.851340711116790771e-01 -5.262727737426757812e-01
-1.062085628509521484e-01 -6.976035833358764648e-01 -1.806398481130599976e-01
4.884290695190429688e-01 -4.878644347190856934e-01 -1.998014748096466064e-01
-3.246585130691528320e-01 -5.084387063980102539e-01 -1.659594625234603882e-01
-1.479629874229431152e-01 3.309401869773864746e-02 -3.101659193634986877e-02
-3.371293544769287109e-01 -4.627910852432250977e-01 -2.010347545146942139e-01
3.323457837104797363e-01 -7.184162139892578125e-01 -6.851753592491149902e-02
-1.742004007101058960e-01 -3.487691879272460938e-01 4.453074932098388672e-01
-3.114635944366455078e-01 -3.415035903453826904e-01 -3.218522369861602783e-01
7.705360651016235352e-02 -6.258190870285034180e-01 -3.988865017890930176e-01
-4.332938045263290405e-02 -6.552871465682983398e-01 -3.291183412075042725e-01
-1.965680867433547974e-01 -5.156152844429016113e-01 -3.766075670719146729e-01
-3.466860055923461914e-01 -1.709742248058319092e-01 -1.673673689365386963e-01
-2.804167866706848145e-01 -1.694137006998062134e-01 2.767092287540435791e-01
2.445593103766441345e-02 -7.316912412643432617e-01 -2.014797031879425049e-01
4.291569590568542480e-01 -6.040878295898437500e-01 -1.890294104814529419e-01
8.622924238443374634e-02 -5.380234122276306152e-01 4.870443046092987061e-01
2.713015973567962646e-01 -7.405658960342407227e-01 -8.835303038358688354e-02
3.954719901084899902e-01 -7.156538963317871094e-02 5.482110008597373962e-02
-6.624393165111541748e-02 5.219680070877075195e-02 -8.375005424022674561e-02
-5.079150199890136719e-02 1.012092828750610352e-02 -2.502670586109161377e-01
3.397051692008972168e-01 -3.456519544124603271e-01 -4.220651686191558838e-01
4.365786314010620117e-01 -1.690916717052459717e-01 -1.872565895318984985e-01
-7.958181202411651611e-02 -7.138578295707702637e-01 1.578469127416610718e-01
-8.295013010501861572e-02 4.941880702972412109e-02 7.096150517463684082e-02
-1.569878309965133667e-01 -5.310853123664855957e-01 -3.980244696140289307e-01
3.867035508155822754e-01 -2.601102292537689209e-01 3.987056016921997070e-01
4.066966176033020020e-01 -1.029154062271118164e-01 -1.193501055240631104e-01
9.187935292720794678e-02 -1.848441809415817261e-01 4.960193336009979248e-01
-8.218756318092346191e-02 -1.133994013071060181e-01 -4.158421456813812256e-01
2.966944575309753418e-01 -6.326588988304138184e-01 -3.158873319625854492e-01
1.867812126874923706e-01 2.806046605110168457e-02 1.577615886926651001e-01
1.430166959762573242e-01 4.711341857910156250e-02 -9.481848031282424927e-02
4.466906189918518066e-01 -1.310788393020629883e-01 -5.406560003757476807e-02
2.024153321981430054e-01 -2.001762390136718750e-03 2.410777211189270020e-01
-1.882606297731399536e-01 -5.371890664100646973e-01 3.474555015563964844e-01
2.597072124481201172e-01 -4.444665610790252686e-01 5.005178451538085938e-01
-1.261061578989028931e-01 -4.170354306697845459e-01 -4.780674576759338379e-01
4.635674953460693359e-01 -1.616229861974716187e-01 1.425291299819946289e-01
1.813533753156661987e-01 -7.678874731063842773e-01 4.821498692035675049e-02
4.390285611152648926e-01 -6.410236358642578125e-01 -6.759599596261978149e-02
-3.022286891937255859e-01 -7.367196679115295410e-02 3.264307603240013123e-02
3.062114715576171875e-01 -7.151715755462646484e-01 -1.400313973426818848e-01
2.314336970448493958e-02 -3.625428676605224609e-02 -3.477448523044586182e-01
6.125707924365997314e-02 -6.795599460601806641e-01 -3.255645632743835449e-01
-3.824694156646728516e-01 -4.096897840499877930e-01 -6.953754276037216187e-02
5.338272452354431152e-01 -3.013696074485778809e-01 1.094259917736053467e-01
-2.146865278482437134e-01 -2.937123775482177734e-01 -4.303948283195495605e-01
3.242735862731933594e-01 -9.172958135604858398e-02 2.991138994693756104e-01
1.411054432392120361e-01 -5.005280971527099609e-01 5.079060792922973633e-01
5.041123032569885254e-01 -2.217313647270202637e-01 1.151072680950164795e-01
1.827849149703979492e-01 -6.356923580169677734e-01 -3.732441663742065430e-01
4.993101209402084351e-02 3.540462255477905273e-02 -1.979852616786956787e-01
5.418306589126586914e-02 -1.854944229125976562e-02 -3.185630738735198975e-01
-3.709653019905090332e-01 -1.951705962419509888e-01 -1.014622747898101807e-01
-1.300749182701110840e-01 -3.603613078594207764e-01 -4.864131510257720947e-01
-3.436181545257568359e-01 -1.951569765806198120e-01 -2.081896811723709106e-01
-2.143695801496505737e-01 -5.486726760864257812e-03 7.168245315551757812e-02
-2.532297968864440918e-01 -5.994632244110107422e-01 1.431817859411239624e-01
-2.729945778846740723e-01 -4.852149188518524170e-01 2.821356058120727539e-01
3.061259984970092773e-01 -3.414103388786315918e-02 -1.591905206441879272e-01
-2.676571607589721680e-01 -9.888327121734619141e-02 -2.411887794733047485e-01
1.405334174633026123e-01 -7.680814862251281738e-01 8.294133096933364868e-02
4.917274713516235352e-01 -3.439683914184570312e-01 2.809492945671081543e-01
3.224449232220649719e-02 -2.915025353431701660e-01 -5.242995023727416992e-01
5.172302126884460449e-01 -3.133693933486938477e-01 -1.376794129610061646e-01
-3.863777965307235718e-02 5.228888988494873047e-02 1.116784512996673584e-01
3.791885972023010254e-01 -2.450146079063415527e-01 -3.511480689048767090e-01
4.714172482490539551e-01 -1.553014665842056274e-01 2.742849476635456085e-02
2.219010591506958008e-01 3.196191787719726562e-02 -1.551820524036884308e-02
2.093997225165367126e-02 6.320616602897644043e-02 7.070606946945190430e-02
-4.037789255380630493e-02 -7.453896999359130859e-01 -5.840210616588592529e-02
-9.294937551021575928e-02 -5.045409798622131348e-01 -4.560167789459228516e-01
-3.485108613967895508e-01 -4.296070337295532227e-01 1.687979400157928467e-01
-8.255876600742340088e-02 -6.690653562545776367e-01 -2.785130739212036133e-01
1.540044248104095459e-01 -2.122253328561782837e-01 5.038526058197021484e-01
3.156137838959693909e-02 -4.825142025947570801e-02 3.712458610534667969e-01
1.482485830783843994e-01 4.730600118637084961e-02 1.057328954339027405e-01
4.601397514343261719e-01 -1.777563989162445068e-01 -1.392813175916671753e-01
4.898993968963623047e-01 -2.581057250499725342e-01 -1.717080771923065186e-01
3.798738718032836914e-01 -1.171642690896987915e-01 -2.155592292547225952e-01
8.115404844284057617e-02 -8.005231618881225586e-02 4.111999273300170898e-01
3.565604090690612793e-01 -5.662926435470581055e-01 3.784751296043395996e-01
5.294142365455627441e-01 -3.574918210506439209e-01 1.819032728672027588e-01
8.695590496063232422e-02 -4.151715636253356934e-01 5.361492037773132324e-01
3.219670653343200684e-01 -6.852549314498901367e-01 2.430265545845031738e-01
5.422433614730834961e-01 -3.249926865100860596e-01 -1.010899432003498077e-02
-1.897345036268234253e-01 -4.173163771629333496e-01 4.193908572196960449e-01
2.388044744729995728e-01 -7.457419633865356445e-01 1.436916589736938477e-01
-1.957748979330062866e-01 -5.891008377075195312e-01 2.765481770038604736e-01
3.346128463745117188e-01 -7.097210884094238281e-01 1.495567709207534790e-01
4.067321419715881348e-01 -3.132536113262176514e-01 3.989132344722747803e-01
3.020894825458526611e-01 -5.137198567390441895e-01 4.531239271163940430e-01
4.576017856597900391e-01 -2.735876739025115967e-01 -2.558886110782623291e-01
5.442566871643066406e-01 -4.482861757278442383e-01 -4.476103466004133224e-03
4.160240292549133301e-01 -6.634984016418457031e-01 1.153230294585227966e-01
7.941964268684387207e-02 -3.374004960060119629e-01 5.412397980690002441e-01
3.723484277725219727e-01 -5.110883116722106934e-01 4.043674468994140625e-01
3.727048039436340332e-01 -1.054070144891738892e-01 2.529467642307281494e-01
3.649498820304870605e-01 -6.929404735565185547e-01 -1.031396090984344482e-01
4.510644078254699707e-01 -3.142204582691192627e-01 3.425495922565460205e-01
-7.734104990959167480e-02 -6.000167131423950195e-02 -3.599907457828521729e-01
4.586412906646728516e-01 -5.414249300956726074e-01 2.718296647071838379e-01
-2.430159300565719604e-01 -3.256341516971588135e-01 -4.073172211647033691e-01
4.052416086196899414e-01 -6.590851545333862305e-01 -1.177540868520736694e-01
7.828073203563690186e-02 6.158739328384399414e-02 -5.974874645471572876e-02
4.412782788276672363e-01 -2.066865563392639160e-01 -2.284299582242965698e-01
2.431192547082901001e-01 -7.886409759521484375e-02 -3.236379921436309814e-01
4.283753037452697754e-01 -6.396474242210388184e-01 1.649547070264816284e-01
-3.937681913375854492e-01 -3.618957698345184326e-01 -1.964786835014820099e-02
4.947711825370788574e-01 -5.123350620269775391e-01 2.231510728597640991e-01
2.985880374908447266e-01 -7.196273803710937500e-01 1.744580715894699097e-01
-6.589287519454956055e-02 -3.322151303291320801e-01 -5.125087499618530273e-01
1.816127449274063110e-02 -4.472538232803344727e-01 -5.129615664482116699e-01
-1.532382220029830933e-01 -1.858428418636322021e-01 4.207594096660614014e-01
2.201345860958099365e-01 2.819076180458068848e-02 -6.721305102109909058e-02
4.638752341270446777e-01 -4.838267564773559570e-01 -2.517274618148803711e-01
3.159354627132415771e-02 -7.003560662269592285e-02 -3.917348980903625488e-01
4.637826085090637207e-01 -2.503326535224914551e-01 2.832540571689605713e-01
2.710559368133544922e-01 -2.235388606786727905e-01 4.682822823524475098e-01
-3.405271172523498535e-01 -5.156693458557128906e-01 -3.521125297993421555e-03
2.336151599884033203e-01 -1.068478524684906006e-01 3.955798745155334473e-01
4.972202777862548828e-01 -4.245753288269042969e-01 -2.102330625057220459e-01
-3.871377706527709961e-01 -3.463402092456817627e-01 7.960253953933715820e-02
3.077172040939331055e-01 -9.131550788879394531e-03 -2.482688613235950470e-02
-3.915091156959533691e-01 -2.687514126300811768e-01 -7.686508446931838989e-02
-3.099213242530822754e-01 -1.207225322723388672e-01 -1.892033517360687256e-01
-1.101762205362319946e-01 -5.249121189117431641e-01 4.247488677501678467e-01
-2.255716174840927124e-01 -2.659875154495239258e-02 -1.561263650655746460e-01
3.216075003147125244e-01 -4.207025766372680664e-01 4.741736650466918945e-01
-2.846387773752212524e-02 -5.024021267890930176e-01 4.811856746673583984e-01
-1.702070087194442749e-01 1.418295502662658691e-02 9.894689917564392090e-02
1.157762110233306885e-01 -3.741037845611572266e-02 -3.350608944892883301e-01
-2.698495388031005859e-01 -8.078303933143615723e-02 1.756007075309753418e-01
-1.241160780191421509e-01 -7.145662307739257812e-01 -6.207583006471395493e-03
2.916916012763977051e-01 -1.982331275939941406e-02 1.769969314336776733e-01
1.347399652004241943e-01 -9.670582413673400879e-02 -4.034783244132995605e-01
-2.203129678964614868e-01 -1.149166822433471680e-01 3.038564324378967285e-01
-3.897636532783508301e-01 -2.546684443950653076e-01 3.184636309742927551e-02
3.749658465385437012e-01 -1.898385286331176758e-01 -3.155118525028228760e-01
-3.375216722488403320e-01 -2.471691071987152100e-01 2.251932173967361450e-01
-1.522701978683471680e-02 -7.422006130218505859e-01 -1.292745918035507202e-01
1.216091960668563843e-02 -7.005361318588256836e-01 2.794008553028106689e-01
1.440479457378387451e-01 -3.683162331581115723e-01 5.397329926490783691e-01
4.678758606314659119e-02 -4.825733006000518799e-01 -5.021880865097045898e-01
1.680182814598083496e-01 -6.432173848152160645e-01 3.917284011840820312e-01
9.262952953577041626e-02 -5.601729154586791992e-01 -4.581331610679626465e-01
1.450960040092468262e-01 -7.076958417892456055e-01 2.936838865280151367e-01
-3.505540490150451660e-01 -3.906781077384948730e-01 1.926772743463516235e-01
-2.170912474393844604e-01 -1.231533735990524292e-01 -3.382264673709869385e-01
-2.347127050161361694e-01 -3.512654900550842285e-01 3.904279768466949463e-01
1.015143692493438721e-01 -4.172146320343017578e-03 2.967441976070404053e-01
-3.389969468116760254e-01 -5.083928704261779785e-01 6.319253891706466675e-02
2.270074486732482910e-01 -1.296386718750000000e-01 -3.932430744171142578e-01
-3.207304477691650391e-01 -5.032399296760559082e-01 1.554444134235382080e-01
-2.964681386947631836e-01 -5.766333937644958496e-01 3.122587315738201141e-02
7.904572784900665283e-02 -1.371997743844985962e-01 4.644650816917419434e-01
-2.831386923789978027e-01 -7.273998856544494629e-02 1.205906569957733154e-01
-2.921803593635559082e-01 -3.437813222408294678e-01 3.195880651473999023e-01
-3.850123286247253418e-02 3.352522850036621094e-02 -1.917244642972946167e-01
-9.577515721321105957e-02 -6.302542686462402344e-01 -3.335808813571929932e-01
-2.596454620361328125e-01 -3.844400048255920410e-01 3.559771776199340820e-01
4.942197799682617188e-01 -2.106560766696929932e-01 -7.962576299905776978e-02
2.645440399646759033e-03 5.842483043670654297e-02 -9.864164143800735474e-02
-3.216959834098815918e-01 -4.475973248481750488e-01 -2.555347681045532227e-01
-1.278739720582962036e-01 -4.178217053413391113e-02 2.960174679756164551e-01
-3.669107556343078613e-01 -4.107601344585418701e-01 1.236358210444450378e-01
-1.680167168378829956e-01 -3.401971757411956787e-01 -4.662660360336303711e-01
4.282069802284240723e-01 -4.813266992568969727e-01 3.613298237323760986e-01
4.324973821640014648e-01 -1.100510209798812866e-01 7.843951135873794556e-02
-2.318406552076339722e-01 -1.034632325172424316e-02 -4.352766554802656174e-03
-1.970349699258804321e-01 -4.125778973102569580e-01 -4.335644245147705078e-01
-9.849309921264648438e-02 -3.229798376560211182e-01 4.930763840675354004e-01
1.919788122177124023e-01 3.645455837249755859e-02 1.033192947506904602e-01
-2.742863893508911133e-01 -5.966690778732299805e-01 6.925138831138610840e-02
-1.609925925731658936e-01 -6.714668273925781250e-01 -1.700516492128372192e-01
2.698520720005035400e-01 1.121962070465087891e-02 5.579892173409461975e-02
-6.660912930965423584e-02 -1.478109657764434814e-01 4.439947307109832764e-01
4.902014136314392090e-01 -5.711449980735778809e-01 -7.948008924722671509e-02
-3.064599037170410156e-01 -4.438632130622863770e-01 2.567149698734283447e-01
1.244543343782424927e-01 5.816116929054260254e-02 3.744759410619735718e-02
-1.436921507120132446e-01 -3.808965384960174561e-01 4.636543095111846924e-01
4.222829937934875488e-01 -4.888830184936523438e-01 -3.124873042106628418e-01
2.148312330245971680e-02 -5.486596226692199707e-01 -4.624755382537841797e-01
3.283875584602355957e-01 -6.595999002456665039e-01 -2.458917945623397827e-01
5.214309692382812500e-01 -2.538794577121734619e-01 -2.351883985102176666e-02
1.699151992797851562e-01 -1.147004961967468262e-01 4.310363531112670898e-01
1.805180609226226807e-01 -7.654521465301513672e-01 -5.579522997140884399e-02
4.777326583862304688e-01 -4.873631596565246582e-01 2.819024324417114258e-01
2.623810768127441406e-01 -5.597797036170959473e-01 -4.097527265548706055e-01
-2.598769664764404297e-01 -2.274092137813568115e-01 3.420355319976806641e-01
-1.411830484867095947e-01 -7.015007734298706055e-02 3.265480697154998779e-01
-2.905037403106689453e-01 -5.962735414505004883e-02 -4.591358825564384460e-02
3.359088301658630371e-01 -3.390027880668640137e-01 4.665351808071136475e-01
3.645651340484619141e-01 -5.603602528572082520e-02 1.299844533205032349e-01
-3.924629092216491699e-01 -3.223823308944702148e-01 -9.331312775611877441e-02
4.066500663757324219e-01 -9.399694204330444336e-02 1.373418867588043213e-01
5.436925292015075684e-01 -4.322606921195983887e-01 1.012741848826408386e-01
3.262090086936950684e-01 -2.284294366836547852e-02 8.985155820846557617e-02
-3.582856059074401855e-01 -4.794513583183288574e-01 1.867787912487983704e-02
-1.940855830907821655e-01 -6.372364163398742676e-01 -2.050739228725433350e-01
-2.448252290487289429e-01 -5.869879722595214844e-01 1.948155015707015991e-01
5.389087796211242676e-01 -3.931821286678314209e-01 1.470491141080856323e-01
-1.648628115653991699e-01 -2.515068650245666504e-02 2.299844026565551758e-01
-1.933842152357101440e-01 -2.506560385227203369e-01 4.183020293712615967e-01
-2.404605746269226074e-01 2.162498384714126587e-01 -4.500074982643127441e-01
-4.076468944549560547e-01 6.294002532958984375e-01 2.526070922613143921e-02
3.124812245368957520e-02 1.050333082675933838e-01 -2.333330512046813965e-01
-3.365979194641113281e-01 6.693326830863952637e-01 -2.986797988414764404e-01
2.215552479028701782e-01 5.529589653015136719e-01 -3.061647117137908936e-01
1.340551227331161499e-01 7.269482612609863281e-01 3.755818903446197510e-01
-1.040387451648712158e-01 8.585873842239379883e-01 -2.739965319633483887e-01
7.161991298198699951e-02 1.386366486549377441e-01 -2.444895505905151367e-01
-2.841428816318511963e-01 1.268982887268066406e-01 3.169431388378143311e-01
2.466838806867599487e-02 6.202861070632934570e-01 5.545907020568847656e-01
2.562817931175231934e-01 4.295675456523895264e-01 1.861208975315093994e-01
-5.404955521225929260e-02 8.820446729660034180e-01 -2.197283208370208740e-01
-1.071140170097351074e-03 7.563132047653198242e-01 -4.489947259426116943e-01
-2.352061420679092407e-01 9.396702051162719727e-02 -2.792087197303771973e-01
6.723998486995697021e-02 7.598202228546142578e-01 -4.027685821056365967e-01
1.804136782884597778e-01 8.058282136917114258e-01 5.136673524975776672e-02
-4.168969988822937012e-01 5.628033280372619629e-01 1.699007749557495117e-01
-1.307523548603057861e-01 3.777485489845275879e-01 -5.849517583847045898e-01
-3.303284049034118652e-01 5.944401025772094727e-01 3.937536180019378662e-01
5.533772706985473633e-02 6.840885281562805176e-01 4.963010847568511963e-01
2.057881802320480347e-01 7.230733036994934082e-01 2.233427166938781738e-01
-2.987468540668487549e-01 7.637557387351989746e-02 -1.068274751305580139e-01
2.427540868520736694e-01 4.295327365398406982e-01 2.507660984992980957e-01
-3.217039704322814941e-01 5.351362228393554688e-01 -4.437373876571655273e-01
-3.165991902351379395e-01 7.666031122207641602e-01 9.741208702325820923e-02
1.665540784597396851e-01 7.448666095733642578e-01 2.930362522602081299e-01
-2.021919786930084229e-01 3.610488772392272949e-01 5.778197646141052246e-01
-4.495649933815002441e-01 3.851311802864074707e-01 -9.418229013681411743e-02
-1.939882636070251465e-01 2.579072713851928711e-01 -5.105659365653991699e-01
-1.244943663477897644e-01 6.813561916351318359e-02 -2.696008384227752686e-01
1.594658493995666504e-01 7.116544246673583984e-01 -3.375426232814788818e-01
1.509503275156021118e-01 2.716595530509948730e-01 -3.176631331443786621e-01
1.134671717882156372e-01 8.655639886856079102e-01 -2.714330330491065979e-02
-2.264771461486816406e-01 5.286988615989685059e-02 -1.718543767929077148e-01
9.171240031719207764e-02 8.203614950180053711e-01 2.830733656883239746e-01
7.826165854930877686e-02 5.282423496246337891e-01 5.514686107635498047e-01
-3.229689896106719971e-01 5.392503738403320312e-01 4.431236088275909424e-01
-4.433093667030334473e-01 5.124774575233459473e-01 4.030641168355941772e-02
4.323922097682952881e-03 6.467401981353759766e-02 1.915147602558135986e-01
-4.132008552551269531e-02 4.064336419105529785e-02 -1.153919473290443420e-01
-2.022962868213653564e-01 6.581601500511169434e-01 -4.995195269584655762e-01
-1.089925765991210938e-01 1.024360358715057373e-01 3.822133839130401611e-01
2.734411954879760742e-01 4.551787972450256348e-01 -1.524229533970355988e-02
-1.439123451709747314e-01 8.024044632911682129e-01 3.655579388141632080e-01
-3.530431985855102539e-01 2.497015893459320068e-01 -3.404762148857116699e-01
1.594754159450531006e-01 7.511081695556640625e-01 -2.854192554950714111e-01
2.303022891283035278e-01 4.625003933906555176e-01 3.091863393783569336e-01
-3.376906514167785645e-01 2.736273109912872314e-01 -3.874290883541107178e-01
-3.782577514648437500e-01 1.632604300975799561e-01 1.467930972576141357e-01
1.917435675859451294e-01 2.322172820568084717e-01 -8.868975937366485596e-02
-8.379079401493072510e-03 4.828673601150512695e-02 1.315239369869232178e-01
-3.607998490333557129e-01 1.691793203353881836e-01 -2.079563140869140625e-01
-4.516046866774559021e-02 4.482651054859161377e-01 -5.938268899917602539e-01
2.741506099700927734e-01 5.146422386169433594e-01 1.030068472027778625e-01
-2.670848071575164795e-01 1.433584988117218018e-01 -3.373835980892181396e-01
-2.955825924873352051e-01 7.761821746826171875e-01 1.617928445339202881e-01
8.660477399826049805e-02 3.149017095565795898e-01 -4.605236053466796875e-01
-1.921937465667724609e-01 8.143145442008972168e-01 -3.000808358192443848e-01
6.897921860218048096e-02 9.727498888969421387e-02 1.548551321029663086e-01
-1.597992777824401855e-01 5.919836759567260742e-01 -5.623546838760375977e-01
-7.798697799444198608e-02 9.000246524810791016e-01 1.201890036463737488e-01
-2.129325270652770996e-01 8.405233025550842285e-01 -1.848204433917999268e-01
-1.613793522119522095e-02 3.645874261856079102e-01 -5.644000768661499023e-01
-2.519682645797729492e-01 3.378123044967651367e-01 -5.189037322998046875e-01
-9.662818163633346558e-02 7.237551212310791016e-01 4.935011565685272217e-01
6.935544312000274658e-02 6.890823841094970703e-01 -4.700163602828979492e-01
1.340768337249755859e-01 3.772053718566894531e-01 -4.379860162734985352e-01
1.017558723688125610e-01 7.960337400436401367e-01 -3.112466633319854736e-01
8.233758807182312012e-02 3.099551796913146973e-01 4.978276193141937256e-01
-2.316124439239501953e-01 6.259483695030212402e-01 -4.989829659461975098e-01
-4.186885356903076172e-01 2.238214164972305298e-01 7.286430150270462036e-02
-3.030773699283599854e-01 7.763727903366088867e-01 -1.367596387863159180e-01
2.503493428230285645e-01 4.241223037242889404e-01 -1.760631501674652100e-01
2.414596825838088989e-01 3.743520975112915039e-01 -1.623228192329406738e-01
-1.921123266220092773e-01 6.284816861152648926e-01 5.306363701820373535e-01
2.474827617406845093e-01 3.656535148620605469e-01 -1.093656420707702637e-01
2.630506753921508789e-01 4.465767443180084229e-01 -1.228370890021324158e-01
-1.511985808610916138e-02 8.521229028701782227e-01 2.976069152355194092e-01
-1.136849075555801392e-01 4.935843944549560547e-01 -5.984524488449096680e-01
-1.980146616697311401e-01 7.203655242919921875e-01 4.422161281108856201e-01
-2.794785499572753906e-01 5.293539166450500488e-02 3.084780834615230560e-02
-3.527529835700988770e-01 5.015587806701660156e-01 4.092493653297424316e-01
-5.537956953048706055e-03 4.751309752464294434e-02 -6.721526384353637695e-02
-2.364331632852554321e-01 3.305980563163757324e-02 -1.639817841351032257e-02
-7.528365403413772583e-02 8.555601835250854492e-01 2.888050079345703125e-01
7.304686307907104492e-02 7.257084846496582031e-01 -4.351236522197723389e-01
-3.450164198875427246e-01 5.704341530799865723e-01 -3.845504522323608398e-01
2.007954269647598267e-01 7.022543549537658691e-01 -2.551482915878295898e-01
-2.481792569160461426e-01 2.724678814411163330e-01 -4.883361458778381348e-01
-3.755526542663574219e-01 6.627271175384521484e-01 -1.772589385509490967e-01
2.120195180177688599e-01 4.518202543258666992e-01 3.561775386333465576e-01
8.678311109542846680e-02 1.482475697994232178e-01 2.816520631313323975e-01
7.467132806777954102e-02 8.870432376861572266e-01 1.354428939521312714e-02
-4.095215350389480591e-02 7.266169190406799316e-01 -4.897061288356781006e-01
-1.331009566783905029e-01 7.454016804695129395e-02 3.260664045810699463e-01
-2.793917655944824219e-01 5.814723968505859375e-01 4.797677993774414062e-01
-1.179075241088867188e-02 9.062206745147705078e-01 7.755516469478607178e-02
-4.408138394355773926e-01 4.130991399288177490e-01 -1.632120609283447266e-01
1.659797877073287964e-01 4.640246629714965820e-01 -4.201306700706481934e-01
-4.385820627212524414e-01 2.866777181625366211e-01 7.467254996299743652e-02
2.023180574178695679e-01 3.234260678291320801e-01 -2.499019801616668701e-01
-1.526438593864440918e-01 7.456477880477905273e-01 -4.470059275627136230e-01
1.850092560052871704e-01 5.010602474212646484e-01 -3.910945951938629150e-01
-1.382475942373275757e-01 2.460586428642272949e-01 -5.170544981956481934e-01
-1.372029781341552734e-01 1.405476629734039307e-01 4.417456388473510742e-01
-1.502600610256195068e-01 9.349474310874938965e-02 -3.250965774059295654e-01
2.706203460693359375e-01 4.840047061443328857e-01 -9.365423023700714111e-02
-3.892614841461181641e-01 1.629493236541748047e-01 5.124557390809059143e-02
2.698861360549926758e-01 4.290125370025634766e-01 4.579070582985877991e-02
-5.095494538545608521e-02 4.953384399414062500e-02 2.181319892406463623e-01
2.022009342908859253e-01 4.816349148750305176e-01 -3.537158370018005371e-01
1.949574500322341919e-01 4.658659398555755615e-01 3.979514837265014648e-01
-1.117093116044998169e-01 8.242521882057189941e-01 3.440988659858703613e-01
1.908564716577529907e-01 7.658110260963439941e-01 1.798047125339508057e-01
-2.106213569641113281e-02 2.174313813447952271e-01 -4.674496650695800781e-01
1.601915806531906128e-01 7.730225324630737305e-01 -2.450561225414276123e-01
-4.136661887168884277e-01 4.228591918945312500e-01 -2.768056690692901611e-01
1.089207679033279419e-01 2.778943181037902832e-01 -4.000774323940277100e-01
2.458134144544601440e-01 4.538221955299377441e-01 -2.172811627388000488e-01
8.701492846012115479e-02 3.699181377887725830e-01 -4.927252531051635742e-01
6.338703632354736328e-02 5.900912880897521973e-01 -5.274955630302429199e-01
-3.708040714263916016e-01 6.578679084777832031e-01 2.037014961242675781e-01
-2.491805404424667358e-01 8.360856771469116211e-01 -4.698619246482849121e-02
1.928682774305343628e-01 6.030566692352294922e-01 -3.562733829021453857e-01
2.204662710428237915e-01 2.727663815021514893e-01 4.014616459608078003e-02
2.728097438812255859e-01 5.273535251617431641e-01 -8.507999777793884277e-02
2.416132539510726929e-01 3.261254429817199707e-01 -3.387403115630149841e-02
-1.137765869498252869e-01 8.736981153488159180e-01 -2.202786207199096680e-01
-4.454779624938964844e-01 4.189289212226867676e-01 1.370139718055725098e-01
-2.640960514545440674e-01 7.855114936828613281e-01 2.310929000377655029e-01
-3.676608800888061523e-01 6.927675604820251465e-01 1.163149401545524597e-01
-4.384726881980895996e-01 3.563698828220367432e-01 -1.606725752353668213e-01
-1.664880663156509399e-01 5.032459497451782227e-01 5.974858403205871582e-01
-3.572728037834167480e-01 6.019684672355651855e-01 3.295537829399108887e-01
4.546664655208587646e-02 1.792552769184112549e-01 -3.632575869560241699e-01
-1.518158763647079468e-01 1.728684604167938232e-01 4.788867831230163574e-01
-3.238842487335205078e-01 1.061582565307617188e-01 1.782678067684173584e-01
-1.786724925041198730e-01 4.174089431762695312e-02 -1.764857470989227295e-01
-3.361765146255493164e-01 3.804049789905548096e-01 4.511658251285552979e-01
-1.543977707624435425e-01 1.429415643215179443e-01 -4.066007137298583984e-01
2.572208642959594727e-01 6.535819172859191895e-01 -6.635258346796035767e-02
-3.066310584545135498e-01 7.052614688873291016e-01 3.062013983726501465e-01
-4.370672106742858887e-01 2.844224572181701660e-01 -7.342910766601562500e-02
1.614412367343902588e-01 3.448203206062316895e-01 4.089324772357940674e-01
1.385277956724166870e-01 1.732369959354400635e-01 -1.504228711128234863e-01
-3.475765511393547058e-02 8.374199271202087402e-02 3.084481656551361084e-01
-2.930888533592224121e-01 5.492005944252014160e-01 -4.766586124897003174e-01
-2.143677026033401489e-01 5.407411456108093262e-01 5.605286359786987305e-01
2.634973526000976562e-01 4.346141219139099121e-01 1.427739858627319336e-01
-3.751658201217651367e-01 3.987723588943481445e-01 -3.737330138683319092e-01
-3.334788978099822998e-02 5.741280913352966309e-01 -5.788399577140808105e-01
-2.529315054416656494e-01 6.467011570930480957e-02 2.099644243717193604e-01
-1.745802164077758789e-02 4.469845592975616455e-01 6.084317564964294434e-01
2.936799824237823486e-02 6.102269887924194336e-02 6.494770199060440063e-02
1.432818174362182617e-01 3.022135496139526367e-01 -3.675730228424072266e-01
-1.977797746658325195e-01 2.116813957691192627e-01 -4.712250232696533203e-01
1.540131866931915283e-02 9.504809975624084473e-02 2.778396606445312500e-01
1.222833991050720215e-02 8.973220586776733398e-01 -1.235515996813774109e-01
3.656493872404098511e-02 2.538467943668365479e-01 4.985175728797912598e-01
-1.935224533081054688e-01 8.657630681991577148e-01 9.781502187252044678e-02
2.505869269371032715e-01 4.746927917003631592e-01 2.407261729240417480e-01
-3.978901505470275879e-01 5.552837252616882324e-01 -2.628195285797119141e-01
-2.664911746978759766e-01 5.074942708015441895e-01 -5.193982720375061035e-01
3.146610409021377563e-02 2.243645340204238892e-01 -4.360953569412231445e-01
-7.427809387445449829e-02 4.209575951099395752e-01 6.171419024467468262e-01
-3.963656425476074219e-01 2.194188088178634644e-01 -1.849328279495239258e-01
-5.235834419727325439e-02 7.041352987289428711e-01 5.164769291877746582e-01
7.501830160617828369e-02 8.771022558212280273e-01 1.213795691728591919e-01
-3.346588611602783203e-01 7.311816215515136719e-01 1.577308475971221924e-01
2.566607594490051270e-01 3.726301789283752441e-01 -3.010765835642814636e-02
-8.663962036371231079e-02 4.136030077934265137e-01 -5.949134826660156250e-01
-3.255132436752319336e-01 1.792262494564056396e-01 -3.073751628398895264e-01
-7.591596245765686035e-02 6.458127498626708984e-02 2.878921627998352051e-01
-3.614197373390197754e-01 3.602053523063659668e-01 4.043162465095520020e-01
1.563734561204910278e-01 2.103568911552429199e-01 -1.931083798408508301e-01
1.831241101026535034e-01 2.330891042947769165e-01 -1.444001495838165283e-01
-5.071654915809631348e-03 9.059916734695434570e-01 -7.655704021453857422e-02
6.025467813014984131e-02 7.954305410385131836e-02 2.422704547643661499e-02
-2.721033096313476562e-01 7.614636421203613281e-01 2.726556360721588135e-01
-1.620878279209136963e-01 8.319082856178283691e-01 2.870962023735046387e-01
-1.623841226100921631e-01 7.496517896652221680e-01 4.338186979293823242e-01
-2.075953781604766846e-02 3.177472651004791260e-01 5.752604007720947266e-01
-3.497939705848693848e-01 2.627558410167694092e-01 3.770342767238616943e-01
-3.189896941184997559e-01 2.022797167301177979e-01 -3.488642275333404541e-01
-1.652597784996032715e-01 1.826286315917968750e-02 -4.650962352752685547e-02
-1.622416079044342041e-01 8.604131937026977539e-01 -2.099727392196655273e-01
1.000705212354660034e-01 1.413971781730651855e-01 -1.808753013610839844e-01
2.679635286331176758e-01 6.071881651878356934e-01 8.669315278530120850e-02
-1.849037408828735352e-01 9.825536608695983887e-02 3.603622615337371826e-01
3.092084825038909912e-02 6.807589530944824219e-02 -8.191572129726409912e-02
-9.393434971570968628e-02 8.899515867233276367e-01 1.629137098789215088e-01
-2.949473559856414795e-01 1.356446444988250732e-01 -2.867696285247802734e-01
-3.764319792389869690e-02 8.551504015922546387e-01 -2.971202135086059570e-01
1.424186378717422485e-01 1.557976603507995605e-01 -2.748041599988937378e-02
8.182629942893981934e-02 2.275459915399551392e-01 -3.824509382247924805e-01
1.249467730522155762e-01 7.337573766708374023e-01 -3.681997954845428467e-01
2.659250497817993164e-01 5.934079885482788086e-01 1.298435032367706299e-01
1.155754178762435913e-02 8.027326464653015137e-01 3.845219016075134277e-01
2.614420652389526367e-01 5.685917139053344727e-01 -1.527676284313201904e-01
1.988909691572189331e-01 5.561369061470031738e-01 -3.592993617057800293e-01
1.238656789064407349e-01 8.459138870239257812e-01 1.355399489402770996e-01
1.610141843557357788e-01 1.851014196872711182e-01 -7.928970456123352051e-02
-3.267624378204345703e-01 7.038295269012451172e-01 2.579685449600219727e-01
-2.647815942764282227e-01 2.395699918270111084e-01 4.746016561985015869e-01
-4.346406459808349609e-01 4.871791601181030273e-01 -1.660579741001129150e-01
-4.010999798774719238e-01 3.482336401939392090e-01 -2.990786731243133545e-01
-3.796364068984985352e-01 6.369020938873291016e-01 -2.164426147937774658e-01
-1.492251604795455933e-01 5.865811705589294434e-01 5.768406391143798828e-01
-3.473423719406127930e-01 6.802974343299865723e-01 -2.492935657501220703e-01
-1.200390607118606567e-01 4.777556657791137695e-02 -2.099366784095764160e-01
2.684710025787353516e-01 5.727741718292236328e-01 -1.020786538720130920e-01
-4.648691788315773010e-02 1.435436904430389404e-01 -3.891778886318206787e-01
1.257798671722412109e-01 1.688462793827056885e-01 2.305664122104644775e-01
-7.345294207334518433e-02 2.925057411193847656e-01 5.762700438499450684e-01
2.276210337877273560e-01 5.004737377166748047e-01 -2.922472655773162842e-01
1.752663701772689819e-01 4.244984686374664307e-01 4.254300892353057861e-01
-3.959413170814514160e-01 6.510064601898193359e-01 6.203787773847579956e-02
-4.429798126220703125e-01 4.543652236461639404e-01 -1.367400288581848145e-01
1.353545039892196655e-01 6.946645975112915039e-01 -3.932659327983856201e-01
1.845806986093521118e-01 3.150288462638854980e-01 -2.908966541290283203e-01
1.276917457580566406e-01 1.473872661590576172e-01 1.380583643913269043e-01
2.224922031164169312e-01 3.435409665107727051e-01 2.454067766666412354e-01
-6.986519694328308105e-02 9.034249782562255859e-01 -1.098413616418838501e-01
-1.808586418628692627e-01 8.060085177421569824e-01 3.248255848884582520e-01
-2.301525920629501343e-01 8.430110216140747070e-01 -1.140427812933921814e-01
2.631830573081970215e-01 4.972098469734191895e-01 -1.521271169185638428e-01
1.797152608633041382e-01 3.417915999889373779e-01 3.692057728767395020e-01
-3.945944309234619141e-01 1.804071664810180664e-01 1.073173880577087402e-01
-3.882814049720764160e-01 2.161484211683273315e-01 2.293035984039306641e-01
-4.020638465881347656e-01 5.834820866584777832e-01 -2.128912806510925293e-01
-1.198232322931289673e-01 4.466637372970581055e-01 -5.980417132377624512e-01
-3.766893148422241211e-01 3.246691823005676270e-01 -3.471749424934387207e-01
1.109452098608016968e-01 8.343866467475891113e-01 -2.087635397911071777e-01
-3.553225398063659668e-01 1.414054334163665771e-01 1.807079315185546875e-01
-5.348309129476547241e-02 3.668311238288879395e-02 1.601576209068298340e-01
-1.326572299003601074e-01 3.674188256263732910e-02 2.132239043712615967e-01
1.868592649698257446e-01 6.478636264801025391e-01 3.625777065753936768e-01
-2.548717260360717773e-01 4.584606587886810303e-01 -5.365399122238159180e-01
1.624640077352523804e-01 8.268017768859863281e-01 -3.813719376921653748e-03
-9.354490786790847778e-02 1.510743200778961182e-01 4.549604356288909912e-01
2.454767674207687378e-01 6.563582420349121094e-01 -1.493135988712310791e-01
-2.870637178421020508e-01 3.096178174018859863e-01 4.936954379081726074e-01
-3.607765436172485352e-01 2.260697484016418457e-01 -2.992565035820007324e-01
-4.396552443504333496e-01 3.754630982875823975e-01 1.710958480834960938e-01
-4.140869379043579102e-01 4.764181077480316162e-01 2.655832469463348389e-01
1.065414100885391235e-01 1.864844858646392822e-01 3.213346600532531738e-01
-2.496706396341323853e-01 8.208850622177124023e-01 1.477707028388977051e-01
-4.134930372238159180e-01 5.139644145965576172e-01 -2.428545355796813965e-01
1.244354695081710815e-01 2.404445409774780273e-01 3.721197545528411865e-01
2.368519455194473267e-01 6.415948867797851562e-01 -2.081945240497589111e-01
3.162325173616409302e-02 1.954107284545898438e-01 4.421185851097106934e-01
-4.007328152656555176e-01 6.138180494308471680e-01 -1.637047827243804932e-01
8.055680990219116211e-02 4.402502775192260742e-01 5.506653785705566406e-01
-3.682695031166076660e-01 6.206975579261779785e-01 -2.811269760131835938e-01
-1.913482844829559326e-01 7.700240612030029297e-01 3.794790208339691162e-01
2.372798770666122437e-01 6.190942525863647461e-01 2.515263557434082031e-01
-1.753300726413726807e-01 3.447094857692718506e-01 -5.637333393096923828e-01
8.711478114128112793e-02 1.017255485057830811e-01 7.596455514430999756e-02
2.154973298311233521e-01 5.637782216072082520e-01 3.459320366382598877e-01
-1.202822029590606689e-01 7.849158644676208496e-01 -4.111206531524658203e-01
5.925022065639495850e-02 8.371737003326416016e-01 -2.817528545856475830e-01
-2.484275698661804199e-01 4.191330075263977051e-02 1.034027338027954102e-01
1.907959729433059692e-01 2.325562983751296997e-01 1.430957317352294922e-01
2.444373816251754761e-01 3.313362002372741699e-01 5.561294406652450562e-02
-1.398229002952575684e-01 1.433175802230834961e-02 4.633605852723121643e-02
-4.114592447876930237e-02 1.800650358200073242e-01 -4.363290071487426758e-01
-2.057950496673583984e-01 8.345690965652465820e-01 2.132742106914520264e-01
1.087070405483245850e-01 5.876827239990234375e-01 -4.874422848224639893e-01
2.242494076490402222e-01 7.069886922836303711e-01 -1.634905934333801270e-01
2.546505331993103027e-01 5.495553612709045410e-01 -1.944120526313781738e-01
1.683630794286727905e-01 1.897346079349517822e-01 9.012842923402786255e-02
-7.110234349966049194e-02 7.676564455032348633e-01 4.471261799335479736e-01
4.405148327350616455e-02 4.015913009643554688e-01 -5.427897572517395020e-01
-1.732280552387237549e-01 8.795194625854492188e-01 6.195724382996559143e-02
5.310133099555969238e-02 4.799648523330688477e-01 5.743904709815979004e-01
-3.582804799079895020e-01 7.052373290061950684e-01 -1.357513368129730225e-01
-2.527100443840026855e-01 8.188943862915039062e-01 -1.566523909568786621e-01
1.075777411460876465e-01 8.178763985633850098e-01 -2.582471668720245361e-01
2.507398128509521484e-01 5.460280179977416992e-01 2.415432929992675781e-01
9.969103336334228516e-02 1.802386939525604248e-01 -2.786493599414825439e-01
1.661202311515808105e-02 4.216693639755249023e-01 5.917251706123352051e-01
-3.189489841461181641e-01 3.364884257316589355e-01 -4.495773315429687500e-01
7.050248980522155762e-02 8.071566820144653320e-01 3.350039720535278320e-01
2.472649067640304565e-01 3.613926470279693604e-01 1.418162286281585693e-01
-3.583790659904479980e-01 5.680177211761474609e-01 3.584855794906616211e-01
1.226931810379028320e-01 1.324741542339324951e-01 2.171669527888298035e-02
1.420527547597885132e-01 8.171681165695190430e-01 -1.831735968589782715e-01
-5.233938992023468018e-02 7.876316308975219727e-01 -4.204294681549072266e-01
-6.039318069815635681e-02 2.005879580974578857e-01 5.039511322975158691e-01
7.788707315921783447e-02 8.457908630371093750e-01 2.389846444129943848e-01
-8.108515292406082153e-02 1.944094896316528320e-02 -5.409391596913337708e-03
-3.753322958946228027e-01 6.893981695175170898e-01 6.427840143442153931e-02
1.430130749940872192e-01 2.303418964147567749e-01 -2.738705873489379883e-01
-4.275608062744140625e-01 2.471197396516799927e-01 -5.340418219566345215e-02
-3.156428337097167969e-01 4.558858275413513184e-01 4.807133376598358154e-01
-4.093768000602722168e-01 2.504473924636840820e-01 2.015441060066223145e-01
-4.088800549507141113e-01 1.968087852001190186e-01 2.499989047646522522e-02
-4.137191176414489746e-01 6.130352616310119629e-01 -4.836258664727210999e-02
-2.881597876548767090e-01 4.967125654220581055e-01 5.066776275634765625e-01
2.266051024198532104e-01 5.274769067764282227e-01 3.252082169055938721e-01
2.310779541730880737e-01 7.305903434753417969e-01 -1.263144984841346741e-02
-2.156149893999099731e-01 5.593637228012084961e-01 -5.454007983207702637e-01
-2.643155679106712341e-02 9.106646776199340820e-01 2.852538600564002991e-02
-3.712504506111145020e-01 2.150026410818099976e-01 2.800248861312866211e-01
3.607889264822006226e-02 8.597456216812133789e-01 2.485626041889190674e-01
2.731730341911315918e-01 5.827326774597167969e-01 -3.259490430355072021e-02
-3.906839489936828613e-01 3.496651351451873779e-01 3.382382392883300781e-01
5.783133208751678467e-03 6.987880468368530273e-01 -5.010225176811218262e-01
-1.605311334133148193e-01 8.872795104980468750e-01 -3.211280331015586853e-02
-2.239370495080947876e-01 4.065161347389221191e-01 -5.563861727714538574e-01
-2.563423514366149902e-01 1.640206873416900635e-01 4.077224135398864746e-01
2.170609384775161743e-01 2.901157736778259277e-01 -1.250083446502685547e-01
2.201451361179351807e-02 7.918696403503417969e-01 -3.927785456180572510e-01
-1.350740045309066772e-01 1.939010620117187500e-02 1.165702268481254578e-01
1.491233110427856445e-01 8.180132508277893066e-01 1.656949222087860107e-01
-3.558171391487121582e-01 4.372100830078125000e-01 4.198500812053680420e-01
-2.661945223808288574e-01 8.220621347427368164e-01 4.365133866667747498e-02
1.754102855920791626e-02 8.927237391471862793e-01 1.411763727664947510e-01
2.229236215353012085e-01 2.784642577171325684e-01 -6.022344343364238739e-03
-1.971737742424011230e-01 3.102353215217590332e-02 1.484497785568237305e-01
-2.677587866783142090e-01 6.554211974143981934e-01 4.361303448677062988e-01
-2.921066284179687500e-01 6.197404861450195312e-01 4.351191818714141846e-01
-1.494902819395065308e-01 8.405076265335083008e-01 -2.860198616981506348e-01
-4.483458399772644043e-01 3.236922025680541992e-01 1.479193475097417831e-02
2.340501695871353149e-01 7.130942344665527344e-01 1.051265597343444824e-01
-2.522699236869812012e-01 3.642202019691467285e-01 5.446159243583679199e-01
-4.416837096214294434e-01 3.319701552391052246e-01 -1.188625171780586243e-01
-9.144149720668792725e-03 7.744162082672119141e-01 4.334285855293273926e-01
4.726779460906982422e-02 5.797463059425354004e-01 5.599008798599243164e-01
-2.255897521972656250e-01 7.388868927955627441e-02 -2.399237751960754395e-01
-2.854419052600860596e-01 7.541950941085815430e-01 -2.664684355258941650e-01
-3.468328341841697693e-02 1.246665716171264648e-01 3.927965462207794189e-01
2.013948708772659302e-01 6.609073281288146973e-01 3.191890120506286621e-01
-2.454275488853454590e-01 1.864104270935058594e-01 -4.155224263668060303e-01
1.322549432516098022e-01 1.990385651588439941e-01 -2.408677339553833008e-01
-2.795400321483612061e-01 3.687797486782073975e-01 -5.048365592956542969e-01
1.977406591176986694e-01 3.439277112483978271e-01 3.267689347267150879e-01
-4.044020175933837891e-01 5.462098121643066406e-01 2.476063370704650879e-01
9.755778312683105469e-02 6.566832065582275391e-01 4.822314977645874023e-01
-1.314327716827392578e-01 2.107661962509155273e-01 5.197836756706237793e-01
-4.235981702804565430e-01 5.802708268165588379e-01 7.407030463218688965e-02
-4.315562844276428223e-01 3.979798555374145508e-01 -2.092958688735961914e-01
-3.223572969436645508e-01 1.279740035533905029e-01 -2.174883782863616943e-01
2.314223200082778931e-01 3.047181367874145508e-01 1.029948368668556213e-01
-2.140213847160339355e-01 2.957693636417388916e-01 5.475697517395019531e-01
2.473370283842086792e-01 6.899997591972351074e-01 -4.103796929121017456e-02
1.596888899803161621e-01 1.937201917171478271e-01 1.743733286857604980e-01
1.175267249345779419e-02 3.522540628910064697e-01 5.753444433212280273e-01
1.236718893051147461e-01 1.414259374141693115e-01 -7.937514781951904297e-02
-3.158751130104064941e-01 7.229045033454895020e-01 -2.563864886760711670e-01
-2.340154498815536499e-01 7.994005680084228516e-01 -2.692702412605285645e-01
-2.960069775581359863e-01 7.576085925102233887e-01 2.207728922367095947e-01
9.921912848949432373e-02 8.685560226440429688e-01 -9.277583658695220947e-02
-8.494935184717178345e-02 2.574208676815032959e-01 -5.246728062629699707e-01
2.604767680168151855e-02 1.231700479984283447e-01 3.311083614826202393e-01
8.926838636398315430e-03 1.548240184783935547e-01 -3.652103543281555176e-01
-2.465788573026657104e-01 8.101931214332580566e-01 2.000862360000610352e-01
1.204682141542434692e-02 8.836481571197509766e-01 -1.910738050937652588e-01
2.193188518285751343e-01 6.220499277114868164e-01 -2.824016213417053223e-01
-3.770969510078430176e-01 6.832966208457946777e-01 -9.224059432744979858e-02
-4.447243213653564453e-01 4.985918998718261719e-01 -6.288144737482070923e-02
3.075063973665237427e-02 4.536325037479400635e-01 -5.627673268318176270e-01
-2.983672320842742920e-01 5.998786687850952148e-01 -4.413786232471466064e-01
-4.444905519485473633e-01 4.664917588233947754e-01 1.175648123025894165e-01
-3.843237757682800293e-01 2.356247901916503906e-01 -2.514499723911285400e-01
-5.219914764165878296e-02 2.334837168455123901e-01 -4.969227910041809082e-01
5.743573606014251709e-02 1.870901584625244141e-01 4.023357033729553223e-01
-3.627018257975578308e-02 1.782452464103698730e-01 4.701725542545318604e-01
2.246033400297164917e-01 3.216613531112670898e-01 2.000718712806701660e-01
-5.345348268747329712e-02 8.224892020225524902e-01 3.637380599975585938e-01
1.806753724813461304e-01 2.066428661346435547e-01 -3.704834729433059692e-02
1.573055982589721680e-01 3.428508043289184570e-01 -3.775833249092102051e-01
-3.826797604560852051e-01 1.531700789928436279e-01 -3.233212977647781372e-02
-2.897910177707672119e-01 8.110412955284118652e-02 1.888531744480133057e-01
9.090921282768249512e-02 6.487735509872436523e-01 -4.779642522335052490e-01
