1.654468476772308350e-02 4.729762673377990723e-01 -8.481407165527343750e-02
4.644852876663208008e-01 2.773414254188537598e-01 6.698015332221984863e-02
1.354099959135055542e-01 -2.024532854557037354e-01 -3.424116075038909912e-01
-1.022639647126197815e-01 3.724015951156616211e-01 -3.170395493507385254e-01
2.744033336639404297e-01 -1.151400581002235413e-01 1.501580774784088135e-01
2.567262947559356689e-02 -1.685209572315216064e-01 4.206152260303497314e-01
-2.928893566131591797e-01 -2.982328534126281738e-01 -5.106130242347717285e-01
1.584791392087936401e-01 -2.463472187519073486e-01 -1.790571808815002441e-01
1.658016592264175415e-01 -8.665814995765686035e-02 -4.440884888172149658e-01
-6.916726827621459961e-01 -4.246105551719665527e-01 2.006489038467407227e-01
-3.993684947490692139e-01 1.372121870517730713e-01 -4.146951138973236084e-01
-3.502428531646728516e-01 6.889098882675170898e-02 -5.113500952720642090e-01
2.407050579786300659e-01 4.929804801940917969e-01 -5.422464758157730103e-02
-7.064761519432067871e-01 -4.123107194900512695e-01 -2.423337101936340332e-01
3.019670248031616211e-01 4.753330945968627930e-01 5.742576718330383301e-02
-5.219535231590270996e-01 -5.403394699096679688e-01 -7.876932621002197266e-02
2.812171578407287598e-01 8.210255205631256104e-02 -4.270618557929992676e-01
-7.849095463752746582e-01 -2.414247840642929077e-01 -1.026775687932968140e-01
7.946941256523132324e-02 4.171510934829711914e-01 -3.174575269222259521e-01
2.782195806503295898e-01 -1.082161441445350647e-01 -2.378630638122558594e-01
-1.915427297353744507e-01 2.432495504617691040e-01 -4.541475474834442139e-01
1.428820192813873291e-02 -3.059490323066711426e-01 -3.233497142791748047e-01
2.787472009658813477e-01 1.318359524011611938e-01 -4.412766098976135254e-01
-1.384074985980987549e-01 4.252426028251647949e-01 -3.251718357205390930e-02
-4.035525023937225342e-01 -3.593659996986389160e-01 -4.628695845603942871e-01
-7.538014650344848633e-01 -1.399278938770294189e-01 7.912511378526687622e-02
-2.687197327613830566e-01 2.945057749748229980e-01 2.889373004436492920e-01
-7.407906651496887207e-01 -1.601662039756774902e-01 -1.933027505874633789e-01
-2.021312713623046875e-01 3.739196658134460449e-01 -1.933824717998504639e-01
-4.676187038421630859e-02 4.559872150421142578e-01 -7.881067693233489990e-02
4.742023348808288574e-02 -2.176992595195770264e-01 -4.259316027164459229e-01
-5.451961159706115723e-01 -3.899466395378112793e-01 -4.002870917320251465e-01
-7.014503479003906250e-01 -4.908575415611267090e-01 -4.707820713520050049e-02
4.629456400871276855e-01 1.736560314893722534e-01 1.290563493967056274e-02
-2.227919995784759521e-01 -3.809615373611450195e-01 3.326247930526733398e-01
-8.044051378965377808e-02 4.235939979553222656e-01 -1.989868581295013428e-01
3.638331890106201172e-01 4.095769524574279785e-01 -2.139669656753540039e-01
-1.984684169292449951e-02 -3.319857716560363770e-01 2.346380054950714111e-01
1.646320968866348267e-01 3.065049648284912109e-01 -4.492740631103515625e-01
-6.452184319496154785e-01 -5.173082351684570312e-01 -7.611599564552307129e-02
-5.408920049667358398e-01 -1.398522555828094482e-01 4.328476786613464355e-01
-5.970499515533447266e-01 1.052834987640380859e-01 -1.335376873612403870e-03
-4.039293527603149414e-01 -5.337836742401123047e-01 -7.321834564208984375e-03
3.615175187587738037e-02 2.962633967399597168e-01 4.283607900142669678e-01
-7.787930965423583984e-01 -2.042789906263351440e-01 5.785715579986572266e-02
-3.935937881469726562e-01 -5.114445686340332031e-01 -2.040097415447235107e-01
-2.033006995916366577e-01 1.553859859704971313e-01 -5.260649323463439941e-01
-7.424490451812744141e-01 -4.488452672958374023e-01 4.223366081714630127e-02
-3.223127126693725586e-01 -4.288413524627685547e-01 -3.712010085582733154e-01
1.769377291202545166e-02 -3.453615307807922363e-01 -2.052346169948577881e-01
6.701661646366119385e-02 4.814465045928955078e-01 7.098510116338729858e-02
-1.469665169715881348e-01 4.180020689964294434e-01 6.422889232635498047e-02
-3.953691124916076660e-01 -4.827728867530822754e-01 -2.887102663516998291e-01
-3.132513761520385742e-01 -1.963597983121871948e-01 -5.619527697563171387e-01
-4.396633505821228027e-01 -5.367480516433715820e-01 -8.955784142017364502e-02
-4.651497006416320801e-01 -3.133675456047058105e-01 -4.830485880374908447e-01
4.305620789527893066e-01 2.976335287094116211e-01 -2.267699241638183594e-01
-9.912605583667755127e-02 5.135540664196014404e-02 -5.881439447402954102e-01
-4.226400703191757202e-02 5.559275299310684204e-02 -5.845292210578918457e-01
-6.780870556831359863e-01 -9.725358337163925171e-03 -1.257480233907699585e-01
-4.526870697736740112e-02 4.289022684097290039e-01 1.923792362213134766e-01
-9.651958942413330078e-03 7.640677690505981445e-02 5.242114067077636719e-01
-1.227428242564201355e-01 1.724882423877716064e-01 4.981606304645538330e-01
3.015790581703186035e-01 2.122909724712371826e-01 3.576475381851196289e-01
-6.013028025627136230e-01 -8.005991578102111816e-02 -3.866020739078521729e-01
-5.113004148006439209e-02 3.312276005744934082e-01 3.787284493446350098e-01
9.026826918125152588e-02 4.852911233901977539e-01 -1.011896282434463501e-01
-3.919904828071594238e-01 1.900601089000701904e-01 -3.515892624855041504e-01
-4.429945945739746094e-01 2.357218414545059204e-01 -1.291052997112274170e-01
9.805466234683990479e-02 3.802944421768188477e-01 -3.796137273311614990e-01
4.175788164138793945e-01 1.173480153083801270e-01 -2.224827706813812256e-01
2.065095454454421997e-01 8.232512325048446655e-02 4.260775148868560791e-01
1.859387755393981934e-02 4.235386848449707031e-01 2.499294579029083252e-01
-1.143152713775634766e-01 -4.021754860877990723e-01 1.889866292476654053e-01
-1.770889759063720703e-01 -3.787770271301269531e-01 -3.806118965148925781e-01
-8.209326863288879395e-02 -1.824462562799453735e-01 -5.381428599357604980e-01
-3.167539834976196289e-03 -2.098870426416397095e-01 -4.754058718681335449e-01
-5.569994449615478516e-01 1.049173176288604736e-01 2.025355994701385498e-01
-2.749004960060119629e-02 2.788898721337318420e-02 5.282884836196899414e-01
-5.431838631629943848e-01 -5.404287576675415039e-01 -8.564606308937072754e-03
-1.086195558309555054e-01 -3.782352209091186523e-01 -3.215129673480987549e-01
-2.357677519321441650e-01 9.304928034543991089e-02 -5.511621832847595215e-01
1.218776851892471313e-01 3.884891867637634277e-01 3.279524147510528564e-01
7.212455570697784424e-02 -1.543531119823455811e-01 3.968254625797271729e-01
-4.435377717018127441e-01 1.361472532153129578e-02 -4.823045134544372559e-01
-6.004821658134460449e-01 5.028629302978515625e-02 -2.357107698917388916e-01
3.087599873542785645e-01 4.782437682151794434e-01 -5.989271402359008789e-02
-2.478322088718414307e-01 -4.871382713317871094e-01 -1.446930170059204102e-01
-7.093258500099182129e-01 -6.786954402923583984e-02 1.262524425983428955e-01
2.936680912971496582e-01 4.837543964385986328e-01 -6.113315001130104065e-03
-4.011752605438232422e-01 -4.549552798271179199e-01 -3.455288112163543701e-01
4.146972298622131348e-01 2.056948393583297729e-01 2.062415778636932373e-01
3.218401074409484863e-01 1.969864368438720703e-01 -4.027085602283477783e-01
7.516175508499145508e-02 -2.688927948474884033e-01 -3.099890053272247314e-01
-4.399745911359786987e-02 2.266250848770141602e-01 -5.178603529930114746e-01
2.826376259326934814e-02 -3.035818934440612793e-01 2.274310290813446045e-01
-1.680407226085662842e-01 -4.855326935648918152e-02 5.416405797004699707e-01
-5.899645686149597168e-01 8.338532596826553345e-02 1.650623083114624023e-01
-4.470966458320617676e-01 -5.007820129394531250e-01 -2.544572055339813232e-01
4.382883310317993164e-01 1.618265509605407715e-01 -1.986414790153503418e-01
-7.428078651428222656e-01 -4.114164710044860840e-01 -1.748842895030975342e-01
8.393317461013793945e-02 9.758088737726211548e-03 4.843789637088775635e-01
-2.908090054988861084e-01 6.609059870243072510e-02 -5.432916879653930664e-01
-7.587386965751647949e-01 -3.632200360298156738e-01 1.467817425727844238e-01
-6.226331591606140137e-01 -4.619054794311523438e-01 2.157396972179412842e-01
4.640673995018005371e-01 2.795207500457763672e-01 -1.347953081130981445e-01
5.945459008216857910e-03 3.379653096199035645e-01 -4.219097197055816650e-01
-7.601690292358398438e-01 -3.134170174598693848e-01 1.699096262454986572e-01
1.407680064439773560e-01 4.210810661315917969e-01 2.768740653991699219e-01
2.816202044486999512e-01 -1.245764866471290588e-01 9.687758237123489380e-02
-2.587431669235229492e-02 -3.911988139152526855e-01 -6.368580460548400879e-02
-3.636150658130645752e-01 1.055390387773513794e-01 -4.759929776191711426e-01
1.797509640455245972e-01 3.264175355434417725e-02 4.311437010765075684e-01
9.337030351161956787e-02 6.104729324579238892e-02 -5.504347681999206543e-01
-4.905151128768920898e-01 -5.421989560127258301e-01 -2.411995455622673035e-02
-6.526778340339660645e-01 3.960980102419853210e-02 -2.833485044538974762e-02
-3.547588586807250977e-01 -3.866837024688720703e-01 3.707895576953887939e-01
-7.081974148750305176e-01 -3.986613824963569641e-02 1.597862318158149719e-02
-6.348657608032226562e-01 -3.704795241355895996e-01 3.096548020839691162e-01
-2.843505740165710449e-01 2.617204785346984863e-01 3.313320875167846680e-01
2.055223435163497925e-01 4.750261902809143066e-01 -1.797963976860046387e-01
2.213441282510757446e-01 3.094025850296020508e-01 3.763878047466278076e-01
-1.059402376413345337e-01 -1.310486495494842529e-01 -5.708956718444824219e-01
-4.855750203132629395e-01 1.753329485654830933e-01 -2.210312485694885254e-01
-5.200026035308837891e-01 -4.087449312210083008e-01 3.358464837074279785e-01
-2.443789839744567871e-01 3.655049800872802734e-01 -1.310695707798004150e-01
1.962490826845169067e-01 4.936694502830505371e-01 4.692302644252777100e-02
4.596914649009704590e-01 3.454254865646362305e-01 -5.588839203119277954e-02
-7.282117605209350586e-01 -1.330651342868804932e-01 1.715583205223083496e-01
2.760940194129943848e-01 4.268679618835449219e-01 2.205499410629272461e-01
-2.247480154037475586e-01 -2.113259583711624146e-01 -5.564034581184387207e-01
-5.273423790931701660e-01 -2.045458704233169556e-01 4.428566992282867432e-01
-1.968146115541458130e-01 3.893516063690185547e-01 -1.327982544898986816e-01
-2.473272383213043213e-01 -2.376353740692138672e-02 -5.851493477821350098e-01
3.922218084335327148e-01 7.295403629541397095e-03 -9.169111400842666626e-02
-7.229406833648681641e-01 -1.787545830011367798e-01 2.246653735637664795e-01
-4.340276718139648438e-01 1.749153733253479004e-01 -3.192768990993499756e-01
-1.640289574861526489e-01 4.013379812240600586e-01 1.266858875751495361e-01
-3.991899490356445312e-01 -3.563906550407409668e-01 4.055762588977813721e-01
-7.930119037628173828e-01 -3.421241044998168945e-01 -5.839785933494567871e-02
-1.042081639170646667e-01 2.979853153228759766e-01 -4.341048598289489746e-01
-5.583160519599914551e-01 7.464040070772171021e-03 3.427704572677612305e-01
-2.328857183456420898e-01 -2.621811628341674805e-01 4.649541079998016357e-01
2.518084645271301270e-01 4.590537548065185547e-01 -2.105959355831146240e-01
-4.293742775917053223e-01 -9.310354292392730713e-02 4.915555417537689209e-01
-4.763177633285522461e-01 2.171874344348907471e-01 -6.735803931951522827e-02
2.114619761705398560e-01 2.749962806701660156e-01 -4.538797736167907715e-01
-2.299107611179351807e-01 -1.471084058284759521e-01 5.242042541503906250e-01
-4.361883401870727539e-01 2.486612945795059204e-01 5.653283745050430298e-02
-1.195949018001556396e-01 -2.961657643318176270e-01 3.870093822479248047e-01
4.563169479370117188e-01 2.383884638547897339e-01 1.036559119820594788e-01
2.891395688056945801e-01 -7.280498743057250977e-03 -3.630068004131317139e-01
-4.032436609268188477e-01 -1.399152576923370361e-01 -5.488589406013488770e-01
6.131422519683837891e-02 -3.308691978454589844e-01 3.889118134975433350e-02
-5.104942321777343750e-01 5.711690336465835571e-02 3.533147275447845459e-01
2.375234514474868774e-01 1.874369680881500244e-01 4.112653732299804688e-01
1.953591853380203247e-01 -2.260034680366516113e-01 -1.050565019249916077e-01
-5.527094602584838867e-01 8.862566947937011719e-02 -2.683455944061279297e-01
-4.927254319190979004e-01 1.902800202369689941e-01 -1.487444788217544556e-01
-7.619307935237884521e-02 2.882905006408691406e-01 4.200278818607330322e-01
-8.653281629085540771e-02 4.453074932098388672e-01 -3.268271312117576599e-02
-2.133082598447799683e-01 -4.638082385063171387e-01 1.247226819396018982e-01
1.394034475088119507e-01 2.238968312740325928e-01 -5.052503943443298340e-01
3.366729617118835449e-01 1.036258786916732788e-01 -3.693625926971435547e-01
3.571026325225830078e-01 -4.910110682249069214e-02 -6.241027265787124634e-02
3.124130368232727051e-01 4.307774901390075684e-01 -2.321903407573699951e-01
-6.074480712413787842e-02 -2.792502641677856445e-01 3.670941889286041260e-01
-6.346485018730163574e-01 5.917090177536010742e-02 4.567932337522506714e-02
-6.557409763336181641e-01 -8.274681866168975830e-02 -3.083272278308868408e-01
-2.276639640331268311e-01 -3.808456659317016602e-01 -4.067925810813903809e-01
8.261206746101379395e-02 1.417979449033737183e-01 -5.475882291793823242e-01
3.155933022499084473e-01 4.417824000120162964e-02 -3.654797673225402832e-01
-4.463652372360229492e-01 1.997456699609756470e-01 -2.455081343650817871e-01
-4.233524203300476074e-03 4.524231553077697754e-01 -1.769726872444152832e-01
3.183996677398681641e-01 -1.000420749187469482e-01 -2.448288910090923309e-02
-1.750810146331787109e-01 -2.885054349899291992e-01 4.239572286605834961e-01
2.482853978872299194e-01 -6.734509021043777466e-03 3.435454070568084717e-01
-6.523970365524291992e-01 -1.895834319293498993e-02 2.109155058860778809e-01
-2.790991067886352539e-01 -5.019624233245849609e-01 2.945081517100334167e-02
6.907100975513458252e-02 4.872909784317016602e-01 -1.810536719858646393e-02
-2.122549414634704590e-01 3.904066085815429688e-01 -5.857876688241958618e-02
-4.321690201759338379e-01 1.446154564619064331e-01 3.434737026691436768e-01
-1.000727713108062744e-01 -4.154812693595886230e-01 1.144834086298942566e-01
3.721835017204284668e-01 4.444004893302917480e-01 4.777319729328155518e-02
-7.123972773551940918e-01 -1.924990713596343994e-01 -2.843953669071197510e-01
-6.872875690460205078e-01 -2.157622277736663818e-01 -3.337094783782958984e-01
-3.308084011077880859e-01 2.477938681840896606e-01 -3.290562331676483154e-01
-4.051648080348968506e-01 -5.274606347084045410e-01 6.250310689210891724e-02
-2.748438119888305664e-01 2.303677946329116821e-01 -4.129791855812072754e-01
6.190864741802215576e-02 -3.348900675773620605e-01 -6.348821520805358887e-02
-5.586721301078796387e-01 -5.058712512254714966e-02 -4.171513617038726807e-01
-4.018534123897552490e-01 -2.170808464288711548e-01 4.883835017681121826e-01
4.858931899070739746e-02 -2.553858160972595215e-01 2.935633361339569092e-01
2.910282611846923828e-01 2.897802591323852539e-01 -4.005941152572631836e-01
-7.190764546394348145e-01 -2.457991540431976318e-01 -2.897398173809051514e-01
-3.701405972242355347e-02 2.446504086256027222e-01 4.644244015216827393e-01
1.859531849622726440e-01 4.419718980789184570e-01 2.316108644008636475e-01
-4.194499850273132324e-01 -4.678360223770141602e-01 2.581244409084320068e-01
-3.626881539821624756e-02 1.506953090429306030e-01 -5.599860548973083496e-01
-2.998642921447753906e-01 3.220574855804443359e-01 1.660895347595214844e-01
-6.668630838394165039e-01 1.754526421427726746e-02 4.812423139810562134e-02
3.396356105804443359e-01 4.608248472213745117e-01 -1.050259619951248169e-01
-3.855473399162292480e-01 2.275666445493698120e-01 2.689558565616607666e-01
-4.377000927925109863e-01 -4.277067780494689941e-01 3.249657452106475830e-01
-1.617360264062881470e-01 3.458504676818847656e-01 -3.216453492641448975e-01
4.055142998695373535e-01 3.461026549339294434e-01 -2.372420728206634521e-01
4.060707688331604004e-01 3.991970792412757874e-02 -1.297037601470947266e-01
2.114445120096206665e-01 4.099953770637512207e-01 2.797029018402099609e-01
-4.534771442413330078e-01 -2.259989529848098755e-01 -5.201792120933532715e-01
2.299960404634475708e-01 1.185135245323181152e-01 -4.792859852313995361e-01
1.806622594594955444e-01 5.451194941997528076e-03 -4.875415563583374023e-01
-3.303561210632324219e-01 -4.660015106201171875e-01 2.313850224018096924e-01
-5.168434381484985352e-01 9.175550192594528198e-03 -4.186761379241943359e-01
3.632118701934814453e-01 1.598950475454330444e-01 -3.511669635772705078e-01
3.846560418605804443e-02 4.428449273109436035e-01 -2.433232963085174561e-01
-1.472501754760742188e-01 9.543699771165847778e-02 -5.723319053649902344e-01
4.331450164318084717e-02 -3.226357698440551758e-01 1.439759433269500732e-01
-1.389707028865814209e-01 3.112633228302001953e-01 -3.981920480728149414e-01
3.391610383987426758e-01 4.284877777099609375e-01 1.586057543754577637e-01
3.500248193740844727e-01 2.696098685264587402e-01 2.971511483192443848e-01
-6.214528679847717285e-01 7.282775640487670898e-02 -8.186908066272735596e-02
-1.074141785502433777e-01 -2.290351092815399170e-01 -5.159627795219421387e-01
-1.548330038785934448e-01 -4.431521892547607422e-01 1.077977195382118225e-01
-5.464823246002197266e-01 -3.010506629943847656e-01 4.057516157627105713e-01
-7.569624781608581543e-01 -3.590784668922424316e-01 -1.948547363281250000e-01
-4.416935443878173828e-01 -5.265469551086425781e-01 -1.629981100559234619e-01
2.577579021453857422e-01 3.440901637077331543e-01 3.314182162284851074e-01
-9.665771573781967163e-02 4.026039242744445801e-01 2.210349738597869873e-01
1.170641630887985229e-01 -2.616702318191528320e-01 1.637316942214965820e-01
-3.782197833061218262e-01 6.716242432594299316e-02 4.609403908252716064e-01
-6.277881860733032227e-01 -1.502451747655868530e-01 3.565348386764526367e-01
5.002707242965698242e-03 4.510684013366699219e-01 1.619054675102233887e-01
-5.367211699485778809e-01 1.474324315786361694e-01 -1.580021083354949951e-01
-6.386260390281677246e-01 -5.938064306974411011e-02 2.880339622497558594e-01
-4.791538119316101074e-01 1.113464683294296265e-01 3.290666043758392334e-01
-2.883970141410827637e-01 3.258028030395507812e-01 -1.992865800857543945e-01
-5.198734402656555176e-01 -5.261186957359313965e-01 -1.705858111381530762e-01
-5.558416843414306641e-01 2.264745905995368958e-02 -3.578948080539703369e-01
-8.079463988542556763e-02 -1.613082736730575562e-02 -5.910169482231140137e-01
-5.606564879417419434e-01 1.426297873258590698e-01 1.556902006268501282e-02
-5.889211297035217285e-01 -1.609915494918823242e-01 -4.347176551818847656e-01
-6.645982712507247925e-02 -4.103024005889892578e-01 -1.191096156835556030e-01
-5.527908802032470703e-01 -5.296021103858947754e-01 7.796134799718856812e-02
-5.758409947156906128e-02 -3.390324115753173828e-01 -3.463900387287139893e-01
-1.299154460430145264e-01 -3.916494250297546387e-01 2.371265292167663574e-01
-5.956938862800598145e-01 -2.889901399612426758e-01 -4.262944757938385010e-01
-3.544261455535888672e-01 -5.162317156791687012e-01 7.448135316371917725e-02
-5.307160615921020508e-01 1.014971435070037842e-01 2.647980451583862305e-01
-1.713795959949493408e-01 -3.527495265007019043e-01 3.443961143493652344e-01
-3.289070725440979004e-01 -4.620704650878906250e-01 -3.106974959373474121e-01
-8.992686867713928223e-03 1.668462604284286499e-01 5.051999688148498535e-01
-9.801010787487030029e-02 1.469652056694030762e-01 -5.574678182601928711e-01
-6.854888796806335449e-01 -4.779147505760192871e-01 -1.624087393283843994e-01
4.750574827194213867e-01 2.528280019760131836e-01 -1.298349257558584213e-02
4.396432638168334961e-01 3.421187996864318848e-01 -1.661337316036224365e-01
2.083678394556045532e-01 -3.443638235330581665e-02 3.680123686790466309e-01
-3.515844047069549561e-02 3.766070008277893066e-01 3.182198107242584229e-01
-1.352371126413345337e-01 -4.453980326652526855e-01 3.439326211810112000e-02
3.621084690093994141e-01 2.169344127178192139e-01 -3.564892113208770752e-01
2.902610898017883301e-01 -1.274767369031906128e-01 3.696511685848236084e-02
-2.977238297462463379e-01 3.439738154411315918e-01 -5.852219834923744202e-02
2.537703514099121094e-02 -3.574571609497070312e-01 -9.945449233055114746e-02
-1.451422125101089478e-01 2.474441677331924438e-01 4.375091791152954102e-01
1.572783738374710083e-01 4.703465700149536133e-01 -1.997665762901306152e-01
1.368601471185684204e-01 -2.330743074417114258e-01 -2.786729633808135986e-01
-6.672073006629943848e-01 6.937727332115173340e-03 9.967500716447830200e-02
2.090708464384078979e-01 -1.159851998090744019e-01 -3.614664971828460693e-01
3.645436763763427734e-01 -3.055018186569213867e-02 4.262876510620117188e-02
-1.807786077260971069e-01 -4.693455100059509277e-01 -4.076308757066726685e-02
1.599124222993850708e-01 -3.470858186483383179e-02 4.142096340656280518e-01
-2.321315854787826538e-01 -4.677045345306396484e-01 -2.144201397895812988e-01
-5.597067475318908691e-01 -2.022824734449386597e-01 -4.640631377696990967e-01
-1.356937289237976074e-01 -9.236042201519012451e-02 5.298824310302734375e-01
-6.100747585296630859e-01 6.708185374736785889e-02 -1.654129326343536377e-01
-3.114787340164184570e-01 -5.104609727859497070e-01 -1.137871816754341125e-01
8.901596069335937500e-03 -2.184828668832778931e-01 3.841260373592376709e-01
1.927171200513839722e-01 -2.259259521961212158e-01 4.095391184091567993e-02
4.092381894588470459e-02 2.583614587783813477e-01 -5.007461309432983398e-01
-7.186626195907592773e-01 -4.569181799888610840e-01 9.688235074281692505e-02
2.686009407043457031e-01 4.668582230806350708e-02 3.546296954154968262e-01
-9.938691556453704834e-02 4.198443293571472168e-01 1.606052815914154053e-01
1.415890306234359741e-01 1.118409037590026855e-01 -5.304081439971923828e-01
2.964086532592773438e-01 -5.728031694889068604e-02 -2.906658947467803955e-01
5.271257460117340088e-02 -1.781660318374633789e-02 -5.548877716064453125e-01
-4.331864714622497559e-01 7.770840078592300415e-02 -4.429873824119567871e-01
-5.212901830673217773e-01 1.806426495313644409e-01 -4.952812567353248596e-03
-5.600119233131408691e-01 -3.449882864952087402e-01 3.746964931488037109e-01
3.909011185169219971e-02 2.069067358970642090e-01 -5.318304300308227539e-01
-6.358362436294555664e-01 -4.384745955467224121e-01 -2.927846610546112061e-01
-2.603777647018432617e-01 -1.107894405722618103e-01 -5.849159359931945801e-01
-3.283614814281463623e-01 8.444774895906448364e-03 5.117453932762145996e-01
-5.152283906936645508e-01 -6.091863662004470825e-02 4.303286671638488770e-01
1.460218429565429688e-02 -3.608740568161010742e-01 4.920451343059539795e-02
-2.051420956850051880e-01 -2.698527574539184570e-01 -5.170182585716247559e-01
-1.415469944477081299e-01 4.056833982467651367e-01 -1.760941147804260254e-01
-2.300413250923156738e-01 3.811249136924743652e-01 4.130239039659500122e-02
-1.222639083862304688e-01 2.589570879936218262e-01 -4.701901376247406006e-01
2.671867609024047852e-01 -6.412322819232940674e-02 -3.363508880138397217e-01
6.620806455612182617e-02 3.081668615341186523e-01 -4.603174924850463867e-01
-6.765029430389404297e-01 -6.216161698102951050e-02 -2.422401905059814453e-01
2.395669966936111450e-01 -1.254736781120300293e-01 -2.942648828029632568e-01
-3.144240379333496094e-01 9.496535360813140869e-02 4.795862734317779541e-01
3.374812602996826172e-01 -1.697852462530136108e-02 1.806743144989013672e-01
-6.328811049461364746e-01 2.920864522457122803e-02 -1.922670006752014160e-01
-3.692106008529663086e-01 -2.186404168605804443e-01 -5.466221570968627930e-01
-4.628732204437255859e-01 1.269452869892120361e-01 -3.545130491256713867e-01
-4.020481407642364502e-01 -1.518667489290237427e-01 5.023251175880432129e-01
-5.962681770324707031e-02 -2.400891482830047607e-01 4.112106561660766602e-01
3.188323378562927246e-01 -5.829089879989624023e-02 -2.336893677711486816e-01
-3.798652887344360352e-01 -4.809864759445190430e-01 2.187643349170684814e-01
-3.360739350318908691e-01 -7.576472312211990356e-02 5.234295725822448730e-01
-3.115468025207519531e-01 3.353548645973205566e-01 4.313753545284271240e-02
-5.368430018424987793e-01 -4.794518947601318359e-01 -2.897410392761230469e-01
-7.432289719581604004e-01 -2.403887510299682617e-01 -2.413572371006011963e-01
8.439491689205169678e-02 -1.721221506595611572e-01 -4.424805045127868652e-01
-3.695848286151885986e-01 -5.222286581993103027e-01 -1.277934610843658447e-01
3.695458173751831055e-01 4.527345299720764160e-01 -2.263404242694377899e-02
1.082095056772232056e-01 -2.981538176536560059e-01 2.454738318920135498e-02
2.234432846307754517e-01 3.619642853736877441e-01 -3.808019459247589111e-01
-2.889022529125213623e-01 -3.325411677360534668e-01 4.171294867992401123e-01
-3.559182882308959961e-01 2.634803652763366699e-01 -2.576234936714172363e-01
-4.232913851737976074e-01 2.607385516166687012e-01 -4.594139754772186279e-02
-2.591225504875183105e-01 2.535153180360794067e-04 5.332412123680114746e-01
-4.135749340057373047e-01 5.795545876026153564e-03 4.720807075500488281e-01
-6.434485912322998047e-01 -5.094974637031555176e-01 7.287064939737319946e-02
4.296797513961791992e-01 7.572441548109054565e-02 -4.479108378291130066e-03
-2.290136814117431641e-01 2.858542203903198242e-01 3.429226577281951904e-01
-3.907681703567504883e-01 -4.445747733116149902e-01 2.950763404369354248e-01
2.183905988931655884e-01 6.083143502473831177e-02 -4.775259792804718018e-01
-7.359637022018432617e-01 -9.265480190515518188e-02 4.749603569507598877e-02
8.926786482334136963e-02 -2.928055524826049805e-01 -2.152231037616729736e-01
2.982914447784423828e-01 8.852429687976837158e-02 3.409550786018371582e-01
4.494231939315795898e-01 3.322487473487854004e-01 8.440690487623214722e-02
-6.556864827871322632e-02 -2.495850473642349243e-01 -4.769428968429565430e-01
-3.439128100872039795e-01 -5.227087736129760742e-01 -3.882234171032905579e-02
-3.032388687133789062e-01 3.316121697425842285e-01 1.130694374442100525e-01
-4.769118428230285645e-01 1.480176001787185669e-01 -2.993614077568054199e-01
-2.921596765518188477e-01 -4.904413819313049316e-01 -1.996971666812896729e-01
-7.859224677085876465e-01 -3.697273731231689453e-01 3.269122540950775146e-02
-5.720590353012084961e-01 9.831568598747253418e-02 -1.995271146297454834e-01
2.624836564064025879e-01 4.889406263828277588e-03 -4.082606434822082520e-01
-2.683803439140319824e-01 3.002046346664428711e-01 -3.022782802581787109e-01
3.364180922508239746e-01 1.496657356619834900e-02 -3.046082854270935059e-01
-3.517050147056579590e-01 1.649513095617294312e-01 -4.276475310325622559e-01
-5.386304259300231934e-01 -2.873463034629821777e-01 -4.635700285434722900e-01
1.666051000356674194e-01 4.877174496650695801e-01 9.086713939905166626e-02
-1.191767603158950806e-01 -4.389994144439697266e-01 -1.018631607294082642e-01
1.905032247304916382e-01 4.176886677742004395e-01 -3.168950974941253662e-01
-1.652257889509201050e-01 -1.396021246910095215e-01 5.193844437599182129e-01
-1.912029087543487549e-01 2.824971079826354980e-01 -4.053912162780761719e-01
-4.607798159122467041e-02 4.583895206451416016e-01 1.997995004057884216e-02
4.599686264991760254e-01 2.219461500644683838e-01 -1.546834409236907959e-01
8.792302012443542480e-02 4.767695665359497070e-01 1.180023625493049622e-01
-3.080184161663055420e-01 -2.943260669708251953e-01 4.531970024108886719e-01
-3.370510339736938477e-01 -3.485959172248840332e-01 -4.727901518344879150e-01
-2.782048285007476807e-01 1.360378116369247437e-01 4.708840250968933105e-01
3.481878638267517090e-01 3.306750655174255371e-01 2.686949074268341064e-01
6.875206530094146729e-02 -1.018382832407951355e-01 -5.110376477241516113e-01
-1.689650714397430420e-01 -1.929716318845748901e-01 -5.571689605712890625e-01
-5.683851242065429688e-01 -5.317119359970092773e-01 -1.167231872677803040e-01
-4.770218133926391602e-01 1.768927127122879028e-01 2.158604860305786133e-01
1.791922599077224731e-01 -1.911776810884475708e-01 -2.873823344707489014e-01
-7.171867489814758301e-01 -3.300268650054931641e-01 -2.845953106880187988e-01
4.197055101394653320e-01 2.352194935083389282e-01 -2.665553092956542969e-01
-4.057868719100952148e-01 2.401130944490432739e-01 2.018543183803558350e-01
-3.720693886280059814e-01 2.971307635307312012e-01 3.212043270468711853e-02
-4.241474866867065430e-01 2.474108189344406128e-01 1.247436627745628357e-01
-3.025603890419006348e-01 -1.723521053791046143e-01 5.161076188087463379e-01
6.576667726039886475e-02 3.392559885978698730e-01 3.881393671035766602e-01
2.926942706108093262e-01 2.232028171420097351e-02 3.081097304821014404e-01
-7.866899371147155762e-01 -3.777635693550109863e-01 -1.974526420235633850e-02
-5.834432244300842285e-01 1.149567216634750366e-01 6.386786699295043945e-02
-6.707175970077514648e-01 -1.833198405802249908e-02 -1.804593205451965332e-01
6.988556683063507080e-02 3.947091698646545410e-01 3.176966309547424316e-01
4.257736206054687500e-01 2.727248072624206543e-01 1.825897991657257080e-01
-6.583458185195922852e-01 -4.895342588424682617e-01 1.209404245018959045e-01
-1.219119504094123840e-01 1.502298563718795776e-02 5.415600538253784180e-01
3.926696777343750000e-01 2.362676411867141724e-01 2.472037971019744873e-01
-6.978302001953125000e-01 -3.416737914085388184e-01 2.645482718944549561e-01
-3.983100056648254395e-01 2.501463294029235840e-01 -2.090349495410919189e-01
-1.822573244571685791e-01 3.753371834754943848e-01 1.976989805698394775e-01
-5.634837746620178223e-01 1.368176788091659546e-01 -7.285674661397933960e-02
-6.030122935771942139e-02 -2.230566926300525665e-02 5.302429199218750000e-01
4.473501443862915039e-01 1.325174123048782349e-01 -1.204090043902397156e-01
-5.452495217323303223e-01 1.531134694814682007e-01 6.790301948785781860e-02
-6.166635751724243164e-01 6.683170050382614136e-02 1.189139559864997864e-01
1.135988086462020874e-01 -1.718339771032333374e-01 3.368072211742401123e-01
3.026090562343597412e-02 -2.742086052894592285e-01 -3.628246486186981201e-01
-1.215860024094581604e-01 -2.202542126178741455e-01 4.611438810825347900e-01
1.803009659051895142e-01 -1.461142003536224365e-01 2.841294705867767334e-01
3.502524495124816895e-01 3.957248330116271973e-01 2.009729146957397461e-01
-4.330664277076721191e-01 2.062940001487731934e-01 2.346261441707611084e-01
-5.462604016065597534e-02 -3.233782052993774414e-01 2.947857975959777832e-01
3.659408688545227051e-01 4.014032334089279175e-02 1.937073171138763428e-01
1.027663499116897583e-01 -7.101999223232269287e-02 4.370794594287872314e-01
-2.252555787563323975e-01 -3.472550511360168457e-01 3.804334402084350586e-01
-1.447873264551162720e-01 -4.380857944488525391e-01 -1.898613572120666504e-01
-2.316274046897888184e-01 -2.519761323928833008e-01 -1.097504496574401855e-01
1.018717885017395020e-01 -5.361731052398681641e-01 1.287914365530014038e-01
7.662028074264526367e-01 1.659828126430511475e-01 -4.139635860919952393e-01
1.922718286514282227e-01 -2.665918171405792236e-01 -5.118125081062316895e-01
8.591950535774230957e-01 -1.235611885786056519e-01 -3.831098675727844238e-01
2.650443911552429199e-01 9.134705364704132080e-02 -4.588888287544250488e-01
2.815073132514953613e-01 -4.152236282825469971e-01 4.182904362678527832e-01
9.028719663619995117e-01 1.970416903495788574e-01 3.451919853687286377e-01
1.225334703922271729e-01 1.469620466232299805e-01 -2.728658020496368408e-01
7.484104633331298828e-01 -1.728542596101760864e-01 4.800452888011932373e-01
4.672442674636840820e-01 -5.087441205978393555e-01 9.080366790294647217e-02
9.192543029785156250e-01 2.651350498199462891e-01 -1.903349310159683228e-01
5.517947077751159668e-01 -4.807303249835968018e-01 -7.096639275550842285e-02
7.759497165679931641e-01 2.651120722293853760e-01 3.296438753604888916e-01
-4.460820555686950684e-02 -4.173810780048370361e-01 -2.999763488769531250e-01
-2.513357996940612793e-02 -1.567939072847366333e-01 4.132784605026245117e-01
9.052538871765136719e-01 5.338281393051147461e-02 4.231235384941101074e-01
7.452915310859680176e-01 -2.821862101554870605e-01 -3.440937101840972900e-01
9.006318449974060059e-02 -2.808024883270263672e-01 -4.753533601760864258e-01
8.570361137390136719e-01 -2.640502452850341797e-01 -2.282440513372421265e-01
7.853895425796508789e-01 -3.403552174568176270e-01 -1.774057298898696899e-01
1.548201143741607666e-01 -1.165474504232406616e-01 5.210095047950744629e-01
3.449447154998779297e-01 -2.530407905578613281e-01 -5.315713286399841309e-01
8.711326718330383301e-01 -1.159343793988227844e-01 4.197101593017578125e-01
3.971869051456451416e-01 2.044837772846221924e-01 3.952499628067016602e-01
2.105612009763717651e-01 4.089011251926422119e-02 4.777527749538421631e-01
-7.866132259368896484e-02 -4.980911314487457275e-01 2.496759220957756042e-02
9.644886255264282227e-01 -2.164991199970245361e-02 3.628028929233551025e-01
5.797573328018188477e-01 -4.197006821632385254e-01 2.961057722568511963e-01
1.061084032058715820e+00 -3.734305500984191895e-04 -1.534558087587356567e-01
5.591070652008056641e-01 -2.573554515838623047e-01 5.147049427032470703e-01
-2.293597459793090820e-01 -2.222311347723007202e-01 9.228002279996871948e-02
-8.163785934448242188e-02 -8.671872317790985107e-03 -2.412997782230377197e-01
1.760020852088928223e-02 -1.757841110229492188e-01 4.503279924392700195e-01
4.064075648784637451e-01 -2.278979867696762085e-01 -5.389126539230346680e-01
4.898524880409240723e-01 -3.425568938255310059e-01 4.644539058208465576e-01
1.698791980743408203e-01 7.710009813308715820e-02 4.198957383632659912e-01
9.860101938247680664e-01 7.976362109184265137e-02 -2.920817136764526367e-01
3.931136131286621094e-01 1.339305341243743896e-01 -4.650090038776397705e-01
2.762129902839660645e-01 -1.838170140981674194e-01 -5.494560003280639648e-01
9.501887559890747070e-01 2.911511957645416260e-01 8.501593023538589478e-02
1.077906131744384766e+00 9.758085012435913086e-02 -1.131511107087135315e-01
-4.937052726745605469e-04 -3.919284045696258545e-01 -3.594438433647155762e-01
2.489528954029083252e-01 -4.626302123069763184e-01 3.496279418468475342e-01
-9.891283512115478516e-02 -4.434209465980529785e-01 1.950895041227340698e-01
-1.303911209106445312e-01 -9.237894415855407715e-02 2.457868158817291260e-01
2.961806654930114746e-01 -2.869154214859008789e-01 5.280390381813049316e-01
4.735795259475708008e-01 -4.279613196849822998e-01 -3.272216618061065674e-01
5.292191505432128906e-01 2.570541501045227051e-01 3.568938076496124268e-01
8.952045440673828125e-01 3.198500275611877441e-01 2.221091277897357941e-02
-2.157658338546752930e-01 -3.255814313888549805e-01 1.200381219387054443e-01
8.815647363662719727e-01 -3.022094368934631348e-01 1.156103238463401794e-02
1.013824462890625000e+00 2.309091389179229736e-01 -1.006464138627052307e-01
-2.075263261795043945e-01 -1.198833212256431580e-01 -3.909786790609359741e-02
2.563312649726867676e-01 2.711609005928039551e-02 5.091670751571655273e-01
-1.624553203582763672e-01 -4.206592589616775513e-02 -3.337169438600540161e-02
1.874761879444122314e-01 1.588279604911804199e-01 3.224964141845703125e-01
-6.705549359321594238e-02 -8.257899433374404907e-02 3.346689343452453613e-01
1.198387444019317627e-01 -5.484077930450439453e-01 -3.828727453947067261e-02
1.040870547294616699e+00 1.177650392055511475e-01 -1.937487870454788208e-01
8.731199502944946289e-01 -2.991896867752075195e-01 -8.353582024574279785e-02
-4.883131384849548340e-02 -1.562803089618682861e-01 -3.993247151374816895e-01
2.522594928741455078e-01 -3.604191243648529053e-01 4.736351370811462402e-01
1.032540440559387207e+00 -1.374879777431488037e-01 -1.169722527265548706e-03
5.436893701553344727e-01 3.468056023120880127e-01 3.308343887329101562e-02
4.455821216106414795e-01 2.531988620758056641e-01 -3.217936158180236816e-01
9.252454042434692383e-01 9.600213170051574707e-02 3.951538205146789551e-01
-1.631211638450622559e-01 -2.980723083019256592e-01 2.531842887401580811e-01
5.113993287086486816e-01 3.129340708255767822e-01 -2.014077007770538330e-01
4.763063788414001465e-01 3.225916624069213867e-01 1.500102728605270386e-01
5.940878987312316895e-01 1.024184376001358032e-01 -4.998523592948913574e-01
4.624204635620117188e-01 1.243620514869689941e-01 5.021439194679260254e-01
-7.227629423141479492e-03 9.377485513687133789e-02 1.613718867301940918e-01
-7.295638322830200195e-02 -3.958221077919006348e-01 2.947816848754882812e-01
-8.799207210540771484e-02 -4.364584386348724365e-01 -2.286536544561386108e-01
2.533004283905029297e-01 -4.950357973575592041e-01 -2.704395353794097900e-01
3.683762848377227783e-01 -5.338148474693298340e-01 -3.966780751943588257e-02
6.927970051765441895e-02 8.232805132865905762e-02 3.185684680938720703e-01
6.870219707489013672e-01 3.550676405429840088e-01 4.109053313732147217e-02
5.401157736778259277e-01 -4.898182451725006104e-01 1.463184319436550140e-02
9.456068873405456543e-01 -2.212763428688049316e-01 1.734295487403869629e-01
1.126239299774169922e-01 -1.976649016141891479e-01 -5.042231082916259766e-01
-7.201951742172241211e-02 -1.772005110979080200e-02 2.605726122856140137e-01
3.074228167533874512e-01 2.648178637027740479e-01 -1.873572766780853271e-01
4.062764346599578857e-01 2.249371707439422607e-01 -3.560383915901184082e-01
6.321469545364379883e-01 4.053832590579986572e-02 5.470238924026489258e-01
3.135336339473724365e-01 -4.915127754211425781e-01 -2.656093835830688477e-01
3.967621326446533203e-01 -4.921790361404418945e-01 -2.248357236385345459e-01
-2.164539098739624023e-01 -3.707699775695800781e-01 6.407490000128746033e-03
-1.899601221084594727e-01 -3.137681782245635986e-01 -2.103569805622100830e-01
6.008040308952331543e-01 1.546017825603485107e-01 4.871366024017333984e-01
6.716350317001342773e-01 3.205996751785278320e-01 2.331490963697433472e-01
7.979402542114257812e-01 -9.971629083156585693e-02 4.832789003849029541e-01
2.334327995777130127e-01 -1.670983880758285522e-01 5.521890521049499512e-01
7.087880373001098633e-01 3.424365520477294922e-01 1.449148505926132202e-01
3.211119771003723145e-01 7.430666685104370117e-02 5.028198361396789551e-01
8.773280382156372070e-01 3.024458289146423340e-01 1.804553717374801636e-01
4.086092710494995117e-01 2.355768382549285889e-01 3.500122427940368652e-01
4.119051396846771240e-01 -5.265382528305053711e-01 1.482142973691225052e-02
3.834946155548095703e-01 -5.226060748100280762e-01 -1.122166439890861511e-01
-7.749027013778686523e-02 5.710639059543609619e-02 -2.829548902809619904e-03
6.235943436622619629e-01 3.541198074817657471e-01 3.776799887418746948e-02
2.584373950958251953e-01 -5.024592280387878418e-01 2.666956782341003418e-01
4.916840791702270508e-01 -2.563208341598510742e-01 -5.089914798736572266e-01
1.051511287689208984e+00 -5.783055350184440613e-02 1.826013028621673584e-01
6.910966634750366211e-01 -3.762888610363006592e-01 2.756902277469635010e-01
6.982804536819458008e-01 2.336487472057342529e-01 3.960565924644470215e-01
5.633455514907836914e-01 -2.504474222660064697e-01 -4.896367490291595459e-01
7.064601182937622070e-01 1.600711643695831299e-01 -4.392760694026947021e-01
-8.122920989990234375e-02 2.729395031929016113e-02 1.520679146051406860e-01
9.049124717712402344e-01 3.057193160057067871e-01 1.253664344549179077e-01
4.568715989589691162e-01 -4.595806002616882324e-01 -2.716197669506072998e-01
2.412869334220886230e-01 -1.113171353936195374e-01 -5.452998280525207520e-01
4.759699702262878418e-01 -2.024825662374496460e-02 5.749835968017578125e-01
2.099330723285675049e-01 -4.088235199451446533e-01 4.212862253189086914e-01
-2.236867547035217285e-01 -3.328488767147064209e-01 -9.294125437736511230e-02
-1.768949627876281738e-01 -2.282339930534362793e-01 -2.529692351818084717e-01
-2.944651246070861816e-02 -5.190055370330810547e-01 -1.554345153272151947e-02
1.685217618942260742e-01 -3.549666106700897217e-01 4.632946252822875977e-01
6.048915982246398926e-01 -6.200954318046569824e-03 -5.364876389503479004e-01
2.559954226016998291e-01 2.689197957515716553e-01 2.662209235131740570e-02
1.088069915771484375e+00 1.294659972190856934e-01 8.798821270465850830e-02
9.371132850646972656e-01 1.566545963287353516e-01 -3.088603317737579346e-01
2.804617881774902344e-01 -5.173724293708801270e-01 2.196104973554611206e-01
5.204760432243347168e-01 -6.339329481124877930e-02 -5.568828582763671875e-01
9.718109965324401855e-01 2.412654459476470947e-01 2.086225599050521851e-01
2.357723712921142578e-01 -3.512831032276153564e-01 -4.678339660167694092e-01
1.002565026283264160e+00 -1.479169279336929321e-01 1.818716228008270264e-01
2.828018963336944580e-01 2.760446667671203613e-01 7.895965129137039185e-02
1.084753751754760742e+00 1.772177219390869141e-02 -8.392922580242156982e-02
6.900336742401123047e-01 -4.219047129154205322e-01 9.607301652431488037e-02
3.015772104263305664e-01 2.544930279254913330e-01 2.207323610782623291e-01
2.831238806247711182e-01 -5.447251200675964355e-01 7.578031718730926514e-02
-1.800289750099182129e-02 6.447142362594604492e-02 -2.253799587488174438e-01
8.634005784988403320e-01 1.907113194465637207e-01 3.791478276252746582e-01
6.468715667724609375e-01 -4.034172892570495605e-01 2.636538743972778320e-01
3.098227083683013916e-01 -5.446425080299377441e-01 1.058230549097061157e-02
8.392511606216430664e-01 3.294401764869689941e-01 -7.740436494350433350e-02
1.057652950286865234e+00 1.551756262779235840e-01 1.736985892057418823e-01
9.559341073036193848e-01 -2.261215746402740479e-01 1.114831715822219849e-01
1.988036632537841797e-01 -4.978396594524383545e-01 -2.667053937911987305e-01
7.587721943855285645e-01 -3.102403879165649414e-01 3.273003399372100830e-01
4.147518575191497803e-01 -1.622706651687622070e-03 -5.495861172676086426e-01
6.419253349304199219e-01 1.988405287265777588e-01 -4.183333814144134521e-01
-5.934953689575195312e-03 -4.689003825187683105e-01 -2.497998178005218506e-01
9.020945429801940918e-01 1.484834700822830200e-01 -3.455856442451477051e-01
-2.403426170349121094e-01 -2.710569500923156738e-01 -4.937493056058883667e-02
8.652001619338989258e-02 1.649744212627410889e-01 1.514030545949935913e-01
1.088126003742218018e-01 5.822233855724334717e-03 4.392230808734893799e-01
3.657054305076599121e-01 1.314132064580917358e-01 4.703272879123687744e-01
8.437631130218505859e-01 1.688320189714431763e-02 4.709424078464508057e-01
7.234995365142822266e-01 3.502961695194244385e-01 8.614957332611083984e-02
9.612876176834106445e-01 1.467582583427429199e-02 -3.262692391872406006e-01
-1.115964055061340332e-01 -1.656163334846496582e-01 -3.347463905811309814e-01
3.712646067142486572e-01 -4.960191249847412109e-01 2.504462599754333496e-01
9.461012482643127441e-02 -1.127019822597503662e-01 4.888672530651092529e-01
5.552757382392883301e-01 2.950119078159332275e-01 2.860543131828308105e-01
-9.098446369171142578e-02 -3.731077313423156738e-01 -3.053398728370666504e-01
9.011324644088745117e-01 3.155389130115509033e-01 -2.915198169648647308e-02
8.117764592170715332e-01 -2.597050964832305908e-01 3.444164097309112549e-01
-1.232969164848327637e-01 -4.714247584342956543e-01 3.599587455391883850e-02
-1.730005145072937012e-01 -4.308168590068817139e-01 -3.151339292526245117e-02
4.930493235588073730e-01 -2.062306702136993408e-01 5.581305027008056641e-01
6.634228229522705078e-01 -3.178299963474273682e-01 -3.692424297332763672e-01
6.455149054527282715e-01 -1.588423103094100952e-01 5.371177792549133301e-01
8.705770969390869141e-01 1.167392134666442871e-01 -3.871691823005676270e-01
1.028767585754394531e+00 -6.353785097599029541e-02 -1.853177249431610107e-01
2.473628520965576172e-02 1.296037137508392334e-01 1.190065518021583557e-01
1.003997325897216797e+00 1.030880957841873169e-02 3.184826672077178955e-01
8.806655406951904297e-01 -2.772484719753265381e-01 1.921692490577697754e-01
8.488564491271972656e-01 3.078936040401458740e-02 -4.265677332878112793e-01
5.481094121932983398e-01 -4.139871522784233093e-02 5.754501223564147949e-01
1.342262625694274902e-01 1.211735010147094727e-01 -3.338285088539123535e-01
8.646148443222045898e-01 3.085833191871643066e-01 -1.382743269205093384e-01
3.655272722244262695e-01 -2.108757197856903076e-02 -5.506908893585205078e-01
4.402021169662475586e-01 -4.378144443035125732e-01 3.513058722019195557e-01
2.198180854320526123e-01 2.242003083229064941e-01 2.054667770862579346e-01
2.371262311935424805e-01 2.097710371017456055e-01 2.692401111125946045e-01
4.489906430244445801e-01 -4.438966512680053711e-02 -5.605355501174926758e-01
7.683311700820922852e-01 8.168636262416839600e-02 -4.600622653961181641e-01
6.615574359893798828e-01 1.855333447456359863e-01 4.548502862453460693e-01
-1.598149538040161133e-01 -3.805390596389770508e-01 -2.059960514307022095e-01
-6.307211518287658691e-02 -4.932942092418670654e-01 1.130392327904701233e-01
3.747158646583557129e-01 -7.512724399566650391e-02 5.771075487136840820e-01
1.077683448791503906e+00 1.477227807044982910e-01 -6.275960057973861694e-02
1.026082992553710938e+00 -1.366642415523529053e-01 1.160421296954154968e-01
5.057344436645507812e-01 -4.922678768634796143e-01 1.313652992248535156e-01
-2.347356081008911133e-01 -2.948979437351226807e-01 6.248477101325988770e-02
9.374137520790100098e-01 2.140417397022247314e-01 -2.531509399414062500e-01
1.040112495422363281e+00 3.777398169040679932e-02 2.632243335247039795e-01
8.537898063659667969e-01 -2.367442846298217773e-01 -2.797008156776428223e-01
-1.588675379753112793e-01 -4.611202701926231384e-02 7.712127268314361572e-02
-1.145525574684143066e-01 -4.585278332233428955e-01 1.299973130226135254e-01
7.119164466857910156e-01 -2.347995638847351074e-01 -4.223219752311706543e-01
9.918559789657592773e-01 2.327095270156860352e-01 -1.470724046230316162e-01
1.862109750509262085e-01 -5.524176359176635742e-01 -9.723730385303497314e-03
-1.516373157501220703e-01 -1.911601573228836060e-01 -2.871712744235992432e-01
5.087158083915710449e-01 -4.233650565147399902e-01 3.423269391059875488e-01
-1.572914123535156250e-01 -1.050072386860847473e-01 -2.184413522481918335e-01
7.999135255813598633e-01 1.010442525148391724e-02 -4.591469764709472656e-01
-2.202058434486389160e-01 -1.603172719478607178e-01 -7.680229842662811279e-02
6.850162148475646973e-02 1.719037890434265137e-01 -1.068042591214179993e-03
3.748392164707183838e-01 -2.720298767089843750e-01 5.381113886833190918e-01
9.471374154090881348e-01 1.404337137937545776e-01 3.533520102500915527e-01
7.623993754386901855e-01 -1.016796976327896118e-01 -4.665506184101104736e-01
8.990851640701293945e-01 -2.861191928386688232e-01 6.511826068162918091e-02
1.088590383529663086e+00 6.792128086090087891e-02 1.351406425237655640e-01
5.931730866432189941e-01 -1.242543905973434448e-01 5.633165836334228516e-01
3.307088911533355713e-01 2.218136489391326904e-01 -3.211436271667480469e-01
6.763367056846618652e-01 -3.937146663665771484e-01 -2.132969647645950317e-01
5.043416023254394531e-01 -3.619935512542724609e-01 -4.105924963951110840e-01
-2.153965830802917480e-02 -2.276278585195541382e-01 4.217377305030822754e-01
1.039307236671447754e+00 -9.237758070230484009e-02 -1.178153380751609802e-01
3.510326147079467773e-01 -3.208184242248535156e-01 5.077201724052429199e-01
8.264240026473999023e-01 2.980243265628814697e-01 -2.045279145240783691e-01
1.526361703872680664e-02 1.263494640588760376e-01 -1.081292703747749329e-01
3.114099502563476562e-01 -1.205841451883316040e-02 5.480839014053344727e-01
6.794818639755249023e-01 -4.035604596138000488e-01 2.153274416923522949e-01
9.822601079940795898e-01 2.013796567916870117e-01 -2.136321663856506348e-01
5.853977799415588379e-01 3.279139995574951172e-01 -1.775759607553482056e-01
8.479015827178955078e-01 2.315983772277832031e-01 3.432305455207824707e-01
7.070122361183166504e-01 -4.028238654136657715e-01 1.610205620527267456e-01
5.765393376350402832e-01 -7.865643501281738281e-02 -5.463599562644958496e-01
1.728650629520416260e-01 -5.485816001892089844e-01 -6.869990378618240356e-02
2.627213001251220703e-01 -8.372647315263748169e-02 5.550836324691772461e-01
2.428832352161407471e-01 2.472611069679260254e-01 -1.550179719924926758e-01
6.312524080276489258e-01 1.512666791677474976e-01 -4.623917341232299805e-01
1.152787804603576660e-01 -1.742880791425704956e-01 5.079876780509948730e-01
2.660724222660064697e-01 -5.467805862426757812e-01 -5.315075069665908813e-02
2.716433107852935791e-01 -4.174335598945617676e-01 -4.010279476642608643e-01
