-2.202274054288864136e-01 -9.530678391456604004e-03 5.528374910354614258e-01
3.850387036800384521e-01 1.328994631767272949e-01 3.059888184070587158e-01
1.865031421184539795e-01 8.005829900503158569e-02 -6.941366791725158691e-01
4.198104143142700195e-01 2.523559629917144775e-01 -2.420709729194641113e-01
-5.133980512619018555e-01 1.607173532247543335e-01 -4.656220078468322754e-01
-4.367974773049354553e-02 3.219967782497406006e-01 5.868934988975524902e-01
-5.181843042373657227e-01 1.211631298065185547e-02 -1.551490873098373413e-01
-3.525912761688232422e-04 5.353942513465881348e-03 5.720931291580200195e-01
-2.761218547821044922e-01 -5.450358986854553223e-02 2.711083590984344482e-01
-2.210631370544433594e-01 5.709385871887207031e-02 7.211844921112060547e-01
-3.621501848101615906e-02 2.865637838840484619e-01 -7.245386242866516113e-01
-1.831127703189849854e-01 2.445907592773437500e-01 7.475783824920654297e-01
4.396563768386840820e-01 1.998774409294128418e-01 1.192204505205154419e-01
-4.676923453807830811e-01 2.764807045459747314e-01 3.663423657417297363e-01
6.315290927886962891e-03 3.965916633605957031e-01 -3.988175094127655029e-02
-1.226500421762466431e-01 2.674131393432617188e-01 7.217212915420532227e-01
-3.819169402122497559e-01 2.655040919780731201e-01 5.656871199607849121e-01
-3.791685402393341064e-02 3.529742658138275146e-01 4.629163146018981934e-01
-5.288865417242050171e-02 -9.497269988059997559e-03 5.458279252052307129e-01
-3.466126695275306702e-02 6.107860058546066284e-02 7.212229371070861816e-01
1.502858847379684448e-01 -2.183951437473297119e-02 2.741052210330963135e-01
-1.721809953451156616e-01 1.646371632814407349e-01 8.098853230476379395e-01
-1.300640851259231567e-01 -7.540839910507202148e-02 -1.176790595054626465e-01
2.821042239665985107e-01 3.416273593902587891e-01 1.288893371820449829e-01
3.132949173450469971e-01 5.961642414331436157e-02 -4.465098083019256592e-01
-2.914574742317199707e-01 -6.655235588550567627e-02 -1.663037948310375214e-02
-3.557048141956329346e-01 2.576654255390167236e-01 -5.906471014022827148e-01
-1.282292753458023071e-01 3.885008692741394043e-01 -1.725726276636123657e-01
-1.653109341859817505e-01 3.341716527938842773e-01 -5.381451845169067383e-01
5.399666726589202881e-02 -4.632367193698883057e-02 -3.334708809852600098e-01
-4.633113145828247070e-01 2.069429755210876465e-01 -5.197899341583251953e-01
-2.923396229743957520e-01 -6.353069841861724854e-02 -1.263631880283355713e-01
1.480232924222946167e-01 3.748537898063659668e-01 1.702517271041870117e-01
-3.616002798080444336e-01 -3.747357428073883057e-02 -2.744211852550506592e-01
-1.588436216115951538e-02 3.404931426048278809e-01 5.148309469223022461e-01
2.300059795379638672e-01 2.812918424606323242e-01 -6.124758720397949219e-01
1.393874585628509521e-01 1.746099442243576050e-01 -8.008733987808227539e-01
3.824050724506378174e-01 2.790398299694061279e-01 -3.036576807498931885e-01
-5.793595314025878906e-01 1.076869219541549683e-01 -2.673742473125457764e-01
-3.961929976940155029e-01 3.374378979206085205e-01 -3.100354038178920746e-02
-3.380801379680633545e-01 -5.320823192596435547e-02 1.740197539329528809e-01
-4.542626440525054932e-01 3.008995056152343750e-01 -2.094024121761322021e-01
7.015010714530944824e-02 3.623944222927093506e-01 3.684408962726593018e-01
1.024552285671234131e-01 -5.326952040195465088e-02 -1.129865646362304688e-02
-5.527762174606323242e-01 5.674321204423904419e-02 -2.509213685989379883e-01
-5.423175096511840820e-01 2.566046416759490967e-01 1.653992384672164917e-01
-1.503094583749771118e-01 9.530931711196899414e-04 -6.297215223312377930e-01
2.203486859798431396e-01 1.095207035541534424e-02 -4.368443489074707031e-01
3.604156970977783203e-01 4.527872055768966675e-02 -5.611313506960868835e-02
-7.602436840534210205e-02 -5.677302181720733643e-02 3.013144731521606445e-01
2.056600749492645264e-01 2.115616202354431152e-01 6.391386389732360840e-01
-7.599370181560516357e-02 -7.509794831275939941e-02 -8.017661422491073608e-02
2.416069209575653076e-01 2.757472991943359375e-01 5.070543289184570312e-01
-2.345696836709976196e-02 -6.653076410293579102e-02 -2.063832134008407593e-01
-3.937588930130004883e-01 2.811439335346221924e-01 -4.669935107231140137e-01
-5.212172269821166992e-01 5.974403023719787598e-02 4.150134325027465820e-01
-4.184599220752716064e-01 3.295867741107940674e-01 2.419788762927055359e-02
-1.878251433372497559e-01 -7.413913309574127197e-02 9.040006995201110840e-02
-3.611890077590942383e-01 -2.642315626144409180e-02 3.669444918632507324e-01
4.333965778350830078e-01 1.200531423091888428e-01 1.467763260006904602e-02
-3.767333030700683594e-01 2.986220717430114746e-01 4.624183177947998047e-01
1.241094917058944702e-01 -1.613621413707733154e-02 -4.499493241310119629e-01
-1.255360841751098633e-01 2.228572517633438110e-01 -8.101474642753601074e-01
3.798349946737289429e-02 1.169434487819671631e-01 -8.257189393043518066e-01
-2.138680592179298401e-02 1.074475049972534180e-02 -6.580698490142822266e-01
4.315530657768249512e-01 2.528434991836547852e-01 -5.566912144422531128e-02
-3.358450531959533691e-01 -5.883908271789550781e-02 5.220498517155647278e-02
3.011254966259002686e-01 2.345092594623565674e-01 -6.071159243583679199e-01
-1.433148682117462158e-01 3.609162867069244385e-01 4.009831249713897705e-01
-3.768739104270935059e-01 3.156807124614715576e-01 3.786952495574951172e-01
-2.262917309999465942e-01 3.505044579505920410e-01 -4.008996784687042236e-01
1.361926645040512085e-01 -4.493710398674011230e-02 2.809235453605651855e-02
-9.519074857234954834e-02 3.326075673103332520e-01 5.499637126922607422e-01
-2.478131651878356934e-01 1.386764347553253174e-01 -7.913374900817871094e-01
-4.247690737247467041e-01 1.153846681118011475e-01 -6.159021258354187012e-01
-4.482032358646392822e-02 3.961848020553588867e-01 5.163174495100975037e-02
-3.057704567909240723e-01 1.531457602977752686e-01 -7.514619827270507812e-01
-8.093073964118957520e-03 -6.990621984004974365e-02 -8.556069433689117432e-02
3.736740350723266602e-01 3.037741482257843018e-01 -1.398694515228271484e-01
-1.468588560819625854e-01 2.217900753021240234e-01 7.824459671974182129e-01
4.039829373359680176e-01 2.780352234840393066e-01 3.628098964691162109e-02
-5.597304105758666992e-01 1.365292370319366455e-01 -3.521236181259155273e-01
1.142010092735290527e-01 -2.689777314662933350e-02 3.079049289226531982e-01
-2.464266568422317505e-01 -5.789454281330108643e-02 -2.810420989990234375e-01
1.176671534776687622e-01 3.683629631996154785e-01 -3.555401265621185303e-01
-3.064883947372436523e-01 -1.299367845058441162e-02 -4.891009628772735596e-01
-3.872679173946380615e-01 3.401325047016143799e-01 8.570720255374908447e-02
-4.044828712940216064e-01 -2.802880108356475830e-02 -2.493689507246017456e-01
6.520581245422363281e-02 5.403863638639450073e-02 -7.321438193321228027e-01
4.131757318973541260e-01 2.133616358041763306e-01 -3.783320486545562744e-01
-4.667494818568229675e-02 -7.341885566711425781e-02 2.123302966356277466e-02
-5.439777374267578125e-01 7.528478652238845825e-02 -3.333543539047241211e-01
4.340879321098327637e-01 1.443349570035934448e-01 1.162583231925964355e-01
-5.420095324516296387e-01 2.477828860282897949e-01 2.398466318845748901e-01
-2.923474907875061035e-01 3.644832968711853027e-01 1.459720432758331299e-01
-3.329180181026458740e-02 3.819554448127746582e-01 -3.130729794502258301e-01
-3.397418260574340820e-01 3.024744093418121338e-01 5.013916492462158203e-01
1.239493638277053833e-01 3.855601549148559570e-01 5.125200375914573669e-02
3.305396735668182373e-01 1.899375468492507935e-01 -5.961072444915771484e-01
-5.569854974746704102e-01 1.227621883153915405e-01 4.204688668251037598e-01
-4.701515734195709229e-01 2.748114466667175293e-01 -3.165276944637298584e-01
-4.333335161209106445e-01 -1.734489202499389648e-02 2.839166224002838135e-01
3.212559223175048828e-01 2.735692560672760010e-01 3.732883334159851074e-01
-1.382325738668441772e-01 3.542960882186889648e-01 -4.601667523384094238e-01
5.806760489940643311e-02 2.671347260475158691e-01 6.869683265686035156e-01
-9.251186251640319824e-02 3.524926900863647461e-01 -4.928155839443206787e-01
-3.520287275314331055e-01 3.061690926551818848e-01 -4.428605139255523682e-01
3.234768807888031006e-01 3.192929327487945557e-01 -2.846718132495880127e-01
2.462952136993408203e-01 1.134330779314041138e-01 5.662142634391784668e-01
-1.327250301837921143e-01 3.210735917091369629e-01 5.845881700515747070e-01
-1.818679869174957275e-01 3.307124972343444824e-01 5.308106541633605957e-01
1.402421295642852783e-02 5.625166743993759155e-02 6.921333670616149902e-01
2.157707512378692627e-01 3.369701504707336426e-01 3.335904777050018311e-01
4.278047084808349609e-01 1.249647364020347595e-01 -2.483841478824615479e-01
6.362016499042510986e-02 -2.133288979530334473e-02 4.112224578857421875e-01
3.430895507335662842e-02 3.837436437606811523e-01 -2.834845781326293945e-01
-3.122168183326721191e-01 2.674093246459960938e-01 6.356676816940307617e-01
-5.634821951389312744e-03 1.283767819404602051e-01 7.853099703788757324e-01
-1.854835450649261475e-01 -6.479996442794799805e-02 -2.641837000846862793e-01
3.264324963092803955e-01 2.411370575428009033e-01 -5.558595657348632812e-01
-3.057549148797988892e-02 2.445921897888183594e-01 -7.984828948974609375e-01
-2.693929672241210938e-01 -6.894147396087646484e-02 4.960523173213005066e-02
-1.476400196552276611e-01 -7.166326045989990234e-02 1.591937988996505737e-01
-4.111572802066802979e-01 1.325252652168273926e-02 4.787494838237762451e-01
2.764575183391571045e-01 1.665604561567306519e-01 -6.776664257049560547e-01
4.508755207061767578e-01 1.736682951450347900e-01 3.274457156658172607e-02
-1.821998953819274902e-01 -4.580888152122497559e-02 -4.170196950435638428e-01
-2.359402626752853394e-01 3.230279088020324707e-01 -5.257767438888549805e-01
-1.222272887825965881e-01 -7.686211168766021729e-02 -5.052569508552551270e-02
4.344905614852905273e-01 1.205774173140525818e-01 -1.567648649215698242e-01
-2.840220332145690918e-01 -4.340378940105438232e-02 -3.538253307342529297e-01
3.130333125591278076e-01 3.194122016429901123e-02 1.709781438112258911e-01
3.736035823822021484e-01 2.955977916717529297e-01 -2.393375039100646973e-01
4.217467904090881348e-01 2.024460285902023315e-01 2.095963954925537109e-01
3.993316590785980225e-01 7.921625673770904541e-02 2.079232037067413330e-02
-2.372837364673614502e-01 -5.132614076137542725e-02 -3.450495600700378418e-01
-2.793373465538024902e-01 3.708744943141937256e-01 -1.393893733620643616e-02
3.586729466915130615e-01 3.028396368026733398e-01 1.308894753456115723e-01
3.015892803668975830e-01 6.571906059980392456e-02 -4.949879944324493408e-01
-5.746417492628097534e-02 3.670122623443603516e-01 3.862382173538208008e-01
-2.959800660610198975e-01 3.401355743408203125e-01 3.772106468677520752e-01
-2.531313896179199219e-01 -1.668328046798706055e-02 -5.201776027679443359e-01
-1.891836524009704590e-03 3.917952775955200195e-01 1.465802192687988281e-01
-5.972044542431831360e-02 4.888705164194107056e-02 -7.547893524169921875e-01
-2.042524814605712891e-01 3.824405670166015625e-01 -1.091485768556594849e-01
-1.037218794226646423e-01 1.832168996334075928e-01 -8.430024981498718262e-01
4.536144137382507324e-01 1.839959323406219482e-01 -1.574402600526809692e-01
2.761330008506774902e-01 3.150500655174255371e-01 -4.350368380546569824e-01
-2.142044007778167725e-01 3.544217348098754883e-01 3.890713155269622803e-01
6.420528888702392578e-02 3.865737318992614746e-01 -2.268846780061721802e-01
-2.157831937074661255e-01 5.639716982841491699e-03 -6.201525330543518066e-01
-1.263849735260009766e-01 1.411266624927520752e-02 -6.726432442665100098e-01
-1.188084334135055542e-01 -7.324096560478210449e-02 -1.672825068235397339e-01
-3.165779113769531250e-01 3.524257540702819824e-01 -2.140735089778900146e-01
1.188138425350189209e-01 -4.741418361663818359e-02 -1.635352224111557007e-01
-3.058422207832336426e-01 3.413302004337310791e-01 -3.355805575847625732e-01
4.112379997968673706e-02 6.809443235397338867e-03 -6.211279034614562988e-01
-6.598927080631256104e-02 2.965438365936279297e-01 6.610486507415771484e-01
-1.351229846477508545e-03 2.623544931411743164e-01 7.184911966323852539e-01
-2.893503606319427490e-01 3.559948801994323730e-01 2.659415006637573242e-01
1.294427812099456787e-01 -1.493348181247711182e-02 3.573201596736907959e-01
-2.840868532657623291e-01 3.068098723888397217e-01 5.474031567573547363e-01
1.408420503139495850e-03 3.868209123611450195e-01 2.133710235357284546e-01
-2.263268679380416870e-01 -6.923066079616546631e-02 1.492681354284286499e-01
-4.091402888298034668e-01 2.296466827392578125e-01 -5.730187296867370605e-01
-3.171157240867614746e-01 3.556592464447021484e-01 1.923874169588088989e-01
3.296079635620117188e-01 9.972618520259857178e-02 3.928967416286468506e-01
4.331202507019042969e-01 1.999085098505020142e-01 -3.075904846191406250e-01
1.576906889677047729e-01 2.755783498287200928e-02 4.993629157543182373e-01
2.586236894130706787e-01 2.891222834587097168e-01 4.482098221778869629e-01
1.075974553823471069e-01 3.012313842773437500e-01 5.839928984642028809e-01
-1.795855164527893066e-01 3.491783738136291504e-01 4.469095468521118164e-01
7.845328748226165771e-02 3.547163009643554688e-01 -4.718043208122253418e-01
3.757839202880859375e-01 1.739458888769149780e-01 3.670261204242706299e-01
-4.380806088447570801e-01 -2.733448147773742676e-02 1.690902411937713623e-01
-5.885160565376281738e-01 1.939142346382141113e-01 -1.666197031736373901e-01
7.009285688400268555e-02 -3.403134644031524658e-02 -4.079108834266662598e-01
-3.056174814701080322e-01 3.622707724571228027e-01 -1.091947108507156372e-01
2.549174726009368896e-01 4.633858799934387207e-03 1.861214190721511841e-01
2.150784432888031006e-01 3.060391247272491455e-01 4.617202579975128174e-01
-1.254048645496368408e-01 2.709273695945739746e-01 -7.396850585937500000e-01
8.407728374004364014e-02 3.426755070686340332e-01 4.594730138778686523e-01
-4.620473682880401611e-01 7.163707166910171509e-02 5.532821416854858398e-01
6.692263484001159668e-02 2.985976934432983398e-01 6.164835095405578613e-01
-5.168940126895904541e-02 -4.458487033843994141e-02 -4.296781420707702637e-01
1.687285900115966797e-01 3.478388786315917969e-01 3.478649556636810303e-01
7.203194499015808105e-02 2.189335376024246216e-01 -8.101926445960998535e-01
-4.431425407528877258e-02 3.601894974708557129e-01 -4.651266634464263916e-01
-1.803979277610778809e-02 3.752418756484985352e-01 -3.702791631221771240e-01
1.121419668197631836e-01 2.448287308216094971e-01 -7.662501335144042969e-01
2.636915743350982666e-01 3.552612662315368652e-01 -1.105564087629318237e-01
-5.625029802322387695e-01 1.974285244941711426e-01 -2.808921337127685547e-01
-1.541796624660491943e-01 3.889846801757812500e-01 -1.063776314258575439e-01
2.885651886463165283e-01 3.628728538751602173e-02 2.835492193698883057e-01
-1.119399070739746094e-01 -5.276452004909515381e-02 3.454636931419372559e-01
-4.852741956710815430e-01 3.494521975517272949e-02 -3.790868818759918213e-01
-2.935752272605895996e-01 -6.435540318489074707e-02 1.014516353607177734e-01
-4.747545421123504639e-01 2.818617522716522217e-01 3.159401118755340576e-01
-2.829008102416992188e-01 2.392319291830062866e-01 7.108083963394165039e-01
1.259558051824569702e-01 3.863633275032043457e-01 -8.280985057353973389e-02
2.538870871067047119e-01 3.322065472602844238e-01 -3.904701769351959229e-01
3.698195517063140869e-01 2.752729356288909912e-01 2.347398251295089722e-01
2.521337866783142090e-01 6.932675093412399292e-02 4.775288403034210205e-01
-6.114895343780517578e-01 1.120093837380409241e-01 -8.963844180107116699e-02
3.261560201644897461e-02 3.947737812995910645e-01 -9.469383955001831055e-02
-2.660723328590393066e-01 2.639443576335906982e-01 -6.717480421066284180e-01
-4.919289350509643555e-01 -8.381769061088562012e-03 -8.021326363086700439e-02
-1.727141439914703369e-02 -5.950947105884552002e-02 -2.897363603115081787e-01
6.931026279926300049e-02 -5.075663328170776367e-02 -2.621894180774688721e-01
-2.801626622676849365e-01 2.865562736988067627e-01 -6.042007207870483398e-01
2.803435027599334717e-01 9.983164072036743164e-02 -6.132037043571472168e-01
-6.177207827568054199e-01 1.383072137832641602e-01 1.282411962747573853e-01
-2.871491909027099609e-01 -4.711155593395233154e-02 3.212400674819946289e-01
-3.975389301776885986e-01 6.417162716388702393e-02 6.224367022514343262e-01
-2.440354079008102417e-01 3.556764721870422363e-01 3.464471697807312012e-01
2.084413468837738037e-01 1.388813555240631104e-02 3.654706478118896484e-01
3.996112346649169922e-01 2.731467783451080322e-01 1.102198213338851929e-01
-5.324363708496093750e-01 2.472587823867797852e-01 -2.254446893930435181e-01
2.142839878797531128e-02 3.684173524379730225e-01 3.602732419967651367e-01
-5.725004673004150391e-01 1.119490861892700195e-01 3.648801743984222412e-01
-1.843389868736267090e-01 -4.681383967399597168e-01 -3.128730058670043945e-01
8.015120774507522583e-02 -3.962413966655731201e-02 -5.358834266662597656e-01
1.084576100111007690e-01 -4.594685435295104980e-01 6.891293525695800781e-01
-2.669991254806518555e-01 -2.131229043006896973e-01 -6.202970817685127258e-02
7.980564236640930176e-02 5.499425530433654785e-02 1.914461553096771240e-01
4.273320734500885010e-01 -4.183261990547180176e-01 -2.425232380628585815e-01
3.369623720645904541e-01 3.519806265830993652e-02 -1.405398398637771606e-01
-8.727349340915679932e-03 -4.098839759826660156e-01 7.358215451240539551e-01
-2.297582924365997314e-01 -4.849375486373901367e-01 3.746113181114196777e-02
2.098679542541503906e-04 -6.170515716075897217e-02 5.936040282249450684e-01
-5.550261586904525757e-02 1.654028892517089844e-03 2.508215308189392090e-01
3.100405037403106689e-01 -5.382260084152221680e-01 -3.387644886970520020e-03
3.067574501037597656e-01 -3.706856071949005127e-01 6.636843681335449219e-01
-1.483059525489807129e-01 -1.062775999307632446e-01 -3.444033861160278320e-01
2.765140682458877563e-02 -2.972215414047241211e-03 -3.822624385356903076e-01
-8.817867189645767212e-02 -2.826317250728607178e-01 7.324944138526916504e-01
-1.116367653012275696e-01 -5.674136877059936523e-01 -6.274673342704772949e-02
-1.807328462600708008e-01 -3.850882947444915771e-01 5.589771866798400879e-01
2.188180387020111084e-01 -5.772875547409057617e-01 9.791116416454315186e-02
4.074061214923858643e-01 -2.756679654121398926e-01 -5.350028276443481445e-01
1.907324790954589844e-01 -3.541293442249298096e-01 7.805160880088806152e-01
2.737773954868316650e-02 -5.665650963783264160e-01 -3.180256187915802002e-01
-1.785565316677093506e-01 -4.970446228981018066e-01 3.477776348590850830e-01
2.532186806201934814e-01 -5.561900138854980469e-01 2.139353901147842407e-01
2.031848132610321045e-01 -5.129548311233520508e-01 -4.503033757209777832e-01
-2.063584923744201660e-01 -2.948327660560607910e-01 5.355869531631469727e-01
5.247366428375244141e-01 -2.306777536869049072e-01 -7.634557783603668213e-02
5.267623066902160645e-01 -2.101885825395584106e-01 6.071039289236068726e-02
-1.930035352706909180e-01 -1.116772592067718506e-01 2.840530872344970703e-01
-1.127037331461906433e-01 -5.532801151275634766e-01 2.819328606128692627e-01
-2.421117126941680908e-01 -4.607085287570953369e-01 -6.483736634254455566e-02
3.442156016826629639e-01 -6.257726252079010010e-02 5.346158742904663086e-01
3.893840312957763672e-01 -1.567563414573669434e-02 3.134907484054565430e-01
-1.191221848130226135e-01 -4.193115234375000000e-02 2.792803645133972168e-01
-2.217897474765777588e-01 -1.226919442415237427e-01 5.663093179464340210e-02
1.223997920751571655e-01 -5.126513540744781494e-02 -5.788232684135437012e-01
-2.013393938541412354e-01 -4.972712397575378418e-01 2.525212764739990234e-01
-2.146839797496795654e-01 -1.524033248424530029e-01 3.289878070354461670e-01
7.110502570867538452e-02 1.726424694061279297e-02 4.212313592433929443e-01
2.771341800689697266e-01 -5.166242718696594238e-01 3.842936754226684570e-01
-1.458560824394226074e-01 -3.685464262962341309e-01 -5.350992679595947266e-01
4.178581237792968750e-01 -1.244954466819763184e-01 4.978431463241577148e-01
4.168851077556610107e-01 -4.696404933929443359e-02 -3.123609721660614014e-01
-6.375043839216232300e-02 -3.748261034488677979e-01 7.283547520637512207e-01
3.377186954021453857e-01 -4.540570378303527832e-01 -4.127860367298126221e-01
-3.165335208177566528e-02 3.221154212951660156e-03 -2.398018985986709595e-01
4.095736443996429443e-01 -4.135765135288238525e-02 3.475734889507293701e-01
-2.187681794166564941e-01 -1.201032847166061401e-01 -4.640463739633560181e-03
-2.060025632381439209e-01 -4.504869878292083740e-01 3.973149657249450684e-01
4.337151348590850830e-02 4.569289088249206543e-02 -1.300173550844192505e-01
9.526063501834869385e-02 -5.366927385330200195e-01 -4.380705654621124268e-01
4.937283694744110107e-01 -9.704415500164031982e-02 1.329095512628555298e-01
-1.500023007392883301e-01 -5.494123697280883789e-01 -3.496554866433143616e-02
1.168196573853492737e-01 -2.337051033973693848e-01 8.262338638305664062e-01
3.896415829658508301e-01 -5.857318639755249023e-03 -2.344294339418411255e-01
1.817195862531661987e-02 -6.021628379821777344e-01 -1.864496991038322449e-02
5.236471444368362427e-02 -5.973894596099853516e-01 2.071998268365859985e-01
-8.955486118793487549e-03 -1.253457218408584595e-01 -6.184862852096557617e-01
-4.983956366777420044e-02 -9.157359600067138672e-02 5.979431271553039551e-01
-2.616332471370697021e-01 -2.758622169494628906e-01 -2.258288711309432983e-01
4.819626212120056152e-01 -3.605200946331024170e-01 1.717534810304641724e-01
3.439783155918121338e-01 3.785222768783569336e-02 -7.115200161933898926e-02
5.119504332542419434e-01 -3.067101538181304932e-01 6.845381110906600952e-02
3.524968922138214111e-01 -5.051594972610473633e-01 -1.215270906686782837e-01
2.739191949367523193e-01 5.131605267524719238e-02 -1.704320162534713745e-01
1.832457482814788818e-01 7.020634412765502930e-02 1.033068895339965820e-01
-1.785099208354949951e-01 -3.685990571975708008e-01 -4.735243618488311768e-01
2.651034295558929443e-01 -6.615099310874938965e-02 6.274912357330322266e-01
5.155671834945678711e-01 -1.660636961460113525e-01 1.589405685663223267e-01
3.001871705055236816e-01 -2.739799022674560547e-01 -6.854248046875000000e-01
7.089830935001373291e-02 3.908443450927734375e-02 -2.419722527265548706e-01
-1.370404064655303955e-01 -1.057154238224029541e-01 4.673232138156890869e-01
2.461991459131240845e-02 3.453493118286132812e-02 2.525845468044281006e-01
4.842981994152069092e-01 -7.176816463470458984e-02 -3.930486738681793213e-03
4.754660129547119141e-01 -3.265903294086456299e-01 -2.844808101654052734e-01
-1.225966140627861023e-01 -3.244740664958953857e-01 -5.918236970901489258e-01
2.074622958898544312e-01 -1.704590767621994019e-01 7.785541415214538574e-01
-1.451424360275268555e-01 -2.171272635459899902e-01 -5.288788080215454102e-01
4.383337795734405518e-01 -4.320503473281860352e-01 1.108990013599395752e-01
-2.589836120605468750e-01 -2.368011921644210815e-01 -1.935819238424301147e-01
-1.600348353385925293e-01 -6.674458086490631104e-02 -1.253644526004791260e-01
2.954175472259521484e-01 -3.932987153530120850e-02 -5.037547349929809570e-01
1.993401050567626953e-01 -7.926976680755615234e-02 -6.289133429527282715e-01
4.988503158092498779e-01 -2.047433406114578247e-01 -2.783464789390563965e-01
4.043559730052947998e-01 -3.539684414863586426e-01 -4.694243371486663818e-01
-2.226272225379943848e-01 -2.907391786575317383e-01 4.907782971858978271e-01
2.051820755004882812e-01 -5.699135065078735352e-01 -1.831037253141403198e-01
4.174175858497619629e-01 -2.861968576908111572e-01 5.448109507560729980e-01
2.206902503967285156e-01 -3.430188894271850586e-01 -7.117133736610412598e-01
3.797206878662109375e-01 -3.910796344280242920e-02 4.169034063816070557e-01
3.675451874732971191e-01 -1.291307508945465088e-01 5.974538922309875488e-01
3.541674017906188965e-01 -4.768976569175720215e-01 3.380714356899261475e-01
-1.344815790653228760e-01 -2.489803731441497803e-01 -5.671875476837158203e-01
1.388448923826217651e-01 -2.497865259647369385e-02 5.859798192977905273e-01
3.690245002508163452e-02 -5.496867895126342773e-01 -3.897010087966918945e-01
1.555949449539184570e-01 5.587175488471984863e-02 2.663071751594543457e-01
-1.777497529983520508e-01 -5.302045345306396484e-01 1.501580774784088135e-01
2.464710921049118042e-02 -4.298336803913116455e-01 -6.445286870002746582e-01
4.265575855970382690e-02 -5.753581523895263672e-01 3.644619286060333252e-01
-1.310433149337768555e-01 -5.599223375320434570e-01 1.375095248222351074e-01
1.180305257439613342e-01 1.081892848014831543e-02 4.761229455471038818e-01
2.759178280830383301e-01 -1.524989306926727295e-01 -6.751914620399475098e-01
4.806171953678131104e-01 -3.457244038581848145e-01 2.398305386304855347e-01
3.699475526809692383e-01 -1.133806854486465454e-01 -5.379448533058166504e-01
4.320297837257385254e-01 -1.633471250534057617e-02 1.044423282146453857e-01
3.064321279525756836e-01 -4.484739303588867188e-01 -4.856463968753814697e-01
1.782511174678802490e-01 -5.627330541610717773e-01 3.478805422782897949e-01
-5.285053700208663940e-02 -1.986478269100189209e-01 7.341137528419494629e-01
2.231987416744232178e-01 -5.690321922302246094e-01 -1.378501355648040771e-01
-1.687166690826416016e-01 -1.583297848701477051e-01 5.012270808219909668e-01
2.403805404901504517e-01 -3.900629878044128418e-01 -6.557930111885070801e-01
-2.866881787776947021e-01 -3.290790915489196777e-01 1.640536040067672729e-01
3.462654352188110352e-01 -5.158077478408813477e-01 6.488464027643203735e-02
-1.034313812851905823e-01 -5.301939249038696289e-01 -3.128738105297088623e-01
4.847758412361145020e-01 -1.518924832344055176e-01 3.267310857772827148e-01
4.734453558921813965e-02 -5.377551913261413574e-01 5.150263905525207520e-01
1.573452055454254150e-01 -3.502614796161651611e-02 -5.511004328727722168e-01
3.323601484298706055e-01 -1.280612796545028687e-01 6.450869441032409668e-01
3.394151926040649414e-01 -4.109061360359191895e-01 -5.074506402015686035e-01
4.346378743648529053e-01 -5.062723159790039062e-02 2.939538359642028809e-01
4.328415095806121826e-01 -4.146755933761596680e-01 2.672858238220214844e-01
-1.486550569534301758e-01 -5.429341793060302734e-01 -1.152604967355728149e-01
2.982629239559173584e-01 5.249902606010437012e-02 -9.016719460487365723e-02
-1.547982990741729736e-01 -4.966225624084472656e-01 4.159207642078399658e-01
-2.698034346103668213e-01 -2.176045030355453491e-01 1.549417525529861450e-01
3.752027451992034912e-01 -4.301172494888305664e-02 -4.015987813472747803e-01
2.859423458576202393e-01 -2.105638384819030762e-02 5.136309266090393066e-01
-2.897851467132568359e-01 -3.286496996879577637e-01 1.022547334432601929e-01
-1.010414436459541321e-01 -6.910791993141174316e-02 4.514297842979431152e-01
2.958060801029205322e-01 4.304379224777221680e-03 4.261039495468139648e-01
4.576651751995086670e-02 -4.949958622455596924e-02 6.054850816726684570e-01
7.690048217773437500e-02 -7.237550616264343262e-02 6.686754226684570312e-01
3.839506804943084717e-01 -3.364827036857604980e-01 -5.338175892829895020e-01
5.184634923934936523e-01 -2.769909799098968506e-01 -7.581333816051483154e-02
-7.896716147661209106e-02 -5.054149031639099121e-01 5.226219296455383301e-01
2.644139528274536133e-01 -2.444196492433547974e-01 7.697576880455017090e-01
3.829506635665893555e-01 2.130073308944702148e-02 9.216208010911941528e-03
-1.965999901294708252e-01 -1.773466169834136963e-01 4.568436443805694580e-01
1.311967670917510986e-01 -1.130631268024444580e-01 -6.771807074546813965e-01
1.910687386989593506e-01 -4.427374005317687988e-01 -6.156487464904785156e-01
2.393096685409545898e-01 6.735908985137939453e-02 7.116608321666717529e-02
1.178824082016944885e-01 6.770339608192443848e-02 1.006394624710083008e-03
-1.796259880065917969e-01 -2.044699490070343018e-01 5.418611168861389160e-01
4.619064629077911377e-01 -5.981603264808654785e-02 -1.718499511480331421e-01
3.368423879146575928e-01 4.327917098999023438e-02 1.230150461196899414e-02
5.205684900283813477e-01 -2.154745757579803467e-01 1.588127762079238892e-01
1.939884126186370850e-01 6.782793998718261719e-02 -9.135033190250396729e-02
1.830391585826873779e-01 3.423163294792175293e-02 3.913205564022064209e-01
4.310829341411590576e-01 -2.358958721160888672e-01 5.301322340965270996e-01
2.776056230068206787e-01 -4.434193968772888184e-01 -5.375137329101562500e-01
2.413248717784881592e-01 -1.529487967491149902e-02 -4.862522184848785400e-01
1.275125294923782349e-01 -5.982716679573059082e-01 -3.996111080050468445e-02
2.631033957004547119e-01 4.499325156211853027e-02 -2.343298643827438354e-01
-1.534236073493957520e-01 -6.443357467651367188e-02 2.456399202346801758e-01
3.419712781906127930e-01 -2.142241448163986206e-01 -6.428651809692382812e-01
1.877025514841079712e-02 -3.015658855438232422e-01 8.103449344635009766e-01
4.577267915010452271e-02 -1.325041055679321289e-03 4.689376056194305420e-01
3.541601002216339111e-01 -2.768491506576538086e-01 6.655082106590270996e-01
-8.503871411085128784e-02 -1.326143145561218262e-01 -5.340580344200134277e-01
-2.235016822814941406e-01 -4.015159606933593750e-01 -3.228583633899688721e-01
-9.922488778829574585e-02 -1.468218415975570679e-01 6.216587424278259277e-01
3.165489733219146729e-01 -3.536950945854187012e-01 -6.196639537811279297e-01
5.258280038833618164e-01 -1.852578967809677124e-01 1.945137232542037964e-02
-2.177065312862396240e-01 -2.408114224672317505e-01 4.770462512969970703e-01
-1.620701849460601807e-01 -3.680484890937805176e-01 6.079161763191223145e-01
-2.427579462528228760e-01 -3.351007699966430664e-01 -3.148814737796783447e-01
4.044750332832336426e-01 -1.528835445642471313e-01 -5.205897688865661621e-01
1.285951137542724609e-01 -2.871773242950439453e-01 8.281370401382446289e-01
-1.028846427798271179e-01 -5.676157772541046143e-02 -3.167686760425567627e-01
4.687516093254089355e-01 -5.285219848155975342e-02 -5.538030341267585754e-02
1.928680390119552612e-01 -2.483039349317550659e-01 8.125745654106140137e-01
3.224271833896636963e-01 3.404963016510009766e-02 -1.963254660367965698e-01
1.687422543764114380e-01 4.932901263236999512e-02 3.128514587879180908e-01
2.855741083621978760e-01 -5.458209514617919922e-01 1.650220751762390137e-01
3.984494507312774658e-02 -5.816670060157775879e-01 -2.443433552980422974e-01
-1.374492049217224121e-01 -6.313171982765197754e-02 3.165372610092163086e-01
4.711667895317077637e-01 -1.157431751489639282e-01 -2.991928458213806152e-01
9.437151253223419189e-03 -3.482092618942260742e-01 -7.089569568634033203e-01
3.819592595100402832e-01 -1.733384281396865845e-01 -5.729367136955261230e-01
-2.762344479560852051e-01 -3.226968348026275635e-01 -1.526904106140136719e-01
-1.836743205785751343e-02 -4.720566272735595703e-01 -5.571921467781066895e-01
3.709049522876739502e-01 -3.056854307651519775e-01 -5.829604864120483398e-01
-2.903183996677398682e-01 -3.174630999565124512e-01 2.287338860332965851e-02
-2.703968882560729980e-01 -3.876057863235473633e-01 2.329548448324203491e-01
1.318098604679107666e-01 -5.929560661315917969e-01 -1.162886470556259155e-01
-2.455128431320190430e-01 -2.339200675487518311e-01 3.671784102916717529e-01
4.471123814582824707e-01 -1.019510775804519653e-01 3.855676054954528809e-01
-1.168707385659217834e-01 -5.343112945556640625e-01 -2.681620717048645020e-01
2.747370004653930664e-01 -5.439444780349731445e-01 -1.781503707170486450e-01
1.256801187992095947e-01 -3.698813319206237793e-01 -7.214451432228088379e-01
3.162588477134704590e-01 2.394738793373107910e-02 3.111937046051025391e-01
4.089650809764862061e-01 -4.009875655174255371e-01 -3.675638139247894287e-01
1.444909721612930298e-02 -6.028864383697509766e-01 4.645006358623504639e-02
-1.981595158576965332e-01 -2.541871368885040283e-01 -4.379253983497619629e-01
-2.476406097412109375e-01 -4.167201519012451172e-01 3.085958361625671387e-01
5.148946642875671387e-01 -2.606550455093383789e-01 1.808524578809738159e-01
7.600603997707366943e-02 -4.063736796379089355e-01 -6.860969662666320801e-01
1.347309947013854980e-01 6.147122383117675781e-02 -1.462937146425247192e-01
2.992232739925384521e-01 -5.226517915725708008e-01 -2.394338995218276978e-01
-1.319006681442260742e-01 -1.377351433038711548e-01 -4.557770490646362305e-01
2.915346622467041016e-01 -4.978140592575073242e-01 -3.713488578796386719e-01
3.970040082931518555e-01 -4.758300781250000000e-01 8.353628963232040405e-02
-1.662273705005645752e-01 -3.198560178279876709e-01 -5.198867321014404297e-01
1.844575107097625732e-01 -3.130014538764953613e-01 8.060843348503112793e-01
-4.008599370718002319e-02 -5.915083885192871094e-01 -5.487691238522529602e-02
-9.239085018634796143e-03 -5.847581624984741211e-01 2.768512368202209473e-01
1.804830729961395264e-01 -4.317180812358856201e-02 6.247925162315368652e-01
-8.372864872217178345e-02 -1.820037513971328735e-01 -5.970289111137390137e-01
4.852079153060913086e-01 -3.637140095233917236e-01 -8.333936333656311035e-02
1.845593750476837158e-02 3.824165463447570801e-02 1.989546865224838257e-01
3.872824013233184814e-01 -2.266477048397064209e-01 6.191256642341613770e-01
5.115134119987487793e-01 -2.444275319576263428e-01 -1.995592117309570312e-01
9.786228835582733154e-02 -5.693124532699584961e-01 3.875510394573211670e-01
3.398161530494689941e-01 2.375921607017517090e-02 2.567413449287414551e-01
4.381628632545471191e-01 -8.876654505729675293e-02 -3.573481440544128418e-01
3.233225047588348389e-01 -4.593198597431182861e-01 4.787299633026123047e-01
2.167097777128219604e-01 1.186791062355041504e-02 4.681207239627838135e-01
-1.794646382331848145e-01 -2.500924170017242432e-01 5.811317563056945801e-01
3.224650621414184570e-01 3.738471865653991699e-02 2.097976058721542358e-01
-1.052131280303001404e-01 -5.035880804061889648e-01 -3.935201168060302734e-01
3.511763364076614380e-02 -2.244711220264434814e-01 8.077728152275085449e-01
4.052632451057434082e-01 -4.521638154983520508e-03 1.930078417062759399e-01
1.367017030715942383e-01 3.741031885147094727e-02 3.719913959503173828e-01
1.945241689682006836e-01 -3.939092159271240234e-03 -4.717344343662261963e-01
1.449474394321441650e-01 4.230204224586486816e-02 -2.906824350357055664e-01
1.512955129146575928e-01 -4.153590202331542969e-01 -6.712076067924499512e-01
3.489519059658050537e-01 -4.644455313682556152e-01 4.014561474323272705e-01
-5.122718960046768188e-02 -5.361706018447875977e-01 -3.711823225021362305e-01
-2.855620682239532471e-01 -2.680109441280364990e-01 5.437837913632392883e-03
4.867855310440063477e-01 -3.499932289123535156e-01 -1.465676575899124146e-01
4.701744318008422852e-01 -2.709067165851593018e-01 4.057126343250274658e-01
2.003154754638671875e-01 -4.384049773216247559e-01 6.805185079574584961e-01
2.602087557315826416e-01 3.532278537750244141e-02 3.389210700988769531e-01
-2.634970247745513916e-01 -2.790529429912567139e-01 3.285172879695892334e-01
-2.538508474826812744e-01 -3.504783511161804199e-01 3.729942440986633301e-01
2.303545475006103516e-01 6.761479377746582031e-02 -4.781635478138923645e-02
-1.378753781318664551e-01 -4.290387034416198730e-02 1.726424843072891235e-01
-2.874683737754821777e-01 -2.990075051784515381e-01 -3.393806144595146179e-02
1.734829694032669067e-02 4.471537470817565918e-02 -4.317466169595718384e-03
-1.176442131400108337e-01 -4.157698750495910645e-01 6.327895522117614746e-01
-9.683044999837875366e-02 -5.625569224357604980e-01 -1.675659865140914917e-01
-2.531097233295440674e-01 -4.339733123779296875e-01 2.216023802757263184e-01
-2.068493068218231201e-01 -4.806731343269348145e-01 3.025759160518646240e-01
2.621591985225677490e-01 2.202621102333068848e-02 -3.513455092906951904e-01
4.827509820461273193e-01 -1.915919780731201172e-01 3.688872754573822021e-01
-2.505778074264526367e-01 -1.697765290737152100e-01 -6.802838295698165894e-03
-1.968452334403991699e-01 -5.074062943458557129e-01 -1.080732792615890503e-01
2.264225780963897705e-01 -5.405266284942626953e-01 3.809695839881896973e-01
-1.093597039580345154e-01 -8.202809095382690430e-02 -3.813600242137908936e-01
-2.119969725608825684e-01 -3.316799998283386230e-01 -4.129151105880737305e-01
-1.011040732264518738e-01 -2.446273267269134521e-01 7.075975537300109863e-01
-2.021432518959045410e-01 -5.137577652931213379e-01 7.242012023925781250e-02
-5.739177018404006958e-02 -2.184432744979858398e-02 3.800592720508575439e-01
-2.508898377418518066e-01 -4.553005397319793701e-01 8.999499678611755371e-02
4.186464250087738037e-01 -1.017365455627441406e-01 -4.314669370651245117e-01
2.190451472997665405e-01 -4.592116177082061768e-01 6.286966800689697266e-01
-2.127889096736907959e-01 -3.933098912239074707e-01 4.739215672016143799e-01
-2.107261866331100464e-02 -2.487356960773468018e-02 4.641152024269104004e-01
3.372707217931747437e-02 -4.078597724437713623e-01 7.543568015098571777e-01
9.486386924982070923e-02 -9.041932225227355957e-02 -6.375306248664855957e-01
2.384622246026992798e-01 -5.482213497161865234e-01 3.162226974964141846e-01
2.648523151874542236e-01 5.657446384429931641e-02 1.827242225408554077e-01
2.310045063495635986e-02 2.071356773376464844e-02 -2.689345180988311768e-01
-2.686381340026855469e-01 -3.992948532104492188e-01 -1.029974222183227539e-01
5.136235356330871582e-01 -2.752895653247833252e-01 -1.418412178754806519e-01
-2.531720697879791260e-01 -1.740396022796630859e-01 1.043720394372940063e-01
-1.716443896293640137e-01 -4.331653714179992676e-01 -4.152308404445648193e-01
5.180367827415466309e-01 -1.594784408807754517e-01 1.133047044277191162e-01
2.248866111040115356e-01 -5.631026029586791992e-01 2.502197325229644775e-01
1.931728571653366089e-01 -5.439194440841674805e-01 4.173038005828857422e-01
-3.892779350280761719e-03 -5.052112340927124023e-01 5.858125686645507812e-01
3.655377030372619629e-01 -5.008359551429748535e-01 -5.177757516503334045e-02
1.224789917469024658e-01 -5.498330593109130859e-01 -3.842622935771942139e-01
3.509864509105682373e-01 -4.936710298061370850e-01 2.659493982791900635e-01
3.472409248352050781e-01 -5.007276535034179688e-01 -1.893489658832550049e-01
7.153055071830749512e-02 3.802013397216796875e-02 3.162733018398284912e-01
4.474545717239379883e-01 -3.522760570049285889e-01 3.828774988651275635e-01
-2.044278979301452637e-01 -2.489720582962036133e-01 5.211939811706542969e-01
5.081520080566406250e-01 -3.204091787338256836e-01 8.051503449678421021e-03
-1.394656896591186523e-01 -3.581862449645996094e-01 6.507365703582763672e-01
-7.626519352197647095e-02 -3.275945782661437988e-01 7.401859164237976074e-01
-1.639738976955413818e-01 -5.929985642433166504e-02 4.766508191823959351e-02
2.529001235961914062e-02 -6.003440618515014648e-01 -6.881392002105712891e-02
1.654332578182220459e-01 -5.358913540840148926e-01 -4.088231921195983887e-01
9.940490126609802246e-02 -2.780587673187255859e-01 -7.596592903137207031e-01
-1.251570135354995728e-02 -5.503772497177124023e-01 4.482970237731933594e-01
2.344779074192047119e-01 4.240983724594116211e-02 -2.776340246200561523e-01
-1.528858244419097900e-01 -5.249261856079101562e-01 3.136034607887268066e-01
-1.578442752361297607e-03 1.734587550163269043e-02 3.096907734870910645e-01
-1.719892024993896484e-03 -2.598701715469360352e-01 8.000486493110656738e-01
1.575220525264739990e-01 -5.213724970817565918e-01 -4.612510204315185547e-01
3.752554655075073242e-01 -4.841403961181640625e-01 -1.568769365549087524e-01
1.513539850711822510e-01 -4.974217414855957031e-01 -5.281288623809814453e-01
1.993380486965179443e-01 -2.706926763057708740e-01 -7.499193549156188965e-01
-1.177459582686424255e-01 -5.375782251358032227e-01 3.519698679447174072e-01
-7.718474417924880981e-02 -5.821270346641540527e-01 1.362394839525222778e-01
4.409223794937133789e-01 -4.865598678588867188e-02 -2.317354232072830200e-01
3.248601257801055908e-01 -1.184668242931365967e-01 -6.011724472045898438e-01
-2.365047335624694824e-01 -2.458748072385787964e-01 4.184361696243286133e-01
-1.007866933941841125e-01 -1.501619815826416016e-02 -6.812493503093719482e-02
3.794625401496887207e-02 4.883065819740295410e-02 1.351216882467269897e-01
3.765761852264404297e-01 -6.477721035480499268e-02 4.848504960536956787e-01
1.988998651504516602e-01 -5.803603529930114746e-01 -9.188817441463470459e-02
1.257459223270416260e-01 -5.859572291374206543e-01 -1.916580647230148315e-01
1.823989152908325195e-01 5.326679348945617676e-02 -2.324032634496688843e-01
2.899172902107238770e-01 -4.499302506446838379e-01 5.613600015640258789e-01
-1.141140386462211609e-01 -3.913099467754364014e-01 -5.655289292335510254e-01
2.318387478590011597e-01 -5.934982001781463623e-02 -5.857183337211608887e-01
2.279181778430938721e-01 -5.715270042419433594e-01 1.497566550970077515e-01
-5.120155960321426392e-02 1.170757412910461426e-02 -9.383590519428253174e-02
3.505058586597442627e-01 -5.052698254585266113e-01 1.828120946884155273e-01
3.272510468959808350e-01 -3.315848112106323242e-02 4.941765367984771729e-01
1.383316665887832642e-01 -4.550391435623168945e-01 -6.173334717750549316e-01
-2.287141978740692139e-01 -1.895891726016998291e-01 -2.580604553222656250e-01
-4.877410084009170532e-02 -1.467594653367996216e-01 -6.033105254173278809e-01
-5.213548988103866577e-02 -5.910648107528686523e-01 3.385251387953758240e-03
-2.078837156295776367e-01 -1.143649369478225708e-01 -9.451253712177276611e-02
4.931226074695587158e-01 -1.069422364234924316e-01 1.838693767786026001e-01
-1.043101623654365540e-01 -5.518337488174438477e-01 -2.138732522726058960e-01
4.293292462825775146e-01 -3.111360371112823486e-01 4.963251948356628418e-01
3.754278123378753662e-01 -4.102532565593719482e-01 -4.359990060329437256e-01
5.004489421844482422e-01 -1.267932504415512085e-01 -1.692347377538681030e-01
2.576369941234588623e-01 -2.909243404865264893e-01 7.690566778182983398e-01
-2.166222631931304932e-01 -2.604196965694427490e-01 -3.903368413448333740e-01
2.163304090499877930e-01 6.241625547409057617e-02 1.950764209032058716e-01
9.524566680192947388e-02 -5.737029314041137695e-01 -2.886291444301605225e-01
4.837027192115783691e-01 -2.610464692115783691e-01 -3.320537805557250977e-01
-1.447100639343261719e-01 -1.948948800563812256e-01 6.048072576522827148e-01
-1.186544671654701233e-01 -4.812659621238708496e-01 5.250492095947265625e-01
2.749330997467041016e-01 -5.279470682144165039e-01 3.365989327430725098e-01
1.154465228319168091e-01 6.303483247756958008e-02 1.620774120092391968e-01
3.869255185127258301e-01 -4.398830831050872803e-01 -3.242496252059936523e-01
2.602075040340423584e-01 5.850446224212646484e-02 -1.256041973829269409e-01
1.967590451240539551e-01 -3.864804804325103760e-01 -6.867355704307556152e-01
2.003219872713088989e-01 -5.647015571594238281e-01 -2.319349199533462524e-01
4.528625905513763428e-01 -2.577515840530395508e-01 -4.363576173782348633e-01
-9.984143078327178955e-03 -4.840902090072631836e-01 6.275644302368164062e-01
3.827055990695953369e-01 -1.145212799310684204e-01 5.554228425025939941e-01
2.413789927959442139e-01 4.679584503173828125e-02 2.943604290485382080e-01
3.816657364368438721e-01 -4.753780364990234375e-01 2.265798002481460571e-01
3.346564173698425293e-01 -3.260297477245330811e-01 6.672119498252868652e-01
-1.984488964080810547e-01 -1.095336973667144775e-01 -1.396944075822830200e-01
4.780066609382629395e-01 -8.992882072925567627e-02 2.254573851823806763e-01
5.075293183326721191e-01 -1.660017073154449463e-01 -2.004325389862060547e-01
7.543418556451797485e-02 3.056886792182922363e-02 3.632316589355468750e-01
-1.716093420982360840e-01 -1.523691713809967041e-01 -3.848572373390197754e-01
2.322638332843780518e-01 -3.879077434539794922e-01 7.229301333427429199e-01
-1.965240240097045898e-01 -1.209789365530014038e-01 -2.064999341964721680e-01
6.099898740649223328e-02 -4.636348485946655273e-01 6.852289438247680664e-01
-2.239090800285339355e-01 -1.818367838859558105e-01 3.663212060928344727e-01
-2.321522533893585205e-01 -2.188825309276580811e-01 -2.960135936737060547e-01
2.680960595607757568e-01 -5.593967437744140625e-01 4.066713899374008179e-02
3.518232405185699463e-01 -5.124947428703308105e-01 1.260832883417606354e-02
-5.156341940164566040e-02 -1.595406830310821533e-01 6.993390321731567383e-01
4.720256477594375610e-02 -5.015670061111450195e-01 6.105870604515075684e-01
4.569933712482452393e-01 -4.126127362251281738e-01 6.432721391320228577e-03
7.108268141746520996e-02 -7.276690006256103516e-02 -5.976552963256835938e-01
-5.723642557859420776e-02 -7.373690605163574219e-04 -1.805393695831298828e-01
-2.171759307384490967e-01 -4.906468689441680908e-01 1.898717284202575684e-01
4.037851691246032715e-01 -4.023885726928710938e-01 4.201070070266723633e-01
4.943183809518814087e-02 3.973877429962158203e-02 -1.991872787475585938e-01
4.491887986660003662e-01 -4.901205003261566162e-02 2.205755859613418579e-01
-1.277938485145568848e-01 -6.642253696918487549e-02 3.669935166835784912e-01
5.270085930824279785e-01 -2.336932271718978882e-01 -2.895779907703399658e-04
-2.203619778156280518e-01 -1.239618659019470215e-01 1.331305950880050659e-01
5.001106262207031250e-01 -3.282196521759033203e-01 1.381141394376754761e-01
1.347149163484573364e-01 -5.548675060272216797e-01 4.307783842086791992e-01
3.479570448398590088e-01 -4.042697846889495850e-01 5.508147478103637695e-01
-2.591003477573394775e-01 -3.800104558467864990e-01 -2.061222791671752930e-01
2.783246338367462158e-01 2.849972248077392578e-02 -3.061330318450927734e-01
1.675920784473419189e-01 7.137212157249450684e-02 5.949797481298446655e-02
-8.577638119459152222e-02 -3.398214578628540039e-01 -6.341726779937744141e-01
2.391999065876007080e-01 -1.231305003166198730e-01 -6.705409884452819824e-01
1.261845231056213379e-01 -1.654873788356781006e-01 -7.269347906112670898e-01
4.265933036804199219e-01 -4.484626054763793945e-01 -9.031035006046295166e-04
-1.246268227696418762e-01 -5.655063986778259277e-01 3.559009358286857605e-02
-2.030397951602935791e-01 -3.998546004295349121e-01 -3.858523964881896973e-01
-1.632065773010253906e-01 -2.050367891788482666e-01 -4.812903106212615967e-01
-2.680931389331817627e-01 -3.556006252765655518e-01 2.979270517826080322e-01
6.775985658168792725e-02 -5.011327266693115234e-01 -5.337986946105957031e-01
4.988790154457092285e-01 -3.085280656814575195e-01 2.167997211217880249e-01
3.343206644058227539e-01 -1.617903113365173340e-01 -6.290618181228637695e-01
3.828441202640533447e-01 1.329496502876281738e-02 -1.350704133510589600e-01
-1.043114289641380310e-01 -1.483747363090515137e-02 1.112236380577087402e-01
4.842856526374816895e-01 -1.648690104484558105e-01 -3.170986473560333252e-01
-7.503817230463027954e-02 -4.566191434860229492e-01 -5.324162840843200684e-01
4.138067364692687988e-01 -1.791653335094451904e-01 5.546289086341857910e-01
-4.802032560110092163e-02 -5.702558755874633789e-01 3.199191093444824219e-01
2.616164386272430420e-01 -1.608225554227828979e-01 7.410398721694946289e-01
-1.580657660961151123e-01 -4.716542661190032959e-01 4.742828905582427979e-01
3.748680353164672852e-01 -4.676652252674102783e-01 -2.569725215435028076e-01
3.019399940967559814e-02 -2.712541818618774414e-02 -4.632703065872192383e-01
-2.755155563354492188e-01 -3.083628416061401367e-01 2.704316973686218262e-01
-1.650669425725936890e-02 -3.950308561325073242e-01 -6.598840951919555664e-01
-8.960772305727005005e-02 -2.471438050270080566e-02 -2.116712778806686401e-01
3.712319582700729370e-02 -5.622663497924804688e-01 4.246831834316253662e-01
-2.755881845951080322e-01 -4.016620516777038574e-01 1.164790540933609009e-01
5.955130234360694885e-02 -4.299461841583251953e-03 -4.231413304805755615e-01
1.373005956411361694e-01 -5.983264446258544922e-01 2.301751263439655304e-02
2.177580595016479492e-01 -5.230726003646850586e-01 -4.011386334896087646e-01
4.142259955406188965e-01 -2.243277728557586670e-01 -5.323876738548278809e-01
2.858975231647491455e-01 -2.024846374988555908e-01 -6.947422027587890625e-01
3.986092507839202881e-01 -4.270728230476379395e-01 3.688111007213592529e-01
2.264467477798461914e-01 -4.845063388347625732e-01 5.662555098533630371e-01
-1.706726104021072388e-02 -1.042783260345458984e-02 -3.391768336296081543e-01
2.446219325065612793e-01 -5.263973474502563477e-01 -3.491388261318206787e-01
