6.624883413314819336e-01 1.111899986863136292e-01 2.470603287220001221e-01
2.337376177310943604e-01 2.286379188299179077e-01 1.248027309775352478e-01
3.745578527450561523e-01 1.137627661228179932e-01 5.155682191252708435e-02
6.824871897697448730e-01 6.471300870180130005e-02 4.015960916876792908e-02
2.045238316059112549e-01 1.947603374719619751e-01 1.178939640522003174e-01
6.095290184020996094e-01 1.762197315692901611e-01 -1.504223793745040894e-01
7.513643503189086914e-01 8.059898763895034790e-02 1.192022562026977539e-01
5.631775259971618652e-01 1.966990977525711060e-01 9.075629711151123047e-02
2.599161863327026367e-01 1.594046354293823242e-01 -1.381435543298721313e-01
4.286845922470092773e-01 2.260965704917907715e-01 -7.220186525955796242e-04
6.317831277847290039e-01 1.597875654697418213e-01 -2.005550116300582886e-01
3.311420679092407227e-01 2.375753521919250488e-01 -1.827091444283723831e-03
2.970653772354125977e-01 1.527254581451416016e-01 -1.895461827516555786e-01
3.176985979080200195e-01 1.321819722652435303e-01 7.296514511108398438e-02
4.802536070346832275e-01 1.876542121171951294e-01 -2.526369392871856689e-01
3.617274761199951172e-01 2.309955507516860962e-01 -9.063987433910369873e-02
4.597419798374176025e-01 1.818990558385848999e-01 2.857433259487152100e-01
3.647280633449554443e-01 2.038223296403884888e-01 -2.440496832132339478e-01
2.708029747009277344e-01 2.386770248413085938e-01 -4.372819140553474426e-02
7.399934530258178711e-01 1.368697136640548706e-01 5.648430064320564270e-02
4.498478472232818604e-01 9.445010125637054443e-02 2.812243252992630005e-02
6.069204211235046387e-01 1.870313286781311035e-01 -1.769654080271720886e-02
6.519515514373779297e-01 1.592809855937957764e-01 1.814635246992111206e-01
2.914131283760070801e-01 2.175565212965011597e-01 2.035409510135650635e-01
6.988661885261535645e-01 1.562162190675735474e-01 3.925599157810211182e-02
5.301163196563720703e-01 1.974308490753173828e-01 1.685770004987716675e-01
3.499841690063476562e-01 2.305420786142349243e-01 1.270991265773773193e-01
2.603473663330078125e-01 1.647437810897827148e-01 -1.657783836126327515e-01
5.286562442779541016e-01 1.975692510604858398e-01 -1.503895670175552368e-01
7.400141954421997070e-01 6.942971050739288330e-02 6.779711693525314331e-02
4.236697554588317871e-01 2.243560254573822021e-01 9.613849222660064697e-02
5.752288103103637695e-01 1.908462345600128174e-01 -1.063798293471336365e-01
5.350553989410400391e-01 1.854110807180404663e-01 -2.144381254911422729e-01
4.860029220581054688e-01 9.290461242198944092e-02 1.202980279922485352e-01
6.132927536964416504e-01 7.159759849309921265e-02 8.663253486156463623e-02
4.248537719249725342e-01 1.000454053282737732e-01 -5.682490766048431396e-02
6.662760376930236816e-01 7.130452245473861694e-02 1.157771274447441101e-01
6.274794340133666992e-01 9.864048659801483154e-02 -2.521383762359619141e-01
2.738006114959716797e-01 2.354920059442520142e-01 1.029976606369018555e-01
7.052851915359497070e-01 1.488498747348785400e-01 -9.372591972351074219e-02
3.665892481803894043e-01 1.253842413425445557e-01 1.525578349828720093e-01
5.364127755165100098e-01 1.775366812944412231e-01 -2.447201162576675415e-01
6.797487735748291016e-01 1.594202667474746704e-01 1.069047749042510986e-01
6.087628006935119629e-01 6.856966763734817505e-02 1.889292523264884949e-02
5.121608972549438477e-01 1.840601265430450439e-01 -2.421230673789978027e-01
6.882858276367187500e-01 1.227987036108970642e-01 2.262042909860610962e-01
6.491954922676086426e-01 8.555749058723449707e-02 -2.127329111099243164e-01
5.022500753402709961e-01 9.309256076812744141e-02 -1.753606945276260376e-01
4.933201074600219727e-01 8.859981596469879150e-02 -1.155303269624710083e-01
5.019770264625549316e-01 1.760831475257873535e-01 -2.732150256633758545e-01
2.439737021923065186e-01 2.377456426620483398e-01 -4.276282712817192078e-02
4.114631712436676025e-01 1.898997128009796143e-01 -2.731232941150665283e-01
6.996785402297973633e-01 7.939161360263824463e-02 1.584931910037994385e-01
7.226573824882507324e-01 7.822952419519424438e-02 -1.546574681997299194e-01
3.774728477001190186e-01 1.257015019655227661e-01 -1.980253309011459351e-01
6.076107025146484375e-01 1.642651259899139404e-01 2.286491394042968750e-01
5.749390721321105957e-01 1.064835041761398315e-01 -2.712060213088989258e-01
2.541749477386474609e-01 1.566258668899536133e-01 7.600337266921997070e-02
3.317098617553710938e-01 2.295428961515426636e-01 -1.295278221368789673e-01
6.276040077209472656e-01 7.708454877138137817e-02 -1.699299067258834839e-01
2.864668369293212891e-01 1.531879454851150513e-01 -1.705281287431716919e-01
6.734946370124816895e-01 1.650722771883010864e-01 -4.173171892762184143e-02
5.881907343864440918e-01 7.091702520847320557e-02 -5.129770189523696899e-02
4.012177884578704834e-01 1.104080229997634888e-01 1.050518155097961426e-01
2.597940564155578613e-01 1.692923009395599365e-01 1.665524840354919434e-01
2.639018297195434570e-01 1.780898272991180420e-01 1.974799335002899170e-01
6.136111021041870117e-01 1.850837171077728271e-01 4.023450985550880432e-02
3.189240694046020508e-01 1.287927180528640747e-01 -4.328377544879913330e-04
5.230073928833007812e-01 1.064978912472724915e-01 2.382854372262954712e-01
4.795981645584106445e-01 1.760704815387725830e-01 -2.836366593837738037e-01
6.358544826507568359e-01 1.495302766561508179e-01 -2.308124452829360962e-01
5.593234300613403320e-01 1.150184124708175659e-01 2.734239101409912109e-01
4.099065661430358887e-01 1.101340651512145996e-01 -1.516849845647811890e-01
6.174889206886291504e-01 1.810622513294219971e-01 1.009012311697006226e-01
3.910032510757446289e-01 2.120465487241744995e-01 -2.067049890756607056e-01
2.155330479145050049e-01 2.061898708343505859e-01 -1.543288975954055786e-01
3.408067524433135986e-01 1.353161931037902832e-01 -1.866998970508575439e-01
2.430822849273681641e-01 1.585806757211685181e-01 3.350105136632919312e-02
4.279815256595611572e-01 1.452521830797195435e-01 2.863240540027618408e-01
3.015195131301879883e-01 2.295478135347366333e-01 1.522831767797470093e-01
4.127939343452453613e-01 2.220834493637084961e-01 1.422841697931289673e-01
5.475898385047912598e-01 8.173788338899612427e-02 1.126450821757316589e-01
7.052956223487854004e-01 8.032654225826263428e-02 -1.750389337539672852e-01
6.696133613586425781e-01 1.275760829448699951e-01 -2.389747649431228638e-01
3.524130582809448242e-01 1.219969093799591064e-01 8.260846883058547974e-02
6.825473904609680176e-01 7.227274030447006226e-02 -1.443598270416259766e-01
5.876234769821166992e-01 7.409260421991348267e-02 8.432655036449432373e-02
5.076897740364074707e-01 2.042442560195922852e-01 -1.327958554029464722e-01
7.605916261672973633e-01 1.241393983364105225e-01 -5.700992792844772339e-02
3.605384826660156250e-01 1.432569921016693115e-01 -2.458712756633758545e-01
5.918062329292297363e-01 7.002933323383331299e-02 -2.348906733095645905e-02
4.230306744575500488e-01 1.089927703142166138e-01 1.426780074834823608e-01
3.251793384552001953e-01 2.144527733325958252e-01 2.212189137935638428e-01
5.065734982490539551e-01 1.962591111660003662e-01 -1.918592900037765503e-01
2.862614691257476807e-01 1.473857760429382324e-01 -1.348415166139602661e-01
1.910128891468048096e-01 1.873809844255447388e-01 -1.372937811538577080e-03
2.293438613414764404e-01 1.822998225688934326e-01 1.455698013305664062e-01
3.077952265739440918e-01 2.387742102146148682e-01 3.662046417593955994e-02
1.778631210327148438e-01 2.113306075334548950e-01 4.466420784592628479e-02
4.358263611793518066e-01 2.247299253940582275e-01 4.073197767138481140e-02
3.956025838851928711e-01 2.282817363739013672e-01 9.567748010158538818e-02
4.664795994758605957e-01 1.998296380043029785e-01 2.297703772783279419e-01
6.653083562850952148e-01 1.630609035491943359e-01 -1.076645031571388245e-01
2.199596464633941650e-01 1.732012629508972168e-01 -8.682258427143096924e-02
6.374752521514892578e-01 9.877505898475646973e-02 2.371640354394912720e-01
6.438387632369995117e-01 6.678631156682968140e-02 -7.584989070892333984e-02
5.907760262489318848e-01 9.285138547420501709e-02 -2.350638359785079956e-01
6.338478922843933105e-01 1.565902829170227051e-01 2.213003635406494141e-01
7.553446888923645020e-01 1.258867383003234863e-01 7.942782342433929443e-02
5.868781208992004395e-01 8.389894664287567139e-02 1.691741496324539185e-01
2.636139094829559326e-01 1.497600674629211426e-01 -5.671232938766479492e-02
5.441664457321166992e-01 1.330853700637817383e-01 2.971737384796142578e-01
4.319651126861572266e-01 2.114752978086471558e-01 1.994021981954574585e-01
6.896855235099792480e-01 6.385479122400283813e-02 1.971546560525894165e-02
2.058511376380920410e-01 1.796670109033584595e-01 -6.470846384763717651e-02
5.565809011459350586e-01 1.163704842329025269e-01 -2.881062030792236328e-01
7.313994169235229492e-01 1.404938548803329468e-01 -5.469052493572235107e-02
5.520194768905639648e-01 2.009824514389038086e-01 -3.418146446347236633e-02
5.407078862190246582e-01 7.777503877878189087e-02 -6.434398889541625977e-02
2.995900511741638184e-01 1.375256478786468506e-01 6.022728979587554932e-02
6.100684404373168945e-01 7.006115466356277466e-02 5.927541106939315796e-02
4.408973455429077148e-01 1.597454100847244263e-01 -3.068270087242126465e-01
4.023120403289794922e-01 2.130931317806243896e-01 2.111122012138366699e-01
7.104476094245910645e-01 7.553690671920776367e-02 1.348028331995010376e-01
7.223666310310363770e-01 1.038962006568908691e-01 -1.981170177459716797e-01
4.698455929756164551e-01 2.163421511650085449e-01 -7.828508317470550537e-02
7.817581892013549805e-01 9.483598917722702026e-02 8.194403350353240967e-02
4.987481534481048584e-01 1.793224364519119263e-01 2.760668396949768066e-01
6.551753282546997070e-01 1.702981740236282349e-01 -6.320153921842575073e-02
4.820027649402618408e-01 8.855223655700683594e-02 4.777686670422554016e-02
6.528566479682922363e-01 8.414038270711898804e-02 1.890674233436584473e-01
4.407884478569030762e-01 2.189545929431915283e-01 -1.101745590567588806e-01
3.330181241035461426e-01 2.347510159015655518e-01 -7.300641387701034546e-02
5.415561795234680176e-01 8.607017248868942261e-02 1.440556645393371582e-01
-7.846689820289611816e-01 -1.696449518203735352e-01 -7.221692241728305817e-03
-7.138588428497314453e-01 5.682096257805824280e-02 -3.994239270687103271e-01
-8.550293445587158203e-01 1.968195885419845581e-01 7.864119485020637512e-03
-4.005343317985534668e-01 5.619369819760322571e-02 1.113861799240112305e-01
-9.435365200042724609e-01 1.138439700007438660e-01 1.612880825996398926e-01
-7.588605880737304688e-01 1.776143610477447510e-01 -2.244181931018829346e-01
-8.320319652557373047e-01 -1.332438886165618896e-01 -1.170693188905715942e-01
-4.906308054924011230e-01 -2.126029282808303833e-01 1.131626442074775696e-01
-7.548964023590087891e-01 2.021513134241104126e-01 7.668188959360122681e-02
-4.823775291442871094e-01 -9.714024513959884644e-02 -3.421757817268371582e-01
-9.239706397056579590e-01 -6.468772143125534058e-02 9.962330013513565063e-02
-7.331344485282897949e-01 2.060734927654266357e-01 -5.465683341026306152e-02
-7.776857018470764160e-01 -1.585688292980194092e-01 -1.375678032636642456e-01
-6.305389404296875000e-01 -1.970034390687942505e-01 1.867051124572753906e-01
-7.083414793014526367e-01 -1.943404972553253174e-01 9.779737889766693115e-02
-8.709491491317749023e-01 -3.872968256473541260e-02 2.789404392242431641e-01
-6.365464925765991211e-01 1.923150271177291870e-01 -1.440991461277008057e-02
-6.875890493392944336e-01 -1.338738203048706055e-01 3.161576986312866211e-01
-9.032908678054809570e-01 -2.571864053606987000e-02 -2.341495454311370850e-01
-8.498502373695373535e-01 -8.228423446416854858e-02 -2.364003956317901611e-01
-9.396589994430541992e-01 1.578488498926162720e-01 -2.022869139909744263e-02
-5.118888616561889648e-01 -4.194943606853485107e-02 3.655953109264373779e-01
-3.442868292331695557e-01 -1.490722447633743286e-01 -3.730863332748413086e-02
-8.383880853652954102e-01 1.115334928035736084e-01 2.947419285774230957e-01
-7.454298734664916992e-01 1.431602686643600464e-01 2.803388237953186035e-01
-6.724471449851989746e-01 1.822888553142547607e-01 1.485916078090667725e-01
-7.378330230712890625e-01 -1.855133920907974243e-01 8.683365583419799805e-02
-4.638485908508300781e-01 -1.145547032356262207e-01 3.076205253601074219e-01
-6.513132452964782715e-01 1.841364502906799316e-01 -1.552621722221374512e-01
-8.911990523338317871e-01 1.370113939046859741e-01 -2.254895567893981934e-01
-7.292681932449340820e-01 1.671476215124130249e-01 2.249454557895660400e-01
-9.874783158302307129e-01 4.172332957386970520e-02 1.756842620670795441e-02
-5.895287990570068359e-01 -1.184388771653175354e-01 3.549127876758575439e-01
-3.970285952091217041e-01 6.936608254909515381e-02 -1.919399201869964600e-02
-3.478279709815979004e-01 -9.271638467907905579e-03 -1.240653842687606812e-01
-7.680549025535583496e-01 -1.735219806432723999e-01 -6.639761477708816528e-02
-4.828036427497863770e-01 -2.180737107992172241e-01 -4.800746217370033264e-02
-8.528666496276855469e-01 -1.314825266599655151e-01 -1.523372717201709747e-02
-9.451351165771484375e-01 1.284736096858978271e-01 1.288895756006240845e-01
-7.770739793777465820e-01 2.064878493547439575e-01 2.410852722823619843e-02
-7.728673219680786133e-01 8.832520805299282074e-03 -3.879780471324920654e-01
-3.830254673957824707e-01 -1.846198588609695435e-01 -2.224009484052658081e-02
-8.891873955726623535e-01 1.716620624065399170e-01 -1.386061757802963257e-01
-5.553769469261169434e-01 -1.314241588115692139e-01 3.355953097343444824e-01
-5.584402084350585938e-01 1.267786175012588501e-01 -2.596938014030456543e-01
-5.228792428970336914e-01 -2.111376523971557617e-01 -1.335584968328475952e-01
-5.019460320472717285e-01 8.997605182230472565e-03 3.422992229461669922e-01
-4.437809884548187256e-01 -5.644303746521472931e-03 2.946139872074127197e-01
-8.506603240966796875e-01 -1.329518705606460571e-01 3.370744362473487854e-02
-5.216529369354248047e-01 -7.792568206787109375e-02 3.643426597118377686e-01
-8.634593486785888672e-01 -2.088912762701511383e-02 3.037539720535278320e-01
-7.125778198242187500e-01 -4.276163503527641296e-02 3.939149677753448486e-01
-9.181424379348754883e-01 1.607901602983474731e-01 -1.154269278049468994e-01
-5.796838998794555664e-01 1.427350938320159912e-01 -2.394190430641174316e-01
-9.081871509552001953e-01 4.149983078241348267e-02 2.680481672286987305e-01
-5.589576363563537598e-01 1.669424474239349365e-01 2.141426689922809601e-02
-3.905120491981506348e-01 2.279244363307952881e-03 -2.320535182952880859e-01
-6.840865612030029297e-01 1.906163245439529419e-01 1.152190864086151123e-01
-5.584663152694702148e-01 7.963096350431442261e-02 -3.444205522537231445e-01
-4.801888465881347656e-01 -2.700999751687049866e-02 -3.601831793785095215e-01
-6.956059932708740234e-01 -1.387073248624801636e-01 -2.935190796852111816e-01
-8.994985818862915039e-01 1.094656363129615784e-01 2.406301349401473999e-01
-6.480411887168884277e-01 -1.371134221553802490e-01 -3.192140460014343262e-01
-7.131795883178710938e-01 1.772614195942878723e-02 -4.101283252239227295e-01
-4.065774679183959961e-01 -1.605785340070724487e-01 1.871197521686553955e-01
-3.443521261215209961e-01 -1.342225074768066406e-01 -1.032575890421867371e-01
-7.526661157608032227e-01 -1.164011284708976746e-01 3.025332391262054443e-01
-5.614131689071655273e-01 3.997552208602428436e-03 -4.001593589782714844e-01
-5.465768575668334961e-01 -2.146846055984497070e-01 1.291406750679016113e-01
-4.181204438209533691e-01 -8.095812797546386719e-02 -2.966250777244567871e-01
-8.898310065269470215e-01 1.463058590888977051e-01 1.927120536565780640e-01
-7.407169342041015625e-01 -1.739608496427536011e-01 -1.394692659378051758e-01
-5.540322065353393555e-01 4.294844344258308411e-02 3.534659743309020996e-01
-7.561166286468505859e-01 -1.821069419384002686e-01 2.418470941483974457e-02
-3.569204509258270264e-01 -1.644872426986694336e-01 -1.618654094636440277e-02
-3.570142090320587158e-01 -1.542583405971527100e-01 8.252900093793869019e-02
-5.238386988639831543e-01 1.328728944063186646e-01 1.516912728548049927e-01
-4.183073937892913818e-01 -7.979579269886016846e-02 2.813965380191802979e-01
-8.316103219985961914e-01 5.078845843672752380e-02 -3.505595922470092773e-01
-7.693378925323486328e-01 2.069834619760513306e-01 -5.086638405919075012e-02
-3.247343003749847412e-01 -9.366945922374725342e-02 -7.718253135681152344e-02
-3.936246633529663086e-01 -7.324973493814468384e-02 2.491346746683120728e-01
-7.024630904197692871e-01 2.002465575933456421e-01 6.170043349266052246e-02
-8.356946706771850586e-01 1.743610799312591553e-01 -1.985345333814620972e-01
-7.545288205146789551e-01 9.297393262386322021e-05 3.898162245750427246e-01
-5.805554389953613281e-01 1.633306294679641724e-01 -1.604691892862319946e-01
-9.104911684989929199e-01 5.119415931403636932e-03 2.550288140773773193e-01
-7.218919396400451660e-01 -1.855864971876144409e-01 1.302966922521591187e-01
-7.454635500907897949e-01 5.137828178703784943e-03 -3.998798727989196777e-01
-5.963237285614013672e-01 1.066141054034233093e-01 -3.304790854454040527e-01
-6.728190779685974121e-01 1.745287477970123291e-01 -2.158391773700714111e-01
-7.911078929901123047e-01 -1.578407883644104004e-01 -1.056481897830963135e-01
-8.085458278656005859e-01 1.970103979110717773e-01 -1.241355240345001221e-01
-5.354703068733215332e-01 1.218440532684326172e-01 2.082339227199554443e-01
-5.963209867477416992e-01 -2.080422341823577881e-01 1.555450707674026489e-01
-8.561897277832031250e-01 1.892251074314117432e-01 8.679402619600296021e-02
-5.480374097824096680e-01 1.485663205385208130e-01 1.316273510456085205e-01
-7.572470903396606445e-01 -1.564787775278091431e-01 -1.851148307323455811e-01
-4.236627817153930664e-01 2.255062013864517212e-02 2.386680096387863159e-01
-3.931361734867095947e-01 4.579214379191398621e-02 -1.555934250354766846e-01
-9.057675600051879883e-01 1.758171916007995605e-01 -6.910045444965362549e-02
-6.616718173027038574e-01 -2.113646715879440308e-01 2.525411359965801239e-02
-3.354681134223937988e-01 -6.120943650603294373e-02 -1.362045109272003174e-01
-6.059831976890563965e-01 -2.209255546331405640e-01 -4.913125187158584595e-03
-4.584711194038391113e-01 -6.207879632711410522e-02 -3.415146768093109131e-01
-3.623994290828704834e-01 -9.127283841371536255e-02 -2.066359370946884155e-01
-5.304456353187561035e-01 -2.181022465229034424e-01 -9.243603050708770752e-02
-8.654464483261108398e-01 1.432521492242813110e-01 -2.441804856061935425e-01
-4.536575078964233398e-01 -1.299919784069061279e-01 2.851348519325256348e-01
-7.831892967224121094e-01 -3.283296152949333191e-02 -3.657406866550445557e-01
-9.215126037597656250e-01 1.694303452968597412e-01 -4.187222942709922791e-02
-6.166163682937622070e-01 1.289467364549636841e-01 -3.030304610729217529e-01
-3.720871210098266602e-01 -1.682425439357757568e-01 -9.259441494941711426e-02
-8.227381706237792969e-01 -8.569265902042388916e-02 -2.698750793933868408e-01
-4.911602139472961426e-01 1.315484344959259033e-01 -1.047764793038368225e-01
-8.654419183731079102e-01 -6.834959238767623901e-02 2.477180510759353638e-01
-4.536832869052886963e-01 -1.722142100334167480e-01 2.201228886842727661e-01
-7.277497649192810059e-01 1.243467330932617188e-01 -3.374447226524353027e-01
-8.191970586776733398e-01 -1.506128907203674316e-01 -3.906592354178428650e-02
-7.152777314186096191e-01 -1.622587293386459351e-01 2.349224239587783813e-01
-9.449091553688049316e-01 4.886640980839729309e-02 -2.047567218542098999e-01
-3.200117647647857666e-01 -8.776058256626129150e-02 1.217436604201793671e-02
-7.564660906791687012e-01 -3.556388989090919495e-02 3.800871372222900391e-01
-3.682768344879150391e-01 -1.180504336953163147e-01 -1.966379433870315552e-01
-8.343795537948608398e-01 1.257554627954959869e-03 -3.432606756687164307e-01
-3.559844195842742920e-01 2.236815914511680603e-02 3.986431751400232315e-03
-8.559094667434692383e-01 -1.199657022953033447e-01 -1.042942479252815247e-01
-8.980156779289245605e-01 -6.206761300563812256e-02 1.953180730342864990e-01
-6.379667520523071289e-01 2.827410027384757996e-02 3.953896462917327881e-01
-4.011882543563842773e-01 1.696250587701797485e-02 2.048284262418746948e-01
-4.676280319690704346e-01 8.258361369371414185e-02 2.036563307046890259e-01
-4.322623610496520996e-01 4.544402658939361572e-02 -2.504073679447174072e-01
-7.943980097770690918e-01 1.740603595972061157e-01 -2.252031862735748291e-01
-4.799920916557312012e-01 1.179534196853637695e-01 -1.493935585021972656e-01
-5.727748870849609375e-01 1.145873889327049255e-01 -3.002379834651947021e-01
-5.866647958755493164e-01 -2.799190953373908997e-02 -4.098170697689056396e-01
-4.502885043621063232e-01 9.130936861038208008e-02 1.397046595811843872e-01
-8.278796076774597168e-01 9.507227689027786255e-02 -3.323022723197937012e-01
-8.164068460464477539e-01 1.906206607818603516e-01 -1.526644676923751831e-01
-7.952683568000793457e-01 2.005442380905151367e-01 7.910181581974029541e-02
-7.015278339385986328e-01 1.710812151432037354e-01 2.068979591131210327e-01
-3.484410643577575684e-01 -4.287999868392944336e-02 1.454384773969650269e-01
-3.725929856300354004e-01 -1.595313698053359985e-01 -1.270465552806854248e-01
-3.538007438182830811e-01 -1.196976602077484131e-01 -1.611913591623306274e-01
-6.839472055435180664e-01 -2.053931653499603271e-01 -2.573565207421779633e-02
-4.855948686599731445e-01 1.313551813364028931e-01 -7.506759464740753174e-02
-5.139619708061218262e-01 -2.234429866075515747e-01 -3.897682297974824905e-03
-6.492521166801452637e-01 -1.143917813897132874e-01 -3.520822227001190186e-01
-7.736695408821105957e-01 1.940970718860626221e-01 -1.579683572053909302e-01
-7.166877388954162598e-01 1.850110292434692383e-01 1.620662957429885864e-01
-3.749774992465972900e-01 4.566239193081855774e-02 1.306283846497535706e-02
-4.146440625190734863e-01 -1.561505198478698730e-01 -2.130209654569625854e-01
-8.304836750030517578e-01 -1.420754790306091309e-01 8.209607005119323730e-02
-5.798916816711425781e-01 -1.948560029268264771e-01 -2.022370547056198120e-01
-3.652586638927459717e-01 2.733911573886871338e-02 -9.680806845426559448e-02
-9.118827581405639648e-01 3.933642804622650146e-02 -2.635676562786102295e-01
-6.950348615646362305e-01 -7.769006770104169846e-03 4.047958552837371826e-01
-5.511902570724487305e-01 -1.573445945978164673e-01 -2.949105501174926758e-01
-5.647785663604736328e-01 1.701760292053222656e-01 -3.354953974485397339e-02
-9.573115110397338867e-01 1.711350679397583008e-02 1.610438227653503418e-01
-6.097459197044372559e-01 -1.173444613814353943e-01 -3.551354110240936279e-01
-5.656002759933471680e-01 -2.240237593650817871e-01 -1.290920376777648926e-02
-7.092751264572143555e-01 1.417285352945327759e-01 -3.095193803310394287e-01
-6.225205659866333008e-01 8.554472774267196655e-02 -3.698682188987731934e-01
-6.535463929176330566e-01 5.897690728306770325e-02 -3.992286324501037598e-01
-5.364179015159606934e-01 1.550727486610412598e-01 -9.568546712398529053e-02
-5.782964825630187988e-01 1.735322475433349609e-01 -7.210868597030639648e-02
-4.859818220138549805e-01 6.546825170516967773e-02 2.653620243072509766e-01
-4.473094940185546875e-01 1.087565645575523376e-01 1.331847533583641052e-02
-8.322694301605224609e-01 -1.262158453464508057e-01 -1.487275660037994385e-01
-8.212602734565734863e-01 -1.509234905242919922e-01 -7.106840144842863083e-03
-8.544758558273315430e-01 5.592169985175132751e-02 -3.306763172149658203e-01
-6.934193372726440430e-01 8.604855835437774658e-02 -3.813320398330688477e-01
-5.551999211311340332e-01 -1.265605241060256958e-01 -3.416959047317504883e-01
-5.072610378265380859e-01 -1.423865705728530884e-01 3.056882619857788086e-01
-5.468741059303283691e-01 -9.427654743194580078e-02 3.661708533763885498e-01
-9.420122504234313965e-01 4.359033331274986267e-02 2.106072604656219482e-01
-7.270319461822509766e-01 -5.669903382658958435e-02 -3.812609910964965820e-01
-7.815136909484863281e-01 1.241164058446884155e-01 3.053911924362182617e-01
-6.417549848556518555e-01 -1.717901322990655899e-03 -4.177724719047546387e-01
-8.117430210113525391e-01 -8.830352127552032471e-02 2.896808683872222900e-01
-5.469179153442382812e-01 -1.912296563386917114e-01 -2.153314203023910522e-01
-7.321595549583435059e-01 -1.586612612009048462e-01 -2.124068140983581543e-01
-8.097218275070190430e-01 1.119410842657089233e-01 3.104723989963531494e-01
-3.596350550651550293e-01 4.192618653178215027e-03 1.128550916910171509e-01
-6.023979187011718750e-01 -1.838089078664779663e-01 2.417875379323959351e-01
-8.061099052429199219e-01 -1.081170067191123962e-01 -2.487402558326721191e-01
-6.615194678306579590e-01 -1.703869402408599854e-01 -2.418273091316223145e-01
-9.631940722465515137e-01 -1.394851692020893097e-02 7.987562566995620728e-02
-7.971256971359252930e-01 3.907110914587974548e-02 3.670515120029449463e-01
-8.889413475990295410e-01 5.095678940415382385e-02 -2.952803075313568115e-01
-9.250099658966064453e-01 1.199103891849517822e-01 -2.000744640827178955e-01
-7.511218190193176270e-01 8.081919699907302856e-02 3.608379960060119629e-01
-5.056875348091125488e-01 1.400021314620971680e-01 5.840007215738296509e-02
-4.018276035785675049e-01 7.298152893781661987e-02 -4.885035753250122070e-02
-5.435875654220581055e-01 1.469352543354034424e-01 -1.694704741239547729e-01
-9.755616188049316406e-01 5.593113973736763000e-02 1.167523637413978577e-01
-7.827385663986206055e-01 7.598217576742172241e-02 -3.696225583553314209e-01
-6.123486161231994629e-01 1.477069854736328125e-01 -2.565236389636993408e-01
-9.036533236503601074e-01 -4.013966396450996399e-02 2.225071638822555542e-01
-9.765323400497436523e-01 3.007403016090393066e-02 -9.416187554597854614e-02
-4.468520283699035645e-01 6.907821446657180786e-02 -2.316195517778396606e-01
-5.446192026138305664e-01 1.620868593454360962e-01 -4.203059710562229156e-03
-9.829027056694030762e-01 9.253138303756713867e-02 -4.654395580291748047e-02
-5.455373525619506836e-01 -2.055754065513610840e-01 -1.639806330204010010e-01
-7.611147761344909668e-01 -1.714516878128051758e-01 -1.065852418541908264e-01
-5.120369195938110352e-01 -8.561593294143676758e-02 -3.653462827205657959e-01
-3.218846619129180908e-01 -5.152345448732376099e-02 -4.887586459517478943e-03
-9.393737912178039551e-01 -3.148434311151504517e-02 1.442599892616271973e-01
-4.640876054763793945e-01 1.110114082694053650e-01 9.340129792690277100e-02
-9.813137054443359375e-01 1.566524058580398560e-02 -5.402700509876012802e-03
-4.389932155609130859e-01 -2.032425999641418457e-01 -9.093745797872543335e-02
-9.554142951965332031e-01 -3.296087682247161865e-02 4.767379537224769592e-02
-9.005635976791381836e-01 -7.771651446819305420e-02 -1.309765279293060303e-01
-6.566294431686401367e-01 1.685065627098083496e-01 1.915359944105148315e-01
-7.947179675102233887e-01 -1.447388976812362671e-01 -1.614611595869064331e-01
-6.956133842468261719e-01 1.929173022508621216e-01 -1.472177356481552124e-01
-4.260878562927246094e-01 -1.988470703363418579e-01 9.142152965068817139e-02
-4.687033891677856445e-01 6.677395664155483246e-03 3.135761320590972900e-01
-5.212433338165283203e-01 -1.132458597421646118e-01 -3.473748862743377686e-01
-6.113247871398925781e-01 1.684487015008926392e-01 -1.838962882757186890e-01
-4.247307181358337402e-01 8.891469240188598633e-02 5.095048993825912476e-02
-5.002542734146118164e-01 1.265901923179626465e-01 1.251839548349380493e-01
-9.545923471450805664e-01 5.700225755572319031e-02 1.820821017026901245e-01
-7.260451316833496094e-01 -1.922289580106735229e-01 5.371787026524543762e-02
-5.105031728744506836e-01 -1.984303742647171021e-01 -1.830666512250900269e-01
-9.055808186531066895e-01 -4.352541267871856689e-02 -2.029451578855514526e-01
-9.747807979583740234e-01 1.069167777895927429e-01 -7.151800394058227539e-02
-6.362582445144653320e-01 -1.285467296838760376e-01 3.408309817314147949e-01
-6.846975684165954590e-01 -1.224256679415702820e-01 -3.278470635414123535e-01
-7.239464521408081055e-01 1.781281232833862305e-01 -2.222629934549331665e-01
-3.403837084770202637e-01 -8.491119742393493652e-02 1.326816529035568237e-01
-5.126590132713317871e-01 -2.209082096815109253e-01 -5.616039410233497620e-02
-9.471518993377685547e-01 -3.028518706560134888e-02 1.159919425845146179e-01
-7.870077490806579590e-01 2.071004360914230347e-01 -1.299175806343555450e-02
-9.442543387413024902e-01 -4.509409889578819275e-02 -5.987289175391197205e-02
-7.527647614479064941e-01 2.052980214357376099e-01 -7.861104607582092285e-02
-9.547714591026306152e-01 7.790033519268035889e-02 -1.772716939449310303e-01
-9.839029312133789062e-01 3.147577866911888123e-02 4.711268469691276550e-02
-5.870833992958068848e-01 -2.180794477462768555e-01 9.539382159709930420e-02
-9.615799188613891602e-01 1.331872791051864624e-01 4.323226213455200195e-02
-6.714625954627990723e-01 1.424752771854400635e-01 2.702166140079498291e-01
-6.870724558830261230e-01 2.021216750144958496e-01 -1.599229313433170319e-02
-5.855461955070495605e-01 1.772481948137283325e-01 5.981355439871549606e-03
-6.387557983398437500e-01 1.109349951148033142e-01 3.155391812324523926e-01
-9.794949293136596680e-01 2.256717160344123840e-02 -6.230353564023971558e-02
-4.003417193889617920e-01 -1.693944334983825684e-01 1.555965691804885864e-01
-4.242842197418212891e-01 6.707090884447097778e-02 1.503315716981887817e-01
-6.274142861366271973e-01 1.679662168025970459e-01 1.675689965486526489e-01
-8.383933901786804199e-01 -5.209267139434814453e-02 3.057719767093658447e-01
-6.273217797279357910e-01 1.888727694749832153e-01 2.401764318346977234e-02
-6.144878268241882324e-01 -2.194922864437103271e-01 3.529272228479385376e-02
-3.256115317344665527e-01 -1.167165935039520264e-01 -1.875972375273704529e-03
-3.663070201873779297e-01 2.964688464999198914e-03 -1.700596064329147339e-01
-8.129529356956481934e-01 -1.156930476427078247e-01 -2.208198606967926025e-01
-6.844736337661743164e-01 -1.935221254825592041e-01 1.498719155788421631e-01
-9.518004059791564941e-01 -4.740342497825622559e-03 -1.447117924690246582e-01
-9.480728507041931152e-01 -4.414625093340873718e-02 -2.732860855758190155e-02
-9.653465151786804199e-01 7.542102783918380737e-02 -1.489869952201843262e-01
-3.535950779914855957e-01 1.571805030107498169e-02 -6.910969316959381104e-02
-9.165170192718505859e-01 -5.458042025566101074e-02 -1.506685465574264526e-01
-5.339182019233703613e-01 -5.028546601533889771e-02 -3.896005153656005859e-01
-4.175592362880706787e-01 5.058084055781364441e-02 1.772424429655075073e-01
-9.629050493240356445e-01 9.940171241760253906e-02 1.308088600635528564e-01
-5.861002206802368164e-01 -1.432243585586547852e-01 -3.205392956733703613e-01
-6.754094362258911133e-01 -1.565443873405456543e-01 2.793098390102386475e-01
-8.852995634078979492e-01 -1.057162582874298096e-01 -4.951971769332885742e-02
-6.587632894515991211e-01 -5.297700315713882446e-02 -4.040269255638122559e-01
-4.023313224315643311e-01 -1.847056895494461060e-01 -1.091281250119209290e-01
-7.476412653923034668e-01 2.075694799423217773e-01 -1.424730010330677032e-02
-9.847828745841979980e-01 5.813527479767799377e-02 6.711471080780029297e-02
-7.292339801788330078e-01 -1.418841034173965454e-01 -2.607370913028717041e-01
-4.370405673980712891e-01 -6.677691638469696045e-02 3.046135604381561279e-01
-8.501199483871459961e-01 1.843849867582321167e-01 1.217222809791564941e-01
-7.968403697013854980e-01 -1.604207754135131836e-01 8.260928839445114136e-02
-6.255200505256652832e-01 -2.057707011699676514e-01 1.493956148624420166e-01
-6.147227883338928223e-01 -1.919324547052383423e-01 -2.011648863554000854e-01
-4.081200361251831055e-01 -1.977372318506240845e-01 -2.981271222233772278e-02
-8.216540813446044922e-01 -1.504489630460739136e-01 3.540951758623123169e-02
-8.460633158683776855e-01 1.973290890455245972e-01 3.755339235067367554e-02
-8.103777766227722168e-01 1.737160682678222656e-01 1.923077255487442017e-01
-6.942377090454101562e-01 -1.558645628392696381e-02 -4.116871654987335205e-01
-8.562479019165039062e-01 -1.098293140530586243e-01 -1.490556150674819946e-01
-6.633097529411315918e-01 1.967858374118804932e-01 2.737685292959213257e-02
-5.624577403068542480e-01 -2.781511843204498291e-02 3.895885050296783447e-01
-7.201020717620849609e-01 -1.039784476161003113e-01 -3.356788754463195801e-01
-9.624686241149902344e-01 2.910895273089408875e-02 -1.503098607063293457e-01
-8.628817796707153320e-01 1.189192850142717361e-02 3.190417587757110596e-01
-8.866194486618041992e-01 5.028381198644638062e-02 2.941581606864929199e-01
-4.245058894157409668e-01 8.936290442943572998e-02 -8.440465480089187622e-02
-7.173089981079101562e-01 5.017210170626640320e-02 3.869895040988922119e-01
-9.209386110305786133e-01 7.012404501438140869e-02 2.427480816841125488e-01
-8.990034461021423340e-01 -6.558564305305480957e-02 -1.719821393489837646e-01
-9.674317836761474609e-01 7.741919718682765961e-03 1.114558801054954529e-01
-9.305944442749023438e-01 8.536496013402938843e-02 -2.241315096616744995e-01
-7.752244472503662109e-01 -1.654075235128402710e-01 1.243529468774795532e-01
-7.881305217742919922e-01 1.445738673210144043e-01 -2.931855916976928711e-01
-9.115932583808898926e-01 1.684119850397109985e-01 7.959195971488952637e-02
-6.854067444801330566e-01 1.996924728155136108e-01 -7.873757183551788330e-02
-8.075531125068664551e-01 -1.544058024883270264e-01 -6.796336174011230469e-02
-8.772911429405212402e-01 -7.502117753028869629e-02 2.133155167102813721e-01
-9.709759950637817383e-01 -8.487335406243801117e-03 2.372092939913272858e-02
-4.809683561325073242e-01 3.408332541584968567e-02 -3.293560147285461426e-01
-9.328979253768920898e-01 1.274956762790679932e-01 -1.721229702234268188e-01
-4.298647046089172363e-01 8.513130992650985718e-02 -1.377282440662384033e-01
-9.318268299102783203e-01 -6.374269723892211914e-02 4.483067244291305542e-02
-8.509457111358642578e-01 -6.609470397233963013e-02 2.731240093708038330e-01
-4.765241444110870361e-01 -2.018711566925048828e-01 1.534708291292190552e-01
-7.177541851997375488e-01 1.093258410692214966e-01 3.342301249504089355e-01
-6.345676183700561523e-01 8.397445827722549438e-02 3.504277169704437256e-01
-4.765567183494567871e-01 -1.613067388534545898e-01 -2.605641186237335205e-01
-4.126250445842742920e-01 1.605964452028274536e-02 -2.576933503150939941e-01
-9.106744527816772461e-01 -8.639708906412124634e-02 -1.224561408162117004e-02
-7.690849900245666504e-01 -1.749071180820465088e-01 6.447349488735198975e-02
-4.179702103137969971e-01 8.759202808141708374e-02 -9.988129138946533203e-03
-4.275096952915191650e-01 -4.026146978139877319e-02 2.916685342788696289e-01
-6.633026003837585449e-01 -4.384337365627288818e-02 4.026042520999908447e-01
-4.849927425384521484e-01 -2.202502936124801636e-01 1.165439561009407043e-02
-5.645834803581237793e-01 4.783283546566963196e-02 -3.796426355838775635e-01
-8.362569808959960938e-01 2.715194225311279297e-02 3.440317809581756592e-01
-8.923491239547729492e-01 5.328485742211341858e-03 2.821576893329620361e-01
-9.410059452056884766e-01 1.445651650428771973e-01 9.326299279928207397e-02
-5.112164020538330078e-01 -2.104269713163375854e-01 1.406139582395553589e-01
-4.941448569297790527e-01 -1.860550940036773682e-01 -2.141815125942230225e-01
-9.104335904121398926e-01 1.025300100445747375e-01 -2.436177581548690796e-01
-6.270813345909118652e-01 -1.464017331600189209e-01 3.161084353923797607e-01
-8.323537111282348633e-01 -8.860755711793899536e-02 2.631181180477142334e-01
-9.504681229591369629e-01 1.237870007753372192e-01 -1.345846951007843018e-01
-4.120412468910217285e-01 -1.951384842395782471e-01 -7.609509676694869995e-02
-7.158525586128234863e-01 1.275085508823394775e-01 3.077012896537780762e-01
-3.797178268432617188e-01 -1.786826997995376587e-01 -6.514976173639297485e-02
-7.635186910629272461e-01 -1.127642765641212463e-01 -2.885009944438934326e-01
-9.794443845748901367e-01 6.139942631125450134e-02 -9.838856011629104614e-02
-8.718504905700683594e-01 9.019955992698669434e-02 -2.995795309543609619e-01
-7.192842364311218262e-01 -1.912555396556854248e-01 -7.516072690486907959e-02
-8.884513378143310547e-01 -3.983968123793601990e-02 2.509329915046691895e-01
-6.743633151054382324e-01 -1.014954075217247009e-01 3.636563420295715332e-01
-5.930908918380737305e-01 -6.353054195642471313e-02 3.927824497222900391e-01
-6.826885938644409180e-01 1.515787392854690552e-01 -2.846809327602386475e-01
-9.306195974349975586e-01 2.418732270598411560e-03 2.158589661121368408e-01
-8.702390789985656738e-01 -3.079792112112045288e-02 -2.813185751438140869e-01
-5.232383012771606445e-01 1.442608982324600220e-01 9.275726974010467529e-02
-4.493945240974426270e-01 -1.677562147378921509e-01 -2.270946651697158813e-01
-4.739587306976318359e-01 -2.057718336582183838e-01 -1.282630264759063721e-01
-4.643203020095825195e-01 -2.126309275627136230e-01 -7.022538036108016968e-02
-8.711609244346618652e-01 1.912543922662734985e-02 -3.124206960201263428e-01
-7.944817543029785156e-01 1.943301409482955933e-01 1.189483180642127991e-01
-3.763447999954223633e-01 -3.366295620799064636e-02 -2.334448397159576416e-01
-9.499106407165527344e-01 1.461235135793685913e-01 -5.532806366682052612e-02
-4.477784037590026855e-01 4.036546498537063599e-02 -2.825020551681518555e-01
-5.213598012924194336e-01 1.291769593954086304e-01 -1.995850652456283569e-01
-5.660212039947509766e-01 1.057142987847328186e-01 2.789332270622253418e-01
-3.876810073852539062e-01 3.632948920130729675e-02 1.305701285600662231e-01
-7.168201804161071777e-01 1.451214551925659180e-01 2.756990492343902588e-01
-5.890791416168212891e-01 1.338998526334762573e-01 -2.723070085048675537e-01
-8.531190752983093262e-01 1.570575982332229614e-01 2.075389623641967773e-01
-4.700748026371002197e-01 9.497315436601638794e-02 -2.114365398883819580e-01
-3.614162206649780273e-01 -1.212074160575866699e-01 1.642011702060699463e-01
-4.225607812404632568e-01 5.571343377232551575e-02 -2.111676037311553955e-01
-6.709018349647521973e-01 1.143010780215263367e-01 3.211315870285034180e-01
-5.629221200942993164e-01 1.635965555906295776e-01 7.681600749492645264e-02
-9.401327371597290039e-01 7.375448197126388550e-02 2.079371213912963867e-01
-4.309894442558288574e-01 -2.054103612899780273e-01 -4.958743229508399963e-02
-7.605233788490295410e-01 -1.392500847578048706e-01 2.479079812765121460e-01
-5.095319747924804688e-01 -1.683530956506729126e-01 2.654937207698822021e-01
-5.742226243019104004e-01 -1.972813457250595093e-01 2.051162421703338623e-01
-5.102415084838867188e-01 -3.182366490364074707e-02 -3.804005682468414307e-01
-5.413288474082946777e-01 -1.529787331819534302e-01 3.030803799629211426e-01
-3.383278250694274902e-01 -1.283385232090950012e-02 -7.617878913879394531e-02
-9.261417388916015625e-01 -5.065517965704202652e-03 -2.124807387590408325e-01
-7.806174755096435547e-01 9.543375670909881592e-02 3.398292958736419678e-01
-8.063092827796936035e-01 -5.364453047513961792e-02 3.357641100883483887e-01
-7.013125419616699219e-01 1.980192959308624268e-01 -1.168961450457572937e-01
-3.489493131637573242e-01 -2.232139930129051208e-02 1.235704421997070312e-01
-4.418165385723114014e-01 -1.981290280818939209e-01 -1.245237961411476135e-01
-6.073349714279174805e-01 1.460495442152023315e-01 2.217606604099273682e-01
-9.528241157531738281e-01 2.819984778761863708e-02 -1.779622584581375122e-01
-4.788812100887298584e-01 -5.194788798689842224e-02 3.431261777877807617e-01
-7.007408142089843750e-01 -1.653475016355514526e-01 -2.255809754133224487e-01
-3.831547796726226807e-01 -1.644493192434310913e-01 1.326619982719421387e-01
-7.342704534530639648e-01 -1.199329048395156860e-01 -3.010491132736206055e-01
-7.869851589202880859e-01 -1.322345882654190063e-01 -2.167066484689712524e-01
-7.003265023231506348e-01 -4.383384808897972107e-02 -3.995672464370727539e-01
-6.828526258468627930e-01 1.176495254039764404e-01 -3.451355099678039551e-01
-4.816310405731201172e-01 -2.194303274154663086e-01 -1.831937767565250397e-02
-4.234640002250671387e-01 9.162450581789016724e-02 -4.288065806031227112e-02
-7.347668409347534180e-01 1.943713873624801636e-01 1.236404776573181152e-01
-6.325114369392395020e-01 -1.207420881837606430e-02 4.056146740913391113e-01
-3.590225577354431152e-01 1.611092314124107361e-02 7.385262846946716309e-02
-6.345208287239074707e-01 -1.856297999620437622e-01 2.250014692544937134e-01
-4.034306406974792480e-01 -1.695848852396011353e-01 -1.651715040206909180e-01
-8.299667835235595703e-01 1.805591136217117310e-01 1.571674495935440063e-01
-8.361508846282958984e-01 -1.333787143230438232e-01 1.202415227890014648e-01
-7.400764822959899902e-01 -1.337836086750030518e-01 2.810473442077636719e-01
-7.010912895202636719e-01 -1.771493703126907349e-01 -1.856288313865661621e-01
-5.746598839759826660e-01 7.568047195672988892e-02 3.317031562328338623e-01
-5.221049189567565918e-01 5.055986344814300537e-02 -3.502062559127807617e-01
-4.480119943618774414e-01 -1.923756897449493408e-01 -1.569134294986724854e-01
-5.801811218261718750e-01 -1.547037065029144287e-01 3.060477972030639648e-01
-7.634446620941162109e-01 -8.887223899364471436e-02 -3.259974122047424316e-01
-7.719783782958984375e-01 -5.297418311238288879e-02 3.615303635597229004e-01
-8.628510832786560059e-01 -8.890070021152496338e-02 -1.975512802600860596e-01
-6.173345446586608887e-01 1.283783912658691406e-01 2.725451588630676270e-01
-6.001458168029785156e-01 -8.612836152315139771e-02 -3.859142065048217773e-01
-6.930935978889465332e-01 -1.977912932634353638e-01 -8.862374722957611084e-02
-9.678687453269958496e-01 -1.313079148530960083e-02 -2.849296666681766510e-02
-6.628341674804687500e-01 1.375073194503784180e-01 -3.077469170093536377e-01
-8.361850976943969727e-01 -1.076157465577125549e-01 2.162623256444931030e-01
-5.328400135040283203e-01 1.815229654312133789e-02 3.587897121906280518e-01
-9.195578098297119141e-01 1.274426560848951340e-02 -2.404425144195556641e-01
-4.167605340480804443e-01 7.758598774671554565e-02 8.268273621797561646e-02
-5.832759141921997070e-01 -2.161796540021896362e-01 -9.929591417312622070e-02
-7.410072088241577148e-01 1.805992424488067627e-01 1.842515617609024048e-01
-4.717927575111389160e-01 5.720141157507896423e-02 -2.916578948497772217e-01
-4.647929668426513672e-01 1.169216483831405640e-01 -9.516072273254394531e-02
-3.388436436653137207e-01 -1.430955529212951660e-01 9.142328053712844849e-04
-3.374751508235931396e-01 -4.205596446990966797e-02 1.048138290643692017e-01
-4.556509852409362793e-01 -8.874332904815673828e-02 -3.288064002990722656e-01
-3.795708715915679932e-01 2.790431492030620575e-03 1.771515309810638428e-01
-8.704940676689147949e-01 -1.197726801037788391e-01 9.604280814528465271e-03
-7.734906673431396484e-01 1.792134642601013184e-01 1.875662505626678467e-01
-3.714529275894165039e-01 -1.758007407188415527e-01 3.057420998811721802e-02
-7.590696215629577637e-01 1.373507678508758545e-01 -3.136922419071197510e-01
-8.549506664276123047e-01 -9.836671873927116394e-03 -3.172047436237335205e-01
-6.120895147323608398e-01 -1.826074868440628052e-01 -2.318580746650695801e-01
-9.232927560806274414e-01 -3.288010880351066589e-02 1.895440816879272461e-01
-8.302061557769775391e-01 -6.358990818262100220e-02 -2.940334677696228027e-01
-9.259119033813476562e-01 1.043549850583076477e-01 2.083206921815872192e-01
-3.989289104938507080e-01 -1.307408511638641357e-01 -2.328061610460281372e-01
-7.466113567352294922e-01 1.241838485002517700e-01 3.122412562370300293e-01
-4.521804451942443848e-01 1.119206324219703674e-01 -5.644788593053817749e-02
-6.087805032730102539e-01 -2.047534734010696411e-01 -1.518729627132415771e-01
-7.694761753082275391e-01 1.870830059051513672e-01 1.593386381864547729e-01
-7.995954751968383789e-01 1.829934567213058472e-01 -1.943712383508682251e-01
-8.059910535812377930e-01 -5.990640260279178619e-03 -3.634498119354248047e-01
-8.058989048004150391e-01 1.331887841224670410e-01 2.828571498394012451e-01
-3.966306447982788086e-01 6.622967123985290527e-02 3.511415049433708191e-02
-8.015267252922058105e-01 2.031850665807723999e-01 4.967319965362548828e-02
-4.263064265251159668e-01 -1.545924991369247437e-01 2.250187397003173828e-01
-9.710856080055236816e-01 9.664727002382278442e-02 -1.103719919919967651e-01
-3.783391714096069336e-01 2.912726253271102905e-03 -2.037804275751113892e-01
-6.397050619125366211e-01 1.478827744722366333e-01 2.416127622127532959e-01
-5.390044450759887695e-01 -8.127282373607158661e-03 3.750108480453491211e-01
-4.748233556747436523e-01 1.272027343511581421e-01 -2.359312959015369415e-02
-8.180941343307495117e-01 2.035872638225555420e-01 -4.379614815115928650e-02
-4.067182540893554688e-01 6.680984795093536377e-02 -1.288637220859527588e-01
-9.853746891021728516e-01 9.121223539113998413e-02 -2.469033468514680862e-03
-4.047574102878570557e-01 4.854457825422286987e-02 -1.839081794023513794e-01
-6.528795957565307617e-01 1.954248100519180298e-01 -5.064774304628372192e-02
-3.985838890075683594e-01 -1.140165105462074280e-01 2.385495305061340332e-01
-7.259573936462402344e-01 2.059360444545745850e-01 1.073848269879817963e-02
-5.648557543754577637e-01 1.339263170957565308e-01 2.118417769670486450e-01
-4.843068122863769531e-01 1.115132719278335571e-01 1.498058289289474487e-01
-5.288063287734985352e-01 8.484973013401031494e-02 2.815185785293579102e-01
-7.565073966979980469e-01 2.017171978950500488e-01 -1.136538535356521606e-01
-4.448549747467041016e-01 -2.117519974708557129e-01 8.591240271925926208e-03
-6.390790939331054688e-01 -1.650979816913604736e-01 2.770843505859375000e-01
-6.202148795127868652e-01 -2.146022319793701172e-01 9.396252036094665527e-02
-5.489730238914489746e-01 1.403676271438598633e-01 1.682734638452529907e-01
-6.361731886863708496e-01 -2.100546061992645264e-01 -9.514032304286956787e-02
-6.125438809394836426e-01 5.302772670984268188e-02 -3.948802947998046875e-01
-6.406509280204772949e-01 1.784087121486663818e-01 1.355749070644378662e-01
-3.342195749282836914e-01 -1.253663301467895508e-01 6.082390993833541870e-02
-7.754366993904113770e-01 1.606732010841369629e-01 -2.655993402004241943e-01
-3.467432558536529541e-01 -1.465040594339370728e-01 -7.315572351217269897e-02
-4.441854953765869141e-01 -1.794726252555847168e-01 1.931397318840026855e-01
-9.740380048751831055e-01 2.437463030219078064e-03 5.390719324350357056e-02
-3.838335275650024414e-01 -7.716822624206542969e-02 -2.514829337596893311e-01
-8.013514280319213867e-01 1.546514220535755157e-03 3.666801750659942627e-01
-9.115636348724365234e-01 -7.576968520879745483e-02 -9.445995837450027466e-02
-7.540422677993774414e-01 -1.695669740438461304e-01 1.527501791715621948e-01
-3.671889305114746094e-01 -1.074434742331504822e-01 1.898022145032882690e-01
-6.452118754386901855e-01 1.765642911195755005e-01 -1.864854842424392700e-01
-5.636500120162963867e-01 -6.605182588100433350e-02 3.849223256111145020e-01
-8.297584652900695801e-01 -1.395570635795593262e-01 -8.710616827011108398e-02
-7.761701941490173340e-01 1.687491238117218018e-01 2.185072302818298340e-01
-8.528437614440917969e-01 -6.093052402138710022e-02 -2.683052718639373779e-01
-5.264604687690734863e-01 1.071391552686691284e-01 2.342715263366699219e-01
-5.126943588256835938e-01 1.139469072222709656e-01 -2.333676218986511230e-01
-4.098747372627258301e-01 -1.959421187639236450e-01 6.132370233535766602e-02
-4.548226594924926758e-01 9.834156930446624756e-02 -1.630670875310897827e-01
-8.529985547065734863e-01 1.255849003791809082e-01 -2.825981974601745605e-01
-9.016135931015014648e-01 1.808746755123138428e-01 1.418901607394218445e-03
-8.002030253410339355e-01 4.816649854183197021e-02 -3.718513548374176025e-01
-4.840862751007080078e-01 8.264342695474624634e-02 2.305750995874404907e-01
-7.315239906311035156e-01 -9.377349168062210083e-02 3.482659161090850830e-01
-4.808198213577270508e-01 -1.867739111185073853e-01 2.072075754404067993e-01
-8.178085684776306152e-01 2.143765240907669067e-02 -3.618229329586029053e-01
-3.433923423290252686e-01 -1.178744882345199585e-01 -1.325378417968750000e-01
-7.321251630783081055e-01 1.867292970418930054e-01 -1.920792907476425171e-01
-4.930681884288787842e-01 -1.960804313421249390e-02 3.489611744880676270e-01
