-1.847654134035110474e-01 -1.598282717168331146e-02 1.019353419542312622e-01
-9.248796105384826660e-02 6.104134023189544678e-03 6.520243734121322632e-02
-3.605079054832458496e-01 -7.145693898200988770e-02 -8.422374725341796875e-02
-3.801334500312805176e-01 -1.191058307886123657e-01 9.473137557506561279e-03
-8.755141496658325195e-02 5.265227332711219788e-02 1.300173625349998474e-02
-1.573110073804855347e-01 -4.788872599601745605e-02 8.275471627712249756e-03
-3.611122369766235352e-01 -9.909313917160034180e-02 6.199096143245697021e-02
-4.187456965446472168e-01 -1.305269822478294373e-02 -9.644882753491401672e-03
-1.843366622924804688e-01 7.065422832965850830e-03 -6.019353494048118591e-02
-3.925323486328125000e-01 -1.050386428833007812e-01 5.770680308341979980e-02
-2.348517924547195435e-01 -7.956624031066894531e-02 -1.339054666459560394e-02
-4.613936841487884521e-01 -1.263442933559417725e-01 -2.638879790902137756e-02
-5.187075138092041016e-01 -1.171173304319381714e-01 -4.787297919392585754e-03
-3.898281753063201904e-01 -6.998091936111450195e-03 6.384206563234329224e-02
-4.060080647468566895e-01 -5.104768276214599609e-02 9.114442765712738037e-02
-1.975103020668029785e-01 1.141585037112236023e-02 -5.992063507437705994e-02
-5.097186565399169922e-01 -7.454764097929000854e-02 2.927279099822044373e-02
-3.006898164749145508e-01 -7.667328417301177979e-02 -7.107308506965637207e-02
-4.668242931365966797e-01 -7.190711796283721924e-02 -6.262272596359252930e-02
-3.761649727821350098e-01 -1.418323442339897156e-02 8.473357558250427246e-02
-1.034928262233734131e-01 -1.574495248496532440e-02 8.916033431887626648e-03
-3.285950720310211182e-01 -1.611105166375637054e-02 -7.184131443500518799e-02
-1.443123519420623779e-01 -2.041773870587348938e-02 -4.018202051520347595e-02
-1.890554875135421753e-01 5.750008299946784973e-02 3.323169797658920288e-02
-1.946887075901031494e-01 -6.077798828482627869e-02 4.219180718064308167e-02
-1.927918046712875366e-01 -4.056736081838607788e-02 -5.495091155171394348e-02
-3.378524482250213623e-01 -8.775886148214340210e-02 7.435362786054611206e-02
-4.397636651992797852e-01 -1.267675608396530151e-01 1.724887639284133911e-03
-4.102370142936706543e-01 -1.176619678735733032e-01 3.337059915065765381e-02
-4.842646121978759766e-01 -6.224790215492248535e-02 -4.205172136425971985e-02
-3.264212608337402344e-01 -1.312367245554924011e-02 1.040842086076736450e-01
-3.137126564979553223e-01 -8.851314336061477661e-02 6.579218059778213501e-02
-9.933632612228393555e-02 -1.276668347418308258e-02 3.336212784051895142e-02
-3.889629542827606201e-01 -8.817164599895477295e-02 7.919158041477203369e-02
-1.640266180038452148e-01 5.325298383831977844e-02 7.305294275283813477e-02
-1.524763554334640503e-01 5.137435719370841980e-02 7.810561358928680420e-02
-2.736847102642059326e-01 3.637960180640220642e-02 -5.221651867032051086e-03
-1.342709064483642578e-01 6.092644855380058289e-02 4.952351376414299011e-02
-3.272823393344879150e-01 2.306256815791130066e-02 1.251477748155593872e-03
-4.273355007171630859e-01 -2.646683156490325928e-02 6.219734624028205872e-02
-2.717510461807250977e-01 -5.026736110448837280e-02 1.004389971494674683e-01
-2.551560997962951660e-01 -8.681017905473709106e-02 -1.431669853627681732e-02
-1.024510413408279419e-01 1.901823654770851135e-02 8.243781328201293945e-02
-4.718561470508575439e-01 -7.850681245326995850e-02 6.441548466682434082e-02
-3.801378011703491211e-01 -2.583246305584907532e-02 -6.522193551063537598e-02
-9.554098546504974365e-02 -9.987391531467437744e-04 -1.065105013549327850e-02
-1.892900764942169189e-01 -5.259417742490768433e-02 -3.645074740052223206e-02
-2.934564650058746338e-01 -8.676174283027648926e-02 5.985590443015098572e-02
-2.433126270771026611e-01 -8.356145024299621582e-02 -5.114175379276275635e-03
-9.064045548439025879e-02 4.593585804104804993e-02 -1.867855899035930634e-03
-1.187079101800918579e-01 -2.664312347769737244e-02 1.548785250633955002e-02
-4.205766618251800537e-01 -1.124184578657150269e-02 1.899494975805282593e-02
-2.222754806280136108e-01 -5.884680151939392090e-02 -5.320004001259803772e-02
-1.675359606742858887e-01 -1.085804402828216553e-02 9.901620447635650635e-02
-3.013648688793182373e-01 -8.578940480947494507e-02 -6.059252843260765076e-02
-2.794634401798248291e-01 -6.125186756253242493e-02 -7.626540958881378174e-02
-1.500741094350814819e-01 5.113437399268150330e-02 -1.075599901378154755e-02
-2.103533148765563965e-01 -2.057075873017311096e-02 1.063906252384185791e-01
-2.986295819282531738e-01 -1.011715978384017944e-01 6.389157846570014954e-03
-2.740646004676818848e-01 -8.238066732883453369e-02 5.811191350221633911e-02
-4.813103079795837402e-01 -6.902302056550979614e-02 -5.169520899653434753e-02
-9.466964006423950195e-02 2.936099469661712646e-02 7.928204536437988281e-02
-4.562692642211914062e-01 -5.827692151069641113e-02 6.963118165731430054e-02
-4.717894792556762695e-01 -1.179446876049041748e-01 3.244201466441154480e-02
-2.175756692886352539e-01 -4.373296350240707397e-02 -6.513814628124237061e-02
-2.381752431392669678e-01 -3.661191835999488831e-02 1.033679246902465820e-01
-3.503402769565582275e-01 -8.246140554547309875e-03 -5.687974020838737488e-02
-2.343823611736297607e-01 3.885189071297645569e-02 -2.191416174173355103e-02
-3.066876828670501709e-01 -7.258860766887664795e-02 8.658914268016815186e-02
-4.466430246829986572e-01 -8.137795329093933105e-02 7.441468536853790283e-02
-1.996900439262390137e-01 1.145794615149497986e-02 1.095514446496963501e-01
-4.558092355728149414e-01 -8.362284302711486816e-02 -7.047076523303985596e-02
-2.908656895160675049e-01 2.963645383715629578e-02 -1.438821479678153992e-02
-2.423263937234878540e-01 4.649775847792625427e-02 5.141702666878700256e-02
-2.952693700790405273e-01 -9.242533147335052490e-02 4.693550989031791687e-02
-3.298277556896209717e-01 -1.079934388399124146e-01 1.774088293313980103e-02
-3.026621341705322266e-01 1.877315714955329895e-02 8.305190503597259521e-02
-2.531329989433288574e-01 3.160863742232322693e-02 -3.064535558223724365e-02
-1.943607628345489502e-01 -5.710587650537490845e-02 5.351234227418899536e-02
-2.190974354743957520e-01 -6.474314630031585693e-02 -4.116655513644218445e-02
-8.388152718544006348e-02 5.557083711028099060e-02 4.151037707924842834e-02
-3.359019458293914795e-01 -1.042808294296264648e-01 3.973223641514778137e-02
-3.325603604316711426e-01 -1.047639399766921997e-01 -3.975309059023857117e-02
-4.259412884712219238e-01 -4.214058816432952881e-02 -6.088828667998313904e-02
-3.216759860515594482e-01 -7.525867968797683716e-02 8.660496771335601807e-02
-5.074786543846130371e-01 -6.502200663089752197e-02 -7.505454123020172119e-03
-2.026220262050628662e-01 -3.034595027565956116e-02 9.795092046260833740e-02
-4.782426357269287109e-01 -1.160611063241958618e-01 -4.843212664127349854e-02
-3.471814990043640137e-01 -1.133297085762023926e-01 3.299289382994174957e-03
-6.286740303039550781e-01 -4.197787493467330933e-03 3.391952067613601685e-02
-5.761873722076416016e-01 3.879349678754806519e-02 -6.851832568645477295e-02
-5.145417451858520508e-01 9.194959700107574463e-02 4.506292939186096191e-02
-3.597139716148376465e-01 -1.479908823966979980e-02 -4.360758885741233826e-02
-3.596314489841461182e-01 3.076994419097900391e-02 -8.893565088510513306e-02
-3.697483539581298828e-01 2.369148656725883484e-02 8.715820312500000000e-02
-1.909899860620498657e-01 8.841659873723983765e-02 -6.842166930437088013e-02
-4.195314049720764160e-01 -1.740623265504837036e-02 5.554663762450218201e-02
-9.911352396011352539e-02 1.070319563150405884e-01 1.845081523060798645e-02
-2.517183423042297363e-01 1.500950753688812256e-01 -4.347749054431915283e-03
-5.460894703865051270e-01 7.565174251794815063e-02 -5.625313147902488708e-02
-1.655011475086212158e-01 3.570251166820526123e-02 -2.893104683607816696e-03
-1.493584066629409790e-01 5.684689059853553772e-02 4.156633839011192322e-02
-2.080256193876266479e-01 4.837515950202941895e-02 6.735116988420486450e-02
-6.276414394378662109e-01 3.423395752906799316e-02 3.330149874091148376e-02
-4.278438389301300049e-01 4.764902591705322266e-02 -9.438750892877578735e-02
-3.901794552803039551e-01 -2.182202041149139404e-02 4.021698981523513794e-02
-5.044474005699157715e-01 6.590208411216735840e-02 7.413458824157714844e-02
-5.233199000358581543e-01 -2.996874600648880005e-02 -4.279659688472747803e-02
-2.781530916690826416e-01 1.428068876266479492e-01 3.610585629940032959e-02
-4.439862966537475586e-01 -2.749487757682800293e-02 4.089513048529624939e-02
-1.286188662052154541e-01 9.212965518236160278e-02 4.830611869692802429e-02
-3.022195696830749512e-01 1.261615455150604248e-01 -6.198327615857124329e-02
-6.167927980422973633e-01 -7.271721959114074707e-03 -4.664133489131927490e-02
-2.266406714916229248e-01 1.210310682654380798e-02 -1.643037423491477966e-02
-5.162853598594665527e-01 -2.402849495410919189e-04 -7.573719322681427002e-02
-4.715520739555358887e-01 -3.765750676393508911e-02 -1.201398298144340515e-02
-5.993795394897460938e-01 -3.234195709228515625e-02 -5.666921380907297134e-03
-6.102621555328369141e-01 -2.735994011163711548e-02 1.366537343710660934e-02
-5.713961124420166016e-01 2.519894391298294067e-02 6.555944681167602539e-02
-3.634603023529052734e-01 9.995023906230926514e-02 -8.190532773733139038e-02
-2.441500127315521240e-01 5.698220431804656982e-02 -7.820958644151687622e-02
-4.772762060165405273e-01 -3.221293538808822632e-02 -3.634735941886901855e-02
-1.918192654848098755e-01 1.143979430198669434e-01 -6.109660491347312927e-02
-4.891410768032073975e-01 1.112761497497558594e-01 -2.245690487325191498e-02
-5.379735231399536133e-01 8.561647683382034302e-02 -4.709797352552413940e-02
-5.052884817123413086e-01 1.048994585871696472e-01 2.257557585835456848e-02
-2.770815491676330566e-01 2.840215899050235748e-02 -7.158567756414413452e-02
-4.837239384651184082e-01 9.549048542976379395e-02 -6.079585105180740356e-02
-5.181030631065368652e-01 3.753738850355148315e-02 -8.461966365575790405e-02
-4.367144703865051270e-01 -3.532415628433227539e-02 4.161634948104619980e-03
-4.458588063716888428e-01 1.022584289312362671e-01 -6.560835987329483032e-02
-3.687254190444946289e-01 7.758624851703643799e-02 9.141008555889129639e-02
-1.314859688282012939e-01 6.627204269170761108e-02 -2.810241281986236572e-02
-3.935019969940185547e-01 1.207855641841888428e-01 -5.515266582369804382e-02
-3.154656887054443359e-01 1.434025168418884277e-01 -2.517616003751754761e-02
-3.827369809150695801e-01 4.885437712073326111e-02 9.428709000349044800e-02
-4.950980544090270996e-01 4.026527330279350281e-02 8.389443904161453247e-02
-6.162528395652770996e-01 2.902720123529434204e-02 4.432540014386177063e-02
-3.907890915870666504e-01 1.299212872982025146e-01 -3.693987056612968445e-02
-6.308835744857788086e-01 1.951176673173904419e-02 3.706951439380645752e-02
-6.182492971420288086e-01 -1.837477087974548340e-02 -3.430780023336410522e-02
-1.706173121929168701e-01 1.080136895179748535e-01 -5.801159515976905823e-02
-2.393586784601211548e-01 1.403355598449707031e-02 4.106448590755462646e-02
-1.955651044845581055e-01 6.944194436073303223e-02 7.303378731012344360e-02
-3.810845911502838135e-01 9.774839878082275391e-02 -8.185260742902755737e-02
-5.195881724357604980e-01 9.917537122964859009e-02 -3.202591091394424438e-02
-4.087995290756225586e-01 -2.120522409677505493e-02 -4.701693728566169739e-02
-1.448442488908767700e-01 4.896612465381622314e-02 2.085247449576854706e-02
-4.292165338993072510e-01 1.147796809673309326e-01 -5.339650437235832214e-02
-5.523146986961364746e-01 6.141874566674232483e-02 -6.647001206874847412e-02
-9.977975487709045410e-02 9.308954328298568726e-02 1.885116472840309143e-02
-4.293510913848876953e-01 6.644682586193084717e-02 8.918632566928863525e-02
-2.518283724784851074e-01 1.376234889030456543e-01 4.847340658307075500e-02
-6.432765722274780273e-01 3.934863954782485962e-02 -1.134599000215530396e-02
-5.851027965545654297e-01 1.867327466607093811e-02 6.068827584385871887e-02
-4.819214046001434326e-01 5.144667997956275940e-02 -8.889207988977432251e-02
-4.764165580272674561e-01 -3.289104253053665161e-02 3.210880607366561890e-02
-1.912125349044799805e-01 1.481534540653228760e-01 5.960128735750913620e-03
-3.789885342121124268e-01 1.056898832321166992e-01 7.434851676225662231e-02
-4.995682239532470703e-01 8.707149326801300049e-02 -6.452666223049163818e-02
-3.327433168888092041e-01 1.364474892616271973e-01 -4.098709672689437866e-02
-4.685720205307006836e-01 1.010519713163375854e-01 5.469008907675743103e-02
-2.665644288063049316e-01 1.370142400264739990e-01 4.923646524548530579e-02
-4.458582699298858643e-01 -3.494652360677719116e-02 -1.737882383167743683e-02
-2.176511138677597046e-01 9.926316142082214355e-02 7.761873304843902588e-02
-2.306709736585617065e-01 8.341579884290695190e-02 8.290579915046691895e-02
-4.584175348281860352e-01 2.986941486597061157e-02 8.832869678735733032e-02
-1.652557253837585449e-01 9.506148099899291992e-02 -5.918739736080169678e-02
-5.554592609405517578e-01 8.494763076305389404e-02 2.643706277012825012e-02
-1.366286873817443848e-01 6.221681460738182068e-02 3.634708747267723083e-02
-3.705081343650817871e-01 1.195083335041999817e-01 -6.241657584905624390e-02
-4.726550579071044922e-01 -6.560936570167541504e-03 7.055094093084335327e-02
-2.659750580787658691e-01 6.440776586532592773e-02 -8.483626693487167358e-02
-2.294537574052810669e-01 1.271186321973800659e-01 -5.814610794186592102e-02
-3.470487594604492188e-01 -2.143315970897674561e-02 -1.054712664335966110e-02
-4.528684616088867188e-01 -1.435768604278564453e-02 -6.452856957912445068e-02
-5.182305574417114258e-01 -1.745148003101348877e-02 5.736788734793663025e-02
-3.258980810642242432e-01 1.453507542610168457e-01 1.141422428190708160e-03
-5.209183692932128906e-01 3.452204167842864990e-02 7.905189692974090576e-02
-5.995330810546875000e-01 1.854449138045310974e-02 -6.248752772808074951e-02
-1.027323901653289795e-01 8.189257979393005371e-02 -7.940144278109073639e-04
-2.799373269081115723e-01 5.578260496258735657e-02 -8.570656925439834595e-02
-2.872655391693115234e-01 -7.946081459522247314e-03 1.142116077244281769e-02
-5.804004669189453125e-01 -3.396110981702804565e-02 -1.874127052724361420e-02
-3.882829844951629639e-01 1.231180801987648010e-01 5.042459070682525635e-02
-3.340053558349609375e-01 4.916425794363021851e-02 9.299669414758682251e-02
-5.976494550704956055e-01 6.961303204298019409e-02 1.046287547796964645e-02
-3.382777571678161621e-01 1.307143643498420715e-02 -7.470852136611938477e-02
-4.226875901222229004e-01 -2.891465276479721069e-02 -3.236317262053489685e-02
-2.891440391540527344e-01 1.301214098930358887e-01 5.852695181965827942e-02
-1.954766511917114258e-01 7.229232043027877808e-02 -6.816124171018600464e-02
-5.446330308914184570e-01 1.732251048088073730e-02 7.264774292707443237e-02
-6.566851139068603516e-01 6.068263202905654907e-03 9.364285506308078766e-03
-3.111186325550079346e-01 1.377478241920471191e-03 5.610341578722000122e-02
-1.817163974046707153e-01 9.123380482196807861e-02 7.102005928754806519e-02
-5.661128163337707520e-01 2.408303320407867432e-02 -7.390830665826797485e-02
-4.896334409713745117e-01 -2.954385429620742798e-02 4.091299697756767273e-02
-4.647279083728790283e-01 -3.487952798604965210e-02 -2.526514045894145966e-02
-6.008249521255493164e-01 4.326095059514045715e-02 4.678091406822204590e-02
-5.845314860343933105e-01 -1.812980324029922485e-02 -4.925602674484252930e-02
-5.354493856430053711e-01 -1.138398796319961548e-02 -6.565117090940475464e-02
-4.060701131820678711e-01 6.624618917703628540e-02 9.175884723663330078e-02
-3.441008925437927246e-01 -4.817426204681396484e-03 -5.584913864731788635e-02
-3.390782475471496582e-01 5.096099525690078735e-02 -9.267210215330123901e-02
-5.066490769386291504e-01 5.568332970142364502e-02 -8.324427902698516846e-02
-4.559879601001739502e-01 1.085342019796371460e-01 4.875227436423301697e-02
-3.641215562820434570e-01 -2.050898224115371704e-02 -3.085512295365333557e-02
-3.381959795951843262e-01 2.889758720993995667e-02 8.670779317617416382e-02
-3.065240383148193359e-01 1.926456019282341003e-02 7.510498911142349243e-02
-2.803575992584228516e-01 7.199060171842575073e-03 5.243435502052307129e-02
-3.479415774345397949e-01 1.410560011863708496e-01 -1.926637068390846252e-02
-5.395993590354919434e-01 -3.659391403198242188e-02 1.889107003808021545e-02
-1.565089076757431030e-01 6.553567200899124146e-02 -4.736180603504180908e-02
-4.535711407661437988e-01 1.218342110514640808e-01 1.155726332217454910e-02
-3.642629683017730713e-01 -2.134807407855987549e-02 2.957161888480186462e-02
-2.869048416614532471e-01 -1.781634986400604248e-03 3.770278766751289368e-02
-3.855363130569458008e-01 -1.142486184835433960e-02 5.837343633174896240e-02
-4.193882644176483154e-01 1.298698633909225464e-01 -1.345034502446651459e-02
-4.027953743934631348e-01 -3.134933859109878540e-02 1.838818658143281937e-03
-2.150133699178695679e-01 1.497911214828491211e-01 -1.322584808804094791e-03
-2.730181217193603516e-01 1.279718577861785889e-01 6.198067218065261841e-02
-2.052450627088546753e-01 3.054068796336650848e-02 4.726680368185043335e-02
-6.508647203445434570e-01 2.376727759838104248e-02 1.383890770375728607e-02
-4.099975228309631348e-01 1.307430565357208252e-01 1.727429032325744629e-02
-2.058587670326232910e-01 3.896918147802352905e-02 5.834272503852844238e-02
-1.937752366065979004e-01 3.744716569781303406e-02 -4.331271722912788391e-02
-2.972225546836853027e-01 7.574949413537979126e-02 9.147357940673828125e-02
-2.408620268106460571e-01 1.487608850002288818e-01 -1.606206968426704407e-02
-2.996413111686706543e-01 4.994310438632965088e-02 -8.755854517221450806e-02
-4.939780831336975098e-01 -3.927396237850189209e-02 3.974148130510002375e-04
-3.991039097309112549e-01 1.335173547267913818e-01 -1.604121364653110504e-02
-5.633111596107482910e-01 8.769407868385314941e-04 -6.896957755088806152e-02
-4.863875508308410645e-01 8.413767814636230469e-02 -7.187376171350479126e-02
-4.387749731540679932e-01 1.062073260545730591e-01 5.913516506552696228e-02
-5.492519140243530273e-01 1.295603439211845398e-02 -7.640575617551803589e-02
-5.534593462944030762e-01 9.139366447925567627e-02 -3.669768106192350388e-03
-4.109616279602050781e-01 2.211107313632965088e-02 -8.916133642196655273e-02
-2.221092283725738525e-01 1.484963297843933105e-01 -1.537734735757112503e-02
-5.206412076950073242e-01 -2.941676229238510132e-02 4.013060405850410461e-02
-5.351109504699707031e-01 -3.456722199916839600e-02 -3.087838739156723022e-02
-2.128445953130722046e-01 1.363364309072494507e-01 -4.428511112928390503e-02
-5.616554617881774902e-01 6.489728391170501709e-02 5.212682858109474182e-02
-3.010206818580627441e-01 -1.074081659317016602e-02 -1.366113033145666122e-02
-3.602553308010101318e-01 3.438328951597213745e-02 9.088490903377532959e-02
-3.499554693698883057e-01 4.457409679889678955e-02 9.305252879858016968e-02
-2.923317849636077881e-01 2.647406980395317078e-02 7.747752964496612549e-02
-3.914836645126342773e-01 6.022208184003829956e-02 -9.491692483425140381e-02
-2.158084809780120850e-01 1.460231542587280273e-01 2.747122384607791901e-02
-2.416881471872329712e-01 1.359117329120635986e-01 -4.839424416422843933e-02
-5.791122913360595703e-01 -9.374372661113739014e-03 5.252380669116973877e-02
-1.022626757621765137e-01 1.097447276115417480e-01 -1.429990772157907486e-02
-2.530092597007751465e-01 9.114658832550048828e-02 8.484414219856262207e-02
-3.959447145462036133e-01 -1.102478057146072388e-02 -6.075701117515563965e-02
-3.573862910270690918e-01 -1.638273894786834717e-02 4.053314775228500366e-02
-5.131228566169738770e-01 8.130533248186111450e-02 -6.526840478181838989e-02
-4.350123703479766846e-01 1.235229372978210449e-01 2.537682279944419861e-02
-4.621181786060333252e-01 -2.091339975595474243e-02 -5.661268904805183411e-02
-3.419987857341766357e-01 3.617034107446670532e-02 -8.904626965522766113e-02
-1.547444760799407959e-01 5.438207834959030151e-02 -3.569261729717254639e-02
-3.090202510356903076e-01 4.940827935934066772e-02 9.085945785045623779e-02
-3.396386504173278809e-01 1.050477474927902222e-02 7.445035874843597412e-02
-3.916432261466979980e-01 4.224531352519989014e-03 7.648732513189315796e-02
-5.648803114891052246e-01 6.453090161085128784e-02 -5.805924907326698303e-02
-5.077401399612426758e-01 2.156999707221984863e-02 -8.518079668283462524e-02
-6.091890931129455566e-01 4.919399693608283997e-02 3.596434369683265686e-02
-2.228333652019500732e-01 4.879106953740119934e-02 7.293628901243209839e-02
-6.454907655715942383e-01 -6.838124245405197144e-03 1.727007701992988586e-02
-2.744580507278442383e-01 9.860155731439590454e-02 -8.186166733503341675e-02
-1.496393084526062012e-01 9.152096509933471680e-02 5.937661975622177124e-02
-1.262343227863311768e-01 1.290479600429534912e-01 2.567044645547866821e-02
-6.425495147705078125e-01 -1.570177823305130005e-02 5.003318190574645996e-03
-4.995115995407104492e-01 9.528943896293640137e-02 4.834098368883132935e-02
-2.917034626007080078e-01 1.108970120549201965e-02 -5.916675180196762085e-02
-3.939801156520843506e-01 1.684966683387756348e-02 8.516702055931091309e-02
-1.692455857992172241e-01 5.607140436768531799e-02 5.473406240344047546e-02
-4.581111371517181396e-01 1.215678304433822632e-01 -5.916879046708345413e-03
-6.187126636505126953e-01 5.652683228254318237e-02 1.190392021089792252e-02
-1.395406126976013184e-01 7.455445826053619385e-02 -4.194401577115058899e-02
-2.737923264503479004e-01 1.164930909872055054e-01 7.329123467206954956e-02
-5.328515768051147461e-01 9.569469839334487915e-02 -2.816249802708625793e-02
-2.001361548900604248e-01 2.524479106068611145e-02 -2.603955566883087158e-02
-4.710176289081573486e-01 1.493099704384803772e-02 8.323933929204940796e-02
-4.132985472679138184e-01 2.115006372332572937e-02 8.773857355117797852e-02
-3.651943206787109375e-01 1.086200028657913208e-02 7.877061516046524048e-02
-4.283100068569183350e-01 9.381826967000961304e-03 -8.344712853431701660e-02
-3.063550889492034912e-01 -1.039434224367141724e-03 -4.697702080011367798e-02
-1.004771590232849121e-01 1.166080236434936523e-01 7.378621026873588562e-03
-5.285335779190063477e-01 6.837704777717590332e-02 6.442917883396148682e-02
-2.922858297824859619e-01 3.122125938534736633e-02 -7.768729329109191895e-02
-2.857980728149414062e-01 1.112716197967529297e-01 -7.575225830078125000e-02
-4.568786025047302246e-01 9.356185793876647949e-02 6.760297715663909912e-02
-5.894961357116699219e-01 -1.607984304428100586e-03 -6.078127771615982056e-02
-2.781323790550231934e-01 7.161604613065719604e-02 9.007402509450912476e-02
-2.340739071369171143e-01 2.600209228694438934e-02 5.742620304226875305e-02
-3.468159437179565430e-01 -2.035813033580780029e-02 1.983906701207160950e-02
-6.390541195869445801e-01 1.110186427831649780e-02 -4.031372815370559692e-02
-4.918611645698547363e-01 -3.318409621715545654e-02 -3.530255705118179321e-02
-5.910831689834594727e-01 5.317588150501251221e-02 -5.347624793648719788e-02
-4.879068732261657715e-01 7.808825373649597168e-02 7.130075991153717041e-02
-4.987275898456573486e-01 2.367452532052993774e-02 8.249188214540481567e-02
-5.064305663108825684e-01 -1.222220063209533691e-02 6.370533257722854614e-02
-4.078393876552581787e-01 1.327919065952301025e-01 -4.802601877599954605e-03
-2.591001093387603760e-01 2.440647780895233154e-02 -6.178592890501022339e-02
-3.382061123847961426e-01 6.794479489326477051e-02 -9.332977980375289917e-02
-2.954165339469909668e-01 1.032604128122329712e-01 -8.103321492671966553e-02
-1.555960029363632202e-01 1.036469340324401855e-01 6.021076068282127380e-02
-4.878720939159393311e-01 1.056763380765914917e-01 -4.147463291883468628e-02
-3.564941883087158203e-01 2.280326932668685913e-02 8.554530143737792969e-02
-1.135929524898529053e-01 9.630426764488220215e-02 -2.960802800953388214e-02
-5.533404946327209473e-01 -8.310601115226745605e-03 -6.538110226392745972e-02
-1.976119428873062134e-01 1.199810504913330078e-01 6.334051489830017090e-02
-1.185064613819122314e-01 6.776417791843414307e-02 -1.132262032479047775e-02
-5.261044502258300781e-01 4.901343956589698792e-02 7.514359056949615479e-02
-1.104665100574493408e-01 7.580696046352386475e-02 1.956960000097751617e-02
-3.460066616535186768e-01 -2.174786478281021118e-02 5.863600876182317734e-03
-5.253230929374694824e-01 8.224677294492721558e-02 -5.896286666393280029e-02
-4.355572760105133057e-01 9.052906185388565063e-02 7.581824064254760742e-02
-3.780160844326019287e-01 1.183995455503463745e-01 6.058824434876441956e-02
-1.449700146913528442e-01 4.735332727432250977e-02 -6.278083659708499908e-03
-1.302206516265869141e-01 1.222350373864173889e-01 -3.107602894306182861e-02
-3.658099174499511719e-01 1.230674833059310913e-01 5.685474723577499390e-02
-1.492703855037689209e-01 1.185383796691894531e-01 5.058465898036956787e-02
-2.305472195148468018e-01 6.488344818353652954e-02 8.145502954721450806e-02
-1.691870540380477905e-01 3.408619761466979980e-02 1.215941645205020905e-02
-2.640821337699890137e-01 1.499614492058753967e-02 -5.251332372426986694e-02
-4.790725111961364746e-01 2.933521009981632233e-02 8.603342622518539429e-02
-4.099917411804199219e-01 1.299108266830444336e-01 -2.465340867638587952e-02
-2.612132728099822998e-01 1.473734825849533081e-01 -2.175524085760116577e-02
-6.570715904235839844e-01 2.071927860379219055e-02 1.781716709956526756e-04
-3.429913520812988281e-01 -1.739487797021865845e-02 -2.740368433296680450e-02
-4.157173037528991699e-01 5.210514739155769348e-02 9.297681599855422974e-02
-1.883500963449478149e-01 1.250390708446502686e-01 -5.242605134844779968e-02
-3.946882486343383789e-01 1.021755039691925049e-01 7.470389455556869507e-02
-2.484010010957717896e-01 1.427224129438400269e-01 -3.608218953013420105e-02
-5.483226776123046875e-01 5.182575434446334839e-03 6.837491691112518311e-02
-4.355957508087158203e-01 -1.529185473918914795e-02 6.044486165046691895e-02
-2.720980346202850342e-01 -2.486471086740493774e-03 2.089613303542137146e-02
-2.232858389616012573e-01 3.332541882991790771e-02 6.078359484672546387e-02
-2.391346544027328491e-01 5.018026754260063171e-02 7.847599685192108154e-02
-3.014435172080993652e-01 1.141149103641510010e-01 -7.393760234117507935e-02
-6.033567190170288086e-01 6.799817830324172974e-02 -8.919643238186836243e-03
-3.202873766422271729e-01 1.176222860813140869e-01 -7.036007940769195557e-02
-2.718167901039123535e-01 9.515751153230667114e-02 8.529222011566162109e-02
-2.541997432708740234e-01 1.251052021980285645e-01 -6.259184330701828003e-02
-1.828785687685012817e-01 3.657362982630729675e-02 -3.339699283242225647e-02
-4.558061957359313965e-01 5.996495112776756287e-02 8.720133453607559204e-02
-6.021646261215209961e-01 6.299729645252227783e-02 -3.117528930306434631e-02
-5.840721130371093750e-01 2.946801483631134033e-03 5.773952230811119080e-02
-5.936354398727416992e-01 -1.831449568271636963e-02 3.931981697678565979e-02
-4.007806479930877686e-01 9.546729922294616699e-02 -8.114138245582580566e-02
-5.036770701408386230e-01 7.744796574115753174e-02 6.660440564155578613e-02
-4.415902793407440186e-01 1.214149594306945801e-01 -3.149487450718879700e-02
-1.264195144176483154e-01 8.421009033918380737e-02 -3.711323067545890808e-02
-5.324927568435668945e-01 4.971701651811599731e-03 7.146678119897842407e-02
-3.607221841812133789e-01 1.262537091970443726e-01 -5.444501712918281555e-02
-4.464838504791259766e-01 7.130913436412811279e-02 -8.816758543252944946e-02
-3.057207167148590088e-01 9.064082801342010498e-02 -8.702863007783889771e-02
-3.967856466770172119e-01 8.524282276630401611e-02 8.581963181495666504e-02
-4.925625622272491455e-01 1.115374267101287842e-02 -8.347887545824050903e-02
-4.546515941619873047e-01 1.157504171133041382e-01 3.445281833410263062e-02
-3.274505138397216797e-01 -1.582289487123489380e-02 2.281274273991584778e-02
-4.382204115390777588e-01 9.018255025148391724e-02 -7.887011021375656128e-02
-2.184835225343704224e-01 1.376895010471343994e-01 4.648574441671371460e-02
-5.961567759513854980e-01 -2.199665457010269165e-02 -4.019486159086227417e-02
-5.699882507324218750e-01 8.401912450790405273e-02 4.803148098289966583e-03
-5.089392662048339844e-01 7.197438180446624756e-02 -7.447636872529983521e-02
-4.238469600677490234e-01 3.599630296230316162e-02 9.167214483022689819e-02
-6.175789833068847656e-01 5.774976685643196106e-02 -1.939766108989715576e-02
-5.396107435226440430e-01 9.664522111415863037e-02 -6.727097555994987488e-03
-1.460970193147659302e-01 1.308280229568481445e-01 3.644885867834091187e-02
-4.373400807380676270e-01 1.175347715616226196e-03 -7.832210510969161987e-02
-4.632375836372375488e-01 -1.489644497632980347e-02 6.243393197655677795e-02
-2.169833928346633911e-01 1.016377359628677368e-01 -7.248674333095550537e-02
-3.230093419551849365e-01 -1.052489131689071655e-02 -3.510815277695655823e-02
-2.538127005100250244e-01 3.207165375351905823e-02 7.128529250621795654e-02
-6.191075444221496582e-01 1.962209492921829224e-02 -5.316686630249023438e-02
-5.703669190406799316e-01 -2.794784307479858398e-02 -3.905652835965156555e-02
-2.791887819766998291e-01 -4.458565264940261841e-03 -1.671261154115200043e-02
-1.843777000904083252e-01 2.668465860188007355e-02 -6.040784064680337906e-04
-3.533196747303009033e-01 1.419094204902648926e-01 -3.844081889837980270e-03
-4.259212315082550049e-01 9.867678582668304443e-02 7.119167596101760864e-02
-5.715647935867309570e-01 -3.670542687177658081e-02 -2.615068224258720875e-04
-3.920760452747344971e-01 -2.779889106750488281e-02 2.113514393568038940e-02
-2.378003597259521484e-01 6.620883941650390625e-03 -5.673655308783054352e-03
-4.553733170032501221e-01 5.020900815725326538e-02 -9.233433753252029419e-02
-4.276087880134582520e-01 1.278698295354843140e-01 1.187678705900907516e-02
-3.575837612152099609e-01 4.431005567312240601e-02 -9.295245260000228882e-02
-2.009590715169906616e-01 1.403792500495910645e-01 -3.499246761202812195e-02
-3.540405333042144775e-01 -8.521169424057006836e-03 5.489255115389823914e-02
-3.479636609554290771e-01 1.217183768749237061e-01 -6.323713064193725586e-02
-4.787712395191192627e-01 1.155279725790023804e-01 -1.411275379359722137e-02
-5.617953538894653320e-01 8.739665150642395020e-02 -1.380752585828304291e-02
-4.263186454772949219e-01 -3.303866833448410034e-02 1.617723330855369568e-02
-6.143531799316406250e-01 -6.543654948472976685e-03 4.065387696027755737e-02
-5.883014202117919922e-01 7.600925862789154053e-02 -5.099013447761535645e-03
-4.664816558361053467e-01 1.149804145097732544e-01 -3.245323896408081055e-02
-3.004668354988098145e-01 -1.633360981941223145e-03 4.613643139600753784e-02
-3.826305568218231201e-01 8.095797896385192871e-02 8.924158662557601929e-02
-4.147136807441711426e-01 9.410539269447326660e-02 7.746329903602600098e-02
-4.090431332588195801e-01 -6.391040980815887451e-03 -6.869556754827499390e-02
-2.511771917343139648e-01 2.179182693362236023e-02 6.003846600651741028e-02
-2.861476242542266846e-01 1.485763192176818848e-01 7.426079362630844116e-03
-2.314982116222381592e-01 1.328214406967163086e-01 5.486377328634262085e-02
-1.266186535358428955e-01 5.882336199283599854e-02 -1.532348804175853729e-03
-2.710509598255157471e-01 1.445958018302917480e-01 -3.057003207504749298e-02
-1.153027117252349854e-01 8.019394427537918091e-02 3.249499574303627014e-02
-4.421044886112213135e-01 2.925984561443328857e-03 7.805869728326797485e-02
-5.104444622993469238e-01 1.375737413763999939e-02 7.835288345813751221e-02
-3.023680746555328369e-01 1.461663544178009033e-01 -1.724592782557010651e-02
-3.144983947277069092e-01 1.346925348043441772e-01 4.821107909083366394e-02
-2.070579826831817627e-01 1.277846097946166992e-01 5.796991661190986633e-02
-3.132378160953521729e-01 1.425229460000991821e-01 2.915225178003311157e-02
-4.032526910305023193e-01 1.287037879228591919e-01 3.096189908683300018e-02
-4.055907726287841797e-01 5.675346776843070984e-02 -9.488382190465927124e-02
-6.275750994682312012e-01 4.669694975018501282e-02 1.948946900665760040e-02
-1.590941250324249268e-01 1.368549764156341553e-01 3.254885599017143250e-02
-1.459387838840484619e-01 9.545639157295227051e-02 -5.076797306537628174e-02
-5.039352774620056152e-01 -1.024148613214492798e-02 -6.936775892972946167e-02
-4.488260149955749512e-01 4.701921343803405762e-02 9.022777527570724487e-02
-4.139232933521270752e-01 1.100294962525367737e-01 -6.499001383781433105e-02
-3.191861212253570557e-01 7.074548304080963135e-02 -9.192170202732086182e-02
-4.530443251132965088e-01 -3.691647946834564209e-02 -2.055126009508967400e-03
-3.177328109741210938e-01 1.259147822856903076e-01 6.142507493495941162e-02
-2.063708454370498657e-01 1.220850870013237000e-01 -5.902768671512603760e-02
-6.043304800987243652e-01 1.964755356311798096e-04 4.896153509616851807e-02
-3.190445303916931152e-01 1.450934410095214844e-01 1.431224867701530457e-02
-4.699118137359619141e-01 -1.140554994344711304e-02 -6.865623593330383301e-02
-3.058260083198547363e-01 -1.130361855030059814e-02 2.076750621199607849e-02
-5.507503747940063477e-01 -3.713981807231903076e-02 -1.794156245887279510e-02
-1.542832702398300171e-01 1.294550299644470215e-01 -3.626162931323051453e-02
-2.940621376037597656e-01 1.540908589959144592e-02 6.824433803558349609e-02
-1.207594871520996094e-01 6.761714816093444824e-02 2.389028668403625488e-02
-4.256243705749511719e-01 -3.325530886650085449e-02 -1.462397910654544830e-02
-3.964283764362335205e-01 4.801337793469429016e-02 9.395384788513183594e-02
-2.306103706359863281e-01 1.541122794151306152e-02 -3.173721209168434143e-02
-3.715245425701141357e-01 8.085668832063674927e-02 -9.098270535469055176e-02
-6.192812323570251465e-01 4.748639464378356934e-02 -3.746416419744491577e-02
-5.290107727050781250e-01 2.640360407531261444e-02 -8.256927132606506348e-02
-4.885174930095672607e-01 -2.404519915580749512e-02 -5.344965681433677673e-02
-1.758549809455871582e-01 5.549966171383857727e-02 -5.131604149937629700e-02
-2.594657242298126221e-01 1.336076706647872925e-01 -5.269831418991088867e-02
-4.010313153266906738e-01 -1.120328158140182495e-02 6.151207908987998962e-02
-5.615017414093017578e-01 -2.036727219820022583e-02 -5.242710188031196594e-02
-3.748645782470703125e-01 3.788659721612930298e-02 9.252896159887313843e-02
-3.307492434978485107e-01 1.012206971645355225e-01 -8.259418606758117676e-02
-6.055536866188049316e-01 6.060993671417236328e-02 2.314342558383941650e-02
-3.225461840629577637e-01 2.754093706607818604e-02 8.389281481504440308e-02
-3.512819409370422363e-01 1.338309496641159058e-01 4.090178012847900391e-02
-1.487460881471633911e-01 1.376802623271942139e-01 -1.867582648992538452e-02
-2.295847088098526001e-01 5.310525745153427124e-02 -7.246112823486328125e-02
-4.606482088565826416e-01 7.073427736759185791e-02 -8.624057471752166748e-02
-3.818696439266204834e-01 -3.748133778572082520e-03 -6.703493744134902954e-02
-2.809978127479553223e-01 4.199887439608573914e-02 -8.102478832006454468e-02
-1.341208964586257935e-01 1.370665132999420166e-01 8.729618042707443237e-03
-2.742509543895721436e-01 5.251996219158172607e-03 -4.158320650458335876e-02
-2.236947417259216309e-01 1.654538139700889587e-02 3.374072909355163574e-02
-1.143069565296173096e-01 1.188693195581436157e-01 -2.153698727488517761e-02
-1.843305826187133789e-01 2.955622784793376923e-02 2.476824261248111725e-02
-2.522786855697631836e-01 1.476557105779647827e-01 2.319966815412044525e-02
-3.721428811550140381e-01 -1.776247471570968628e-02 4.326708242297172546e-02
-1.929491460323333740e-01 1.313272565603256226e-01 5.143821984529495239e-02
-4.650584161281585693e-01 -2.947863191366195679e-02 -4.135506600141525269e-02
-2.215619385242462158e-01 1.177911907434463501e-01 -6.501878052949905396e-02
-3.267715871334075928e-01 2.243172377347946167e-03 6.249361112713813782e-02
-2.407383918762207031e-01 2.012268826365470886e-02 -4.776001349091529846e-02
-4.403612613677978516e-01 1.876997202634811401e-02 -8.843556046485900879e-02
-5.439389944076538086e-01 -3.893855959177017212e-02 -8.157578995451331139e-04
-1.718070358037948608e-01 1.064554303884506226e-01 6.471240520477294922e-02
-2.140564471483230591e-01 1.505996659398078918e-02 -6.083786953240633011e-03
-5.853911638259887695e-01 7.623184472322463989e-02 9.054878726601600647e-03
-2.934542000293731689e-01 1.420514583587646484e-01 3.564478456974029541e-02
-1.799573898315429688e-01 3.958217427134513855e-02 4.276442527770996094e-02
-6.500523090362548828e-01 5.278594791889190674e-03 -2.885559014976024628e-02
-3.963312506675720215e-01 1.345587074756622314e-01 8.594227023422718048e-03
-5.194669961929321289e-01 7.967292517423629761e-02 5.829823017120361328e-02
-2.350006103515625000e-01 7.650990039110183716e-03 1.210185140371322632e-02
-4.843940138816833496e-01 1.103902161121368408e-01 2.595343627035617828e-02
-5.587346553802490234e-01 -3.325685858726501465e-02 -3.011271543800830841e-02
-4.397643506526947021e-01 -3.009223192930221558e-02 -3.442156314849853516e-02
-3.924259543418884277e-01 2.889744751155376434e-02 -9.087818861007690430e-02
-5.259188413619995117e-01 -3.936174511909484863e-02 -7.750991731882095337e-03
-4.446639716625213623e-01 -3.345930576324462891e-02 2.322924323379993439e-02
-2.967785596847534180e-01 1.067794263362884521e-01 8.033204078674316406e-02
-4.206912219524383545e-01 9.096163511276245117e-02 -8.139612525701522827e-02
-3.479107618331909180e-01 1.394222676753997803e-01 2.568619884550571442e-02
-6.062187552452087402e-01 -2.551232278347015381e-02 -2.885802090167999268e-02
-3.819077610969543457e-01 1.372470259666442871e-01 7.072763983160257339e-03
-4.269500970840454102e-01 1.194606944918632507e-01 4.179517924785614014e-02
-5.584857463836669922e-01 7.572201639413833618e-02 -4.873012751340866089e-02
-3.754708170890808105e-01 4.091863334178924561e-02 -9.338141232728958130e-02
-4.473563432693481445e-01 7.643865048885345459e-02 8.229872584342956543e-02
-2.039844393730163574e-01 1.461834907531738281e-01 -2.075253799557685852e-02
-1.879428029060363770e-01 4.973343014717102051e-02 -5.316934734582901001e-02
-1.985576152801513672e-01 1.465976834297180176e-01 2.132628299295902252e-02
-2.726130485534667969e-01 8.422985672950744629e-02 -8.571406453847885132e-02
-2.701104879379272461e-01 2.395271882414817810e-02 6.935842335224151611e-02
-6.058913469314575195e-01 -2.297512441873550415e-02 2.702654898166656494e-02
-3.519099056720733643e-01 9.665171056985855103e-02 8.413944393396377563e-02
-5.288380384445190430e-01 9.759487211704254150e-02 1.974241435527801514e-02
-5.098589658737182617e-01 -3.365240991115570068e-02 -3.480415418744087219e-02
-5.808497667312622070e-01 7.462929934263229370e-02 2.267866581678390503e-02
-1.354218572378158569e-01 1.336379647254943848e-01 -1.772568188607692719e-02
-3.853954076766967773e-01 7.624566555023193359e-02 -9.195055812597274780e-02
-4.835775494575500488e-01 2.213212475180625916e-02 -8.781847357749938965e-02
-3.725398182868957520e-01 -2.583429962396621704e-02 -1.314060855656862259e-02
-3.143122792243957520e-01 1.365795135498046875e-01 -4.444390907883644104e-02
-2.616969048976898193e-01 4.796030372381210327e-02 -7.916071265935897827e-02
-2.029794007539749146e-01 2.012279257178306580e-02 1.791768334805965424e-02
-1.641281545162200928e-01 4.030453041195869446e-02 -2.032870054244995117e-02
-4.683183729648590088e-01 2.502408437430858612e-02 -8.961164206266403198e-02
-2.431853562593460083e-01 7.599816471338272095e-02 -8.147508651018142700e-02
-3.287047147750854492e-01 1.340802609920501709e-01 4.654709249734878540e-02
-3.160267472267150879e-01 1.021379232406616211e-02 -6.633688509464263916e-02
-3.235725760459899902e-01 7.562360167503356934e-02 9.263353794813156128e-02
-4.808433055877685547e-01 -3.820122778415679932e-02 9.468914940953254700e-03
-2.464847713708877563e-01 3.476962447166442871e-03 5.608512088656425476e-03
-5.424315929412841797e-01 9.294869005680084229e-02 1.802484504878520966e-02
-1.277792155742645264e-01 1.213072985410690308e-01 3.730570152401924133e-02
-4.695592522621154785e-01 1.098231375217437744e-01 3.892585262656211853e-02
-1.648104190826416016e-01 8.621254563331604004e-02 6.537300348281860352e-02
-4.324453473091125488e-01 1.063010245561599731e-01 -6.463526189327239990e-02
-3.315499126911163330e-01 8.467142283916473389e-02 -8.993187546730041504e-02
-2.492953091859817505e-01 1.117729842662811279e-01 7.559833675622940063e-02
-2.951461076736450195e-01 1.414533853530883789e-01 -3.627074509859085083e-02
-1.825326830148696899e-01 5.076077952980995178e-02 5.755449458956718445e-02
-2.157367914915084839e-01 3.111210651695728302e-02 -4.875862225890159607e-02
-4.595020711421966553e-01 -4.312407225370407104e-03 -7.487159222364425659e-02
-1.214432418346405029e-01 1.323207318782806396e-01 2.430300926789641380e-03
-1.317544579505920410e-01 1.118273213505744934e-01 4.640882834792137146e-02
-5.825507044792175293e-01 6.630710512399673462e-02 -4.474922269582748413e-02
-2.150491774082183838e-01 8.110557496547698975e-02 -7.518634945154190063e-02
-3.316304385662078857e-01 3.684781491756439209e-03 -6.348345428705215454e-02
-2.917789220809936523e-01 -1.431383192539215088e-03 -3.807900100946426392e-02
-4.374467432498931885e-01 3.379531204700469971e-02 9.057612717151641846e-02
-4.287867546081542969e-01 1.254041194915771484e-01 -2.736320160329341888e-02
-3.390777707099914551e-01 1.431865096092224121e-01 1.120040100067853928e-02
-1.473749876022338867e-01 1.392397880554199219e-01 1.839879341423511505e-02
-4.892319440841674805e-01 -6.549693644046783447e-03 -7.304693758487701416e-02
-4.730090796947479248e-01 7.800690829753875732e-02 7.556968182325363159e-02
-1.172285079956054688e-01 7.590509951114654541e-02 -2.247643470764160156e-02
-4.287529587745666504e-01 -9.560562670230865479e-03 -6.773149967193603516e-02
-5.337785482406616211e-01 -3.233241289854049683e-02 3.256224840879440308e-02
-1.798726320266723633e-01 1.458380222320556641e-01 1.576373353600502014e-02
-3.273470103740692139e-01 -1.793302595615386963e-02 -2.131581539288163185e-03
-4.114161729812622070e-01 -2.973237633705139160e-02 -2.425903268158435822e-02
-3.769483566284179688e-01 1.090732142329216003e-01 -7.314058393239974976e-02
-4.237006902694702148e-01 7.334905862808227539e-02 -9.013607352972030640e-02
-5.716984272003173828e-01 8.165100961923599243e-02 -2.202125079929828644e-02
-4.904380440711975098e-01 6.930562108755111694e-02 -8.101271837949752808e-02
-4.114328026771545410e-01 3.704087436199188232e-02 -9.368146210908889771e-02
-3.894506692886352539e-01 -2.564025670289993286e-02 -2.798550575971603394e-02
-3.327072560787200928e-01 6.504195183515548706e-02 9.400416165590286255e-02
-2.149206548929214478e-01 6.738731265068054199e-02 -7.318631559610366821e-02
-2.988205850124359131e-01 -1.130681484937667847e-02 4.517398308962583542e-03
-4.906900227069854736e-01 1.127326041460037231e-01 4.316041304264217615e-04
-2.300063371658325195e-01 1.175817251205444336e-01 6.988623738288879395e-02
-3.774853944778442383e-01 5.534629523754119873e-02 -9.508658200502395630e-02
-4.016477763652801514e-01 7.614494115114212036e-02 -9.104928374290466309e-02
-2.280511707067489624e-01 1.412164419889450073e-01 -3.790453076362609863e-02
-3.883907794952392578e-01 -2.918037027120590210e-02 4.771407227963209152e-03
-4.001135826110839844e-01 1.163703501224517822e-01 5.752489715814590454e-02
-4.913706481456756592e-01 5.162842571735382080e-04 7.456396520137786865e-02
-4.800167381763458252e-01 1.021574139595031738e-01 4.763076081871986389e-02
-3.561448454856872559e-01 1.085290238261222839e-01 7.517209649085998535e-02
-5.038446784019470215e-01 -3.910351544618606567e-02 -1.064541470259428024e-02
-2.555698454380035400e-01 8.752084523439407349e-02 -8.281172811985015869e-02
-3.564652502536773682e-01 8.522684127092361450e-02 8.940682560205459595e-02
-3.108960986137390137e-01 -8.687317371368408203e-03 3.525651991367340088e-02
-5.476809740066528320e-01 2.999445050954818726e-02 -7.867667824029922485e-02
-6.320178508758544922e-01 4.961286112666130066e-02 -6.352874450385570526e-03
-4.068612158298492432e-01 1.185178905725479126e-01 -5.485881119966506958e-02
-6.460778713226318359e-01 3.642433881759643555e-02 1.786009408533573151e-03
-4.572008252143859863e-01 6.344981491565704346e-03 -8.234085142612457275e-02
-2.347576767206192017e-01 3.589133173227310181e-02 -6.299376487731933594e-02
-1.802655607461929321e-01 3.193848580121994019e-02 -1.957980729639530182e-02
-4.431854784488677979e-01 1.154623329639434814e-01 -4.607965424656867981e-02
-3.297315537929534912e-01 -1.600065082311630249e-02 -2.165543101727962494e-02
-1.673620343208312988e-01 1.214761063456535339e-01 -4.919783398509025574e-02
-6.105759739875793457e-01 4.322148859500885010e-03 -5.545931681990623474e-02
-4.976137578487396240e-01 4.174483194947242737e-02 -8.781321346759796143e-02
-6.434278488159179688e-01 -1.576108485460281372e-02 -1.051760278642177582e-02
-1.079225242137908936e-01 1.116645112633705139e-01 2.854692749679088593e-02
-5.262619256973266602e-01 -3.756412863731384277e-02 1.698512211441993713e-02
-2.508029937744140625e-01 7.534593343734741211e-02 8.649877458810806274e-02
-4.100293517112731934e-01 9.963177144527435303e-04 7.538364082574844360e-02
-5.534429550170898438e-01 -1.476121693849563599e-02 5.459089577198028564e-02
-3.867014050483703613e-01 -2.806072682142257690e-02 -1.388196833431720734e-02
-5.903034210205078125e-01 5.322605371475219727e-02 4.586983099579811096e-02
-4.830754101276397705e-01 5.881889164447784424e-02 8.252073079347610474e-02
3.700033724308013916e-01 -2.714183181524276733e-03 5.976945906877517700e-02
2.864923775196075439e-01 -1.117598041892051697e-01 -6.811912357807159424e-02
3.495839834213256836e-01 -8.563442528247833252e-02 2.023522742092609406e-02
1.757021397352218628e-01 -1.245471276342868805e-02 1.420184969902038574e-01
3.037880063056945801e-01 -4.956930875778198242e-02 -1.204751729965209961e-01
1.108658611774444580e-01 -4.028342291712760925e-02 -1.550721004605293274e-03
3.358249068260192871e-01 -9.289559721946716309e-02 2.350824512541294098e-02
2.342664003372192383e-01 -1.581067219376564026e-02 1.507099568843841553e-01
2.957453131675720215e-01 2.494455128908157349e-02 -5.470342934131622314e-02
3.907865881919860840e-01 -3.473398089408874512e-02 -3.270486742258071899e-02
3.776202797889709473e-01 -3.137517347931861877e-02 5.013203620910644531e-02
3.846871256828308105e-01 -3.935688734054565430e-02 -5.395293980836868286e-02
3.444693386554718018e-01 -5.393724888563156128e-03 9.678262472152709961e-02
2.269235104322433472e-01 3.940089792013168335e-02 -7.501622661948204041e-03
1.383436322212219238e-01 -5.474230647087097168e-02 1.081157773733139038e-01
1.157282292842864990e-01 -7.336990535259246826e-02 3.676966577768325806e-02
3.796814978122711182e-01 -1.783584617078304291e-02 -5.382783710956573486e-02
2.606975734233856201e-01 4.782953113317489624e-02 7.033158838748931885e-02
2.814422845840454102e-01 -9.576262533664703369e-02 7.057568430900573730e-02
2.899614870548248291e-01 1.052987948060035706e-02 1.293302029371261597e-01
3.229470252990722656e-01 -9.434771537780761719e-02 3.839591145515441895e-02
3.203694224357604980e-01 -1.060493513941764832e-01 -5.803711712360382080e-03
3.276405930519104004e-01 3.033117949962615967e-02 -2.483733929693698883e-02
2.350964844226837158e-01 -1.976074278354644775e-02 -1.051026135683059692e-01
3.853438198566436768e-01 -8.941441774368286133e-03 -2.507043071091175079e-02
3.597060441970825195e-01 3.846347332000732422e-03 -5.389803647994995117e-02
3.633077740669250488e-01 -8.230149000883102417e-02 -9.584819898009300232e-03
3.444811105728149414e-01 -9.337085485458374023e-02 1.846220344305038452e-03
1.753266453742980957e-01 3.247030079364776611e-02 2.736631408333778381e-02
1.210688501596450806e-01 -2.711988985538482666e-03 3.327933698892593384e-02
2.007711529731750488e-01 -9.675174951553344727e-04 -7.324827462434768677e-02
2.517951130867004395e-01 -1.032019034028053284e-01 6.704273819923400879e-02
1.832938343286514282e-01 -1.111155971884727478e-01 -4.019714146852493286e-02
2.079876363277435303e-01 -5.340619385242462158e-02 -1.090796291828155518e-01
2.731822729110717773e-01 -1.005638465285301208e-01 6.459749490022659302e-02
2.243434041738510132e-01 -1.199515387415885925e-01 -3.802604228258132935e-02
