-1.735836267471313477e-03 9.072357416152954102e-02 -1.030257418751716614e-01
-8.025665581226348877e-02 2.696502208709716797e-02 2.059561163187026978e-01
-1.559735387563705444e-01 -4.005824774503707886e-02 1.591276004910469055e-02
-2.349904030561447144e-01 1.315158456563949585e-01 -1.174057647585868835e-01
-1.676882803440093994e-01 1.956275105476379395e-02 -2.386938780546188354e-01
-2.695781737565994263e-02 2.484747022390365601e-02 -7.743626832962036133e-02
-1.484477519989013672e-01 1.919838935136795044e-01 1.791630126535892487e-02
-3.726495802402496338e-02 9.908000379800796509e-02 -1.974424123764038086e-01
-1.530676931142807007e-01 1.337679475545883179e-01 2.247698009014129639e-01
-7.848064601421356201e-02 1.812429130077362061e-01 -1.220335587859153748e-01
-4.275422543287277222e-02 1.493863016366958618e-02 1.067313104867935181e-01
-1.040943190455436707e-01 7.158076763153076172e-02 2.588416337966918945e-01
-1.279392689466476440e-01 1.667296290397644043e-01 -1.811068356037139893e-01
-1.958611607551574707e-02 7.933340966701507568e-02 1.633953750133514404e-01
4.443064332008361816e-03 1.277509331703186035e-01 5.571115016937255859e-02
-2.010095715522766113e-01 1.415429413318634033e-01 -1.747788041830062866e-01
-2.810797095298767090e-02 5.791687220335006714e-02 -1.595340520143508911e-01
1.214578747749328613e-03 5.848694592714309692e-02 1.525000296533107758e-02
-4.607482254505157471e-02 7.704809308052062988e-03 8.702547848224639893e-02
-1.230757087469100952e-01 4.806293547153472900e-02 -2.621452212333679199e-01
4.497379064559936523e-03 1.170078366994857788e-01 -6.404969096183776855e-02
-6.222995370626449585e-02 9.500387310981750488e-02 -2.327110767364501953e-01
6.124377250671386719e-06 1.428132951259613037e-01 3.470650687813758850e-02
-2.236449122428894043e-01 -1.938517391681671143e-02 -9.953804314136505127e-02
-2.125033736228942871e-01 -3.181213140487670898e-02 -3.186394646763801575e-02
6.003588438034057617e-03 1.242087334394454956e-01 -3.851892799139022827e-02
-5.112721025943756104e-02 2.502385154366493225e-02 -1.581507772207260132e-01
-2.327271103858947754e-01 -1.557864248752593994e-03 1.155837476253509521e-01
-4.524355381727218628e-02 1.681874990463256836e-01 -1.198754012584686279e-01
-2.437217831611633301e-01 5.223032832145690918e-02 1.600735187530517578e-01
-2.658776640892028809e-01 1.001099422574043274e-01 -5.950271338224411011e-02
-7.702931016683578491e-02 1.928538382053375244e-01 -4.972643405199050903e-02
-5.985745042562484741e-02 1.305181533098220825e-01 -2.104360908269882202e-01
-1.296828389167785645e-01 1.959471404552459717e-01 2.330905292183160782e-03
-1.688681542873382568e-02 7.605234533548355103e-02 -1.471163928508758545e-01
-1.862308681011199951e-01 -3.808428347110748291e-02 1.878583803772926331e-02
-7.245510816574096680e-02 1.268593370914459229e-01 -2.263342887163162231e-01
-1.794268637895584106e-01 1.648308038711547852e-01 1.296633332967758179e-01
-1.181271076202392578e-01 1.050899103283882141e-01 2.581510543823242188e-01
-9.288896620273590088e-02 1.523183584213256836e-01 2.057563662528991699e-01
-2.372547984123229980e-03 1.486323475837707520e-01 6.526876706629991531e-03
-1.356673091650009155e-01 -3.806813806295394897e-02 -3.391294553875923157e-02
-4.450129717588424683e-02 9.450666606426239014e-03 -8.856847137212753296e-02
-1.126661896705627441e-01 -3.548875451087951660e-03 1.743200868368148804e-01
-1.882768422365188599e-01 7.684050500392913818e-02 -2.569728195667266846e-01
-1.213671416044235229e-01 1.466566324234008789e-01 2.176215201616287231e-01
-2.503409087657928467e-01 1.144313216209411621e-01 -1.090979203581809998e-01
-4.378775507211685181e-02 1.826199293136596680e-01 -3.950942307710647583e-02
-1.813079416751861572e-01 1.116599440574645996e-01 2.280915975570678711e-01
-1.448039710521697998e-01 6.752976775169372559e-02 -2.728451490402221680e-01
-2.055527418851852417e-01 1.301341056823730469e-01 -1.912473440170288086e-01
-8.792416006326675415e-02 1.615549325942993164e-01 1.862653940916061401e-01
-6.169749796390533447e-02 -9.135082364082336426e-03 -4.815203696489334106e-02
-2.738063931465148926e-01 3.889501094818115234e-02 -6.892515718936920166e-02
-7.046706229448318481e-02 1.891853958368301392e-01 -6.920781731605529785e-02
-2.947349846363067627e-02 1.729013174772262573e-01 5.807733908295631409e-02
-5.758379399776458740e-02 -6.210766732692718506e-03 4.857707023620605469e-02
-1.469042152166366577e-01 1.332393288612365723e-01 -2.381957024335861206e-01
-1.578550636768341064e-01 -2.579291164875030518e-02 -1.383176296949386597e-01
-2.408483475446701050e-01 -1.064381748437881470e-02 -8.639241755008697510e-02
-9.750810265541076660e-02 -2.459738403558731079e-02 6.611186265945434570e-02
-6.028828769922256470e-02 1.878257095813751221e-01 -5.564275383949279785e-02
-1.436081975698471069e-01 1.670895218849182129e-01 -1.737782061100006104e-01
-1.619744747877120972e-01 1.834495067596435547e-01 7.270893454551696777e-02
-3.318683058023452759e-02 2.813351526856422424e-02 1.192526146769523621e-01
-1.223651096224784851e-01 -2.375728636980056763e-02 -1.260831952095031738e-01
-2.374276518821716309e-02 2.416776493191719055e-02 5.666359886527061462e-02
-1.809691637754440308e-01 1.756009161472320557e-01 -8.694207668304443359e-02
-1.578930020332336426e-01 -4.033990204334259033e-03 -2.015917152166366577e-01
-1.475538313388824463e-01 1.793659031391143799e-01 -1.278028339147567749e-01
-2.097704112529754639e-01 -6.015077233314514160e-04 1.574568003416061401e-01
-7.492566853761672974e-02 -1.842842996120452881e-02 -2.211448550224304199e-02
-2.431328296661376953e-01 1.274960786104202271e-01 7.387486100196838379e-02
-2.666702270507812500e-01 1.119206845760345459e-02 -1.501807384192943573e-02
-1.577234268188476562e-02 5.895679444074630737e-02 -1.244380846619606018e-01
-2.100096493959426880e-01 1.573692709207534790e-01 8.125007152557373047e-02
-1.461455225944519043e-01 1.487706005573272705e-01 2.054537385702133179e-01
-2.486243993043899536e-01 -8.863851428031921387e-03 2.454080991446971893e-02
-1.083094924688339233e-01 -2.466154098510742188e-02 -1.004164814949035645e-01
-1.907109320163726807e-01 6.569044291973114014e-02 2.376889139413833618e-01
-1.132000535726547241e-01 3.153823688626289368e-02 -2.437168359756469727e-01
-5.307772755622863770e-02 1.304030418395996094e-01 2.062828093767166138e-01
-2.144817709922790527e-01 1.517001241445541382e-01 -1.108582094311714172e-01
6.096556782722473145e-03 1.145274415612220764e-01 6.723243743181228638e-02
-7.006289809942245483e-02 1.099878400564193726e-01 -2.359957545995712280e-01
-2.096541225910186768e-02 1.643398106098175049e-01 -5.954364687204360962e-02
-3.535047918558120728e-02 8.971057832241058350e-03 1.622779481112957001e-02
-8.074164390563964844e-02 3.745562210679054260e-02 2.207773774862289429e-01
-1.382479369640350342e-01 -3.611918538808822632e-02 -6.669306010007858276e-02
-1.248314827680587769e-01 1.957109570503234863e-01 3.052006103098392487e-02
-2.270828783512115479e-01 3.461241722106933594e-04 1.321560293436050415e-01
-1.926788389682769775e-01 1.750333309173583984e-01 1.938611268997192383e-02
-2.511879801750183105e-01 3.900958597660064697e-02 1.353848576545715332e-01
-1.366795748472213745e-01 -3.156512230634689331e-02 8.612734079360961914e-02
-9.074342250823974609e-02 -2.360956370830535889e-02 -5.789608880877494812e-02
-7.730443775653839111e-02 1.303314864635467529e-01 2.272736281156539917e-01
-3.027432411909103394e-02 1.550920307636260986e-01 1.316829323768615723e-01
-2.658537924289703369e-01 4.263345897197723389e-02 8.878746628761291504e-02
-2.081006169319152832e-01 -2.434050291776657104e-02 -1.091260164976119995e-01
-2.413465082645416260e-01 4.000665619969367981e-02 -1.857958585023880005e-01
-2.277695089578628540e-01 1.513443589210510254e-01 1.530728302896022797e-02
-4.272336512804031372e-02 2.359457314014434814e-03 3.947075456380844116e-04
-1.265739202499389648e-01 1.734004467725753784e-01 -1.624536365270614624e-01
-1.072328761219978333e-01 1.839483082294464111e-01 1.241667121648788452e-01
9.805098176002502441e-03 1.006473004817962646e-01 3.889270871877670288e-02
-1.751630306243896484e-01 1.462444365024566650e-01 -1.987857818603515625e-01
-1.484453827142715454e-01 -4.002361744642257690e-02 -1.875343732535839081e-02
-1.536237299442291260e-01 -3.937095403671264648e-02 -4.454783722758293152e-02
-2.003886252641677856e-01 -2.385281026363372803e-02 -1.230658888816833496e-01
-2.037460207939147949e-01 1.483595371246337891e-01 1.343365460634231567e-01
-2.225377410650253296e-02 1.630301624536514282e-01 8.162147551774978638e-02
-2.269608527421951294e-01 -2.581799775362014771e-02 -1.706263981759548187e-02
3.040060400962829590e-03 1.359070092439651489e-01 -2.635906077921390533e-02
-1.789584159851074219e-01 -3.764533251523971558e-02 -5.988338962197303772e-02
-5.161635577678680420e-02 1.849080622196197510e-01 5.835950747132301331e-02
-8.967296779155731201e-02 1.835944652557373047e-01 1.217072010040283203e-01
-2.482409477233886719e-01 -8.666031062602996826e-03 -5.846842378377914429e-02
-1.691151857376098633e-01 -4.010108113288879395e-02 -3.135558590292930603e-02
-1.389145851135253906e-01 8.441468328237533569e-02 -2.731272876262664795e-01
-9.542556107044219971e-02 -2.756195515394210815e-02 1.899421587586402893e-02
-6.470179557800292969e-02 1.456866711378097534e-01 1.992451399564743042e-01
-2.459717243909835815e-01 -1.222174614667892456e-02 -4.234220832586288452e-02
-5.254694074392318726e-02 1.482325792312622070e-02 -1.353769749402999878e-01
-1.888912618160247803e-01 1.133493781089782715e-01 -2.351428270339965820e-01
1.954033970832824707e-03 6.008076667785644531e-02 -3.507030662149190903e-03
-1.471063345670700073e-01 1.916242092847824097e-01 -3.986397013068199158e-02
-1.791197061538696289e-01 1.333822906017303467e-01 -2.182434052228927612e-01
-2.568109929561614990e-01 -2.289138734340667725e-03 -2.962430194020271301e-02
-2.185638844966888428e-01 -1.455212384462356567e-02 -1.309024989604949951e-01
-2.328176498413085938e-01 1.475089043378829956e-01 -1.730326935648918152e-02
-1.466406136751174927e-02 1.605548262596130371e-01 -4.390634596347808838e-02
-1.952612251043319702e-01 2.395110577344894409e-02 -2.305587679147720337e-01
-8.805412054061889648e-02 -2.317482978105545044e-02 4.282425343990325928e-02
-1.218432039022445679e-01 -3.327504545450210571e-02 -6.396878510713577271e-02
-4.493564367294311523e-03 5.406840890645980835e-02 -5.692005902528762817e-02
-2.119763791561126709e-01 -3.229953348636627197e-03 -1.724040210247039795e-01
-6.240065395832061768e-02 1.678050756454467773e-01 -1.486330777406692505e-01
-2.498037368059158325e-01 1.079965382814407349e-02 -1.280863136053085327e-01
-2.612031102180480957e-01 5.710914731025695801e-03 -5.544210597872734070e-02
-1.884727925062179565e-01 1.270799487829208374e-01 2.028846740722656250e-01
-1.942483186721801758e-01 1.240520849823951721e-01 -2.164879888296127319e-01
-4.887957125902175903e-02 2.727992832660675049e-03 -7.105128467082977295e-02
-2.009157240390777588e-01 -3.304457664489746094e-02 4.292720556259155273e-02
-1.626376807689666748e-01 -3.398770838975906372e-02 7.964880019426345825e-02
-1.717410236597061157e-02 2.893648669123649597e-02 -2.175029367208480835e-02
-9.708173573017120361e-03 7.050583511590957642e-02 1.262757927179336548e-01
-1.437217891216278076e-01 1.617335826158523560e-01 1.798087954521179199e-01
-8.598901331424713135e-02 1.690832898020744324e-02 1.948802918195724487e-01
-4.798082262277603149e-02 2.607712894678115845e-02 1.540681123733520508e-01
-2.548804283142089844e-01 1.194961667060852051e-01 -5.822894722223281860e-02
-2.342298626899719238e-01 2.095862850546836853e-02 -1.810822933912277222e-01
-4.112174361944198608e-02 1.742479205131530762e-01 9.354116767644882202e-02
1.845389604568481445e-03 8.079802989959716797e-02 -7.714533060789108276e-02
4.756361246109008789e-03 9.706529974937438965e-02 8.248167484998703003e-02
-2.761217355728149414e-01 5.297137796878814697e-02 3.027205727994441986e-02
-1.207325980067253113e-01 8.647786080837249756e-02 -2.709972560405731201e-01
-2.298521250486373901e-01 8.714319020509719849e-02 1.812930703163146973e-01
-2.207073867321014404e-01 1.329093575477600098e-01 -1.558449566364288330e-01
-5.278702080249786377e-02 1.061615347862243652e-01 -2.186861485242843628e-01
-2.228231579065322876e-01 -2.218330651521682739e-02 6.036335602402687073e-02
-2.659326195716857910e-01 7.004503160715103149e-02 9.007131308317184448e-02
-6.407348066568374634e-02 1.648657396435737610e-02 1.636604666709899902e-01
-9.562367200851440430e-02 2.827051281929016113e-02 -2.274426966905593872e-01
-1.139391064643859863e-01 1.492667794227600098e-01 -2.182411402463912964e-01
-1.057005971670150757e-01 1.204164624214172363e-01 -2.512453794479370117e-01
-2.603174448013305664e-01 1.135907769203186035e-01 9.267184883356094360e-03
-8.456022292375564575e-02 -1.417955756187438965e-02 9.872725605964660645e-02
-1.928475052118301392e-01 1.623175591230392456e-01 -1.259120106697082520e-01
-9.825012087821960449e-02 1.408189684152603149e-01 2.245488315820693970e-01
-1.186413168907165527e-01 1.843909174203872681e-02 2.205289006233215332e-01
-2.356183230876922607e-01 1.199483275413513184e-01 -1.476374715566635132e-01
-2.186791896820068359e-01 -2.718689292669296265e-02 3.745881840586662292e-02
-2.439975142478942871e-01 1.350007355213165283e-01 1.953562535345554352e-02
-6.567967683076858521e-02 1.634847819805145264e-01 1.667649298906326294e-01
-6.207473576068878174e-02 6.106220185756683350e-03 1.302402168512344360e-01
-7.300684601068496704e-02 -3.831110894680023193e-03 -1.227593496441841125e-01
-2.166795283555984497e-01 3.390472754836082458e-02 1.964780837297439575e-01
-6.966643035411834717e-02 1.494199484586715698e-01 -1.955350041389465332e-01
7.271692156791687012e-03 1.244771480560302734e-01 3.326833620667457581e-02
-1.023809462785720825e-01 -2.385578304529190063e-02 8.397139608860015869e-02
-2.750561237335205078e-01 6.975799053907394409e-02 3.098525665700435638e-02
-5.311743915081024170e-02 5.026382952928543091e-02 -2.014961689710617065e-01
-2.052455246448516846e-01 1.414252817630767822e-02 1.883620321750640869e-01
-3.859852999448776245e-02 7.579460740089416504e-03 -3.944751992821693420e-02
-2.716807126998901367e-01 5.710890144109725952e-02 -9.513282775878906250e-02
-3.751248121261596680e-03 5.871393159031867981e-02 7.560087740421295166e-02
-1.893205940723419189e-01 -4.908330738544464111e-03 -1.897283941507339478e-01
-6.423001736402511597e-02 3.085120767354965210e-02 -1.935962438583374023e-01
-1.946056932210922241e-01 1.489405930042266846e-01 1.512242108583450317e-01
-5.899614840745925903e-02 8.884551376104354858e-02 2.307827472686767578e-01
1.086625456809997559e-02 1.038644090294837952e-01 1.045159250497817993e-02
-1.845699250698089600e-01 2.834741771221160889e-02 2.229619324207305908e-01
-7.533100247383117676e-02 -1.219183206558227539e-02 8.400221168994903564e-02
-2.332214713096618652e-01 1.418456882238388062e-01 5.732002481818199158e-02
-2.659340202808380127e-01 2.530626952648162842e-02 6.497057527303695679e-02
-1.205759644508361816e-01 -3.107915073633193970e-02 6.923145055770874023e-02
-2.725390791893005371e-01 8.534892648458480835e-02 1.820339262485504150e-02
-1.234933733940124512e-03 5.548230558633804321e-02 3.872805088758468628e-02
-2.614700198173522949e-01 5.875065922737121582e-03 2.350942231714725494e-02
-1.607322692871093750e-02 3.020018711686134338e-02 2.475096099078655243e-02
-4.702413827180862427e-02 1.565821766853332520e-01 1.595043092966079712e-01
-2.589322924613952637e-01 2.246458828449249268e-02 9.124211966991424561e-02
-1.459832489490509033e-01 4.434918239712715149e-02 -2.635752558708190918e-01
-1.496771275997161865e-01 1.874224841594696045e-01 -7.871270179748535156e-02
-1.184104755520820618e-01 1.956945359706878662e-01 -4.413513839244842529e-02
-2.500184178352355957e-01 4.059038683772087097e-02 -1.671180129051208496e-01
-1.370325982570648193e-01 1.897645592689514160e-01 7.492410391569137573e-02
-2.671224474906921387e-01 1.998558640480041504e-02 4.352131858468055725e-02
-2.559685111045837402e-01 2.814585715532302856e-02 1.104503124952316284e-01
-2.441395819187164307e-01 1.150257363915443420e-01 -1.321677267551422119e-01
5.015343427658081055e-03 1.335928440093994141e-01 -4.637490026652812958e-03
-2.534301877021789551e-01 -1.238211989402770996e-03 4.331983253359794617e-02
-7.398205250501632690e-02 7.306320965290069580e-02 -2.428785264492034912e-01
-4.771526902914047241e-02 1.502059251070022583e-01 -1.676707118749618530e-01
-1.524014174938201904e-01 -3.866114467382431030e-02 3.756090626120567322e-02
-9.113672375679016113e-02 1.053921356797218323e-01 -2.539156079292297363e-01
-2.193422466516494751e-01 1.696044206619262695e-02 -1.985905021429061890e-01
-2.284417152404785156e-01 1.263527274131774902e-01 1.310889422893524170e-01
-1.952106505632400513e-01 1.723910868167877197e-01 -5.369590967893600464e-02
-1.949789077043533325e-01 -3.614150732755661011e-02 -4.587250947952270508e-02
-1.607882529497146606e-01 1.889110952615737915e-01 -6.706619635224342346e-03
-1.715220361948013306e-01 1.573416739702224731e-01 -1.766693592071533203e-01
-2.220240235328674316e-02 3.757680952548980713e-02 -1.020454391837120056e-01
-2.040168642997741699e-01 1.075330600142478943e-01 -2.249000817537307739e-01
-1.692507863044738770e-01 -4.130974411964416504e-03 1.824156790971755981e-01
-5.793315917253494263e-02 1.896954327821731567e-01 2.733024396002292633e-02
-1.364552676677703857e-01 1.114791780710220337e-01 2.530377507209777832e-01
-1.455820798873901367e-01 3.010734915733337402e-03 2.005892843008041382e-01
-7.496556639671325684e-02 -1.844940334558486938e-02 1.745656691491603851e-02
-1.936352103948593140e-01 4.949792847037315369e-02 2.308509945869445801e-01
-9.282816946506500244e-02 -2.695167064666748047e-02 2.826176118105649948e-03
-5.875008553266525269e-02 3.509029746055603027e-03 1.119096204638481140e-01
-2.395514249801635742e-01 1.025843322277069092e-01 -1.685082167387008667e-01
-2.024362981319427490e-01 -3.236044943332672119e-02 -6.861948966979980469e-02
-2.725999951362609863e-01 8.834574371576309204e-02 -8.384904824197292328e-03
-6.354385614395141602e-02 1.545961201190948486e-01 -1.801732033491134644e-01
-1.741707175970077515e-01 3.350704908370971680e-03 -2.130782306194305420e-01
-1.333548426628112793e-01 -1.374877989292144775e-02 -1.711680144071578979e-01
6.552517414093017578e-03 8.473650366067886353e-02 5.881023034453392029e-02
-3.423538804054260254e-02 4.247786104679107666e-02 1.556219011545181274e-01
-1.775039136409759521e-01 -3.599693626165390015e-02 5.743758007884025574e-02
-3.312223404645919800e-02 1.637854054570198059e-02 7.060027122497558594e-02
-1.707657277584075928e-01 1.719490289688110352e-01 1.174433529376983643e-01
-2.143231779336929321e-02 1.359046548604965210e-01 1.475514918565750122e-01
-7.208727300167083740e-02 1.966238394379615784e-02 1.831590831279754639e-01
-2.654129862785339355e-01 8.478841930627822876e-02 7.674573361873626709e-02
-5.333624035120010376e-02 1.478878855705261230e-01 1.840902864933013916e-01
-9.614004939794540405e-02 6.591272354125976562e-02 -2.582455575466156006e-01
-1.062963902950286865e-01 5.303788930177688599e-02 -2.580125629901885986e-01
-1.633030623197555542e-01 1.813596189022064209e-01 -9.401602298021316528e-02
-1.709093153476715088e-01 1.826791316270828247e-01 5.120081081986427307e-02
-1.734630167484283447e-01 9.703458100557327271e-02 2.445863783359527588e-01
9.214580059051513672e-04 8.197829127311706543e-02 9.357334673404693604e-02
-6.356125324964523315e-02 1.850468218326568604e-01 -8.322411775588989258e-02
-2.124677896499633789e-01 4.685061797499656677e-02 -2.320250868797302246e-01
-7.588371634483337402e-03 4.652328789234161377e-02 5.658369511365890503e-02
-9.527433663606643677e-02 1.886005997657775879e-01 1.001277714967727661e-01
-4.439768940210342407e-02 1.661625206470489502e-01 1.308784931898117065e-01
-2.133076339960098267e-01 2.778859063982963562e-02 -2.180634886026382446e-01
-1.585303246974945068e-01 1.649288237094879150e-01 1.587795913219451904e-01
-6.900392472743988037e-02 1.829651296138763428e-01 -1.032837405800819397e-01
-2.346247136592864990e-01 5.870265886187553406e-02 -2.045409530401229858e-01
-5.143269896507263184e-03 1.460488438606262207e-01 -5.412879958748817444e-02
-2.068308442831039429e-01 4.716122150421142578e-02 2.168084233999252319e-01
-1.232451945543289185e-01 1.600128710269927979e-01 -1.978685408830642700e-01
-1.088513359427452087e-01 -1.174930483102798462e-02 1.473110020160675049e-01
-1.494831293821334839e-01 1.793095320463180542e-01 1.177928894758224487e-01
-2.231917828321456909e-01 9.883388876914978027e-03 1.579169183969497681e-01
-2.475059032440185547e-01 1.268741637468338013e-01 -7.444813847541809082e-02
-1.608072072267532349e-01 -1.565382629632949829e-02 1.560206860303878784e-01
-1.248703524470329285e-01 -7.147669792175292969e-03 -1.841225177049636841e-01
-3.849501162767410278e-02 1.810499727725982666e-01 3.091983683407306671e-02
-1.970779299736022949e-01 9.610266983509063721e-02 -2.418499886989593506e-01
-2.294823229312896729e-01 1.040587127208709717e-01 1.666070520877838135e-01
-3.004569560289382935e-02 1.577129065990447998e-01 -1.162780821323394775e-01
-6.730962544679641724e-02 1.856973469257354736e-01 9.007823467254638672e-02
-1.403690576553344727e-01 -3.542675077915191650e-02 6.127065047621726990e-02
-2.276591509580612183e-01 -3.012530505657196045e-03 -1.486704647541046143e-01
-2.469678819179534912e-01 9.507914632558822632e-02 1.338672935962677002e-01
-1.136505305767059326e-01 1.273368299007415771e-02 -2.181539833545684814e-01
-1.216937676072120667e-01 -2.692483365535736084e-02 -1.094954758882522583e-01
-2.181439846754074097e-02 5.971243977546691895e-02 -1.447766721248626709e-01
-1.142542064189910889e-02 3.933259844779968262e-02 -4.395556822419166565e-02
-5.342513322830200195e-02 1.757530570030212402e-01 1.140241622924804688e-01
-1.453052461147308350e-01 1.931082904338836670e-01 -2.927465364336967468e-03
-1.961417049169540405e-01 -1.478315889835357666e-02 -1.596325784921646118e-01
-6.895020604133605957e-02 1.171180605888366699e-01 2.319149821996688843e-01
-2.644760012626647949e-01 9.734623879194259644e-02 5.455130338668823242e-02
-2.625989317893981934e-01 4.702715203166007996e-02 1.045867279171943665e-01
-1.384971290826797485e-01 -1.310095191001892090e-03 -2.042598724365234375e-01
-1.051115766167640686e-01 4.682968184351921082e-02 2.465249449014663696e-01
-2.686520814895629883e-01 5.678713321685791016e-02 8.151414990425109863e-02
-2.861815690994262695e-02 1.714831218123435974e-02 4.213400185108184814e-02
-1.156552135944366455e-01 1.891371607780456543e-01 -1.001477390527725220e-01
-5.278293788433074951e-02 8.205918967723846436e-02 -2.205769419670104980e-01
-6.400913000106811523e-03 1.541517078876495361e-01 -8.661067113280296326e-03
-1.934852749109268188e-01 1.729379594326019287e-02 2.038381546735763550e-01
-2.574030756950378418e-01 1.189731061458587646e-01 -9.312758222222328186e-03
-2.136019468307495117e-01 -1.113922148942947388e-02 -1.499237120151519775e-01
-2.220374941825866699e-01 -2.414042502641677856e-02 -7.563412189483642578e-02
-1.731424331665039062e-01 -3.106806427240371704e-02 -1.120453923940658569e-01
-1.047977581620216370e-01 1.330873072147369385e-01 -2.386966794729232788e-01
-2.672872543334960938e-01 1.011091470718383789e-01 1.131815835833549500e-03
-1.625603288412094116e-01 1.546778380870819092e-01 -1.919529885053634644e-01
-1.894251853227615356e-01 -3.122910857200622559e-02 7.764301449060440063e-02
-2.332416474819183350e-01 -2.071131020784378052e-02 -5.122473463416099548e-02
-9.934149682521820068e-03 1.112135201692581177e-01 1.405024677515029907e-01
-4.029229283332824707e-03 1.243509799242019653e-01 1.095414236187934875e-01
-1.731851249933242798e-01 4.877865314483642578e-02 -2.609723508358001709e-01
-1.991762220859527588e-01 1.628605872392654419e-01 -1.066238284111022949e-01
-1.302285343408584595e-01 6.157575547695159912e-02 -2.704373300075531006e-01
-2.202495187520980835e-01 1.540216207504272461e-01 5.339404195547103882e-02
-1.561417579650878906e-01 -2.664496749639511108e-02 1.180441379547119141e-01
-1.063524782657623291e-01 1.576418876647949219e-01 -2.016689181327819824e-01
-2.414788156747817993e-01 8.165277540683746338e-02 -1.851360201835632324e-01
-6.297304481267929077e-02 1.378694176673889160e-02 -1.567218750715255737e-01
8.108764886856079102e-03 1.063708215951919556e-01 -4.552217200398445129e-02
-2.024007439613342285e-01 1.493609547615051270e-01 -1.511794328689575195e-01
-1.443648785352706909e-01 -1.370928436517715454e-02 1.616415679454803467e-01
-1.136493086814880371e-01 -1.814689487218856812e-02 -1.394575834274291992e-01
-4.361557215452194214e-02 8.221799135208129883e-02 2.104381918907165527e-01
-2.183529734611511230e-02 1.229509115219116211e-01 1.631165295839309692e-01
-1.432193964719772339e-01 -2.919260412454605103e-02 1.034883484244346619e-01
-1.467948257923126221e-01 1.546204984188079834e-01 -2.024677842855453491e-01
-1.816833913326263428e-01 -2.761315554380416870e-02 1.042327955365180969e-01
-1.598266363143920898e-01 1.864706724882125854e-01 -6.212393939495086670e-02
-1.363024115562438965e-01 1.151359826326370239e-01 -2.591055631637573242e-01
-1.364896148443222046e-01 -3.704682737588882446e-02 3.900874778628349304e-02
-1.036438941955566406e-01 1.976532638072967529e-01 -4.375877324491739273e-03
-8.843798935413360596e-02 1.474275439977645874e-02 -1.987159103155136108e-01
-9.615831822156906128e-02 1.810452491044998169e-01 -1.348937153816223145e-01
-1.174772009253501892e-01 -2.502351254224777222e-02 1.027632430195808411e-01
-7.601031661033630371e-02 1.834407001733779907e-01 1.124436855316162109e-01
-1.263560205698013306e-01 1.028395369648933411e-01 -2.668499052524566650e-01
-2.465993911027908325e-01 1.235949397087097168e-01 -9.546454250812530518e-02
-2.973072975873947144e-02 4.398555681109428406e-02 -1.427671313285827637e-01
1.783758401870727539e-03 1.053580045700073242e-01 -8.787275105714797974e-02
-1.293487846851348877e-02 5.103876069188117981e-02 1.042651385068893433e-01
-1.669361591339111328e-01 -4.056847840547561646e-02 -1.327022723853588104e-02
-1.635042279958724976e-01 -3.468251228332519531e-02 -9.275260567665100098e-02
-2.063561379909515381e-01 -3.424362093210220337e-02 -1.151741389185190201e-02
-2.192764580249786377e-01 1.203428134322166443e-01 1.645433008670806885e-01
-8.820131421089172363e-02 1.264577805995941162e-01 -2.380387634038925171e-01
-1.252102702856063843e-01 1.959395706653594971e-01 -2.906211651861667633e-02
-4.087233543395996094e-02 3.830311447381973267e-02 -1.611968278884887695e-01
-3.250846266746520996e-02 2.122351899743080139e-02 9.191916137933731079e-02
-2.711746692657470703e-01 2.546543627977371216e-02 2.774502150714397430e-02
-1.821356117725372314e-01 -3.315600752830505371e-02 -9.435908496379852295e-02
-1.703826785087585449e-01 1.763969063758850098e-01 -1.084230840206146240e-01
-1.446710526943206787e-01 8.308770507574081421e-02 2.620398104190826416e-01
-1.359050422906875610e-01 2.707578986883163452e-02 2.357784360647201538e-01
-2.079984694719314575e-01 1.666588187217712402e-01 9.508552029728889465e-04
-1.306345462799072266e-01 1.300082802772521973e-01 2.380433976650238037e-01
-6.994306296110153198e-02 1.566549241542816162e-01 1.850894391536712646e-01
-2.741294354200363159e-02 1.646910980343818665e-02 -4.145737271755933762e-03
-1.292964965105056763e-01 3.817024454474449158e-02 2.462546974420547485e-01
-1.126029342412948608e-01 1.941742002964019775e-01 6.228404119610786438e-02
-1.786928921937942505e-01 -2.662118524312973022e-02 -1.305593401193618774e-01
-7.902218401432037354e-02 1.738217025995254517e-01 1.502725481986999512e-01
-2.575432658195495605e-01 1.184306591749191284e-01 -2.786835096776485443e-02
-1.468009203672409058e-01 1.925103664398193359e-01 -2.130788005888462067e-02
-1.733471453189849854e-01 1.438718736171722412e-01 1.923820376396179199e-01
-4.291579127311706543e-03 1.428230404853820801e-01 7.203975319862365723e-02
-9.756430983543395996e-02 1.750352084636688232e-01 1.551044881343841553e-01
-2.598855495452880859e-01 5.807316303253173828e-02 -1.452543735504150391e-01
-2.689361870288848877e-01 8.333844691514968872e-02 -8.682318031787872314e-02
-1.970186531543731689e-01 1.673911511898040771e-01 -8.775213360786437988e-02
-3.311602026224136353e-02 1.272447556257247925e-01 1.812875121831893921e-01
-1.557786464691162109e-01 1.690689921379089355e-01 -1.585764586925506592e-01
-1.173979267477989197e-01 -1.109185069799423218e-02 -1.674226373434066772e-01
-1.248277351260185242e-01 -3.585998713970184326e-02 2.587149292230606079e-02
-2.228734791278839111e-01 5.530776083469390869e-02 1.989393681287765503e-01
-2.214910835027694702e-02 2.712906524538993835e-02 -5.923851951956748962e-02
-1.317300200462341309e-01 -4.148438572883605957e-03 1.830476224422454834e-01
-1.118987798690795898e-03 1.281891316175460815e-01 -7.978069037199020386e-02
-1.786614060401916504e-01 1.668845266103744507e-01 -1.362128853797912598e-01
-2.116267383098602295e-01 1.471844762563705444e-01 1.185513883829116821e-01
-1.110827848315238953e-01 1.833668351173400879e-01 -1.288732588291168213e-01
-1.276014000177383423e-02 8.140593767166137695e-02 1.461724191904067993e-01
-5.886860191822052002e-02 4.597093909978866577e-02 2.057560235261917114e-01
-2.342123091220855713e-01 1.413172632455825806e-01 -7.608882337808609009e-02
-2.284533679485321045e-01 -2.485336363315582275e-02 -1.704609021544456482e-04
-1.606574952602386475e-01 1.341728121042251587e-02 2.161377370357513428e-01
-5.366049706935882568e-02 1.364388763904571533e-01 -1.964670419692993164e-01
-2.546828389167785645e-01 1.034759879112243652e-01 9.264454990625381470e-02
-2.264598459005355835e-01 1.431442499160766602e-01 8.436557650566101074e-02
-1.695562154054641724e-01 1.847769469022750854e-01 3.139339014887809753e-02
-2.502587139606475830e-01 1.223186179995536804e-01 5.488124489784240723e-02
-9.983486682176589966e-02 4.114289581775665283e-02 -2.449968904256820679e-01
-5.036921054124832153e-02 3.468364849686622620e-02 -1.753577142953872681e-01
-2.622645497322082520e-01 6.763061881065368652e-02 1.065732687711715698e-01
-2.405966669321060181e-01 1.143947765231132507e-01 1.215713918209075928e-01
-8.387826383113861084e-02 1.429179459810256958e-01 2.163431942462921143e-01
-1.092470362782478333e-01 -3.270649909973144531e-02 -9.080274961888790131e-03
-2.685064375400543213e-01 2.949713170528411865e-02 -8.938000351190567017e-02
-5.801110714673995972e-02 1.901052594184875488e-01 -1.182276755571365356e-02
-2.608914673328399658e-01 8.549792319536209106e-02 -1.246368661522865295e-01
-8.657032251358032227e-02 1.915538012981414795e-01 -7.526101171970367432e-02
-2.169534862041473389e-01 6.788222491741180420e-02 2.086414098739624023e-01
-1.847434192895889282e-01 -3.894040733575820923e-02 1.195339486002922058e-03
-1.960502862930297852e-01 4.907052963972091675e-02 -2.480493038892745972e-01
-1.356818228960037231e-01 1.846247613430023193e-01 -1.138590499758720398e-01
-1.986575424671173096e-01 1.685934960842132568e-01 5.646618083119392395e-02
-1.897143870592117310e-01 8.774325251579284668e-03 -2.146826684474945068e-01
-1.044562086462974548e-01 -2.814182639122009277e-02 -6.518404185771942139e-02
-3.735248744487762451e-02 2.990745753049850464e-02 1.368384510278701782e-01
-3.753660619258880615e-02 7.225550711154937744e-03 -1.999079249799251556e-02
-1.425199508666992188e-01 3.144013136625289917e-02 -2.530685663223266602e-01
-2.559691667556762695e-01 1.105749309062957764e-01 6.676883250474929810e-02
-2.315703928470611572e-01 4.232858121395111084e-02 -2.045324742794036865e-01
-6.269087642431259155e-02 4.981700330972671509e-02 -2.153363823890686035e-01
-2.979929000139236450e-02 1.004813611507415771e-01 1.895460337400436401e-01
-1.111375987529754639e-01 -3.091660887002944946e-02 4.826465621590614319e-02
-9.217812120914459229e-02 2.070040628314018250e-02 -2.132087796926498413e-01
-2.574774920940399170e-01 7.196180522441864014e-03 5.816221609711647034e-02
-1.155021339654922485e-01 1.697517931461334229e-03 -1.983388960361480713e-01
-1.022982075810432434e-01 1.969904750585556030e-01 2.767238579690456390e-02
-2.562171220779418945e-02 1.632222682237625122e-01 -8.472187072038650513e-02
-2.305077016353607178e-01 9.503951668739318848e-02 -1.967273503541946411e-01
-1.769898384809494019e-01 1.616740524768829346e-01 -1.571900844573974609e-01
-2.564902007579803467e-01 5.419468134641647339e-02 1.274354904890060425e-01
-6.772340834140777588e-02 1.749769300222396851e-01 -1.333911269903182983e-01
-2.740207314491271973e-01 8.274337649345397949e-02 -3.338496759533882141e-02
-1.038190722465515137e-02 1.445366740226745605e-01 9.713490307331085205e-02
-1.261508315801620483e-01 1.266595870256423950e-01 -2.490607351064682007e-01
-9.213633835315704346e-02 -8.777461946010589600e-03 1.363527625799179077e-01
-2.766579985618591309e-01 4.228439182043075562e-02 -4.170725494623184204e-02
-4.234916716814041138e-02 5.750660598278045654e-02 -1.900431960821151733e-01
-1.856476962566375732e-01 -5.076989531517028809e-03 1.716001927852630615e-01
-2.525526285171508789e-02 1.733224689960479736e-01 3.219348844140768051e-03
-1.316951960325241089e-02 1.523114889860153198e-01 -7.504457980394363403e-02
-1.183037757873535156e-01 2.850670740008354187e-02 2.337860316038131714e-01
-2.030613273382186890e-02 5.659565329551696777e-02 1.416829377412796021e-01
-1.301864981651306152e-01 -1.929819583892822266e-02 1.385995149612426758e-01
-1.980109512805938721e-01 1.587201058864593506e-01 1.125015467405319214e-01
-5.938185751438140869e-02 -2.953656017780303955e-03 -8.431322872638702393e-02
-2.471854239702224731e-01 5.619774013757705688e-02 -1.794697195291519165e-01
-2.619159817695617676e-01 1.089141443371772766e-01 2.646647393703460693e-02
-3.727393597364425659e-02 5.959080904722213745e-02 1.856477409601211548e-01
-1.503931432962417603e-01 1.197329312562942505e-01 2.418155223131179810e-01
-3.078740090131759644e-02 1.317048072814941406e-01 -1.654887795448303223e-01
-1.760827153921127319e-01 1.001862734556198120e-01 -2.557922005653381348e-01
-2.360873669385910034e-02 2.798885852098464966e-02 7.764544337987899780e-02
-1.723751276731491089e-01 3.124641999602317810e-02 2.327173054218292236e-01
-2.684251070022583008e-01 4.226277023553848267e-02 -1.065909191966056824e-01
-1.205649599432945251e-01 1.766734123229980469e-01 1.490104347467422485e-01
-2.312451452016830444e-01 1.326108574867248535e-01 1.054963693022727966e-01
-2.060905992984771729e-01 1.668730676174163818e-01 2.562634460628032684e-02
-1.784684509038925171e-02 1.035913825035095215e-01 -1.562121659517288208e-01
-6.546435505151748657e-02 5.353830754756927490e-02 2.216374725103378296e-01
-2.348246425390243530e-02 7.456984370946884155e-02 -1.636126786470413208e-01
-5.521252006292343140e-02 6.797040253877639771e-02 2.199211567640304565e-01
-2.673137784004211426e-01 6.447423249483108521e-02 -1.156619489192962646e-01
-6.971675902605056763e-02 -1.595290750265121460e-02 1.136945560574531555e-03
-2.701761424541473389e-01 8.873113244771957397e-02 3.408568352460861206e-02
-4.309452325105667114e-02 1.592485308647155762e-01 -1.409230679273605347e-01
-1.354829967021942139e-02 4.121416062116622925e-02 7.636827230453491211e-02
-1.943441480398178101e-02 1.522986292839050293e-01 1.092426776885986328e-01
-1.980247348546981812e-02 1.063520237803459167e-01 1.679838001728057861e-01
-1.949239075183868408e-01 1.649648100137710571e-01 9.321472048759460449e-02
-1.198669299483299255e-01 -3.072085231542587280e-02 -8.225946128368377686e-02
-2.692160010337829590e-01 4.006428644061088562e-02 7.029913365840911865e-02
-1.608319133520126343e-01 6.483003497123718262e-02 2.560869157314300537e-01
-9.374089539051055908e-03 1.358563899993896484e-01 -1.020679473876953125e-01
-2.024316191673278809e-01 1.157364249229431152e-01 1.995999664068222046e-01
9.806558489799499512e-03 1.128794848918914795e-01 -1.471337489783763885e-02
-2.129016518592834473e-01 8.615349978208541870e-02 -2.301066517829895020e-01
-4.539048671722412109e-02 1.010558754205703735e-01 2.138597071170806885e-01
-9.153242409229278564e-02 4.373222589492797852e-03 -1.803726404905319214e-01
-2.537553906440734863e-01 6.352801620960235596e-02 -1.629481315612792969e-01
-1.129239052534103394e-02 1.259591430425643921e-01 -1.233224868774414062e-01
4.871666431427001953e-03 7.009933143854141235e-02 3.482835739850997925e-02
-8.107721805572509766e-02 7.835455238819122314e-02 2.484680861234664917e-01
-2.422500997781753540e-01 1.374574154615402222e-01 -3.513629361987113953e-02
-2.522275149822235107e-01 5.247808992862701416e-03 -1.049653515219688416e-01
-1.851782798767089844e-01 1.787753701210021973e-01 -3.313510119915008545e-02
-7.564033567905426025e-02 4.790489375591278076e-02 -2.294803410768508911e-01
-2.724815607070922852e-01 2.374684810638427734e-02 -2.678616158664226532e-02
-2.594595253467559814e-01 1.159563660621643066e-03 3.664345014840364456e-03
-9.411182999610900879e-02 1.730195879936218262e-01 -1.606877446174621582e-01
-2.507204413414001465e-01 5.907971411943435669e-02 1.442621350288391113e-01
-1.728934049606323242e-01 -2.204056829214096069e-02 -1.506347060203552246e-01
-1.092528626322746277e-01 1.621924340724945068e-01 1.895659714937210083e-01
1.494219899177551270e-01 4.841328039765357971e-02 -1.626927778124809265e-02
1.515727043151855469e-01 5.003974586725234985e-02 -1.704932749271392822e-01
9.433352947235107422e-02 3.493512421846389771e-02 -1.128445863723754883e-01
1.258128732442855835e-01 7.670871913433074951e-02 -3.050576448440551758e-01
1.086854338645935059e-01 7.938088476657867432e-02 -2.022516131401062012e-01
1.712176501750946045e-01 8.931592851877212524e-02 -1.986045762896537781e-02
1.712285429239273071e-01 8.556133508682250977e-02 -9.924560785293579102e-02
1.574862003326416016e-01 6.730028986930847168e-02 4.114925488829612732e-02
1.823096871376037598e-01 1.663591414690017700e-01 4.144008085131645203e-02
1.605915129184722900e-01 1.687733829021453857e-01 -1.424101293087005615e-01
1.660637259483337402e-01 7.423844933509826660e-02 -1.250321865081787109e-01
1.451185941696166992e-01 1.664889156818389893e-01 1.449250802397727966e-02
1.309356987476348877e-01 1.289549469947814941e-01 -1.958922147750854492e-01
1.549146175384521484e-01 1.748382151126861572e-01 4.053369164466857910e-03
1.307190358638763428e-01 1.395714879035949707e-01 -1.270124167203903198e-01
9.480047225952148438e-02 6.837455183267593384e-02 2.122603356838226318e-02
1.559295803308486938e-01 6.600879877805709839e-02 5.257401987910270691e-02
1.673134565353393555e-01 7.807422429323196411e-02 -5.480387434363365173e-02
1.640470027923583984e-01 7.497073709964752197e-02 -3.459956496953964233e-03
1.508509516716003418e-01 1.694161295890808105e-01 -5.953144282102584839e-02
1.270905137062072754e-01 1.413669884204864502e-01 -4.853076487779617310e-02
1.158053427934646606e-01 1.197772175073623657e-01 -7.371781766414642334e-02
1.269974112510681152e-01 1.426454335451126099e-01 -2.139232680201530457e-02
1.210715994238853455e-01 1.335988640785217285e-01 6.932653486728668213e-02
1.804026663303375244e-01 1.621243059635162354e-01 -1.649457961320877075e-01
1.835903227329254150e-01 1.337031424045562744e-01 7.334470748901367188e-03
1.775390803813934326e-01 1.152755394577980042e-01 -2.146256864070892334e-01
1.392983198165893555e-01 1.550233215093612671e-01 1.324295401573181152e-01
1.782081723213195801e-01 1.454416215419769287e-01 -2.209723889827728271e-01
1.403591632843017578e-01 1.092202141880989075e-01 -3.047305345535278320e-01
1.159070879220962524e-01 1.245285421609878540e-01 4.432383924722671509e-03
9.204784035682678223e-02 4.408891499042510986e-02 4.341208562254905701e-02
1.022348850965499878e-01 3.534740209579467773e-02 1.292415112257003784e-01
1.011259257793426514e-01 7.105927169322967529e-02 -1.447402536869049072e-01
1.369706988334655762e-01 1.051233857870101929e-01 2.523310482501983643e-01
1.833140552043914795e-01 1.226511746644973755e-01 -7.243099808692932129e-02
1.609798669815063477e-01 9.521275758743286133e-02 1.460250616073608398e-01
1.106492280960083008e-01 1.000191867351531982e-01 -1.400332301855087280e-01
1.251256465911865234e-01 1.264223009347915649e-01 1.915697008371353149e-01
1.748528480529785156e-01 9.639998525381088257e-02 -4.765199497342109680e-02
1.391939371824264526e-01 1.393315941095352173e-01 -2.028025537729263306e-01
1.152942776679992676e-01 1.019001975655555725e-01 -1.844240576028823853e-01
1.509331911802291870e-01 1.304245889186859131e-01 -2.827285528182983398e-01
1.513835191726684570e-01 1.721767336130142212e-01 2.400114759802818298e-02
1.786680519580841064e-01 1.782025694847106934e-01 -3.876610845327377319e-02
1.093395799398422241e-01 9.271195530891418457e-02 -1.605455279350280762e-01
1.652790755033493042e-01 1.164070442318916321e-01 1.688172370195388794e-01
9.272427856922149658e-02 4.246157035231590271e-02 6.037545576691627502e-02
1.426016688346862793e-01 1.618404388427734375e-01 9.310057759284973145e-02
1.000229120254516602e-01 8.684060722589492798e-02 -2.932991832494735718e-03
1.031411886215209961e-01 4.161631688475608826e-02 1.494589298963546753e-01
1.530999839305877686e-01 5.070179328322410583e-02 -1.044373363256454468e-01
1.834712028503417969e-01 1.464402675628662109e-01 -1.741320192813873291e-01
1.366301625967025757e-01 3.774201124906539917e-02 -2.363950312137603760e-01
1.429966837167739868e-01 4.597303271293640137e-02 5.302571132779121399e-02
1.323335915803909302e-01 2.759205549955368042e-02 -7.039107382297515869e-03
9.594658762216567993e-02 7.025113701820373535e-02 -4.262604936957359314e-02
9.255858510732650757e-02 4.417858272790908813e-02 -7.289960980415344238e-02
1.377149671316146851e-01 7.788428664207458496e-02 2.192601859569549561e-01
1.756155043840408325e-01 9.672370553016662598e-02 -1.107758581638336182e-01
1.760082244873046875e-01 1.044229269027709961e-01 3.370881080627441406e-03
9.218151867389678955e-02 3.455550596117973328e-02 3.165617957711219788e-02
1.032779514789581299e-01 9.613313525915145874e-02 5.257695540785789490e-02
1.862113773822784424e-01 1.517849415540695190e-01 -1.199620962142944336e-01
1.402734816074371338e-01 4.387613385915756226e-02 6.463940441608428955e-02
1.617983281612396240e-01 6.645674258470535278e-02 -6.705854833126068115e-02
1.184697672724723816e-01 1.558971405029296875e-02 -1.452497690916061401e-01
1.815368831157684326e-01 1.402400732040405273e-01 -1.994321197271347046e-01
1.213275194168090820e-01 7.549076527357101440e-02 -2.896487712860107422e-01
1.394306421279907227e-01 6.251852214336395264e-02 1.681180298328399658e-01
1.425824463367462158e-01 4.182543978095054626e-02 -2.183122336864471436e-01
1.505228430032730103e-01 1.483116000890731812e-01 -2.193478196859359741e-01
1.695097535848617554e-01 8.156438171863555908e-02 -1.102431714534759521e-01
1.542944908142089844e-01 5.310957506299018860e-02 -1.432857662439346313e-01
1.329360604286193848e-01 1.278042495250701904e-01 -2.159465998411178589e-01
1.214995384216308594e-01 8.866855502128601074e-02 -2.703487575054168701e-01
1.856077462434768677e-01 1.379147768020629883e-01 -3.309581056237220764e-02
1.429186463356018066e-01 1.288248002529144287e-01 -2.640123665332794189e-01
1.685454547405242920e-01 1.787745356559753418e-01 5.648261681199073792e-02
1.820346117019653320e-01 1.609616577625274658e-01 5.869530513882637024e-02
1.587496101856231689e-01 6.035828590393066406e-02 -1.327326446771621704e-01
1.166446134448051453e-01 1.516100019216537476e-02 -1.040590554475784302e-02
1.625445038080215454e-01 1.441301107406616211e-01 1.974820345640182495e-01
1.422240138053894043e-01 4.306016862392425537e-02 3.683826699852943420e-02
1.510455757379531860e-01 8.235017210245132446e-02 1.726700961589813232e-01
1.751405000686645508e-01 9.552089124917984009e-02 -8.834043890237808228e-02
1.590251028537750244e-01 1.535899639129638672e-01 1.919316202402114868e-01
1.595201939344406128e-01 1.745565235614776611e-01 -7.873114943504333496e-02
1.401363313198089600e-01 7.467982172966003418e-02 2.034090757369995117e-01
1.033177971839904785e-01 9.661599248647689819e-02 3.643278405070304871e-02
9.419389069080352783e-02 2.471732348203659058e-02 2.287262678146362305e-02
1.281885057687759399e-01 1.033379659056663513e-01 -2.716587483882904053e-01
1.851377636194229126e-01 1.537735462188720703e-01 1.616796106100082397e-02
1.532065868377685547e-01 5.519831180572509766e-02 -2.042652964591979980e-01
1.253992915153503418e-01 4.552815109491348267e-02 1.600225120782852173e-01
1.173316240310668945e-01 1.185711920261383057e-01 1.587363630533218384e-01
1.070731133222579956e-01 1.053086668252944946e-01 6.689195334911346436e-02
1.283061206340789795e-01 1.280046254396438599e-01 2.053554207086563110e-01
1.815945506095886230e-01 1.474509388208389282e-01 6.941461563110351562e-02
1.145840287208557129e-01 2.313445508480072021e-02 7.768906652927398682e-02
1.863887161016464233e-01 1.552158892154693604e-01 -1.752224005758762360e-02
1.197360754013061523e-01 2.050221711397171021e-02 3.377591446042060852e-02
1.560081541538238525e-01 1.607618182897567749e-01 1.712845265865325928e-01
1.305836141109466553e-01 1.307682693004608154e-01 -1.835041791200637817e-01
1.814158111810684204e-01 1.202312260866165161e-01 -1.652618944644927979e-01
1.671575009822845459e-01 1.617510765790939331e-01 -1.985487490892410278e-01
1.411012411117553711e-01 1.505947411060333252e-01 -1.491395980119705200e-01
1.656005233526229858e-01 1.013887897133827209e-01 1.279032081365585327e-01
1.450104713439941406e-01 6.250289082527160645e-02 -3.002695441246032715e-01
1.365112811326980591e-01 3.303378075361251831e-02 5.198154598474502563e-03
1.810906827449798584e-01 1.212792396545410156e-01 2.611856907606124878e-03
1.314637511968612671e-01 1.502481549978256226e-01 2.964199706912040710e-02
1.089366078376770020e-01 1.409786194562911987e-02 1.155109331011772156e-02
1.098981872200965881e-01 1.019262000918388367e-01 -1.173717677593231201e-01
1.806164681911468506e-01 1.120046079158782959e-01 -1.034904420375823975e-01
1.191723421216011047e-01 1.193170696496963501e-01 1.743970811367034912e-01
1.170087754726409912e-01 1.772443950176239014e-02 2.115531265735626221e-02
9.934848546981811523e-02 3.130088001489639282e-02 1.029524654150009155e-01
1.515896916389465332e-01 5.155018717050552368e-02 -1.918119192123413086e-01
9.514351189136505127e-02 2.770491689443588257e-02 5.506201460957527161e-02
1.717691719532012939e-01 1.422174572944641113e-01 -2.536621093750000000e-01
1.161217913031578064e-01 1.217194870114326477e-01 1.154379695653915405e-01
1.442741006612777710e-01 1.612156927585601807e-01 -8.461984992027282715e-02
1.260750591754913330e-01 1.103308498859405518e-01 2.377730906009674072e-01
1.800602525472640991e-01 1.484577208757400513e-01 8.782450854778289795e-02
1.447238475084304810e-01 4.448026046156883240e-02 1.770155131816864014e-02
1.651989072561264038e-01 7.642360031604766846e-02 -1.951847672462463379e-01
1.512874215841293335e-01 5.394143238663673401e-02 1.537406072020530701e-02
1.458591520786285400e-01 1.520163863897323608e-01 -1.754614710807800293e-01
1.495644003152847290e-01 4.618638381361961365e-02 -1.526491641998291016e-01
1.530508399009704590e-01 7.967971265316009521e-02 1.504360735416412354e-01
1.283621490001678467e-01 1.077418327331542969e-01 -2.606835663318634033e-01
1.144188940525054932e-01 9.292447566986083984e-02 -2.109008729457855225e-01
1.146827638149261475e-01 1.120578646659851074e-01 -1.208335012197494507e-01
9.413014352321624756e-02 3.760481998324394226e-02 7.646308839321136475e-02
1.247633621096611023e-01 1.799350976943969727e-02 -1.108590215444564819e-01
1.080576106905937195e-01 1.019217893481254578e-01 -8.426432311534881592e-02
1.485348343849182129e-01 7.339484989643096924e-02 -3.127962946891784668e-01
9.856729209423065186e-02 7.188895344734191895e-02 1.191657483577728271e-01
9.690906852483749390e-02 5.468985438346862793e-02 -1.334895044565200806e-01
1.344245523214340210e-01 1.414795964956283569e-01 -1.525454372167587280e-01
1.520573794841766357e-01 1.720008552074432373e-01 -2.650203183293342590e-02
9.829962253570556641e-02 5.742622539401054382e-02 -1.466575115919113159e-01
1.544169634580612183e-01 1.727412939071655273e-01 7.633377611637115479e-02
1.503144949674606323e-01 1.711629629135131836e-01 3.661439195275306702e-02
