9.382706880569458008e-02 2.452656626701354980e-01 -8.961958438158035278e-02
-3.655713200569152832e-01 7.929820567369461060e-02 -5.557436943054199219e-01
-1.585170328617095947e-01 8.238621056079864502e-02 -6.143379211425781250e-01
-6.171482801437377930e-02 9.052875638008117676e-02 -5.541117191314697266e-01
-1.049965471029281616e-01 2.861700654029846191e-01 -8.808324486017227173e-02
-2.482606917619705200e-01 2.831166386604309082e-01 -1.149028092622756958e-01
-9.382744133472442627e-02 2.610414624214172363e-01 2.228161394596099854e-01
-5.172063708305358887e-01 2.105170637369155884e-01 -1.629302501678466797e-01
-5.072039961814880371e-01 2.119005173444747925e-01 -9.400621056556701660e-03
2.118984162807464600e-01 -3.357016444206237793e-01 6.378885507583618164e-01
6.651666164398193359e-01 -2.969568669795989990e-01 2.278047800064086914e-02
8.000603318214416504e-01 -3.709564805030822754e-01 1.632281094789505005e-01
5.085481405258178711e-01 -1.456733047962188721e-02 1.883900165557861328e-02
7.666488885879516602e-01 -1.688007563352584839e-01 5.291409492492675781e-01
9.883288145065307617e-01 -6.463766098022460938e-03 1.102966070175170898e-02
2.603463232517242432e-01 4.879444837570190430e-02 4.773925542831420898e-01
9.527931213378906250e-01 -2.747351825237274170e-01 1.636540293693542480e-01
4.556401371955871582e-01 -4.266995489597320557e-01 5.423340797424316406e-01
2.030619084835052490e-01 -4.339632987976074219e-01 3.640611171722412109e-01
9.282736778259277344e-01 -2.084584236145019531e-01 3.749231100082397461e-01
4.530287683010101318e-01 -3.232636749744415283e-01 6.295760869979858398e-01
5.083054900169372559e-01 -4.689821004867553711e-01 2.855007052421569824e-01
2.330855727195739746e-01 -6.838520616292953491e-02 1.788081973791122437e-01
5.723931789398193359e-01 -1.741028428077697754e-01 -1.711979508399963379e-02
9.605035781860351562e-01 -2.535343170166015625e-01 2.706191241741180420e-01
7.476108670234680176e-01 -2.242236137390136719e-01 5.307832956314086914e-01
3.397339582443237305e-02 -2.054458409547805786e-01 4.889191389083862305e-01
3.100857734680175781e-01 -4.408528506755828857e-01 5.460085868835449219e-01
7.146408557891845703e-01 -4.244202971458435059e-01 2.844398319721221924e-01
2.398097217082977295e-01 2.205657958984375000e-02 5.139169096946716309e-01
2.306852638721466064e-01 -4.506236016750335693e-01 3.804517686367034912e-01
7.995673418045043945e-01 -3.859952688217163086e-01 2.452395558357238770e-01
1.004636168479919434e+00 -1.323500722646713257e-01 3.452098369598388672e-02
1.823308169841766357e-01 -3.506793975830078125e-01 6.206202507019042969e-01
3.094454109668731689e-01 -4.687933921813964844e-01 3.557290136814117432e-01
6.175979971885681152e-02 -2.470465004444122314e-01 3.576770424842834473e-01
5.260106921195983887e-01 -2.628671824932098389e-01 6.292469501495361328e-01
6.791021823883056641e-01 -1.257696747779846191e-01 -4.521304368972778320e-02
1.662097275257110596e-01 -7.809847593307495117e-04 4.479714035987854004e-01
3.211503028869628906e-01 -4.762838184833526611e-01 4.149386286735534668e-01
8.257719874382019043e-01 3.392277657985687256e-02 -2.730101346969604492e-02
3.715053796768188477e-01 -4.801963567733764648e-01 4.181879460811614990e-01
5.537747740745544434e-01 1.247318387031555176e-01 1.114753931760787964e-01
7.966500520706176758e-01 9.863826632499694824e-02 3.967723548412322998e-01
2.082370817661285400e-01 -1.297565698623657227e-01 6.408582329750061035e-01
7.672595977783203125e-01 8.730652928352355957e-02 7.950663566589355469e-03
9.596339464187622070e-01 -1.394281834363937378e-01 3.636454343795776367e-01
2.096314132213592529e-01 -1.618281006813049316e-03 5.273861289024353027e-01
7.782643437385559082e-01 -2.484198510646820068e-01 5.001736879348754883e-01
3.583548367023468018e-01 -4.133618474006652832e-01 2.036285400390625000e-01
5.370223522186279297e-01 -4.371920824050903320e-01 1.946679800748825073e-01
1.490622162818908691e-01 -4.163584411144256592e-01 5.017201304435729980e-01
5.178872942924499512e-01 -4.220371544361114502e-01 1.680320501327514648e-01
2.394788563251495361e-01 -2.371080219745635986e-01 6.681014299392700195e-01
8.167014122009277344e-01 -6.913720071315765381e-02 -5.324572324752807617e-02
3.879439830780029297e-01 -4.335036873817443848e-01 2.203363031148910522e-01
7.685427665710449219e-01 -3.680258989334106445e-01 3.988982141017913818e-01
2.693999707698822021e-01 2.106104791164398193e-02 5.374488830566406250e-01
4.203116297721862793e-01 -2.795245051383972168e-01 6.747375428676605225e-02
7.484554648399353027e-01 -4.060303866863250732e-01 2.213084250688552856e-01
9.533994793891906738e-01 1.866599917411804199e-02 -7.977187633514404297e-04
1.729132235050201416e-01 -2.266785204410552979e-01 6.526135206222534180e-01
2.921189069747924805e-01 -1.419548839330673218e-01 1.099392622709274292e-01
2.931487858295440674e-01 3.644588589668273926e-02 2.069149166345596313e-01
5.425165891647338867e-01 1.516972184181213379e-01 3.856921494007110596e-01
7.149500250816345215e-01 -1.483212113380432129e-01 5.604289174079895020e-01
5.327197909355163574e-01 -3.710517287254333496e-01 5.708736777305603027e-01
9.967237710952758789e-01 -1.951509416103363037e-01 2.722711563110351562e-01
4.741125702857971191e-01 1.293831765651702881e-01 4.283320307731628418e-01
8.713325262069702148e-01 -2.349256873130798340e-01 4.246078729629516602e-01
1.001188158988952637e+00 -2.154024839401245117e-01 2.225290238857269287e-01
5.057777762413024902e-01 1.177550852298736572e-01 1.304290443658828735e-01
4.226775765419006348e-01 -4.708291292190551758e-01 2.958708703517913818e-01
3.148841857910156250e-01 -4.024249017238616943e-01 5.972858667373657227e-01
2.614066302776336670e-01 4.433773458003997803e-02 2.632811069488525391e-01
3.129308819770812988e-01 -4.679653346538543701e-01 4.764338731765747070e-01
2.096597254276275635e-01 -1.889647692441940308e-01 6.592396497726440430e-01
8.175162076950073242e-01 -4.052866995334625244e-02 4.809615015983581543e-01
1.044048428535461426e+00 -1.444229632616043091e-01 1.413411200046539307e-01
5.023288726806640625e-01 1.088159084320068359e-01 4.732265770435333252e-01
1.270576417446136475e-01 -1.572901904582977295e-01 2.611484825611114502e-01
4.927043318748474121e-01 -4.752885997295379639e-01 3.177749514579772949e-01
6.554217934608459473e-01 -4.122330844402313232e-01 1.623471975326538086e-01
8.261005878448486328e-01 6.493502855300903320e-02 4.124878346920013428e-01
3.722179532051086426e-01 -1.150958240032196045e-02 6.002337932586669922e-01
5.665643811225891113e-01 -4.216822981834411621e-02 5.962083339691162109e-01
8.751987814903259277e-01 1.499469876289367676e-01 1.551848351955413818e-01
2.820300459861755371e-01 -7.228523492813110352e-03 5.780353546142578125e-01
1.197217106819152832e-01 -3.837277293205261230e-01 3.836317658424377441e-01
8.222322463989257812e-01 1.062880158424377441e-01 2.816209197044372559e-02
1.653545200824737549e-01 -3.871470689773559570e-04 3.791535496711730957e-01
3.607814311981201172e-01 -1.918621659278869629e-01 6.704494953155517578e-01
7.703751325607299805e-02 -1.009160727262496948e-01 4.822570979595184326e-01
9.047378897666931152e-01 -2.449330687522888184e-01 3.907173871994018555e-02
3.837537765502929688e-02 -2.672560811042785645e-01 4.309266209602355957e-01
5.142315626144409180e-01 -3.288933634757995605e-02 6.039919853210449219e-01
6.607498526573181152e-01 7.958871126174926758e-02 4.827593564987182617e-01
7.457301616668701172e-01 -8.941958844661712646e-02 -5.361211299896240234e-02
4.855285584926605225e-01 -2.659866809844970703e-01 3.730714321136474609e-02
1.055314064025878906e+00 -2.125835418701171875e-02 1.384711712598800659e-01
7.394946813583374023e-01 -4.001927375793457031e-01 3.665439486503601074e-01
1.046399474143981934e-01 -7.528319954872131348e-02 5.081886649131774902e-01
8.879131674766540527e-01 -2.506144642829895020e-01 3.955425024032592773e-01
9.154704809188842773e-01 -2.618008255958557129e-01 3.477271497249603271e-01
1.021004319190979004e+00 -1.892373114824295044e-01 1.977186501026153564e-01
8.483700752258300781e-01 8.422859013080596924e-02 9.434819221496582031e-03
1.705946922302246094e-01 -4.280431866645812988e-01 4.060726463794708252e-01
6.704936027526855469e-01 -1.932918280363082886e-01 -3.047394752502441406e-02
9.056721925735473633e-01 1.306094229221343994e-01 1.092518568038940430e-01
7.510686516761779785e-01 1.603622436523437500e-01 1.145840287208557129e-01
6.828066110610961914e-01 -2.511246502399444580e-01 5.619789361953735352e-01
6.551807522773742676e-01 -1.745145022869110107e-02 -3.070682287216186523e-02
1.559186875820159912e-01 -2.667562961578369141e-01 6.442072391510009766e-01
9.769148826599121094e-01 5.790248513221740723e-02 2.670030891895294189e-01
6.756635904312133789e-01 -3.989163637161254883e-01 4.468167424201965332e-01
4.770419597625732422e-01 -4.793040156364440918e-01 3.644694387912750244e-01
3.761135339736938477e-01 -4.749087393283843994e-01 4.558073282241821289e-01
8.921025991439819336e-01 7.052460312843322754e-02 3.542627692222595215e-01
6.305012106895446777e-01 -4.515106678009033203e-01 2.967725396156311035e-01
4.171019792556762695e-02 -2.154214382171630859e-01 4.065492451190948486e-01
4.870373904705047607e-01 -3.670123815536499023e-01 1.056662499904632568e-01
6.322962045669555664e-01 8.660629391670227051e-03 -1.579096913337707520e-02
4.322440028190612793e-01 -4.791173636913299561e-01 4.183488786220550537e-01
6.960526704788208008e-01 -4.916846752166748047e-03 5.320864915847778320e-01
6.063890457153320312e-01 -3.497642576694488525e-01 7.018065452575683594e-02
8.447059392929077148e-01 -9.487129747867584229e-02 -4.980832338333129883e-02
9.220503568649291992e-01 -3.052565455436706543e-01 2.031391859054565430e-01
6.799377202987670898e-01 3.792242705821990967e-02 5.118626952171325684e-01
7.933173179626464844e-01 1.708768606185913086e-01 2.270862162113189697e-01
5.939863920211791992e-01 9.007349610328674316e-03 -4.141688346862792969e-03
5.331404805183410645e-01 1.393212676048278809e-01 1.507910937070846558e-01
9.730352163314819336e-01 -1.502603292465209961e-03 3.254490792751312256e-01
1.065209507942199707e-01 -6.988079100847244263e-02 3.698264062404632568e-01
3.416201174259185791e-01 -4.382313787937164307e-02 1.008738428354263306e-01
1.926595568656921387e-01 2.338719367980957031e-02 4.109053611755371094e-01
9.029518961906433105e-01 -3.022678196430206299e-01 3.062640428543090820e-01
4.982438385486602783e-01 -3.346436023712158203e-01 6.096612215042114258e-01
6.968978047370910645e-02 -1.285838037729263306e-01 3.841022253036499023e-01
8.240152597427368164e-01 6.424814462661743164e-03 4.557634592056274414e-01
6.373164653778076172e-01 9.798339009284973145e-02 4.244399070739746094e-02
5.584270358085632324e-01 -2.834146916866302490e-01 6.107453107833862305e-01
5.744737982749938965e-01 -4.493696391582489014e-01 4.307850003242492676e-01
4.130504131317138672e-01 -6.012111902236938477e-03 7.258999347686767578e-02
8.638310432434082031e-01 -1.323894411325454712e-01 -4.038017988204956055e-02
3.237027525901794434e-01 -4.951760172843933105e-03 1.368174254894256592e-01
9.803025722503662109e-01 -2.361653298139572144e-01 1.208111941814422607e-01
2.358867228031158447e-01 -3.742071390151977539e-01 2.356310039758682251e-01
5.309928059577941895e-01 -2.916164696216583252e-01 3.767895698547363281e-02
8.666912913322448730e-01 -3.451775312423706055e-01 2.040075361728668213e-01
3.653451204299926758e-01 -3.736749291419982910e-03 1.055245697498321533e-01
1.317194998264312744e-01 -1.010055467486381531e-01 2.807216644287109375e-01
5.430390238761901855e-01 1.669495999813079834e-01 2.363978326320648193e-01
3.027527630329132080e-01 -1.108401715755462646e-01 6.518403887748718262e-01
8.115014433860778809e-01 -2.865353822708129883e-01 4.490941166877746582e-01
5.968296527862548828e-01 1.533927023410797119e-01 1.416470408439636230e-01
5.053490996360778809e-01 1.547233462333679199e-01 3.603695333003997803e-01
1.026041030883789062e+00 -6.305108219385147095e-02 2.687956988811492920e-01
1.856051087379455566e-01 -3.970776796340942383e-01 3.100323379039764404e-01
6.260380148887634277e-01 1.714655160903930664e-01 1.803804636001586914e-01
3.236755132675170898e-01 -9.576196968555450439e-02 9.569174051284790039e-02
5.203127264976501465e-01 -4.602850377559661865e-01 4.431008100509643555e-01
4.422859251499176025e-01 9.995850920677185059e-02 4.804373383522033691e-01
2.522775232791900635e-01 -4.052420854568481445e-01 5.898576974868774414e-01
8.365461826324462891e-01 -3.651559352874755859e-01 2.570633292198181152e-01
1.081841588020324707e-01 -3.381723165512084961e-01 3.366417288780212402e-01
4.034087955951690674e-01 5.581513047218322754e-02 5.377519726753234863e-01
3.122626543045043945e-01 -2.093560397624969482e-01 6.730008125305175781e-01
9.934434890747070312e-01 4.664930701255798340e-02 5.181661248207092285e-02
5.568086504936218262e-01 1.111987233161926270e-02 1.011583209037780762e-02
8.029983043670654297e-01 -1.755295693874359131e-01 5.035476684570312500e-01
5.190125703811645508e-01 -2.090382874011993408e-01 6.089329719543457031e-03
1.035774230957031250e+00 8.074373006820678711e-03 2.046349793672561646e-01
3.360074758529663086e-01 9.666787087917327881e-02 2.702549993991851807e-01
6.770146489143371582e-01 -7.813864946365356445e-02 -4.564294219017028809e-02
7.010509371757507324e-01 1.806390881538391113e-01 2.101413309574127197e-01
5.702078342437744141e-01 -3.185354769229888916e-01 4.750928282737731934e-02
7.912476658821105957e-01 -9.449852257966995239e-02 -5.415600538253784180e-02
1.482746303081512451e-01 -1.341463625431060791e-02 4.098787903785705566e-01
4.637366235256195068e-01 1.521768271923065186e-01 2.970917820930480957e-01
8.577451109886169434e-02 -2.062981128692626953e-01 5.985898971557617188e-01
9.905066490173339844e-01 -1.337200552225112915e-01 3.225698471069335938e-01
9.293674826622009277e-01 8.724884688854217529e-02 2.935388684272766113e-01
2.772690355777740479e-01 -1.421947032213211060e-01 6.601135134696960449e-01
1.408331394195556641e-01 -3.881872892379760742e-01 3.545659482479095459e-01
8.691817522048950195e-02 -8.785940706729888916e-02 4.013310074806213379e-01
2.861629724502563477e-01 -3.765547871589660645e-01 2.021623104810714722e-01
2.684420347213745117e-01 -3.944842219352722168e-01 2.334387004375457764e-01
3.595830500125885010e-01 -4.791978895664215088e-01 3.738682270050048828e-01
5.795875787734985352e-01 -3.400645852088928223e-01 5.724072456359863281e-01
7.816486358642578125e-01 -2.601953744888305664e-01 4.666388034820556641e-03
7.467375993728637695e-01 -3.886454105377197266e-01 1.578328758478164673e-01
7.336230278015136719e-01 1.153918504714965820e-01 4.107514023780822754e-01
1.056256055831909180e+00 -7.887412607669830322e-02 1.825131624937057495e-01
8.840402960777282715e-01 1.049472391605377197e-01 4.203751683235168457e-02
7.564221024513244629e-01 2.322265505790710449e-02 4.863695204257965088e-01
3.805843591690063477e-01 -1.452995687723159790e-01 5.557408928871154785e-02
1.057396233081817627e-01 -1.810103952884674072e-01 2.848397493362426758e-01
7.630285024642944336e-01 -1.140222400426864624e-01 5.312186479568481445e-01
8.467282056808471680e-01 -2.676135599613189697e-01 4.284458160400390625e-01
4.874154925346374512e-01 -4.308410584926605225e-01 1.869898736476898193e-01
4.597587585449218750e-01 1.181285679340362549e-01 1.668206304311752319e-01
5.942857265472412109e-01 -3.932211995124816895e-01 5.166260600090026855e-01
8.315473794937133789e-01 1.386233866214752197e-01 3.069262504577636719e-01
1.038916707038879395e-01 -9.365791082382202148e-02 5.387606620788574219e-01
8.951960802078247070e-01 -3.261780738830566406e-01 2.334793508052825928e-01
7.190327644348144531e-01 -2.472004592418670654e-01 5.416607856750488281e-01
3.466339707374572754e-01 -4.187639951705932617e-01 5.771824717521667480e-01
4.358524680137634277e-01 -4.569470286369323730e-01 2.509084641933441162e-01
5.484680533409118652e-01 -4.686602950096130371e-01 3.095272779464721680e-01
9.087750315666198730e-02 -2.970934212207794189e-01 3.293620049953460693e-01
3.424286246299743652e-01 6.446169316768646240e-02 1.913982927799224854e-01
8.908934593200683594e-01 -1.002209931612014771e-01 -3.997969627380371094e-02
3.775458633899688721e-01 8.370263874530792236e-02 1.845121085643768311e-01
6.491145491600036621e-02 -3.314734697341918945e-01 4.185039997100830078e-01
2.285195887088775635e-01 4.746004939079284668e-02 3.594157397747039795e-01
4.366625249385833740e-01 -2.596665918827056885e-02 4.949972033500671387e-02
7.016854882240295410e-01 5.609117448329925537e-02 4.885822534561157227e-01
6.457955241203308105e-01 -1.516849249601364136e-01 -3.677600622177124023e-02
2.854589521884918213e-01 -4.698944985866546631e-01 4.385911822319030762e-01
5.851691961288452148e-01 7.629235088825225830e-02 5.072399377822875977e-01
4.421388804912567139e-01 5.781711637973785400e-02 5.393611192703247070e-01
4.870286583900451660e-01 8.479121327400207520e-02 9.887230396270751953e-02
2.848203480243682861e-01 -4.567757248878479004e-01 5.057448744773864746e-01
1.070990562438964844e-01 -5.637970566749572754e-02 4.236706495285034180e-01
8.514350652694702148e-01 1.143947243690490723e-01 3.343517184257507324e-01
6.255521774291992188e-01 -4.321067035198211670e-01 1.987473964691162109e-01
7.749280929565429688e-01 1.251842677593231201e-01 3.738179504871368408e-01
3.943182229995727539e-01 -1.456354409456253052e-01 6.614936590194702148e-01
2.911776304244995117e-01 -1.381580531597137451e-02 1.586095690727233887e-01
9.237152338027954102e-01 -6.082758307456970215e-03 -2.363866567611694336e-02
9.214977025985717773e-01 -6.002401560544967651e-02 4.036490321159362793e-01
7.308287620544433594e-01 1.285171806812286377e-01 5.631732940673828125e-02
4.603435993194580078e-01 5.798311531543731689e-02 8.865399658679962158e-02
3.500236272811889648e-01 -2.690604329109191895e-01 9.558223187923431396e-02
3.829807341098785400e-01 -4.779889583587646484e-01 3.451446294784545898e-01
1.343672275543212891e-01 -4.521721601486206055e-02 3.410425186157226562e-01
8.322973251342773438e-01 -3.193523287773132324e-01 8.440095186233520508e-02
2.504123449325561523e-01 -7.319029420614242554e-02 6.228021979331970215e-01
6.723886728286743164e-01 -4.354315102100372314e-01 2.493467181921005249e-01
9.340100884437561035e-01 -1.321575343608856201e-01 -1.709520816802978516e-02
5.991420745849609375e-01 1.018962264060974121e-01 4.744548499584197998e-01
1.538994908332824707e-01 -1.091705039143562317e-01 2.452532947063446045e-01
7.667669057846069336e-01 1.449054181575775146e-01 3.432665169239044189e-01
4.371936917304992676e-01 -3.697105646133422852e-01 6.058908104896545410e-01
8.620759844779968262e-01 -3.457776010036468506e-01 2.766736447811126709e-01
8.255995512008666992e-01 -3.690348565578460693e-01 2.060463726520538330e-01
3.824472129344940186e-01 1.257084608078002930e-01 3.144558370113372803e-01
7.283933758735656738e-01 -9.922321140766143799e-02 5.487699508666992188e-01
7.706025838851928711e-01 -3.687713742256164551e-01 1.303005516529083252e-01
3.780913352966308594e-02 -2.882905602455139160e-01 4.801129102706909180e-01
6.232672929763793945e-01 -3.210910856723785400e-01 5.621183514595031738e-01
8.843420743942260742e-01 -1.345155537128448486e-01 4.431770443916320801e-01
9.442093372344970703e-01 -9.148311614990234375e-02 3.851391971111297607e-01
4.359368681907653809e-01 1.432941257953643799e-01 3.382841348648071289e-01
7.437356710433959961e-01 1.785732805728912354e-01 2.199267446994781494e-01
2.719367444515228271e-01 -2.052794396877288818e-01 1.254624724388122559e-01
5.199245810508728027e-01 -2.116128802299499512e-03 5.850501060485839844e-01
4.879801273345947266e-01 -5.990167707204818726e-02 6.216913461685180664e-01
5.820208191871643066e-01 1.048858761787414551e-01 7.093977928161621094e-02
3.073209524154663086e-01 8.935761451721191406e-02 3.080882430076599121e-01
3.726154863834381104e-01 4.083637893199920654e-02 5.502748489379882812e-01
6.208713054656982422e-01 -4.383147358894348145e-01 4.159738123416900635e-01
2.729301750659942627e-01 -3.088288605213165283e-01 1.597113162279129028e-01
9.374307394027709961e-01 -2.837478518486022949e-01 2.614502012729644775e-01
7.632659077644348145e-01 -2.320608943700790405e-01 -1.557111740112304688e-02
4.540663957595825195e-02 -1.727741956710815430e-01 4.196316599845886230e-01
6.651331782341003418e-01 -3.572683930397033691e-01 5.082380771636962891e-01
5.174548625946044922e-01 4.770633578300476074e-02 4.889518022537231445e-02
4.626627564430236816e-01 -2.420268207788467407e-01 6.520820856094360352e-01
9.154303669929504395e-01 -1.806418299674987793e-01 4.031411409378051758e-01
4.806483089923858643e-01 -4.705194234848022461e-01 4.347134828567504883e-01
7.469427585601806641e-02 -3.217144608497619629e-01 3.789536952972412109e-01
1.327055394649505615e-01 -2.946376800537109375e-02 4.443995952606201172e-01
1.960296928882598877e-01 -8.778981864452362061e-02 2.068448215723037720e-01
5.494613647460937500e-01 -3.340322375297546387e-01 5.901000499725341797e-01
5.569894909858703613e-01 -6.005460768938064575e-02 -1.306736469268798828e-02
6.906296014785766602e-01 1.100638508796691895e-01 4.058694839477539062e-02
3.650006651878356934e-01 3.063619136810302734e-02 1.317777037620544434e-01
1.279747486114501953e-01 -2.735300064086914062e-01 2.683969438076019287e-01
5.909800529479980469e-01 5.010107159614562988e-02 5.309273004531860352e-01
7.921236753463745117e-01 -2.095751762390136719e-01 5.040065050125122070e-01
2.232273221015930176e-01 -2.064510285854339600e-01 1.620082706212997437e-01
4.909745156764984131e-01 -2.064492106437683105e-01 6.485090255737304688e-01
7.627242803573608398e-01 1.723605692386627197e-01 2.599541246891021729e-01
6.910729408264160156e-02 -2.878592610359191895e-01 5.759875774383544922e-01
2.981030344963073730e-01 7.577432692050933838e-02 2.760412991046905518e-01
5.511489510536193848e-02 -1.906586289405822754e-01 3.747012913227081299e-01
1.639243662357330322e-01 -4.749219119548797607e-02 5.516818165779113770e-01
8.273350596427917480e-01 -3.124938905239105225e-02 -4.859700798988342285e-02
5.390819907188415527e-01 -1.336354613304138184e-01 6.312653422355651855e-01
3.146631717681884766e-01 -3.318567872047424316e-01 1.483587473630905151e-01
5.399932861328125000e-01 -7.267568260431289673e-02 6.154928207397460938e-01
4.836565256118774414e-02 -2.528901398181915283e-01 3.900868892669677734e-01
1.423501372337341309e-01 -3.799230456352233887e-01 5.722076892852783203e-01
1.869748532772064209e-01 -2.689258456230163574e-01 2.070139646530151367e-01
2.058279812335968018e-01 -2.346149384975433350e-01 1.808631718158721924e-01
6.885352730751037598e-01 -3.892727941274642944e-02 5.511550903320312500e-01
6.220784783363342285e-01 1.477731168270111084e-01 1.171043217182159424e-01
9.972217082977294922e-01 -8.855067193508148193e-02 3.187866806983947754e-01
6.108194589614868164e-02 -2.858173847198486328e-01 3.764583468437194824e-01
5.200670957565307617e-01 8.524446189403533936e-02 8.015416562557220459e-02
3.298872709274291992e-02 -2.435159385204315186e-01 5.040071606636047363e-01
2.434842288494110107e-01 5.239519476890563965e-02 3.252549767494201660e-01
5.738106966018676758e-01 1.720254123210906982e-01 3.064378798007965088e-01
5.659846067428588867e-01 -4.594947099685668945e-01 2.651257812976837158e-01
2.439742386341094971e-01 -4.440320134162902832e-01 5.227355360984802246e-01
4.547303318977355957e-01 -3.252402544021606445e-01 8.108466863632202148e-02
3.857524991035461426e-01 9.542302787303924561e-02 4.698432981967926025e-01
3.047644197940826416e-01 -2.443875968456268311e-01 1.125346273183822632e-01
6.845010519027709961e-01 -4.284370839595794678e-01 3.603527843952178955e-01
7.511487007141113281e-01 -2.909452915191650391e-01 2.360847592353820801e-02
3.025208115577697754e-01 -4.081442356109619141e-01 2.276527285575866699e-01
4.155367016792297363e-01 1.290588080883026123e-01 2.470173537731170654e-01
6.897850036621093750e-01 1.543749570846557617e-01 1.075791418552398682e-01
5.009680986404418945e-01 1.611604690551757812e-01 3.028093874454498291e-01
9.024050831794738770e-02 -3.456728756427764893e-01 5.590735673904418945e-01
9.954558610916137695e-01 6.827145814895629883e-02 8.857695758342742920e-02
2.003978788852691650e-01 2.106207609176635742e-02 4.600967168807983398e-01
4.283409714698791504e-01 -3.984899520874023438e-01 1.564474403858184814e-01
6.069416999816894531e-01 -4.556941092014312744e-01 3.600229024887084961e-01
8.486192226409912109e-01 -3.378863334655761719e-01 3.368541896343231201e-01
9.743545055389404297e-01 -1.680905520915985107e-01 3.335799574851989746e-01
7.948737740516662598e-01 -3.840860128402709961e-01 3.071745038032531738e-01
5.164619684219360352e-01 -4.702829420566558838e-01 4.055761098861694336e-01
1.024708271026611328e+00 3.152522444725036621e-02 8.636331558227539062e-02
6.886346340179443359e-01 1.771103739738464355e-01 2.841979563236236572e-01
8.040339946746826172e-01 -1.166243329644203186e-01 5.053740143775939941e-01
1.048027992248535156e+00 -5.999495834112167358e-02 7.767075300216674805e-02
4.485512375831604004e-01 1.431162655353546143e-01 2.534990608692169189e-01
3.700497150421142578e-01 -6.279402226209640503e-02 6.331493258476257324e-01
4.925615787506103516e-01 7.314208149909973145e-02 5.222201943397521973e-01
2.187099754810333252e-01 -3.744466006755828857e-01 6.133197546005249023e-01
4.778085052967071533e-01 1.423719823360443115e-01 3.925761580467224121e-01
7.917020916938781738e-01 2.225638926029205322e-02 -3.364145755767822266e-02
4.231833219528198242e-01 -9.344290196895599365e-02 6.440407633781433105e-01
4.600724875926971436e-01 1.413430273532867432e-02 5.670773983001708984e-02
4.074710607528686523e-01 -4.134216159582138062e-02 6.209427714347839355e-01
6.329798102378845215e-01 3.462783992290496826e-02 5.312972068786621094e-01
7.048075795173645020e-01 -2.596529424190521240e-01 -2.467185258865356445e-03
6.793122887611389160e-01 -1.760878711938858032e-01 5.783580541610717773e-01
5.650724172592163086e-01 -1.850668638944625854e-01 6.265268325805664062e-01
5.191842317581176758e-01 -3.894104361534118652e-01 1.226927191019058228e-01
6.130393147468566895e-01 -1.139046549797058105e-01 -3.352406620979309082e-02
5.695037841796875000e-01 1.735831499099731445e-01 2.596922516822814941e-01
8.444454073905944824e-01 1.516684591770172119e-01 1.192716658115386963e-01
6.252948641777038574e-01 7.078260183334350586e-02 5.027741193771362305e-01
2.646127939224243164e-01 -3.564285486936569214e-02 1.679463088512420654e-01
7.638713717460632324e-01 1.754565238952636719e-01 1.857168376445770264e-01
4.470563828945159912e-01 -1.489371955394744873e-01 2.334812283515930176e-02
1.022932648658752441e+00 -9.906221181154251099e-02 2.749436199665069580e-01
3.302740454673767090e-01 9.356810152530670166e-02 4.299685359001159668e-01
6.094925403594970703e-01 -2.077433764934539795e-01 -1.680138707160949707e-02
5.469931364059448242e-01 -4.263850152492523193e-01 4.996885657310485840e-01
7.664430141448974609e-01 -1.938982307910919189e-02 5.038912892341613770e-01
9.162665605545043945e-01 1.067760586738586426e-02 3.799884021282196045e-01
3.815006613731384277e-01 -1.026197820901870728e-01 5.853644013404846191e-02
1.695116162300109863e-01 -2.165472507476806641e-02 5.168988704681396484e-01
6.693257093429565430e-01 -3.313839435577392578e-01 5.185011029243469238e-02
2.094482779502868652e-01 -1.691274344921112061e-01 1.725681722164154053e-01
1.004574775695800781e+00 7.147614657878875732e-02 1.502527296543121338e-01
8.634201288223266602e-01 -3.178637921810150146e-01 1.075061261653900146e-01
7.782969474792480469e-01 -3.790538907051086426e-01 3.611801266670227051e-01
3.693105578422546387e-01 -3.721808791160583496e-01 1.524641662836074829e-01
2.778986394405364990e-01 -4.316413998603820801e-01 5.580530762672424316e-01
4.001379609107971191e-01 -4.376813769340515137e-01 5.426329374313354492e-01
3.929633498191833496e-01 -4.580547213554382324e-01 2.677816748619079590e-01
7.469153404235839844e-01 -2.689793109893798828e-01 5.135092735290527344e-01
6.033564805984497070e-01 1.653509438037872314e-01 3.481204211711883545e-01
3.316934704780578613e-01 4.644322395324707031e-02 5.311577320098876953e-01
1.845380365848541260e-01 -4.237078428268432617e-01 5.305287837982177734e-01
5.655656456947326660e-01 -2.412861436605453491e-01 6.200177669525146484e-01
6.467543244361877441e-01 -1.543559879064559937e-01 5.939902067184448242e-01
7.726924419403076172e-01 -3.995525836944580078e-01 2.644280493259429932e-01
9.908127784729003906e-02 -1.415183693170547485e-01 5.811263322830200195e-01
6.810775399208068848e-01 -3.738620579242706299e-01 1.027435064315795898e-01
1.874524950981140137e-01 -1.350258886814117432e-01 1.982559263706207275e-01
6.076767444610595703e-01 -1.195176243782043457e-01 6.063987612724304199e-01
7.512997388839721680e-01 -3.423534929752349854e-01 7.804252207279205322e-02
8.844906687736511230e-01 -2.513490617275238037e-02 4.256438612937927246e-01
2.985540032386779785e-01 -2.899474501609802246e-01 1.337679475545883179e-01
1.499046981334686279e-01 -2.102349698543548584e-02 4.780921936035156250e-01
2.191908359527587891e-01 -1.738104224205017090e-02 2.327906489372253418e-01
1.724386811256408691e-01 -3.135614991188049316e-01 2.419689744710922241e-01
6.954572200775146484e-01 2.923014760017395020e-02 -2.097171545028686523e-02
6.364083886146545410e-01 1.246362328529357910e-01 4.336466491222381592e-01
1.041440844535827637e+00 -9.355792403221130371e-02 2.337836027145385742e-01
7.500538229942321777e-01 -1.875733137130737305e-01 -3.621330857276916504e-02
8.517326712608337402e-01 -2.250570058822631836e-02 4.501743912696838379e-01
7.384919524192810059e-01 1.631038784980773926e-01 3.153063952922821045e-01
1.042778491973876953e+00 -4.384040832519531250e-03 8.863982558250427246e-02
4.823619425296783447e-01 -1.467354893684387207e-01 6.476750373840332031e-01
2.292176783084869385e-01 -2.907114028930664062e-01 1.813552081584930420e-01
2.611558735370635986e-01 -3.627991378307342529e-01 6.289380788803100586e-01
2.042018175125122070e-01 2.631983160972595215e-02 3.426428437232971191e-01
5.047563314437866211e-01 -1.528780013322830200e-01 7.140934467315673828e-04
2.606088519096374512e-01 -8.662942796945571899e-02 1.459436863660812378e-01
3.889055252075195312e-01 1.091155409812927246e-01 2.230172455310821533e-01
6.683827638626098633e-01 -2.833555340766906738e-01 5.572364330291748047e-01
5.992251038551330566e-01 -4.021279513835906982e-01 1.342705339193344116e-01
5.510622859001159668e-01 -4.494663774967193604e-01 2.250654846429824829e-01
8.845243453979492188e-01 1.167136132717132568e-01 2.975709736347198486e-01
4.113308191299438477e-01 -7.702861726284027100e-02 4.697531461715698242e-02
7.272926568984985352e-01 -2.218879759311676025e-02 -4.423156380653381348e-02
4.015975892543792725e-01 -4.162868559360504150e-01 5.712591409683227539e-01
8.549350500106811523e-01 9.125903248786926270e-02 3.633634746074676514e-01
1.009682059288024902e+00 1.313892006874084473e-02 4.173028469085693359e-02
1.362090408802032471e-01 -3.206730484962463379e-01 2.848342061042785645e-01
6.806234717369079590e-01 1.744046211242675781e-01 1.690087616443634033e-01
4.604784846305847168e-01 9.598591923713684082e-02 1.305734664201736450e-01
7.185447216033935547e-02 -3.546990156173706055e-01 4.624800086021423340e-01
5.286778211593627930e-01 -1.124911606311798096e-01 -8.927822113037109375e-03
7.540708780288696289e-01 1.390375196933746338e-02 -3.539255261421203613e-02
9.480820894241333008e-01 1.156261861324310303e-01 1.815275549888610840e-01
6.089529395103454590e-01 -2.938264012336730957e-01 2.470242977142333984e-02
9.992773532867431641e-01 5.723094940185546875e-02 2.248590588569641113e-01
1.014160215854644775e-01 -2.701723277568817139e-01 3.004631400108337402e-01
3.457082509994506836e-01 7.572762668132781982e-02 4.888774752616882324e-01
4.747479856014251709e-01 -1.097139865159988403e-01 1.192754507064819336e-02
8.906530141830444336e-01 -8.381576091051101685e-02 4.360179901123046875e-01
7.336920499801635742e-02 -1.030394732952117920e-01 4.324510693550109863e-01
9.064030647277832031e-01 -2.848213911056518555e-01 9.341259300708770752e-02
7.596566677093505859e-01 -1.518035233020782471e-01 -4.655802249908447266e-02
6.019721031188964844e-01 -2.064869254827499390e-01 6.111063957214355469e-01
9.502484798431396484e-01 1.050669550895690918e-01 9.616091847419738770e-02
4.603680074214935303e-01 -3.887505233287811279e-01 5.833021402359008789e-01
2.414286434650421143e-01 -4.576282799243927002e-01 4.672412872314453125e-01
6.331824660301208496e-01 -2.475908994674682617e-01 -4.572927951812744141e-03
1.787460744380950928e-01 -2.137692719697952271e-01 2.014928758144378662e-01
8.121998310089111328e-01 -2.471275180578231812e-01 4.735107123851776123e-01
7.237879633903503418e-01 -3.594443947076797485e-02 5.333921909332275391e-01
3.510375022888183594e-01 1.131447851657867432e-01 3.592705130577087402e-01
3.510619997978210449e-01 -4.570512473583221436e-01 5.136594176292419434e-01
6.180886626243591309e-01 -1.737160682678222656e-01 6.064696311950683594e-01
5.837842226028442383e-01 -4.345782101154327393e-01 1.930357813835144043e-01
4.351371526718139648e-01 -1.525086611509323120e-01 6.575040817260742188e-01
5.864127278327941895e-01 -3.699216544628143311e-01 9.248372912406921387e-02
6.626886725425720215e-01 -3.225311636924743652e-01 5.382279157638549805e-01
4.975235760211944580e-01 1.379451155662536621e-02 3.720605373382568359e-02
8.180380463600158691e-01 -2.636348307132720947e-01 1.592949032783508301e-02
7.326160669326782227e-01 -3.696266114711761475e-01 1.115509271621704102e-01
2.995037138462066650e-01 -3.721006512641906738e-01 6.239395141601562500e-01
8.219942450523376465e-02 -1.453254818916320801e-01 3.371467292308807373e-01
4.188382923603057861e-01 1.385292708873748779e-01 3.030568957328796387e-01
4.285888075828552246e-01 3.950634598731994629e-02 9.315900504589080811e-02
3.382689952850341797e-01 -1.454943120479583740e-01 7.972022891044616699e-02
2.968996763229370117e-01 4.160606861114501953e-02 5.218777656555175781e-01
4.302187860012054443e-01 -3.489159345626831055e-01 1.073282659053802490e-01
1.319474577903747559e-01 -2.997146844863891602e-01 6.247813701629638672e-01
5.192263126373291016e-01 -7.874390482902526855e-02 -2.602308988571166992e-03
4.402630329132080078e-01 1.378268897533416748e-01 3.820858895778656006e-01
5.775251984596252441e-01 1.673426032066345215e-01 1.983375847339630127e-01
1.832410395145416260e-01 -1.123330593109130859e-01 6.222264170646667480e-01
4.773408770561218262e-01 -4.292908310890197754e-02 2.298453450202941895e-02
5.945869684219360352e-01 2.079193294048309326e-02 5.527860522270202637e-01
5.935961604118347168e-01 -2.583260834217071533e-01 6.636738777160644531e-03
8.363890647888183594e-01 1.614432334899902344e-01 2.158366441726684570e-01
9.445039033889770508e-01 -1.974483132362365723e-01 2.423971891403198242e-02
8.603351116180419922e-01 1.364937722682952881e-01 8.619871735572814941e-02
8.119007349014282227e-01 -1.899274587631225586e-01 -3.038379549980163574e-02
8.647719621658325195e-01 1.388885378837585449e-01 2.703976333141326904e-01
3.423964083194732666e-01 -8.969531953334808350e-02 6.454962491989135742e-01
3.022108674049377441e-01 -2.007500976324081421e-01 1.047638505697250366e-01
4.171175956726074219e-01 -3.166615068912506104e-01 6.412453651428222656e-01
5.507779717445373535e-01 -2.388916909694671631e-01 7.159620523452758789e-03
2.862854897975921631e-01 6.684373319149017334e-02 4.599514603614807129e-01
2.254174649715423584e-01 2.365203201770782471e-02 2.834781706333160400e-01
1.855513155460357666e-01 -3.393541276454925537e-02 2.610009908676147461e-01
1.184664666652679443e-01 -4.007252752780914307e-01 4.726621508598327637e-01
8.036683201789855957e-01 -3.455619215965270996e-01 1.084650754928588867e-01
5.711358189582824707e-01 -1.167353764176368713e-01 -2.248436212539672852e-02
1.028985977172851562e+00 -1.250505596399307251e-01 6.425647437572479248e-02
6.763598918914794922e-01 1.160919368267059326e-01 4.339075684547424316e-01
8.992748260498046875e-01 1.307989954948425293e-01 2.437843084335327148e-01
6.857419013977050781e-01 1.522533595561981201e-01 3.676337003707885742e-01
5.379168987274169922e-01 6.191559135913848877e-02 5.303462743759155273e-01
7.479144334793090820e-01 -3.392429351806640625e-01 4.601229429244995117e-01
5.344021320343017578e-02 -3.219119310379028320e-01 5.073506236076354980e-01
9.083566069602966309e-02 -3.690904974937438965e-01 4.221987426280975342e-01
5.051721334457397461e-01 -4.592052102088928223e-01 2.486366778612136841e-01
4.644583463668823242e-01 -9.954874217510223389e-02 6.404507756233215332e-01
8.471417427062988281e-01 -7.705091685056686401e-02 4.698522686958312988e-01
5.966963171958923340e-01 1.250508725643157959e-01 4.413383603096008301e-01
8.125011920928955078e-01 -2.243034690618515015e-01 -1.295834779739379883e-02
3.396447896957397461e-01 -3.806496858596801758e-01 6.154924631118774414e-01
8.991876840591430664e-01 -1.479541063308715820e-01 -2.586600184440612793e-02
3.329913616180419922e-01 -3.827335238456726074e-01 1.808170378208160400e-01
7.225514650344848633e-01 6.786507368087768555e-02 -2.677798271179199219e-03
9.792333245277404785e-01 -1.144920587539672852e-01 3.893464803695678711e-03
5.769113302230834961e-01 5.539271235466003418e-02 2.825319766998291016e-02
8.957796096801757812e-01 -3.831245005130767822e-02 -3.891566395759582520e-02
8.252210617065429688e-01 1.428505778312683105e-01 8.547075092792510986e-02
1.790651082992553711e-01 -1.569990217685699463e-01 6.412717103958129883e-01
2.084023952484130859e-01 -3.416529893875122070e-01 2.291170954704284668e-01
5.500239133834838867e-02 -2.024540156126022339e-01 5.570687055587768555e-01
6.680896282196044922e-01 -4.249178469181060791e-01 2.007731795310974121e-01
8.705003261566162109e-01 -2.635352015495300293e-01 3.731533885002136230e-02
1.434408426284790039e-01 -1.877884119749069214e-01 6.346997022628784180e-01
4.739026725292205811e-01 -1.943509131669998169e-01 1.804164052009582520e-02
2.443889081478118896e-01 -4.599407613277435303e-01 4.123679697513580322e-01
6.153993606567382812e-01 -8.472640812397003174e-02 5.959298014640808105e-01
6.510886549949645996e-01 1.698300540447235107e-01 3.279558718204498291e-01
9.776793718338012695e-01 2.525624632835388184e-02 3.005264401435852051e-01
7.160840034484863281e-01 -2.084638178348541260e-01 5.542618036270141602e-01
5.066967010498046875e-01 -9.820246696472167969e-02 6.317211389541625977e-01
1.038565516471862793e+00 2.061711251735687256e-02 1.668663173913955688e-01
5.724837183952331543e-01 -1.430275291204452515e-01 6.220796704292297363e-01
1.323775947093963623e-01 -1.525295674800872803e-01 6.155455112457275391e-01
1.044173479080200195e+00 -1.389037966728210449e-01 1.877413094043731689e-01
9.148910045623779297e-01 6.694610416889190674e-02 1.344045996665954590e-02
3.047569394111633301e-01 2.109513878822326660e-01 5.335822105407714844e-01
5.354003906250000000e-01 3.128764629364013672e-01 1.113141775131225586e-01
3.757791221141815186e-01 -1.817800104618072510e-02 5.239008665084838867e-01
1.375934779644012451e-01 2.540209889411926270e-01 3.807928860187530518e-01
5.409373044967651367e-01 4.940913617610931396e-02 2.922920882701873779e-01
3.744237422943115234e-01 -1.699490845203399658e-02 3.275625407695770264e-01
4.243423342704772949e-01 1.239147037267684937e-02 2.765542268753051758e-01
-2.211132645606994629e-02 1.860040426254272461e-01 2.824783325195312500e-01
3.311054110527038574e-01 -4.550620913505554199e-02 4.458195567131042480e-01
1.454727649688720703e-01 -5.824168026447296143e-02 6.101182699203491211e-01
2.921292781829833984e-01 2.692166566848754883e-01 4.311878383159637451e-01
3.311575949192047119e-02 2.186254858970642090e-01 2.792416810989379883e-01
4.645159244537353516e-01 2.553834021091461182e-01 4.599563181400299072e-01
6.772853136062622070e-01 1.623543202877044678e-01 1.982073038816452026e-01
6.240448951721191406e-01 2.583249509334564209e-01 3.930805623531341553e-01
-8.798420429229736328e-03 -3.960138559341430664e-02 3.176213204860687256e-01
4.444353282451629639e-01 -6.136342883110046387e-03 4.096199572086334229e-01
4.619407653808593750e-02 8.312518894672393799e-02 1.769956946372985840e-01
6.512008905410766602e-01 3.091073632240295410e-01 2.679316699504852295e-01
5.836318731307983398e-01 3.037206530570983887e-01 1.063019335269927979e-01
1.376492232084274292e-01 2.641840279102325439e-01 2.724375724792480469e-01
-1.044924557209014893e-01 -5.062572658061981201e-02 3.868803977966308594e-01
1.894372701644897461e-02 -4.454988241195678711e-02 3.182906210422515869e-01
9.370903670787811279e-02 2.210559993982315063e-01 4.498043060302734375e-01
6.248511075973510742e-01 8.900006860494613647e-02 3.532268404960632324e-01
1.002773195505142212e-01 -5.886162817478179932e-02 6.223829984664916992e-01
5.402053594589233398e-01 4.302636533975601196e-02 3.206494748592376709e-01
6.894429922103881836e-01 1.435042023658752441e-01 3.110216856002807617e-01
-1.485693752765655518e-01 5.459710955619812012e-02 5.516504049301147461e-01
4.898465275764465332e-01 3.315144777297973633e-01 1.713452190160751343e-01
1.173613816499710083e-01 -5.867153406143188477e-03 2.385555207729339600e-01
6.761388778686523438e-01 1.359670758247375488e-01 3.537001609802246094e-01
-3.849861025810241699e-02 -1.897776126861572266e-02 6.457549333572387695e-01
1.730931997299194336e-01 2.764702439308166504e-01 2.728418409824371338e-01
2.705494761466979980e-01 1.423054635524749756e-01 6.033431291580200195e-01
6.336674690246582031e-01 2.342065572738647461e-01 4.125312566757202148e-01
2.738765478134155273e-01 -1.836284995079040527e-02 2.733761668205261230e-01
5.656854510307312012e-01 5.251333862543106079e-02 3.446797132492065430e-01
-7.314985990524291992e-02 8.010342717170715332e-02 5.866882801055908203e-01
2.913689613342285156e-01 -3.678274154663085938e-02 3.312484920024871826e-01
1.033291518688201904e-01 -7.831488549709320068e-02 4.000934660434722900e-01
3.709026575088500977e-01 1.080482453107833862e-01 1.099554002285003662e-01
2.916367650032043457e-01 2.253198176622390747e-01 5.129837989807128906e-01
2.132923305034637451e-01 2.515360713005065918e-01 4.450870454311370850e-01
4.095122218132019043e-01 5.846161022782325745e-02 1.757788509130477905e-01
3.195191919803619385e-01 2.984830141067504883e-01 3.561380505561828613e-01
3.568625152111053467e-01 3.128127455711364746e-01 1.633541435003280640e-01
3.632970452308654785e-01 -3.218157589435577393e-02 4.868807494640350342e-01
6.773115396499633789e-01 2.571525573730468750e-01 3.505056798458099365e-01
6.858506202697753906e-01 1.902748197317123413e-01 3.829686641693115234e-01
6.173444986343383789e-01 1.484314799308776855e-01 4.591523706912994385e-01
3.134264945983886719e-01 -2.302327752113342285e-02 5.741237998008728027e-01
-6.234112381935119629e-02 -5.052091181278228760e-02 6.253054141998291016e-01
2.547962069511413574e-01 -4.935184121131896973e-02 5.659841299057006836e-01
1.104298830032348633e-01 2.545240223407745361e-01 2.877075970172882080e-01
1.119798570871353149e-01 2.131911367177963257e-02 2.048923224210739136e-01
7.006192803382873535e-01 2.323539555072784424e-01 1.535477489233016968e-01
4.270853400230407715e-01 1.006872579455375671e-01 1.263414323329925537e-01
4.221535325050354004e-01 3.131868243217468262e-01 3.367935121059417725e-01
4.220806360244750977e-01 2.622103691101074219e-01 4.552816748619079590e-01
4.569689035415649414e-01 1.535746455192565918e-02 2.989560067653656006e-01
-1.686555743217468262e-01 7.564722746610641479e-02 4.773136079311370850e-01
5.921553373336791992e-01 2.943573594093322754e-01 3.527550399303436279e-01
5.657037496566772461e-01 3.257984817028045654e-01 2.721013426780700684e-01
2.227748036384582520e-01 2.700700759887695312e-01 3.985368609428405762e-01
2.828739881515502930e-01 3.915868699550628662e-02 1.764090210199356079e-01
2.561051547527313232e-01 1.604624092578887939e-03 2.297979593276977539e-01
2.187631577253341675e-01 1.116036921739578247e-01 1.128654628992080688e-01
-1.640017032623291016e-01 1.765460520982742310e-02 3.598302900791168213e-01
4.374626278877258301e-01 3.312543034553527832e-01 2.134680896997451782e-01
4.883300662040710449e-01 3.169119358062744141e-01 3.265189230442047119e-01
5.807622671127319336e-01 7.054533809423446655e-02 2.830544114112854004e-01
3.761836588382720947e-01 2.102352678775787354e-03 2.704459130764007568e-01
6.835741996765136719e-01 2.695052623748779297e-01 1.351405829191207886e-01
3.306114077568054199e-01 1.680575311183929443e-03 2.493896335363388062e-01
4.598689675331115723e-01 3.178457021713256836e-01 3.239234387874603271e-01
6.553210020065307617e-01 2.135999500751495361e-01 1.216568052768707275e-01
-1.185910701751708984e-01 -3.103773295879364014e-02 6.108520030975341797e-01
4.901901483535766602e-01 2.673687785863876343e-02 4.816609919071197510e-01
4.758067429065704346e-02 2.013035267591476440e-01 4.633308351039886475e-01
5.231003761291503906e-01 6.445299088954925537e-02 2.273580878973007202e-01
-3.073412179946899414e-02 -6.248736381530761719e-02 6.215522885322570801e-01
3.526954948902130127e-01 2.179145216941833496e-01 5.238239765167236328e-01
1.324131041765213013e-01 -7.290731370449066162e-02 5.852950811386108398e-01
2.467381656169891357e-01 -3.075321018695831299e-02 6.046837568283081055e-01
3.112926185131072998e-01 2.559766769409179688e-01 9.034347534179687500e-02
3.001849651336669922e-01 -5.426675081253051758e-02 4.547774493694305420e-01
8.391830325126647949e-02 -7.274417579174041748e-02 3.779278397560119629e-01
4.687234759330749512e-02 2.284553647041320801e-01 3.276154696941375732e-01
4.674932062625885010e-01 3.326559066772460938e-01 1.927407383918762207e-01
7.080234289169311523e-01 1.843886375427246094e-01 3.403121232986450195e-01
2.475196272134780884e-01 2.965114414691925049e-01 2.924668788909912109e-01
8.523547649383544922e-02 2.445861697196960449e-01 3.198943734169006348e-01
5.103318095207214355e-01 4.019217193126678467e-02 2.797877192497253418e-01
-1.879200339317321777e-02 -8.757209777832031250e-02 4.474109113216400146e-01
2.661741971969604492e-01 -3.496810793876647949e-02 3.123280107975006104e-01
2.950252890586853027e-01 -4.705370962619781494e-02 5.320464372634887695e-01
6.992276906967163086e-01 2.122421264648437500e-01 3.598568439483642578e-01
1.877993047237396240e-01 -4.566994309425354004e-02 6.123748421669006348e-01
4.559904932975769043e-01 3.315281867980957031e-01 2.470992505550384521e-01
4.708154499530792236e-02 -7.447275519371032715e-02 6.062918901443481445e-01
-2.404800057411193848e-02 1.383641660213470459e-01 5.394574403762817383e-01
2.447258383035659790e-01 2.837776839733123779e-01 1.703358143568038940e-01
6.163709163665771484e-01 8.558064699172973633e-02 3.075469434261322021e-01
4.091622829437255859e-01 2.824173569679260254e-01 8.482444286346435547e-02
1.900526732206344604e-01 1.961774080991744995e-01 1.069505810737609863e-01
1.486651748418807983e-01 1.885702610015869141e-01 5.417406558990478516e-01
7.026766538619995117e-01 2.616394162178039551e-01 3.125221431255340576e-01
6.038239598274230957e-02 -9.045268595218658447e-02 5.527893304824829102e-01
-9.388297796249389648e-03 -2.156998217105865479e-02 6.510728597640991211e-01
1.010173410177230835e-01 2.409839630126953125e-01 3.890705406665802002e-01
-9.255212545394897461e-02 -8.482933044433593750e-02 5.094064474105834961e-01
4.285989701747894287e-02 -6.154486536979675293e-02 3.493950664997100830e-01
1.712479293346405029e-01 2.748951017856597900e-01 3.075681030750274658e-01
1.820478141307830811e-01 -7.436856627464294434e-02 5.463525652885437012e-01
2.598694562911987305e-01 1.310199499130249023e-02 6.338877677917480469e-01
2.034578621387481689e-01 -6.348475813865661621e-02 5.680773258209228516e-01
4.199321866035461426e-01 3.287646770477294922e-01 2.477012127637863159e-01
5.083488821983337402e-01 2.616224288940429688e-01 6.598371267318725586e-02
1.851579695940017700e-01 1.511004418134689331e-01 5.946581363677978516e-01
-1.102569699287414551e-01 -2.291961014270782471e-02 3.454259037971496582e-01
2.050084173679351807e-01 2.391931712627410889e-01 4.697723686695098877e-01
4.781607091426849365e-01 2.946442663669586182e-01 8.705618977546691895e-02
-1.037146151065826416e-01 7.616025209426879883e-02 5.693210363388061523e-01
