4.470710083842277527e-02 3.203442692756652832e-01 -3.502513840794563293e-02
2.982253767549991608e-02 3.192140758037567139e-01 -5.330496467649936676e-03
1.034871786832809448e-01 3.494526147842407227e-01 1.317616645246744156e-02
1.151722967624664307e-01 3.313786983489990234e-01 8.017685264348983765e-02
8.924544602632522583e-02 3.240583240985870361e-01 3.758596628904342651e-02
1.183401644229888916e-01 3.318696618080139160e-01 -1.792633533477783203e-02
-5.881074815988540649e-03 3.248608708381652832e-01 8.695668727159500122e-02
1.030121743679046631e-02 3.195308446884155273e-01 -3.467433154582977295e-03
1.007007211446762085e-01 3.268063664436340332e-01 -1.800141111016273499e-02
7.180551439523696899e-02 3.286548554897308350e-01 -1.101841405034065247e-01
1.906476542353630066e-02 3.217607438564300537e-01 -7.304938882589340210e-02
1.120344176888465881e-01 3.434039056301116943e-01 -6.815114617347717285e-02
4.386588186025619507e-02 3.434480428695678711e-01 -1.147358417510986328e-01
1.425189897418022156e-02 3.205135464668273926e-01 -4.796673357486724854e-02
8.604529500007629395e-02 3.248521089553833008e-01 -3.905993327498435974e-02
1.636832207441329956e-02 3.225676119327545166e-01 9.947442263364791870e-02
2.806238271296024323e-02 3.271239101886749268e-01 1.412197500467300415e-01
6.976804882287979126e-02 3.254736065864562988e-01 1.222669109702110291e-01
1.232977360486984253e-01 3.326540291309356689e-01 3.625668957829475403e-02
-4.828039556741714478e-03 3.264609277248382568e-01 -9.401154518127441406e-02
5.853670462965965271e-02 3.208874166011810303e-01 -2.179785445332527161e-02
5.778648704290390015e-02 3.426351249217987061e-01 1.421420127153396606e-01
3.100682049989700317e-03 3.237594664096832275e-01 -8.445136994123458862e-02
3.646880388259887695e-03 3.432970643043518066e-01 3.086891025304794312e-02
1.084393262863159180e-01 3.288079202175140381e-01 -2.072938159108161926e-02
8.669554442167282104e-02 3.235906660556793213e-01 2.774723246693611145e-02
9.444221854209899902e-02 3.351369500160217285e-01 -1.081283017992973328e-01
8.912962675094604492e-02 3.436981141567230225e-01 -1.028726175427436829e-01
-1.260166242718696594e-02 3.230424821376800537e-01 4.616989940404891968e-02
6.694803386926651001e-02 3.213613629341125488e-01 4.641739279031753540e-02
-1.903995499014854431e-02 3.269578516483306885e-01 6.148259341716766357e-02
-2.400755882263183594e-03 3.362567722797393799e-01 1.009395644068717957e-01
1.057491451501846313e-02 3.199700713157653809e-01 4.490376263856887817e-02
-8.339479565620422363e-03 3.402982950210571289e-01 -3.878731653094291687e-02
-2.986773848533630371e-03 3.212555646896362305e-01 4.515783488750457764e-02
1.053709089756011963e-01 3.311944901943206787e-01 1.122845783829689026e-01
7.050494104623794556e-02 3.214912116527557373e-01 2.185477688908576965e-02
1.107624396681785583e-01 3.483121097087860107e-01 4.307541251182556152e-02
7.596462219953536987e-02 3.492290973663330078e-01 -5.159467086195945740e-02
2.300199866294860840e-02 3.242394030094146729e-01 -1.020834818482398987e-01
-1.297567412257194519e-02 3.379803895950317383e-01 -5.499366298317909241e-02
6.315183639526367188e-02 3.263792097568511963e-01 1.360762864351272583e-01
-2.089604362845420837e-02 3.240822553634643555e-01 6.393063813447952271e-03
1.239931434392929077e-01 3.335586786270141602e-01 -2.863892354071140289e-03
8.659994602203369141e-02 3.345602750778198242e-01 1.545356214046478271e-01
2.842158079147338867e-03 3.255133628845214844e-01 -9.862514585256576538e-02
4.471051320433616638e-02 3.195345103740692139e-01 9.764171205461025238e-03
1.809769868850708008e-02 3.256655931472778320e-01 -1.113982647657394409e-01
5.960410833358764648e-02 3.497071266174316406e-01 -3.096901252865791321e-02
1.060362458229064941e-01 3.462966382503509521e-01 -5.876180157065391541e-02
5.500694364309310913e-02 3.470427393913269043e-01 -8.404228091239929199e-02
2.427043765783309937e-02 3.213150203227996826e-01 -6.737211346626281738e-02
5.088255181908607483e-02 3.493340909481048584e-01 -2.831095084547996521e-02
1.642667874693870544e-02 3.452601730823516846e-01 -4.561060667037963867e-02
3.861910477280616760e-02 3.402159512042999268e-01 -1.312859505414962769e-01
-2.558019384741783142e-02 3.279906809329986572e-01 -3.556507453322410583e-02
-1.977859064936637878e-02 3.238339424133300781e-01 1.477197743952274323e-02
1.467235386371612549e-03 3.201315999031066895e-01 1.696793735027313232e-02
7.163195312023162842e-02 3.473261296749114990e-01 -8.318174630403518677e-02
5.138999968767166138e-02 3.487983047962188721e-01 5.896176025271415710e-02
4.989225789904594421e-02 3.495520353317260742e-01 -1.059924717992544174e-02
1.245155483484268188e-01 3.452881872653961182e-01 4.256943240761756897e-02
-8.480325341224670410e-03 3.237318098545074463e-01 7.006639987230300903e-02
9.948814660310745239e-02 3.270593285560607910e-01 -3.068800270557403564e-02
1.909953355789184570e-02 3.436500728130340576e-01 -8.375581353902816772e-02
1.011960208415985107e-01 3.288950026035308838e-01 -5.390984192490577698e-02
2.980412170290946960e-02 3.443579375743865967e-01 9.892371296882629395e-02
3.775135055184364319e-02 3.192945420742034912e-01 4.131996538490056992e-03
3.404847532510757446e-02 3.248387873172760010e-01 1.299912184476852417e-01
3.077238239347934723e-02 3.369790613651275635e-01 1.498849689960479736e-01
1.317935734987258911e-01 3.394255042076110840e-01 2.211708202958106995e-02
1.618415117263793945e-03 3.432959616184234619e-01 4.289893899112939835e-03
7.721272110939025879e-02 3.504152297973632812e-01 3.176297247409820557e-02
1.792274415493011475e-02 3.460972309112548828e-01 -1.981801167130470276e-02
9.599268436431884766e-02 3.285245001316070557e-01 1.104201748967170715e-01
1.105307340621948242e-01 3.478238582611083984e-01 -2.292886748909950256e-02
7.999008148908615112e-02 3.246360421180725098e-01 -5.359924212098121643e-02
8.105887472629547119e-02 3.227790296077728271e-01 1.633035205304622650e-02
2.522630989551544189e-02 3.193697333335876465e-01 -1.701263710856437683e-02
6.929774582386016846e-02 3.263794779777526855e-01 1.312606632709503174e-01
1.212824285030364990e-01 3.318439424037933350e-01 1.536707859486341476e-02
8.643893152475357056e-02 3.496331870555877686e-01 -3.504621982574462891e-02
6.085572019219398499e-02 3.491808176040649414e-01 -4.889404401183128357e-02
9.562533348798751831e-02 3.500372171401977539e-01 2.155737951397895813e-02
4.618063569068908691e-03 3.202283382415771484e-01 3.856353834271430969e-02
7.180392742156982422e-03 3.198665380477905273e-01 3.102680295705795288e-02
5.181261524558067322e-02 3.296082317829132080e-01 -1.310056149959564209e-01
1.174740642309188843e-01 3.444799780845642090e-01 8.773697912693023682e-02
4.151844978332519531e-02 3.461483120918273926e-01 -8.525183051824569702e-02
7.970245182514190674e-02 3.282934725284576416e-01 1.355043947696685791e-01
1.026482284069061279e-01 3.286003768444061279e-01 -4.465101286768913269e-02
5.580499395728111267e-02 3.373341262340545654e-01 1.627373248338699341e-01
1.589076220989227295e-02 3.459172248840332031e-01 -3.316964022815227509e-03
9.692946076393127441e-02 3.450199961662292480e-01 1.182712689042091370e-01
8.787050843238830566e-02 3.262792229652404785e-01 -5.850347504019737244e-02
9.556363523006439209e-02 3.295927345752716064e-01 -7.704244554042816162e-02
-9.003020823001861572e-04 3.424596786499023438e-01 2.393049187958240509e-02
-1.015304028987884521e-02 3.392713963985443115e-01 4.265468567609786987e-02
7.617261260747909546e-02 3.502110242843627930e-01 -2.247048541903495789e-02
3.834074363112449646e-02 3.195429742336273193e-01 4.268234223127365112e-02
7.016404718160629272e-02 3.224275708198547363e-01 -3.426862508058547974e-02
1.102915555238723755e-01 3.290345370769500732e-01 6.455153971910476685e-02
8.636855334043502808e-02 3.244894444942474365e-01 -2.921715378761291504e-02
7.138185948133468628e-02 3.299338817596435547e-01 -1.181465536355972290e-01
3.403832763433456421e-02 3.453817367553710938e-01 -8.636284619569778442e-02
9.944351017475128174e-02 3.342953920364379883e-01 1.392712295055389404e-01
6.196397170424461365e-02 3.229955434799194336e-01 -6.447394937276840210e-02
5.531764775514602661e-02 3.410044610500335693e-01 1.502438336610794067e-01
5.770090967416763306e-02 3.263289034366607666e-01 -1.076111495494842529e-01
9.623020887374877930e-02 3.254830539226531982e-01 -3.594238311052322388e-03
4.082203283905982971e-02 3.488568365573883057e-01 -1.120812539011240005e-02
1.760730147361755371e-02 3.419107198715209961e-01 1.027516350150108337e-01
9.277976304292678833e-02 3.500874340534210205e-01 3.192758932709693909e-02
-8.825898170471191406e-03 3.261550366878509521e-01 -8.496272563934326172e-02
1.556649804115295410e-02 3.246983885765075684e-01 -1.031131744384765625e-01
3.259647637605667114e-02 3.436416089534759521e-01 1.115630492568016052e-01
3.680884093046188354e-02 3.431264758110046387e-01 1.220626607537269592e-01
2.451404184103012085e-02 3.212818205356597900e-01 8.808714896440505981e-02
1.430057361721992493e-02 3.202125728130340576e-01 -4.060185328125953674e-02
1.241913437843322754e-02 3.393104076385498047e-01 1.143113374710083008e-01
7.113315165042877197e-02 3.482535779476165771e-01 -7.029549777507781982e-02
3.270304575562477112e-02 3.338618278503417969e-01 1.567867249250411987e-01
1.266357675194740295e-02 3.215984404087066650e-01 -6.701320409774780273e-02
6.016049534082412720e-02 3.250190913677215576e-01 1.263321191072463989e-01
-1.286487653851509094e-02 3.346373736858367920e-01 7.915569096803665161e-02
6.057639047503471375e-02 3.206850886344909668e-01 3.914860635995864868e-02
5.633305013179779053e-02 3.476340472698211670e-01 9.025841951370239258e-02
8.002851158380508423e-03 3.433551490306854248e-01 -5.688805505633354187e-02
5.669303610920906067e-02 3.498249351978302002e-01 3.167992457747459412e-02
4.042851924896240234e-02 3.204354643821716309e-01 -4.305366054177284241e-02
1.264445781707763672e-01 3.416990637779235840e-01 7.452155649662017822e-02
6.315880268812179565e-02 3.210541903972625732e-01 -1.106669101864099503e-02
-2.696068957448005676e-02 3.301739990711212158e-01 2.351177483797073364e-02
7.875423133373260498e-02 3.428569138050079346e-01 1.427490264177322388e-01
1.107430607080459595e-01 3.285219073295593262e-01 1.076374109834432602e-02
1.267511248588562012e-01 3.376944363117218018e-01 -2.519213408231735229e-02
2.478392608463764191e-02 3.387787640094757080e-01 1.365112364292144775e-01
3.039369173347949982e-02 3.232198953628540039e-01 -9.258353710174560547e-02
3.529572114348411560e-02 3.191981613636016846e-01 1.342864148318767548e-02
5.911611020565032959e-03 3.199179768562316895e-01 -1.418960373848676682e-02
7.352627813816070557e-02 3.219141364097595215e-01 3.689016401767730713e-02
7.712395489215850830e-02 3.411074578762054443e-01 1.515019834041595459e-01
1.311320215463638306e-01 3.413771390914916992e-01 3.726936876773834229e-02
-9.230852127075195312e-03 3.218897283077239990e-01 -2.889483422040939331e-02
7.988434284925460815e-02 3.401563465595245361e-01 8.536250330507755280e-03
9.047315269708633423e-02 3.268823921680450439e-01 -6.789928674697875977e-02
1.236856430768966675e-01 3.444873988628387451e-01 -1.895467936992645264e-02
1.364237368106842041e-01 3.417067527770996094e-01 3.105717152357101440e-02
8.295947313308715820e-02 3.288924992084503174e-01 5.953610315918922424e-02
1.486097276210784912e-01 3.375557959079742432e-01 -5.029349774122238159e-02
1.385964304208755493e-01 3.427927196025848389e-01 -4.673767462372779846e-02
1.284179389476776123e-01 3.294681012630462646e-01 -5.302559956908226013e-02
9.790527820587158203e-02 3.275740444660186768e-01 5.146734789013862610e-02
1.510573625564575195e-01 3.358707427978515625e-01 -9.888404048979282379e-03
1.063147634267807007e-01 3.433113992214202881e-01 -3.870734199881553650e-02
1.045192331075668335e-01 3.294326364994049072e-01 -8.277501165866851807e-02
1.413789689540863037e-01 3.325733840465545654e-01 -4.773537069559097290e-02
1.135350540280342102e-01 3.438878357410430908e-01 1.072265114635229111e-02
1.127461418509483337e-01 3.372702002525329590e-01 6.713391095399856567e-02
1.030924692749977112e-01 3.426940441131591797e-01 -4.615860432386398315e-02
1.270339041948318481e-01 3.372682332992553711e-01 -8.697298169136047363e-02
9.021691977977752686e-02 3.260459005832672119e-01 -5.981014668941497803e-02
1.133995577692985535e-01 3.288129270076751709e-01 4.771120101213455200e-02
1.220714896917343140e-01 3.321844041347503662e-01 5.701011046767234802e-02
7.337363809347152710e-02 3.265306949615478516e-01 -5.441706627607345581e-02
1.255186796188354492e-01 3.443995118141174316e-01 -2.344848588109016418e-03
5.752038583159446716e-02 3.278183937072753906e-01 -2.063216269016265869e-02
6.023766845464706421e-02 3.346820175647735596e-01 1.648186706006526947e-03
1.022381484508514404e-01 3.372510671615600586e-01 -8.962932229042053223e-02
9.711433947086334229e-02 3.283659219741821289e-01 -7.841755449771881104e-02
9.697662293910980225e-02 3.250917196273803711e-01 -4.265460744500160217e-02
8.552409708499908447e-02 3.400011956691741943e-01 -5.087439715862274170e-02
8.093070983886718750e-02 3.405804932117462158e-01 -8.423952385783195496e-03
7.186895608901977539e-02 3.269477784633636475e-01 4.068454727530479431e-02
1.005719900131225586e-01 3.266901373863220215e-01 -6.344965100288391113e-02
1.201403290033340454e-01 3.300973773002624512e-01 4.819958284497261047e-02
9.481152147054672241e-02 3.418704867362976074e-01 -4.404659196734428406e-02
1.439963281154632568e-01 3.384657502174377441e-01 -6.336271017789840698e-02
9.663823246955871582e-02 3.261312544345855713e-01 -5.919504538178443909e-02
1.148058697581291199e-01 3.402033150196075439e-01 5.530183389782905579e-02
1.169046014547348022e-01 3.421901464462280273e-01 3.977912664413452148e-02
1.450219601392745972e-01 3.417857289314270020e-01 1.114016678184270859e-02
1.433793157339096069e-01 3.321466445922851562e-01 -6.828133948147296906e-03
8.188032358884811401e-02 3.406720757484436035e-01 1.836296170949935913e-03
9.267525374889373779e-02 3.394857048988342285e-01 -6.960715353488922119e-02
1.200699210166931152e-01 3.269697129726409912e-01 -3.054612874984741211e-02
9.305259585380554199e-02 3.410629034042358398e-01 -5.337896198034286499e-02
1.393867284059524536e-01 3.437171280384063721e-01 -1.401895936578512192e-02
9.831768274307250977e-02 3.247129619121551514e-01 9.135306812822818756e-03
1.254489719867706299e-01 3.437076508998870850e-01 -4.555675759911537170e-02
1.310227513313293457e-01 3.302433490753173828e-01 2.643945068120956421e-02
9.307087212800979614e-02 3.256022632122039795e-01 -5.380383878946304321e-02
1.368992924690246582e-01 3.431225121021270752e-01 1.438207458704710007e-02
1.347033977508544922e-01 3.326888382434844971e-01 3.815034776926040649e-02
1.204429119825363159e-01 3.443371057510375977e-01 -2.739356830716133118e-02
1.060931161046028137e-01 3.425821959972381592e-01 -5.269959568977355957e-02
7.265751808881759644e-02 3.321861922740936279e-01 -7.156793773174285889e-02
7.183934748172760010e-02 3.248642086982727051e-01 1.424118969589471817e-02
1.215017139911651611e-01 3.440659344196319580e-01 -3.746353089809417725e-02
7.603497058153152466e-02 3.395611941814422607e-01 -1.411796640604734421e-02
7.922520488500595093e-02 3.240460455417633057e-01 -5.547641310840845108e-03
1.334948539733886719e-01 3.293963670730590820e-01 -2.662640064954757690e-02
1.345040351152420044e-01 3.303262889385223389e-01 -4.477775096893310547e-02
1.376935541629791260e-01 3.313850462436676025e-01 1.700774207711219788e-02
1.072599291801452637e-01 3.405764997005462646e-01 5.183767154812812805e-02
6.583049148321151733e-02 3.253202736377716064e-01 -2.066143602132797241e-02
1.109463647007942200e-01 3.255515992641448975e-01 -1.091878954321146011e-02
9.374243766069412231e-02 3.259454667568206787e-01 3.774527087807655334e-02
8.307254314422607422e-02 3.274620175361633301e-01 -6.981713324785232544e-02
1.030306816101074219e-01 3.434043228626251221e-01 -2.601425349712371826e-02
7.704374939203262329e-02 3.241572082042694092e-01 -8.305571973323822021e-04
1.494783461093902588e-01 3.415060341358184814e-01 -1.324843429028987885e-02
5.677776038646697998e-02 3.291757702827453613e-01 1.469250116497278214e-02
7.540105283260345459e-02 3.241903483867645264e-01 -7.865100167691707611e-03
9.895300120115280151e-02 3.431511521339416504e-01 -6.782815326005220413e-03
1.086866706609725952e-01 3.413548469543457031e-01 4.593837633728981018e-02
1.045450866222381592e-01 3.287494480609893799e-01 5.584325268864631653e-02
6.627848744392395020e-02 3.266973793506622314e-01 -4.362199455499649048e-02
1.371817886829376221e-01 3.335806429386138916e-01 -6.803338974714279175e-02
8.634110540151596069e-02 3.407008349895477295e-01 2.356050908565521240e-02
8.426371216773986816e-02 3.240164816379547119e-01 -1.591010019183158875e-03
1.029614955186843872e-01 3.403675556182861328e-01 5.139414593577384949e-02
9.931638091802597046e-02 3.419943749904632568e-01 -5.150954425334930420e-02
1.255178153514862061e-01 3.306973278522491455e-01 4.362622275948524475e-02
1.210707873106002808e-01 3.443768918514251709e-01 -7.817000150680541992e-04
7.050107419490814209e-02 3.283743858337402344e-01 4.733142256736755371e-02
8.803583681583404541e-02 3.240573406219482422e-01 -1.727757975459098816e-02
9.523876011371612549e-02 3.421671688556671143e-01 1.835973188281059265e-02
1.403210461139678955e-01 3.351385593414306641e-01 3.648621588945388794e-02
1.247424557805061340e-01 3.397260904312133789e-01 -8.165811002254486084e-02
1.082165092229843140e-01 3.409596383571624756e-01 -7.278224825859069824e-02
1.433140486478805542e-01 3.419677913188934326e-01 -4.649971798062324524e-02
8.844702690839767456e-02 3.241560459136962891e-01 -2.320312149822711945e-02
1.010546684265136719e-01 3.247261345386505127e-01 -2.303769998252391815e-02
9.290041029453277588e-02 3.246949911117553711e-01 1.731332018971443176e-02
1.194892674684524536e-01 3.396215736865997314e-01 -8.353547751903533936e-02
1.247109100222587585e-01 3.290729820728302002e-01 -5.745169892907142639e-02
1.001602783799171448e-01 3.247277736663818359e-01 4.549936391413211823e-03
9.945665299892425537e-02 3.251037597656250000e-01 1.814657077193260193e-02
9.486219286918640137e-02 3.352361023426055908e-01 7.023092359304428101e-02
9.202209115028381348e-02 3.415895402431488037e-01 2.231378108263015747e-02
1.091903150081634521e-01 3.264738023281097412e-01 2.729997783899307251e-02
8.095441758632659912e-02 3.341800868511199951e-01 6.316430121660232544e-02
1.100794970989227295e-01 3.274941444396972656e-01 -6.379080563783645630e-02
9.317629039287567139e-02 3.423382639884948730e-01 4.799745045602321625e-03
8.917054533958435059e-02 3.417636454105377197e-01 6.346859969198703766e-03
1.215256452560424805e-01 3.371677398681640625e-01 -9.018920361995697021e-02
1.099763065576553345e-01 3.272341787815093994e-01 3.669851273298263550e-02
8.857215195894241333e-02 3.415417075157165527e-01 -3.027212247252464294e-02
1.237277910113334656e-01 3.410053253173828125e-01 -7.512666285037994385e-02
1.161816120147705078e-01 3.443574011325836182e-01 -8.134964853525161743e-03
1.004032716155052185e-01 3.254167139530181885e-01 -4.531459510326385498e-02
1.072458252310752869e-01 3.283926248550415039e-01 5.112395435571670532e-02
7.130213081836700439e-02 3.361503481864929199e-01 3.888950124382972717e-02
6.090483441948890686e-02 3.350676596164703369e-01 -4.214980639517307281e-03
6.474951654672622681e-02 3.261692523956298828e-01 2.023078501224517822e-02
7.453804463148117065e-02 3.383206725120544434e-01 2.450699731707572937e-02
6.612408161163330078e-02 3.293834924697875977e-01 -5.777661129832267761e-02
1.433703154325485229e-01 3.424356281757354736e-01 -4.009190201759338379e-02
1.376023739576339722e-01 3.354572951793670654e-01 -7.403608411550521851e-02
7.770943641662597656e-02 3.399326503276824951e-01 -3.822252154350280762e-03
1.068251132965087891e-01 3.427708446979522705e-01 2.735760435461997986e-02
1.281026154756546021e-01 3.311961293220520020e-01 -7.082507014274597168e-02
1.066038236021995544e-01 3.268612325191497803e-01 -6.031627953052520752e-02
1.077396497130393982e-01 3.254199624061584473e-01 5.705759860575199127e-03
5.581045150756835938e-02 3.284409642219543457e-01 -3.311352804303169250e-03
8.634586632251739502e-02 3.398860096931457520e-01 3.601682186126708984e-02
1.375107020139694214e-01 3.406626582145690918e-01 -6.699588149785995483e-02
7.824923098087310791e-02 3.375872075557708740e-01 -5.957863107323646545e-02
9.989091008901596069e-02 3.256309330463409424e-01 2.796828746795654297e-02
1.072640717029571533e-01 3.436033427715301514e-01 -3.220945969223976135e-02
1.285223364830017090e-01 3.288759291172027588e-01 1.407569926232099533e-02
1.222302764654159546e-01 3.417061567306518555e-01 4.331978037953376770e-02
1.121650263667106628e-01 3.408496379852294922e-01 -7.556229829788208008e-02
1.053179427981376648e-01 3.349089026451110840e-01 -9.472466260194778442e-02
1.264034211635589600e-01 3.280801475048065186e-01 4.403227008879184723e-03
9.392996877431869507e-02 3.301090598106384277e-01 6.610579788684844971e-02
7.826382666826248169e-02 3.341960608959197998e-01 -7.672807574272155762e-02
1.121852323412895203e-01 3.440603315830230713e-01 -2.637065574526786804e-02
7.928200066089630127e-02 3.397412598133087158e-01 1.712901145219802856e-02
6.239179894328117371e-02 3.298120796680450439e-01 -4.981042817234992981e-02
9.911064803600311279e-02 3.424797058105468750e-01 -4.218462482094764709e-02
1.445155590772628784e-01 3.429154455661773682e-01 -1.923490874469280243e-02
9.108377248048782349e-02 3.242775797843933105e-01 6.294545717537403107e-03
-1.641880571842193604e-01 3.395807743072509766e-01 -5.832398682832717896e-02
-1.552027761936187744e-01 4.168733060359954834e-01 9.834939241409301758e-02
-1.720859706401824951e-01 3.866237401962280273e-01 9.850473701953887939e-02
-7.710021734237670898e-02 3.853722214698791504e-01 -1.569940745830535889e-01
-1.802850961685180664e-01 3.491108119487762451e-01 5.526697635650634766e-02
-1.112639755010604858e-01 3.570291101932525635e-01 -1.332295835018157959e-01
-6.522189825773239136e-02 3.710088729858398438e-01 8.581601083278656006e-02
-5.120374262332916260e-02 3.800708651542663574e-01 7.798140496015548706e-02
-2.664195746183395386e-02 4.236139357089996338e-01 -1.299144178628921509e-01
-1.453001201152801514e-01 3.287831544876098633e-01 -5.182456225156784058e-02
-1.209519207477569580e-01 4.367009401321411133e-01 9.745442867279052734e-02
-1.305905282497406006e-01 4.469678401947021484e-01 6.685912609100341797e-02
-1.655924171209335327e-01 3.471475839614868164e-01 -7.223643362522125244e-02
-3.762409090995788574e-03 4.269473850727081299e-01 -7.535286247730255127e-02
-8.348354697227478027e-02 3.336781561374664307e-01 2.163392677903175354e-02
-1.179327890276908875e-01 3.264338970184326172e-01 2.845760807394981384e-02
-1.763545572757720947e-01 4.196068644523620605e-01 4.449290782213211060e-02
-7.829564809799194336e-02 4.700486660003662109e-01 -2.244992926716804504e-02
-1.716666370630264282e-01 4.094926714897155762e-01 -6.483846902847290039e-02
-2.339211851358413696e-02 3.767501413822174072e-01 1.483003050088882446e-02
-1.779576689004898071e-01 3.770971894264221191e-01 8.962436765432357788e-02
-4.866995662450790405e-02 4.323740303516387939e-01 7.963672280311584473e-02
-1.537136435508728027e-01 4.335774183273315430e-01 6.883718818426132202e-02
-1.034207940101623535e-01 3.403133749961853027e-01 6.880659610033035278e-02
-1.116043254733085632e-01 4.620886147022247314e-01 -3.845396637916564941e-02
-1.834429502487182617e-01 3.447199761867523193e-01 2.602894976735115051e-02
-1.813084632158279419e-01 3.642249107360839844e-01 -5.971692129969596863e-02
-5.583930388092994690e-02 4.231752455234527588e-01 -1.489318907260894775e-01
-6.286976486444473267e-02 3.685268461704254150e-01 -1.403125524520874023e-01
-8.181860297918319702e-02 4.687005877494812012e-01 8.964406326413154602e-03
-8.187517523765563965e-02 3.426913619041442871e-01 -1.054323092103004456e-01
-8.820144832134246826e-02 4.272533357143402100e-01 1.097299233078956604e-01
-1.105805486440658569e-01 4.019939303398132324e-01 -1.493246257305145264e-01
-1.213325113058090210e-01 3.905861675739288330e-01 1.265299022197723389e-01
-4.333205893635749817e-02 3.542686104774475098e-01 9.591728448867797852e-03
-9.413104504346847534e-02 3.404105603694915771e-01 -1.054695323109626770e-01
-1.540145426988601685e-01 3.512355089187622070e-01 -9.553198516368865967e-02
-1.205060184001922607e-01 4.585880637168884277e-01 -3.903355449438095093e-02
-1.657699048519134521e-01 3.952448964118957520e-01 -9.211742132902145386e-02
-1.653957068920135498e-01 3.320659995079040527e-01 2.436310797929763794e-02
-6.347312033176422119e-02 4.695362448692321777e-01 -3.833239525556564331e-02
-1.188431382179260254e-01 3.738131225109100342e-01 -1.429538130760192871e-01
-4.951837658882141113e-02 3.456814289093017578e-01 -5.414779484272003174e-02
-1.892222315073013306e-01 3.543194830417633057e-01 -1.526004634797573090e-02
-1.166477575898170471e-01 4.090061187744140625e-01 1.240659579634666443e-01
-3.032498061656951904e-03 4.043415486812591553e-01 -7.018682360649108887e-02
-6.862202286720275879e-02 4.697587490081787109e-01 -3.530392423272132874e-03
-1.866470128297805786e-01 3.811614215373992920e-01 -4.848057776689529419e-02
-8.652291446924209595e-02 4.026737809181213379e-01 -1.580254435539245605e-01
-1.592158675193786621e-01 4.389979541301727295e-01 1.887047290802001953e-02
-6.951445341110229492e-02 3.357932865619659424e-01 -5.296100862324237823e-03
-7.533604651689529419e-02 4.492728114128112793e-01 7.782837003469467163e-02
-1.787274330854415894e-01 3.391699492931365967e-01 1.214288920164108276e-02
-1.678511202335357666e-01 4.030039310455322266e-01 -8.195885270833969116e-02
-1.338141709566116333e-01 4.046257138252258301e-01 1.225317791104316711e-01
-9.490074962377548218e-02 3.857542574405670166e-01 1.194644495844841003e-01
-1.832212060689926147e-01 3.761826455593109131e-01 -5.941284447908401489e-02
-1.709426641464233398e-01 4.265898168087005615e-01 3.898826241493225098e-02
-1.653198301792144775e-01 4.337050616741180420e-01 -5.546877160668373108e-03
-1.770187318325042725e-01 3.490016162395477295e-01 -5.075649917125701904e-02
-1.104071736335754395e-01 3.879024684429168701e-01 -1.509713828563690186e-01
-1.856428980827331543e-01 3.584583997726440430e-01 5.960404872894287109e-02
-1.961442828178405762e-01 3.729600608348846436e-01 8.267350494861602783e-03
-1.349449455738067627e-01 4.451502561569213867e-01 -6.712299585342407227e-02
-9.014368057250976562e-02 4.362235367298126221e-01 1.014612242579460144e-01
-7.248712331056594849e-02 3.458321690559387207e-01 -1.064455434679985046e-01
-3.859425708651542664e-02 4.600005745887756348e-01 -7.737120985984802246e-02
-1.190044134855270386e-01 4.612802267074584961e-01 -1.478570792824029922e-02
-1.632991135120391846e-01 3.550541996955871582e-01 9.091222286224365234e-02
-9.218718111515045166e-02 3.284297287464141846e-01 5.660116672515869141e-03
-8.533228188753128052e-02 4.182744026184082031e-01 -1.519316732883453369e-01
-3.225310146808624268e-02 3.679021894931793213e-01 2.069148421287536621e-02
-1.941470503807067871e-01 3.622090220451354980e-01 3.885036334395408630e-03
-1.226772516965866089e-01 3.938345611095428467e-01 -1.435405910015106201e-01
-1.695911884307861328e-01 4.302274584770202637e-01 1.280536688864231110e-02
-9.707436710596084595e-02 3.808409869670867920e-01 -1.539815664291381836e-01
-1.454179733991622925e-01 4.337210357189178467e-01 -7.766088843345642090e-02
-1.220176964998245239e-01 4.478349387645721436e-01 -8.215733617544174194e-02
-1.339946687221527100e-01 3.230034410953521729e-01 -1.268065534532070160e-03
-7.828326523303985596e-02 4.577431976795196533e-01 -9.573542326688766479e-02
-1.443069875240325928e-01 4.301132559776306152e-01 -8.750010281801223755e-02
-7.840566337108612061e-03 4.042687714099884033e-01 3.815772011876106262e-03
-7.341332733631134033e-03 4.384850263595581055e-01 -1.718251220881938934e-02
-1.731244027614593506e-01 4.255142807960510254e-01 -9.166536852717399597e-03
-1.193639338016510010e-01 4.442488253116607666e-01 -9.513670951128005981e-02
-3.630071878433227539e-03 4.339166581630706787e-01 -3.415729850530624390e-02
-1.229605823755264282e-01 4.313613176345825195e-01 -1.150358617305755615e-01
-1.003118231892585754e-01 3.572922945022583008e-01 -1.357279270887374878e-01
-1.271548867225646973e-01 4.555533528327941895e-01 3.517843037843704224e-02
-1.270146220922470093e-01 4.485077857971191406e-01 -7.166679203510284424e-02
-1.589899957180023193e-01 4.256908893585205078e-01 7.829418778419494629e-02
-1.310188770294189453e-01 3.492103815078735352e-01 9.567809104919433594e-02
-2.732217311859130859e-02 4.590696990489959717e-01 -5.549769848585128784e-02
-8.169906586408615112e-02 3.467063605785369873e-01 6.368882209062576294e-02
-9.022951126098632812e-02 3.457086682319641113e-01 -1.164935082197189331e-01
-9.569733589887619019e-02 3.318117260932922363e-01 3.304801136255264282e-02
-1.535271257162094116e-01 3.262633979320526123e-01 3.297869116067886353e-04
-5.782357975840568542e-02 4.008978307247161865e-01 9.765505790710449219e-02
-4.179254174232482910e-02 4.521620273590087891e-01 4.409198462963104248e-02
-1.118381470441818237e-01 3.288526535034179688e-01 3.674733638763427734e-02
-1.421160250902175903e-01 4.248892068862915039e-01 -1.001156866550445557e-01
-1.791536808013916016e-01 4.175404012203216553e-01 -1.321352925151586533e-02
-5.398245155811309814e-02 3.551889061927795410e-01 -1.093744337558746338e-01
-1.326468437910079956e-01 4.425091147422790527e-01 7.702466845512390137e-02
-6.805186718702316284e-02 3.597473502159118652e-01 -1.315949261188507080e-01
-1.363679468631744385e-01 3.317561149597167969e-01 5.523720383644104004e-02
-1.891796886920928955e-01 3.754389882087707520e-01 6.417494267225265503e-02
-1.698846817016601562e-01 4.212665557861328125e-01 -4.513425379991531372e-02
-9.827004373073577881e-02 3.748939931392669678e-01 1.150173470377922058e-01
-1.383706629276275635e-01 4.332424402236938477e-01 9.119122475385665894e-02
-6.223217770457267761e-02 3.552339971065521240e-01 5.614305287599563599e-02
-1.853942275047302246e-01 3.758914470672607422e-01 7.468905299901962280e-02
-4.665762558579444885e-02 4.487906992435455322e-01 -1.150960773229598999e-01
-1.669919490814208984e-01 4.184849858283996582e-01 -6.103154644370079041e-02
-1.068281084299087524e-01 3.638193011283874512e-01 -1.412326097488403320e-01
-7.656774669885635376e-02 3.608901202678680420e-01 -1.372928023338317871e-01
-7.979342341423034668e-02 4.396076798439025879e-01 9.430679678916931152e-02
-1.777057647705078125e-01 3.458606004714965820e-01 -4.142298176884651184e-02
-7.772907614707946777e-03 4.425373971462249756e-01 -3.863784298300743103e-02
-3.192744404077529907e-02 3.781346976757049561e-01 4.138928651809692383e-02
-1.263365149497985840e-01 3.375117480754852295e-01 -9.547999501228332520e-02
-4.557551816105842590e-02 3.551760613918304443e-01 2.045372873544692993e-02
-5.139488354325294495e-02 4.561404585838317871e-01 -1.003777161240577698e-01
-1.623265147209167480e-01 4.305525422096252441e-01 -4.185260087251663208e-02
-1.802610158920288086e-01 4.098916351795196533e-01 5.920524895191192627e-02
-1.463150233030319214e-01 3.898511826992034912e-01 -1.224528327584266663e-01
-1.867920160293579102e-01 3.946852684020996094e-01 6.296791136264801025e-02
-1.731365919113159180e-01 3.393685817718505859e-01 -3.483324497938156128e-02
-1.096674650907516479e-01 4.530678093433380127e-01 -8.383242785930633545e-02
-1.677282154560089111e-02 4.490955173969268799e-01 -7.213260978460311890e-02
-1.657616645097732544e-01 3.361171185970306396e-01 4.587230458855628967e-02
-3.006280958652496338e-02 4.614872932434082031e-01 -4.180919378995895386e-02
-1.013780757784843445e-01 4.000455737113952637e-01 -1.542241275310516357e-01
-1.184072792530059814e-01 4.185152947902679443e-01 1.186018064618110657e-01
-1.711370646953582764e-01 3.552206158638000488e-01 -7.374906539916992188e-02
-5.549480766057968140e-02 3.424812257289886475e-01 -1.258667372167110443e-02
-3.112068027257919312e-02 3.894030153751373291e-01 5.389893054962158203e-02
-1.303536444902420044e-02 3.967443704605102539e-01 -1.040969640016555786e-01
-4.718117415904998779e-03 3.989453017711639404e-01 -2.211749926209449768e-02
-1.576687544584274292e-01 3.406973183155059814e-01 7.013253122568130493e-02
-7.561246305704116821e-02 4.563036262989044189e-01 6.284637749195098877e-02
-1.957246959209442139e-01 3.820337951183319092e-01 4.815969616174697876e-03
-1.555176526308059692e-01 4.417675435543060303e-01 -6.070029921829700470e-03
-7.951793819665908813e-02 4.621424376964569092e-01 -8.048774302005767822e-02
-2.686271071434020996e-02 4.581016898155212402e-01 -8.574146777391433716e-03
-9.984086453914642334e-02 4.140278697013854980e-01 -1.493872404098510742e-01
-1.442432403564453125e-03 4.153689146041870117e-01 -2.513061277568340302e-02
-8.928224444389343262e-02 3.507729768753051758e-01 -1.258034557104110718e-01
-1.755925416946411133e-01 4.001387357711791992e-01 -6.690897792577743530e-02
-1.742137968540191650e-01 4.082993865013122559e-01 7.917207479476928711e-02
-6.168490648269653320e-02 4.095113873481750488e-01 1.017685607075691223e-01
-1.885375976562500000e-01 3.498868942260742188e-01 6.787830963730812073e-03
-7.980652898550033569e-02 4.393110871315002441e-01 -1.325173974037170410e-01
-4.148860648274421692e-02 4.567063152790069580e-01 3.215489909052848816e-02
-6.883659958839416504e-02 4.563347697257995605e-01 -1.021306589245796204e-01
-1.059465035796165466e-01 3.240557014942169189e-01 -1.657453738152980804e-02
-8.316117525100708008e-02 4.469429254531860352e-01 -1.189372837543487549e-01
-1.421703696250915527e-01 4.472373127937316895e-01 -3.860840573906898499e-02
-1.853674650192260742e-03 4.293448328971862793e-01 -4.445154964923858643e-02
-1.216254383325576782e-02 4.309024214744567871e-01 1.637940853834152222e-02
-1.090984344482421875e-01 4.314972758293151855e-01 -1.276141703128814697e-01
-6.103465333580970764e-02 3.842688202857971191e-01 -1.525571644306182861e-01
-1.712763607501983643e-01 3.414816558361053467e-01 5.432405322790145874e-02
-1.907695829868316650e-02 4.350763559341430664e-01 3.054364025592803955e-02
-1.129877567291259766e-02 3.853822052478790283e-01 -1.675665192306041718e-02
-1.597563326358795166e-01 4.092953205108642578e-01 -9.122995287179946899e-02
-1.927375644445419312e-01 3.832836747169494629e-01 -2.123838290572166443e-02
-2.550888061523437500e-02 4.591769576072692871e-01 -3.263790532946586609e-02
-7.878062129020690918e-02 4.597610235214233398e-01 5.406282097101211548e-02
-1.179777234792709351e-01 3.230437040328979492e-01 -2.808567136526107788e-02
-8.696936070919036865e-02 3.283916711807250977e-01 -1.703587360680103302e-02
-7.989036291837692261e-02 4.673607945442199707e-01 -5.401681736111640930e-02
-1.284768730401992798e-01 4.226256310939788818e-01 1.122071370482444763e-01
-9.080875664949417114e-02 3.280501961708068848e-01 -4.583584144711494446e-02
-4.614051803946495056e-02 3.716926872730255127e-01 -1.306740641593933105e-01
-2.387683838605880737e-02 3.858408331871032715e-01 3.332319110631942749e-02
-4.166123270988464355e-02 3.547697365283966064e-01 -8.220270276069641113e-02
-1.812918335199356079e-01 3.622129857540130615e-01 7.481651753187179565e-02
-8.646305650472640991e-02 3.285306990146636963e-01 -3.370049595832824707e-02
-9.702183306217193604e-03 4.214190542697906494e-01 1.494866795837879181e-02
-1.884935796260833740e-02 4.481267929077148438e-01 -8.221052587032318115e-02
-1.495403945446014404e-01 3.730479180812835693e-01 -1.175964027643203735e-01
-1.626281440258026123e-02 3.965376317501068115e-01 2.543573454022407532e-02
-4.722287878394126892e-02 4.656370878219604492e-01 -5.834977701306343079e-02
-1.292668133974075317e-01 4.567722976207733154e-01 -1.789628900587558746e-02
-1.123872697353363037e-01 3.240407109260559082e-01 -3.854060173034667969e-02
-1.813899874687194824e-01 3.452788889408111572e-01 -2.569909580051898956e-02
-6.578381359577178955e-02 4.188239276409149170e-01 -1.532560884952545166e-01
-5.858696997165679932e-03 4.168379008769989014e-01 -9.159541130065917969e-02
-1.037803441286087036e-01 3.296238183975219727e-01 -7.239393144845962524e-02
-9.902287274599075317e-02 4.509811997413635254e-01 7.731184363365173340e-02
-1.215667799115180969e-01 3.805910348892211914e-01 1.240128800272941589e-01
-1.931963860988616943e-01 3.854640424251556396e-01 4.444730281829833984e-02
-1.817677170038223267e-02 4.211024045944213867e-01 -1.196391284465789795e-01
-2.370002865791320801e-02 3.668694496154785156e-01 -6.147601082921028137e-02
-1.455487906932830811e-01 3.524103164672851562e-01 -1.064461022615432739e-01
-3.434143215417861938e-02 4.388258755207061768e-01 -1.230263933539390564e-01
-1.302812546491622925e-01 3.292014002799987793e-01 -6.806953251361846924e-02
-1.947031617164611816e-01 3.775712251663208008e-01 3.913332894444465637e-02
-1.441939771175384521e-01 4.479438662528991699e-01 3.085956722497940063e-02
-1.639375388622283936e-01 3.871413171291351318e-01 1.079397723078727722e-01
-1.329501867294311523e-01 3.482956290245056152e-01 -1.115957051515579224e-01
-3.070284426212310791e-02 3.593492805957794189e-01 -3.174903243780136108e-02
-1.080086976289749146e-01 4.531787037849426270e-01 6.853316724300384521e-02
-2.071449905633926392e-02 4.093546569347381592e-01 -1.259262263774871826e-01
-1.411454826593399048e-01 3.400501012802124023e-01 7.742327451705932617e-02
-1.458826065063476562e-01 3.271415829658508301e-01 2.967707440257072449e-02
-1.389632225036621094e-01 3.239330649375915527e-01 8.706301450729370117e-03
-1.452557444572448730e-01 4.482087492942810059e-01 -1.518171001225709915e-02
-4.612498357892036438e-02 3.617991209030151367e-01 4.095206782221794128e-02
-5.907347798347473145e-02 4.674249887466430664e-01 9.932857006788253784e-03
-6.556299328804016113e-02 3.843480944633483887e-01 9.819622337818145752e-02
-5.461238697171211243e-02 3.642446696758270264e-01 -1.282541006803512573e-01
-1.558690965175628662e-01 4.418518543243408203e-01 6.487783044576644897e-03
-3.526362031698226929e-02 4.639718830585479736e-01 -3.134058415889739990e-02
-1.145028769969940186e-01 4.349125921726226807e-01 -1.181573346257209778e-01
-7.781089842319488525e-02 3.506874144077301025e-01 -1.213880777359008789e-01
-1.408905386924743652e-01 4.068290889263153076e-01 -1.212299317121505737e-01
-1.193821728229522705e-01 3.644556701183319092e-01 -1.369650363922119141e-01
-5.320417881011962891e-02 4.673216938972473145e-01 2.004096284508705139e-03
-3.381522744894027710e-02 4.062803983688354492e-01 6.818327307701110840e-02
-1.107451319694519043e-02 4.259176850318908691e-01 -1.024411469697952271e-01
-1.853857934474945068e-01 3.504371643066406250e-01 4.221855849027633667e-02
-1.005614250898361206e-01 4.667879641056060791e-01 -1.165736466646194458e-03
-1.133500337600708008e-01 4.564222991466522217e-01 5.361281335353851318e-02
-1.493622958660125732e-01 4.096851646900177002e-01 -1.078173369169235229e-01
-2.261748909950256348e-02 4.247541725635528564e-01 4.632166028022766113e-02
-1.921272277832031250e-01 3.668294847011566162e-01 -2.298039570450782776e-02
-2.785942703485488892e-02 4.563917517662048340e-01 -7.356494665145874023e-02
-3.273153305053710938e-02 4.133349657058715820e-01 -1.401286423206329346e-01
-3.883595392107963562e-02 3.557551503181457520e-01 -1.369242556393146515e-03
-1.767124235630035400e-02 4.393021166324615479e-01 -1.001459956169128418e-01
-1.132578402757644653e-01 4.186173081398010254e-01 -1.382014155387878418e-01
-2.867445349693298340e-02 4.552897214889526367e-01 1.095913909375667572e-02
-1.307059228420257568e-01 4.142573475837707520e-01 1.183886006474494934e-01
-3.299912810325622559e-02 3.596988916397094727e-01 -7.299432158470153809e-02
-1.444991976022720337e-01 3.242028057575225830e-01 -1.882448792457580566e-03
-8.268199861049652100e-02 3.313996791839599609e-01 4.500288516283035278e-03
-1.515229940414428711e-01 4.348407983779907227e-01 -6.083009392023086548e-02
-6.013562157750129700e-02 4.506319463253021240e-01 -1.154329106211662292e-01
-2.420569211244583130e-02 3.954585194587707520e-01 4.475034773349761963e-02
-1.729808449745178223e-01 3.349382281303405762e-01 -2.631520852446556091e-03
-1.248581558465957642e-01 4.527684748172760010e-01 -5.993053689599037170e-02
-1.046129763126373291e-01 3.522894680500030518e-01 9.327185899019241333e-02
-1.940569132566452026e-01 3.873945772647857666e-01 -5.970408208668231964e-03
-5.566542968153953552e-02 4.052250981330871582e-01 -1.553252935409545898e-01
-1.206254512071609497e-01 3.456267714500427246e-01 -1.142131760716438293e-01
-3.431345522403717041e-02 4.464343786239624023e-01 4.408915340900421143e-02
-2.224173396825790405e-02 3.704381585121154785e-01 -7.481777667999267578e-02
-1.982720196247100830e-02 3.783386945724487305e-01 5.510499700903892517e-03
-1.316280364990234375e-01 3.252357542514801025e-01 -4.688872024416923523e-02
-1.885131895542144775e-01 3.736067116260528564e-01 -4.236657917499542236e-02
-4.154466092586517334e-03 4.259268045425415039e-01 -1.107922382652759552e-02
-5.751940235495567322e-02 4.626982808113098145e-01 -8.113311231136322021e-02
-7.655926793813705444e-02 3.386744260787963867e-01 -8.750039339065551758e-02
-1.723649352788925171e-02 3.852910697460174561e-01 -9.977740049362182617e-02
-2.081797271966934204e-02 4.518385529518127441e-01 -3.740377724170684814e-04
-6.897263228893280029e-02 4.216280877590179443e-01 1.039025038480758667e-01
-7.393659651279449463e-02 3.596010804176330566e-01 7.996073365211486816e-02
-8.370964974164962769e-02 4.654411077499389648e-01 -6.275014579296112061e-02
-2.456068247556686401e-02 4.391644299030303955e-01 3.752425685524940491e-02
-9.546013176441192627e-02 4.373332262039184570e-01 -1.287380754947662354e-01
-4.624578729271888733e-02 3.689217865467071533e-01 5.548617243766784668e-02
-5.884832516312599182e-02 4.237051308155059814e-01 9.510786831378936768e-02
-1.719244122505187988e-01 3.761705756187438965e-01 9.804281592369079590e-02
-1.168953627347946167e-02 3.924468457698822021e-01 -9.413501620292663574e-02
-6.422742456197738647e-02 4.093472957611083984e-01 -1.568582653999328613e-01
-1.829171925783157349e-01 4.093150496482849121e-01 4.942707717418670654e-02
-1.953316479921340942e-02 4.549680352210998535e-01 -4.541091620922088623e-02
-3.467528522014617920e-02 4.499487876892089844e-01 -1.038217544555664062e-01
-8.268046379089355469e-02 4.675550460815429688e-01 1.871096342802047729e-02
-7.083889842033386230e-02 4.680640101432800293e-01 1.459133252501487732e-02
-5.079134181141853333e-02 4.682346284389495850e-01 -1.589889079332351685e-02
-1.241090968251228333e-01 3.227819800376892090e-01 -2.252137288451194763e-03
-1.602126657962799072e-01 4.345616996288299561e-01 -3.309623524546623230e-02
-5.428405478596687317e-02 3.450513184070587158e-01 -7.208026945590972900e-02
-1.166906133294105530e-01 3.423197865486145020e-01 8.051367104053497314e-02
-1.541025042533874512e-01 4.102224409580230713e-01 1.065119877457618713e-01
-1.313038468360900879e-01 3.263358473777770996e-01 3.190294653177261353e-02
-8.082283288240432739e-02 4.688569903373718262e-01 -4.022652655839920044e-02
-6.574608385562896729e-02 3.539300858974456787e-01 -1.195612847805023193e-01
-1.512274146080017090e-02 4.181639850139617920e-01 3.146764636039733887e-02
-1.236454844474792480e-01 3.640657365322113037e-01 1.134006455540657043e-01
-1.180106624960899353e-01 4.051131904125213623e-01 -1.434585750102996826e-01
-1.849277615547180176e-01 4.114112854003906250e-01 7.783658802509307861e-03
-2.361581474542617798e-02 3.760129809379577637e-01 -9.883066266775131226e-02
-1.076280400156974792e-01 4.408101439476013184e-01 -1.145382821559906006e-01
-1.995874196290969849e-02 4.308918416500091553e-01 -1.153551638126373291e-01
-4.496408253908157349e-02 4.015369713306427002e-01 8.309619128704071045e-02
-1.422362029552459717e-02 4.066071808338165283e-01 -1.135185956954956055e-01
-5.751940235495567322e-02 3.890710473060607910e-01 9.275581687688827515e-02
-1.124148219823837280e-01 3.378679454326629639e-01 -1.007487773895263672e-01
-9.721010178327560425e-02 3.285172581672668457e-01 1.718242838978767395e-02
-6.593441963195800781e-02 4.519107937812805176e-01 6.798717379570007324e-02
-9.229794889688491821e-02 3.649002313613891602e-01 1.027642264962196350e-01
-4.812638461589813232e-02 4.573808610439300537e-01 3.942253813147544861e-02
-1.187178120017051697e-01 3.839772343635559082e-01 -1.461026668548583984e-01
-4.017503932118415833e-02 4.609904885292053223e-01 1.462716981768608093e-02
-9.886178374290466309e-02 4.632438123226165771e-01 -5.721054226160049438e-02
-6.239346042275428772e-02 3.442645072937011719e-01 -8.812506496906280518e-02
-1.013018339872360229e-01 3.892591297626495361e-01 -1.547792851924896240e-01
-1.628351211547851562e-01 3.749780952930450439e-01 1.071892082691192627e-01
-6.519731879234313965e-02 3.481754660606384277e-01 4.314327239990234375e-02
-1.642966121435165405e-01 3.492999672889709473e-01 8.144641667604446411e-02
-1.587589234113693237e-01 3.283437788486480713e-01 -1.549308933317661285e-02
-1.917090713977813721e-01 3.979823887348175049e-01 6.168693304061889648e-03
-5.378926917910575867e-02 3.560820817947387695e-01 4.294307902455329895e-02
-1.368662714958190918e-01 3.443036079406738281e-01 -1.024065390229225159e-01
-1.532746702432632446e-01 4.236121177673339844e-01 9.107007086277008057e-02
-1.020272746682167053e-01 4.008211493492126465e-01 1.244378909468650818e-01
-4.242702946066856384e-02 3.867768943309783936e-01 7.132425159215927124e-02
-1.080204918980598450e-01 4.165612757205963135e-01 1.204440817236900330e-01
-1.903018355369567871e-02 4.531687498092651367e-01 -1.534114684909582138e-02
-1.531364023685455322e-01 3.331314325332641602e-01 5.152066051959991455e-02
-3.921131044626235962e-02 3.533291220664978027e-01 -6.227407976984977722e-02
-1.894815564155578613e-01 4.006471633911132812e-01 -8.849184960126876831e-03
-1.085861027240753174e-02 4.014969170093536377e-01 1.289566420018672943e-02
-1.038072109222412109e-01 3.896616995334625244e-01 1.239447668194770813e-01
-1.050382629036903381e-01 3.715304732322692871e-01 -1.474229395389556885e-01
-8.658140897750854492e-03 3.864590525627136230e-01 -5.086078867316246033e-02
-8.205832540988922119e-02 4.696952104568481445e-01 -7.156708277761936188e-03
-1.588657498359680176e-03 4.061473906040191650e-01 -3.717048838734626770e-02
-4.433725774288177490e-02 3.889236450195312500e-01 -1.452202796936035156e-01
-4.764873161911964417e-02 3.616297841072082520e-01 -1.153222322463989258e-01
-1.080010831356048584e-02 4.452809393405914307e-01 -5.997368320822715759e-02
-5.357777699828147888e-02 3.639114201068878174e-01 5.945336073637008667e-02
-1.899405419826507568e-01 4.015476405620574951e-01 2.762801572680473328e-02
-1.908299624919891357e-01 3.546572029590606689e-01 -2.367374487221240997e-03
-1.347842812538146973e-01 4.530168473720550537e-01 2.933806926012039185e-02
-1.776309013366699219e-01 4.172244966030120850e-01 -2.476200833916664124e-02
-1.495675146579742432e-01 3.257716298103332520e-01 -2.136115357279777527e-02
-1.613788604736328125e-01 3.853404521942138672e-01 -1.031065732240676880e-01
-1.298072636127471924e-01 4.414106905460357666e-01 -8.704581856727600098e-02
-1.119908913969993591e-01 3.260834515094757080e-01 -5.619338527321815491e-02
-1.886364817619323730e-01 3.502965271472930908e-01 1.782841607928276062e-02
-7.071536034345626831e-02 3.904208540916442871e-01 1.061057522892951965e-01
-1.292044818401336670e-01 3.317901492118835449e-01 -7.808891683816909790e-02
-8.835568279027938843e-02 4.581167101860046387e-01 -8.905306458473205566e-02
-1.856699436902999878e-01 4.102973043918609619e-01 1.723341643810272217e-02
-1.728622466325759888e-01 3.498657643795013428e-01 -6.249167397618293762e-02
-1.137200221419334412e-01 3.250133991241455078e-01 1.520628854632377625e-02
-1.601604968309402466e-01 4.233515560626983643e-01 -6.841509044170379639e-02
-4.618229344487190247e-02 4.458670914173126221e-01 6.126102060079574585e-02
-5.432650819420814514e-02 3.493886590003967285e-01 -9.243453294038772583e-02
-1.573460102081298828e-01 4.322253763675689697e-01 -5.268666893243789673e-02
-1.351497918367385864e-01 3.618924915790557861e-01 1.112209632992744446e-01
