2.649731338024139404e-01 5.781380087137222290e-02 -8.319753408432006836e-02
-9.101974964141845703e-02 -1.211967095732688904e-01 -1.946881264448165894e-01
1.745356917381286621e-01 1.770002841949462891e-01 3.709231913089752197e-01
-4.374178126454353333e-02 2.583955824375152588e-01 -2.344270795583724976e-01
1.087809801101684570e-01 1.572165638208389282e-01 -4.134223163127899170e-01
2.566905021667480469e-01 1.365020871162414551e-01 1.602876037359237671e-01
-2.706665918231010437e-02 -1.628775000572204590e-01 1.072826534509658813e-01
-5.276137217879295349e-02 2.621395885944366455e-01 2.341617494821548462e-01
4.903578758239746094e-02 -5.750391632318496704e-02 -4.214978814125061035e-01
5.253306031227111816e-02 -1.745942831039428711e-01 6.923794746398925781e-02
2.435612082481384277e-01 1.891210973262786865e-01 9.405096620321273804e-02
-9.595405310392379761e-03 -1.029298827052116394e-01 -3.510093986988067627e-01
1.594759374856948853e-01 -3.928739577531814575e-02 -3.441145122051239014e-01
-5.336543545126914978e-02 2.469100356101989746e-01 2.793726027011871338e-01
2.155441939830780029e-01 -2.118125557899475098e-02 2.782047986984252930e-01
2.607557475566864014e-01 1.262892037630081177e-01 -7.600554823875427246e-02
-1.135799735784530640e-01 -1.238610967993736267e-01 -3.920711949467658997e-02
1.122594028711318970e-01 3.014625310897827148e-01 -3.390573710203170776e-02
1.903458833694458008e-01 3.304359316825866699e-02 3.863198459148406982e-01
-9.502425789833068848e-02 -6.228186190128326416e-03 3.688017427921295166e-01
-6.583945453166961670e-02 -1.552438735961914062e-01 2.039701119065284729e-02
7.896240800619125366e-02 1.392107307910919189e-01 4.816258549690246582e-01
7.842082530260086060e-03 1.505607366561889648e-02 4.785130620002746582e-01
4.830288141965866089e-02 1.626966595649719238e-01 4.700646996498107910e-01
2.456676661968231201e-01 1.742878407239913940e-01 1.464985758066177368e-01
-1.443897932767868042e-02 -1.716205775737762451e-01 -7.924772799015045166e-02
1.574787795543670654e-01 9.407821297645568848e-02 -3.984295725822448730e-01
2.352194860577583313e-02 3.120364248752593994e-01 -1.268400531262159348e-02
1.671258807182312012e-01 2.736967802047729492e-02 4.192520081996917725e-01
1.974167972803115845e-01 1.650761067867279053e-01 3.416201174259185791e-01
4.623213410377502441e-02 -8.353593200445175171e-02 3.861459195613861084e-01
2.093173265457153320e-01 2.276255190372467041e-01 1.706824600696563721e-01
-4.520587250590324402e-02 -1.456672549247741699e-01 -1.987089961767196655e-01
1.359196007251739502e-01 -7.859118282794952393e-03 -4.052030146121978760e-01
1.071777641773223877e-01 -9.094483405351638794e-02 3.470886349678039551e-01
1.885373145341873169e-03 -6.711765378713607788e-02 -4.101881980895996094e-01
-1.990022510290145874e-02 -1.726609170436859131e-01 -1.659687608480453491e-02
2.111708521842956543e-01 1.690702736377716064e-01 -2.376966327428817749e-01
-1.564372032880783081e-01 2.634419500827789307e-02 -2.734432220458984375e-01
-1.768372207880020142e-01 6.943464279174804688e-03 1.378903239965438843e-01
-1.263586133718490601e-01 2.356504797935485840e-01 1.744373701512813568e-03
-1.053462177515029907e-01 -7.966379076242446899e-02 -2.780599594116210938e-01
-8.967591822147369385e-02 7.503312081098556519e-02 4.065405726432800293e-01
1.036671400070190430e-01 3.001861572265625000e-01 1.392634809017181396e-01
3.867214545607566833e-02 2.458953261375427246e-01 -3.175728023052215576e-01
1.125971525907516479e-01 -5.082131177186965942e-02 4.064865112304687500e-01
6.451585143804550171e-02 -9.346998482942581177e-02 -3.662556111812591553e-01
2.497972249984741211e-01 1.516891717910766602e-01 -1.068461388349533081e-01
2.379357814788818359e-02 2.827927470207214355e-01 2.577443420886993408e-01
-1.177784353494644165e-01 2.423579990863800049e-01 -5.090599134564399719e-02
2.404874935746192932e-02 3.121953904628753662e-01 5.957493558526039124e-02
1.350178271532058716e-01 1.519696712493896484e-01 -3.933201730251312256e-01
5.934250354766845703e-02 2.051803469657897949e-01 4.272429645061492920e-01
-1.080509871244430542e-01 -1.139510944485664368e-01 -1.661466062068939209e-01
-1.782663613557815552e-01 1.359981000423431396e-01 -1.042020991444587708e-01
-9.584113955497741699e-02 -1.363567113876342773e-01 -7.210929691791534424e-02
-9.018345177173614502e-02 1.223837435245513916e-01 -3.921790719032287598e-01
1.172747313976287842e-01 2.856874465942382812e-01 -1.395258307456970215e-01
2.397720068693161011e-01 1.650256365537643433e-01 -1.363265961408615112e-01
4.938194900751113892e-02 1.284978538751602173e-01 4.904302060604095459e-01
-1.598095595836639404e-01 -6.291612237691879272e-02 5.471514165401458740e-02
-9.504802525043487549e-02 -1.138596311211585999e-01 1.763779222965240479e-01
-1.301976889371871948e-01 -2.230069786310195923e-02 -3.087093234062194824e-01
2.262677699327468872e-01 -2.101033926010131836e-02 2.427418529987335205e-01
8.349294960498809814e-02 3.857048973441123962e-02 -4.674979746341705322e-01
1.208513230085372925e-01 2.255957126617431641e-01 3.686998188495635986e-01
2.226387560367584229e-01 -3.799597173929214478e-02 -1.835475713014602661e-01
1.089302301406860352e-01 1.217299699783325195e-01 4.771284759044647217e-01
1.283079385757446289e-01 -1.446108520030975342e-01 1.471414864063262939e-01
-1.316946893930435181e-01 1.008700728416442871e-01 -3.318630158901214600e-01
-4.577408358454704285e-02 -1.613947749137878418e-01 -9.393940865993499756e-02
1.789275854825973511e-01 8.668361604213714600e-02 -3.679102957248687744e-01
2.326473966240882874e-02 -8.763667196035385132e-02 -3.847701549530029297e-01
-1.785564422607421875e-02 -8.820184320211410522e-02 3.570127487182617188e-01
-2.077032253146171570e-02 -1.357352435588836670e-01 -2.652263045310974121e-01
-7.988920807838439941e-02 2.505224347114562988e-01 -1.887232959270477295e-01
-1.617714017629623413e-01 -6.917506456375122070e-03 -2.279543578624725342e-01
-1.823063045740127563e-01 3.260774165391921997e-02 -1.622230708599090576e-01
1.226780116558074951e-01 -4.351308196783065796e-02 -3.889046609401702881e-01
2.825841307640075684e-02 -1.441299021244049072e-01 2.436269074678421021e-01
-1.053242236375808716e-01 2.553457319736480713e-01 -2.657440304756164551e-02
2.684924900531768799e-01 9.299702942371368408e-02 1.099038943648338318e-01
-8.525691926479339600e-02 2.549365758895874023e-01 -1.537932455539703369e-01
-5.709135159850120544e-02 2.687583565711975098e-01 1.984680294990539551e-01
2.693143784999847412e-01 4.686830937862396240e-02 -1.487878430634737015e-02
2.257016152143478394e-01 2.042399048805236816e-01 -1.006027460098266602e-01
-4.415443912148475647e-02 -1.510480344295501709e-01 1.446485817432403564e-01
-1.079118251800537109e-01 -1.975660026073455811e-02 3.334416449069976807e-01
-7.033954560756683350e-02 -1.511635780334472656e-01 4.954697564244270325e-02
-1.381927132606506348e-01 2.159341275691986084e-01 8.746179193258285522e-02
-1.040107011795043945e-01 -5.447754263877868652e-02 -3.245183527469635010e-01
-9.614296257495880127e-02 2.600329816341400146e-01 -6.684511154890060425e-02
-1.529531478881835938e-01 1.407041847705841064e-01 2.253759652376174927e-01
-1.471074223518371582e-01 6.614854186773300171e-02 2.873142659664154053e-01
1.176196783781051636e-01 -1.486697196960449219e-01 -1.489163041114807129e-01
1.010357402265071869e-02 -4.736907780170440674e-02 -4.337759613990783691e-01
-1.876147091388702393e-02 -6.436201184988021851e-02 3.933989107608795166e-01
-2.111461758613586426e-02 -4.472588747739791870e-02 -4.261879324913024902e-01
2.260307222604751587e-01 3.717403858900070190e-02 3.085338175296783447e-01
4.898816347122192383e-02 3.137178122997283936e-01 6.458662915974855423e-03
4.024392738938331604e-02 -1.693158149719238281e-01 1.247593462467193604e-01
-4.724625870585441589e-02 2.166072130203247070e-01 3.527354001998901367e-01
-1.507699489593505859e-01 1.960718929767608643e-01 -9.675620496273040771e-02
2.153903394937515259e-01 3.554603829979896545e-02 -2.877257466316223145e-01
-7.976386696100234985e-03 1.342791020870208740e-01 4.711131751537322998e-01
1.324501931667327881e-01 6.111575663089752197e-02 -4.322243928909301758e-01
1.477480530738830566e-01 -1.460815072059631348e-01 1.111078541725873947e-03
2.418362498283386230e-01 -4.252282530069351196e-02 -3.723873198032379150e-02
1.578688770532608032e-01 -1.301468312740325928e-01 -1.193203106522560120e-01
1.487997360527515411e-02 -1.780447661876678467e-01 -1.483743172138929367e-02
2.571028172969818115e-01 1.216928660869598389e-02 1.438935101032257080e-01
-4.012837633490562439e-02 9.410288184881210327e-02 4.620769023895263672e-01
-3.213766589760780334e-02 1.934142410755157471e-01 -3.813293278217315674e-01
-1.656502932310104370e-01 1.107853204011917114e-01 -2.224430292844772339e-01
1.423256993293762207e-01 1.915521621704101562e-01 -3.414140343666076660e-01
-1.402381062507629395e-01 2.175922095775604248e-01 -4.176124185323715210e-02
1.505459845066070557e-01 -1.224385872483253479e-01 1.958936005830764771e-01
3.601333126425743103e-02 -1.640584170818328857e-01 -1.743299961090087891e-01
-8.452208340167999268e-02 2.625985741615295410e-01 1.361058354377746582e-01
1.479119434952735901e-02 -1.025752648711204529e-01 3.475881814956665039e-01
-6.422576308250427246e-02 -7.787043601274490356e-02 -3.497777581214904785e-01
-1.643437594175338745e-01 -1.131829619407653809e-02 1.777511984109878540e-01
2.646714150905609131e-01 4.489593952894210815e-02 1.344641894102096558e-01
1.467768549919128418e-01 -3.071495890617370605e-02 -3.725129663944244385e-01
3.102189116179943085e-02 3.100268244743347168e-01 1.066546961665153503e-01
-3.452222421765327454e-02 2.750411629676818848e-01 -1.884697526693344116e-01
-8.169232308864593506e-02 1.940002441406250000e-01 3.365727365016937256e-01
1.530466675758361816e-01 -6.398525089025497437e-02 3.427425026893615723e-01
2.062741480767726898e-02 6.404700875282287598e-02 4.970698952674865723e-01
4.060413688421249390e-03 2.969252765178680420e-01 -1.345402896404266357e-01
2.107371836900711060e-01 -8.508587628602981567e-02 1.127350628376007080e-01
-1.687175631523132324e-01 -4.937278479337692261e-02 2.905126288533210754e-02
2.363478392362594604e-01 2.046327888965606689e-01 1.130788307636976242e-02
6.834776699542999268e-02 -1.637066900730133057e-01 1.447832882404327393e-01
-1.542996168136596680e-01 9.352256357669830322e-02 2.597354650497436523e-01
9.838543832302093506e-02 2.960953414440155029e-01 1.779362559318542480e-01
1.399961858987808228e-01 2.880675494670867920e-01 -5.812301486730575562e-02
1.010159328579902649e-01 2.459374964237213135e-01 -2.898219227790832520e-01
9.086327254772186279e-02 7.668234407901763916e-03 4.728437364101409912e-01
1.555297523736953735e-01 2.839446365833282471e-01 7.492969930171966553e-02
1.693379878997802734e-01 2.623753547668457031e-01 1.831053048372268677e-01
-1.663766503334045410e-01 6.838365644216537476e-02 -2.446260601282119751e-01
-1.525770574808120728e-01 1.989416778087615967e-02 2.555826604366302490e-01
6.302911043167114258e-02 -7.015138864517211914e-03 4.711558818817138672e-01
-4.906208440661430359e-02 2.451148927211761475e-01 -2.653526365756988525e-01
2.701126337051391602e-01 1.060552597045898438e-01 4.355779662728309631e-02
-4.905167967081069946e-03 3.053853809833526611e-01 9.137742221355438232e-02
6.536256521940231323e-02 3.130671679973602295e-01 4.171187058091163635e-02
2.276003211736679077e-01 -6.898366659879684448e-02 -1.698423922061920166e-02
1.224550604820251465e-02 -1.691540777683258057e-01 -1.397154629230499268e-01
1.553331129252910614e-02 -1.761107146739959717e-01 -7.303385436534881592e-02
8.536575734615325928e-02 -1.285752356052398682e-01 -2.760039865970611572e-01
4.784910008311271667e-02 2.923035025596618652e-01 -1.757578551769256592e-01
1.597694903612136841e-01 2.564837634563446045e-01 2.361608743667602539e-01
1.157592982053756714e-01 5.593935027718544006e-02 4.788778424263000488e-01
1.172591000795364380e-01 -1.584638357162475586e-01 7.324748486280441284e-02
2.048834562301635742e-01 -3.019332885742187500e-03 3.294786512851715088e-01
1.621583849191665649e-01 -1.118228361010551453e-01 -1.897341609001159668e-01
2.148000895977020264e-01 1.331320405006408691e-01 -2.690293490886688232e-01
5.565750226378440857e-02 3.054214119911193848e-01 1.543150693178176880e-01
3.843989223241806030e-02 -1.780633330345153809e-01 -3.831647709012031555e-02
-1.846567988395690918e-01 1.292730718851089478e-01 1.554784364998340607e-02
-1.131073981523513794e-01 -1.115418151021003723e-01 1.178424656391143799e-01
1.405455768108367920e-01 2.405190169811248779e-01 -2.540484368801116943e-01
2.013869285583496094e-01 2.186154723167419434e-01 -1.643816381692886353e-01
2.211559116840362549e-01 -7.905194908380508423e-02 3.057617694139480591e-02
5.050465837121009827e-02 3.112331628799438477e-01 -4.499012231826782227e-02
1.527257412672042847e-01 1.201065331697463989e-01 4.417903721332550049e-01
-1.939248293638229370e-01 6.636940687894821167e-02 -4.385476186871528625e-02
-1.293988674879074097e-01 1.633774787187576294e-01 2.727395594120025635e-01
-1.913070231676101685e-01 3.127488493919372559e-02 -7.363288849592208862e-02
2.349638491868972778e-01 1.193048804998397827e-01 2.820741832256317139e-01
2.524721622467041016e-01 2.125651389360427856e-02 1.910044550895690918e-01
-1.100255399942398071e-01 -6.768590956926345825e-02 2.600108683109283447e-01
-1.376315504312515259e-01 1.010586693882942200e-02 -3.175098598003387451e-01
-1.452717930078506470e-01 3.587379679083824158e-02 2.862952351570129395e-01
-3.674107417464256287e-02 -8.429991453886032104e-02 -3.665322363376617432e-01
7.233938574790954590e-02 2.749549746513366699e-01 -2.323731482028961182e-01
-1.773882061243057251e-01 1.392049789428710938e-01 8.786792308092117310e-02
2.114624679088592529e-01 -6.387449055910110474e-02 1.995895206928253174e-01
2.388378679752349854e-01 8.525121957063674927e-02 -2.217633426189422607e-01
1.307831853628158569e-01 1.774373054504394531e-01 -3.727890253067016602e-01
-1.083976328372955322e-01 -2.336282283067703247e-02 -3.529163897037506104e-01
-1.727444529533386230e-01 -4.318568110466003418e-02 -3.645532578229904175e-02
-1.361219137907028198e-01 2.034857273101806641e-01 1.605930924415588379e-01
1.807197928428649902e-01 -1.467667520046234131e-03 3.787826597690582275e-01
2.466823309659957886e-01 1.737062931060791016e-01 -6.620652228593826294e-02
-2.989743277430534363e-02 -1.612059772014617920e-01 -1.416827440261840820e-01
1.638853847980499268e-01 2.774089574813842773e-01 -2.643540129065513611e-02
-1.080756634473800659e-01 2.484259903430938721e-01 9.652130305767059326e-02
-1.272130906581878662e-01 2.729104459285736084e-02 3.281742930412292480e-01
-9.536746144294738770e-02 2.292418479919433594e-02 3.867620825767517090e-01
1.149921417236328125e-01 -1.207739338278770447e-01 2.678289711475372314e-01
2.171986252069473267e-01 1.512022912502288818e-01 3.087666928768157959e-01
-7.931247353553771973e-02 -4.520661383867263794e-02 3.534756004810333252e-01
-1.170003563165664673e-01 2.017753422260284424e-01 -2.338417917490005493e-01
1.798721253871917725e-01 2.400520816445350647e-02 -3.595370948314666748e-01
7.451871037483215332e-02 -1.453640162944793701e-01 2.271231561899185181e-01
2.231285721063613892e-02 -1.741563379764556885e-01 -1.015441343188285828e-01
1.630052626132965088e-01 2.802867591381072998e-01 4.606187343597412109e-02
2.287421971559524536e-01 1.518515050411224365e-01 -2.057912051677703857e-01
9.721423685550689697e-02 -1.570371687412261963e-01 1.448608487844467163e-01
2.470355108380317688e-02 -1.076492592692375183e-01 -3.499697446823120117e-01
-1.850404143333435059e-01 -9.048022329807281494e-03 -3.366427868604660034e-02
7.913006097078323364e-02 1.672632992267608643e-01 4.627980291843414307e-01
-3.453552350401878357e-02 1.701452434062957764e-01 -4.080075323581695557e-01
1.016457080841064453e-01 -1.666888296604156494e-01 2.776144444942474365e-02
1.785531640052795410e-05 3.025730252265930176e-01 1.329532712697982788e-01
2.905180491507053375e-02 2.519607841968536377e-01 3.456498682498931885e-01
1.949098110198974609e-01 2.352935671806335449e-01 2.049505561590194702e-01
2.713527381420135498e-01 7.767036557197570801e-02 -1.488550566136837006e-03
2.655950188636779785e-01 1.238040179014205933e-01 9.598542749881744385e-02
1.849697381258010864e-01 2.224722206592559814e-01 -2.051544636487960815e-01
1.065956503152847290e-01 -1.327125430107116699e-01 -2.380235344171524048e-01
-6.288427859544754028e-03 2.122298181056976318e-01 3.988859355449676514e-01
7.239870727062225342e-02 2.520599663257598877e-01 -2.953056395053863525e-01
-3.180133923888206482e-02 -1.650965511798858643e-01 7.531258463859558105e-02
2.370660305023193359e-01 5.616357922554016113e-02 -2.283755838871002197e-01
9.657274186611175537e-02 2.962965071201324463e-01 -1.175612136721611023e-01
2.798894047737121582e-02 -1.739202439785003662e-01 8.613766729831695557e-02
2.400590032339096069e-01 -4.529628157615661621e-02 8.404000103473663330e-02
1.787977367639541626e-01 2.168705463409423828e-01 -2.341205924749374390e-01
9.310045838356018066e-02 3.087442815303802490e-01 5.161939933896064758e-02
2.675997018814086914e-01 1.177757531404495239e-01 -7.712966762483119965e-03
8.310681581497192383e-02 -1.616594195365905762e-01 -1.456664800643920898e-01
5.176486074924468994e-02 4.629572480916976929e-02 -4.804112017154693604e-01
-4.082902148365974426e-02 2.066974639892578125e-01 -3.542154431343078613e-01
-1.727759093046188354e-01 -3.401164710521697998e-02 -1.055184677243232727e-01
-9.390534460544586182e-02 -1.356074512004852295e-01 6.009961292147636414e-02
2.317841798067092896e-01 1.798840761184692383e-01 2.140650302171707153e-01
4.930357635021209717e-02 3.070580065250396729e-01 -8.838424831628799438e-02
1.659010797739028931e-01 -9.588441997766494751e-02 2.489032745361328125e-01
6.834923475980758667e-02 -1.133573427796363831e-01 3.238854408264160156e-01
2.552617192268371582e-01 -1.182600110769271851e-02 7.931955903768539429e-02
2.393120229244232178e-01 -2.150301635265350342e-02 -1.387407779693603516e-01
1.477122306823730469e-01 -6.914339214563369751e-02 -3.218967020511627197e-01
-3.627691790461540222e-02 1.352329999208450317e-01 4.502929151058197021e-01
-2.981391176581382751e-02 2.895402908325195312e-01 -1.239106431603431702e-01
1.237579286098480225e-01 2.397669851779937744e-02 -4.341706931591033936e-01
-1.915492564439773560e-01 9.750431030988693237e-02 -2.606342732906341553e-02
-9.446315467357635498e-02 1.995232999324798584e-01 3.026255071163177490e-01
2.439036816358566284e-01 1.397461816668510437e-02 -1.742310225963592529e-01
6.680210679769515991e-02 6.859606504440307617e-02 4.998866021633148193e-01
-1.145410910248756409e-02 -1.736629009246826172e-01 2.688114345073699951e-02
2.707035243511199951e-01 8.082579076290130615e-02 8.175320923328399658e-02
1.855032742023468018e-01 -9.384170919656753540e-02 -1.756348758935928345e-01
-1.558393388986587524e-01 1.946701407432556152e-01 4.234490171074867249e-02
-1.423456817865371704e-01 -8.408797532320022583e-02 -1.278784126043319702e-01
8.782331645488739014e-02 2.256813049316406250e-01 3.905453383922576904e-01
2.508043646812438965e-01 9.967036545276641846e-02 -1.664754003286361694e-01
-3.397200629115104675e-02 8.051928877830505371e-02 -4.635811746120452881e-01
2.389847338199615479e-01 1.219047755002975464e-01 -2.012096196413040161e-01
1.001852750778198242e-01 1.112032309174537659e-02 -4.487522840499877930e-01
1.791086345911026001e-01 2.505560815334320068e-01 -1.310914903879165649e-01
1.129959225654602051e-01 -1.560831367969512939e-01 -1.128980144858360291e-01
-1.875137239694595337e-01 1.131386756896972656e-01 -6.254977732896804810e-02
6.525945663452148438e-02 -1.750451624393463135e-01 3.647294268012046814e-02
1.049058437347412109e-01 3.052222132682800293e-01 -6.849988363683223724e-03
7.185606658458709717e-02 -1.748236417770385742e-01 -9.775143116712570190e-04
-1.180326938629150391e-01 -9.329646080732345581e-02 1.720340102910995483e-01
-1.214257031679153442e-01 2.146165072917938232e-01 1.900837719440460205e-01
-9.261652827262878418e-02 2.334705591201782227e-01 -2.138677984476089478e-01
9.225311130285263062e-02 -1.039045676589012146e-01 -3.282716274261474609e-01
-7.024469971656799316e-02 -1.524146795272827148e-01 -6.682612746953964233e-02
-6.262756884098052979e-02 2.253581583499908447e-01 -2.936723530292510986e-01
-1.209827512502670288e-01 1.678160130977630615e-01 -2.889857888221740723e-01
-1.083668321371078491e-01 5.486242100596427917e-02 -3.877691328525543213e-01
-1.269307434558868408e-01 -1.059418395161628723e-01 -1.062539741396903992e-01
-3.876422718167304993e-02 2.856685221195220947e-01 1.604513823986053467e-01
-2.545038238167762756e-02 -9.885333478450775146e-03 -4.511816799640655518e-01
-1.689006686210632324e-01 1.303060054779052734e-01 -1.818141788244247437e-01
-9.842711687088012695e-02 7.261060178279876709e-03 -3.908228278160095215e-01
3.733469545841217041e-02 2.975997924804687500e-01 2.004163563251495361e-01
8.690912276506423950e-02 2.877859175205230713e-01 -1.734022051095962524e-01
-8.708804845809936523e-03 1.619837284088134766e-01 -4.306786656379699707e-01
1.855764687061309814e-01 4.879981279373168945e-03 -3.382005691528320312e-01
-1.088609546422958374e-02 6.152832880616188049e-02 -4.768559336662292480e-01
1.941404640674591064e-01 -2.303221821784973145e-02 -2.945311069488525391e-01
-1.917928457260131836e-01 4.431360214948654175e-02 5.194934830069541931e-02
-6.732945144176483154e-02 6.492712348699569702e-02 4.361725151538848877e-01
-5.681964382529258728e-02 -1.376793682575225830e-01 1.808641403913497925e-01
-1.134871244430541992e-01 1.906208395957946777e-01 2.729037404060363770e-01
1.422115862369537354e-01 -1.132194921374320984e-01 2.475946694612503052e-01
1.679093241691589355e-01 -1.290732622146606445e-01 -6.922921538352966309e-02
1.317332088947296143e-01 1.566171199083328247e-01 4.416008889675140381e-01
9.782256186008453369e-02 -1.667318642139434814e-01 -5.784596502780914307e-02
-1.610782295465469360e-01 1.747167110443115234e-01 -1.139396354556083679e-01
2.672904357314109802e-02 2.285511195659637451e-01 -3.513921499252319336e-01
-2.485416457056999207e-02 1.675387322902679443e-01 4.366117119789123535e-01
-1.871582567691802979e-01 1.014986783266067505e-01 7.789747416973114014e-02
1.553431302309036255e-01 -9.314521402120590210e-02 -2.609236836433410645e-01
4.387920722365379333e-02 -1.265268325805664062e-01 -3.060359358787536621e-01
2.269242405891418457e-01 2.118753790855407715e-01 -5.609968304634094238e-02
4.392447695136070251e-02 -1.373199224472045898e-01 -2.767642438411712646e-01
1.523892730474472046e-01 -9.647998958826065063e-02 2.757838368415832520e-01
1.005760133266448975e-01 1.159763857722282410e-01 -4.466879665851593018e-01
1.745796762406826019e-02 2.848842144012451172e-01 -2.017288655042648315e-01
7.078200578689575195e-02 1.621098965406417847e-01 -4.312253296375274658e-01
-1.420021951198577881e-01 -6.658626347780227661e-02 -1.954345256090164185e-01
1.473199129104614258e-01 2.369161248207092285e-01 3.148226439952850342e-01
-1.280359178781509399e-01 -6.618446856737136841e-02 -2.468727678060531616e-01
1.298278719186782837e-01 -1.317551732063293457e-01 -1.989967077970504761e-01
-1.825628578662872314e-01 9.500399231910705566e-02 1.271685808897018433e-01
2.659382522106170654e-01 9.818399697542190552e-02 -6.767859309911727905e-02
6.756719946861267090e-02 -3.525655716657638550e-02 4.459711611270904541e-01
-3.134942427277565002e-02 -1.399340927600860596e-01 2.153536528348922729e-01
-1.468488425016403198e-01 1.945931017398834229e-01 -1.326896548271179199e-01
9.759072214365005493e-03 2.567743360996246338e-01 -2.867479920387268066e-01
1.390155404806137085e-01 8.897487819194793701e-02 4.628084301948547363e-01
-1.441521048545837402e-01 -8.866698294878005981e-02 3.836932778358459473e-02
2.909228205680847168e-04 2.371401488780975342e-01 -3.274345695972442627e-01
2.246719598770141602e-01 1.964656114578247070e-01 -1.322621554136276245e-01
9.848371148109436035e-02 -2.911889553070068359e-02 4.401885569095611572e-01
5.353795737028121948e-02 1.109447777271270752e-01 -4.698442220687866211e-01
2.538896501064300537e-01 1.207377612590789795e-01 2.002638578414916992e-01
-1.209279149770736694e-01 -1.154954954981803894e-01 -7.187183946371078491e-02
-1.873317211866378784e-01 6.043688580393791199e-02 -1.344141811132431030e-01
-8.817562460899353027e-02 1.609739661216735840e-01 3.663829863071441650e-01
2.595797479152679443e-01 1.846425980329513550e-02 -8.216940611600875854e-02
-6.491258740425109863e-02 2.797973752021789551e-01 -7.663613557815551758e-02
2.342310100793838501e-01 2.025595009326934814e-01 1.182350143790245056e-01
1.109528541564941406e-02 -1.363618373870849609e-01 -2.802489995956420898e-01
-1.134688854217529297e-01 1.261600553989410400e-01 -3.519336879253387451e-01
9.749556332826614380e-02 -1.615186035633087158e-01 1.124847531318664551e-01
-4.077508673071861267e-02 -1.652411222457885742e-01 -6.486365944147109985e-02
3.563364595174789429e-02 1.984843984246253967e-02 4.875467121601104736e-01
-1.713536679744720459e-01 3.873263671994209290e-02 -2.228631228208541870e-01
1.661545187234878540e-01 2.516871392726898193e-01 -1.679208129644393921e-01
4.217920452356338501e-02 1.956356167793273926e-01 -4.018018245697021484e-01
9.041113406419754028e-02 2.736777067184448242e-01 2.807709872722625732e-01
2.063060253858566284e-01 -8.702930063009262085e-02 -1.039288491010665894e-01
-7.751595973968505859e-02 -5.659490823745727539e-03 -4.110425412654876709e-01
-1.211033910512924194e-01 5.126055330038070679e-02 3.493707180023193359e-01
-4.773396998643875122e-03 2.859989106655120850e-01 2.213268876075744629e-01
2.083695977926254272e-01 2.083832621574401855e-01 2.391160428524017334e-01
1.084700673818588257e-01 -1.382357478141784668e-01 2.176846116781234741e-01
-1.425970941781997681e-01 -9.328236430883407593e-02 -3.541874699294567108e-03
-3.663267567753791809e-02 2.934459149837493896e-01 1.085375919938087463e-01
-3.670595213770866394e-02 -1.291962862014770508e-01 2.443396598100662231e-01
-5.310295894742012024e-02 2.823787927627563477e-01 -1.060940250754356384e-01
-5.381947383284568787e-02 3.760725259780883789e-02 -4.505554735660552979e-01
-1.051029711961746216e-01 2.545042634010314941e-01 6.087254360318183899e-02
-1.025504618883132935e-01 -5.752656608819961548e-02 2.948891520500183105e-01
1.973095685243606567e-01 1.868634968996047974e-01 3.131626248359680176e-01
3.130238503217697144e-03 -1.743340492248535156e-01 5.812073871493339539e-02
2.022975310683250427e-02 1.901129186153411865e-01 4.398450255393981934e-01
1.407312303781509399e-01 8.912514895200729370e-03 4.390335083007812500e-01
1.291663497686386108e-01 -9.469331055879592896e-02 3.161468505859375000e-01
2.253683954477310181e-01 2.194079160690307617e-01 9.130173921585083008e-02
2.506799995899200439e-01 -3.510780632495880127e-03 -1.070332899689674377e-01
-1.539084613323211670e-01 -3.878798335790634155e-02 1.750619709491729736e-01
-1.233045756816864014e-01 2.145018279552459717e-01 -1.758701056241989136e-01
1.702963113784790039e-01 2.133326828479766846e-01 3.246016800403594971e-01
-8.016034960746765137e-03 2.886723875999450684e-01 -1.649635136127471924e-01
6.922744214534759521e-02 -1.368169784545898438e-01 2.600782811641693115e-01
2.405434101819992065e-01 7.711350917816162109e-05 2.199103385210037231e-01
1.429442018270492554e-01 -1.482844650745391846e-01 -2.819589525461196899e-02
-1.901602894067764282e-01 1.532683148980140686e-02 -4.893660172820091248e-02
-1.419803649187088013e-01 -6.597907096147537231e-02 1.603113561868667603e-01
1.445729732513427734e-01 -1.411798000335693359e-01 1.123314425349235535e-01
-1.370152235031127930e-01 1.181311905384063721e-01 -3.075114488601684570e-01
-8.419920504093170166e-02 2.408658266067504883e-01 2.300318479537963867e-01
-1.603952497243881226e-01 -6.488335877656936646e-02 -7.128597050905227661e-02
6.289970129728317261e-03 -2.136335521936416626e-02 -4.549008607864379883e-01
1.318041533231735229e-01 2.727949619293212891e-01 2.344519644975662231e-01
2.139614373445510864e-01 3.916040062904357910e-03 -2.712453901767730713e-01
2.764410525560379028e-02 -1.323567628860473633e-01 2.802821993827819824e-01
1.054920256137847900e-01 -8.075477927923202515e-02 -3.574705421924591064e-01
-8.204208314418792725e-02 1.828137487173080444e-01 -3.412361443042755127e-01
-2.974632009863853455e-02 1.911876797676086426e-01 4.080134928226470947e-01
9.811888635158538818e-02 3.062899410724639893e-01 8.528523892164230347e-02
-6.257237493991851807e-02 9.875625371932983398e-02 4.385897219181060791e-01
6.225499510765075684e-02 3.124026581645011902e-02 4.921463429927825928e-01
6.416185200214385986e-02 2.849140465259552002e-01 -2.014402896165847778e-01
-1.798486113548278809e-01 6.763619184494018555e-02 1.579104810953140259e-01
1.748113781213760376e-01 -5.186963081359863281e-02 3.264186978340148926e-01
-1.393694579601287842e-01 -3.042471408843994141e-02 2.434190362691879272e-01
1.626738905906677246e-01 -1.255475282669067383e-01 1.403088122606277466e-01
1.276684403419494629e-01 3.164733573794364929e-02 4.628650844097137451e-01
-1.393594145774841309e-01 -8.496978133916854858e-02 1.041599959135055542e-01
6.100106611847877502e-02 2.326352298259735107e-01 -3.405130803585052490e-01
1.457866579294204712e-01 -1.317683160305023193e-01 -1.562206298112869263e-01
-1.485606431961059570e-01 1.764667630195617676e-01 -1.824240982532501221e-01
-1.698253005743026733e-01 -3.117378801107406616e-02 1.037120595574378967e-01
-6.931948661804199219e-02 -1.486013531684875488e-01 -1.161322966217994690e-01
-1.689984500408172607e-01 1.720509976148605347e-01 4.180659539997577667e-03
-1.207477301359176636e-01 2.312071248888969421e-02 -3.602358400821685791e-01
-8.103233575820922852e-02 -1.477603912353515625e-01 -1.185660157352685928e-02
2.561633288860321045e-01 1.565226614475250244e-01 1.092526465654373169e-01
2.244869917631149292e-01 -7.305937260389328003e-02 5.944660678505897522e-02
1.882129013538360596e-01 1.465994268655776978e-01 3.767953515052795410e-01
-1.295803189277648926e-01 1.221328675746917725e-01 3.143964409828186035e-01
2.560885250568389893e-01 1.033720821142196655e-01 -1.362306773662567139e-01
1.869686245918273926e-01 -7.437720149755477905e-02 -2.265285402536392212e-01
-1.735444664955139160e-01 1.938231289386749268e-03 -1.836955100297927856e-01
2.225318253040313721e-01 1.216731444001197815e-01 3.181853592395782471e-01
7.902877032756805420e-02 2.953018844127655029e-01 -1.451780647039413452e-01
2.545165717601776123e-01 7.414833456277847290e-02 2.169644087553024292e-01
1.207126975059509277e-01 -1.564039587974548340e-01 -7.878556847572326660e-02
2.433069199323654175e-01 1.668004393577575684e-01 1.843877136707305908e-01
-3.452103212475776672e-02 2.936179637908935547e-01 -7.962501049041748047e-02
5.774167925119400024e-02 2.798614799976348877e-01 2.741851508617401123e-01
-9.847880899906158447e-02 2.520901858806610107e-01 -1.143383681774139404e-01
8.135113120079040527e-02 2.530245482921600342e-01 3.406963348388671875e-01
1.777083985507488251e-02 1.545498669147491455e-01 -4.443872869014739990e-01
-4.683997109532356262e-02 -6.800129264593124390e-02 3.636562824249267578e-01
-1.796709150075912476e-01 9.220124036073684692e-02 -1.706088334321975708e-01
-5.377894267439842224e-02 -2.968020737171173096e-02 4.032373726367950439e-01
6.792847067117691040e-03 -1.515190303325653076e-01 2.081185728311538696e-01
-6.493289768695831299e-02 2.181192040443420410e-01 3.244080245494842529e-01
-7.687865197658538818e-02 -1.007185503840446472e-01 2.587110698223114014e-01
1.616880595684051514e-01 -3.963597863912582397e-02 3.666554391384124756e-01
-8.349022269248962402e-02 -3.707691282033920288e-02 -3.782507181167602539e-01
2.378870844841003418e-01 1.905322447419166565e-02 -2.053580731153488159e-01
-1.589025408029556274e-01 -4.241003096103668213e-02 -1.787419617176055908e-01
1.185853481292724609e-01 -1.011833623051643372e-01 -3.049251437187194824e-01
9.272789955139160156e-02 -1.494716405868530273e-01 1.920323818922042847e-01
6.112584099173545837e-02 2.446565628051757812e-01 3.638424873352050781e-01
2.127803862094879150e-03 -5.302632600069046021e-02 4.197117984294891357e-01
-8.046939969062805176e-03 9.108950197696685791e-02 4.850865900516510010e-01
-6.097169592976570129e-02 8.795179426670074463e-03 4.254236817359924316e-01
-1.936985850334167480e-01 7.179026305675506592e-02 1.687293499708175659e-02
3.913355246186256409e-02 -1.155953928828239441e-01 3.241298496723175049e-01
2.083785831928253174e-03 2.361766993999481201e-01 3.648130297660827637e-01
-1.592795997858047485e-01 1.673002541065216064e-01 -1.519852131605148315e-01
-1.930171623826026917e-02 -1.163336560130119324e-01 -3.177663981914520264e-01
-1.655956730246543884e-02 2.638590037822723389e-01 -2.499886304140090942e-01
-2.005561143159866333e-01 -1.062008738517761230e-01 -1.067462936043739319e-01
1.217046678066253662e-01 -6.444830298423767090e-01 -6.979557871818542480e-02
-1.598332375288009644e-01 -3.718506991863250732e-01 -3.633551299571990967e-01
1.600529700517654419e-01 -2.698980271816253662e-01 -2.010555863380432129e-01
8.613443374633789062e-02 -3.961124718189239502e-01 4.478958547115325928e-01
1.983107477426528931e-01 -3.634126782417297363e-01 7.006646692752838135e-02
-1.669774800539016724e-01 -5.726525187492370605e-01 5.742002278566360474e-02
-2.292163521051406860e-01 -4.245713949203491211e-01 -1.883876323699951172e-02
1.703801453113555908e-01 -2.884408533573150635e-01 -1.743476390838623047e-01
-1.416171491146087646e-01 -4.883489012718200684e-01 -3.310560584068298340e-01
-4.274260997772216797e-02 -6.528140306472778320e-01 2.128781080245971680e-01
-2.441322803497314453e-01 -3.262689411640167236e-01 -3.166965767741203308e-02
1.822476238012313843e-01 -4.500764906406402588e-01 -1.653132140636444092e-01
-1.451181173324584961e-01 -6.019102334976196289e-01 -7.891762256622314453e-02
-1.177738904953002930e-01 -6.158006191253662109e-02 3.179476261138916016e-01
-2.237579673528671265e-01 -3.220030963420867920e-01 -1.934926509857177734e-01
1.437613070011138916e-01 -6.024486422538757324e-01 -1.248895004391670227e-01
1.284496933221817017e-01 -6.401525735855102539e-01 2.636361122131347656e-02
1.379307359457015991e-01 -6.009162664413452148e-01 -1.578549146652221680e-01
2.001657634973526001e-01 -3.966287374496459961e-01 -6.825448945164680481e-03
1.557960659265518188e-01 -2.188259661197662354e-01 2.148438394069671631e-01
-1.027974262833595276e-01 -1.969380080699920654e-01 -3.959561884403228760e-01
-9.260972589254379272e-02 -6.270051002502441406e-03 2.110012769699096680e-01
-5.432785302400588989e-02 -6.641429066658020020e-01 1.570225656032562256e-01
-2.028296440839767456e-01 -4.612958133220672607e-01 1.913549304008483887e-01
1.532879322767257690e-01 -1.971057504415512085e-01 -1.141298487782478333e-01
1.960714757442474365e-01 -3.527584373950958252e-01 -5.217693001031875610e-02
-2.302146703004837036e-01 -3.140023350715637207e-01 -1.624517440795898438e-01
-1.708792150020599365e-01 -4.511136412620544434e-01 -2.984136939048767090e-01
1.239279508590698242e-01 -4.542015790939331055e-01 -3.444677293300628662e-01
-1.363895982503890991e-01 -1.176318526268005371e-02 -3.519417718052864075e-02
6.166043877601623535e-02 -2.086521387100219727e-01 4.378339350223541260e-01
-2.204510383307933807e-02 1.218152046203613281e-02 9.233420342206954956e-02
-1.634178608655929565e-01 -3.220354318618774414e-01 -3.631003797054290771e-01
-2.466473877429962158e-01 -2.984079420566558838e-01 4.107979312539100647e-02
-1.344843301922082901e-02 -5.793973803520202637e-01 -3.679786920547485352e-01
-1.130720227956771851e-01 6.165087223052978516e-03 8.437760919332504272e-02
1.248934715986251831e-01 -1.315577775239944458e-01 1.752464473247528076e-01
1.211711019277572632e-01 -1.150194406509399414e-01 -4.604614526033401489e-02
-1.773809045553207397e-01 -2.011508047580718994e-01 3.626443445682525635e-01
-1.222658827900886536e-01 -4.266646504402160645e-01 4.289963245391845703e-01
-2.545668184757232666e-02 -6.370342373847961426e-01 -2.755295932292938232e-01
-2.183815389871597290e-01 -1.300029754638671875e-01 -5.392380058765411377e-02
-2.329941987991333008e-01 -2.618414163589477539e-01 -1.423446238040924072e-01
4.271125048398971558e-02 -6.455443501472473145e-01 2.464942634105682373e-01
-1.010319814085960388e-01 1.026302576065063477e-03 -6.602530181407928467e-02
1.008213981986045837e-01 -5.665681958198547363e-01 -3.077692389488220215e-01
-2.222095727920532227e-01 -2.064297646284103394e-01 -1.630892455577850342e-01
-1.495607048273086548e-01 -1.949270218610763550e-01 -3.435594141483306885e-01
-5.711561068892478943e-02 -3.018602728843688965e-01 -4.626783728599548340e-01
1.189392209053039551e-01 -6.259696483612060547e-01 1.599145233631134033e-01
1.011479943990707397e-01 -5.324110984802246094e-01 3.524011671543121338e-01
-2.773435413837432861e-02 -2.310450822114944458e-01 -4.398469924926757812e-01
-2.712585777044296265e-02 -1.429122388362884521e-01 4.499556422233581543e-01
-1.720004081726074219e-01 -3.772580623626708984e-02 3.521741926670074463e-02
-6.968367844820022583e-02 1.414248347282409668e-02 1.234083548188209534e-01
4.028015583753585815e-02 -2.213879823684692383e-01 -4.023276865482330322e-01
1.295736879110336304e-01 -4.556275010108947754e-01 3.590177595615386963e-01
-5.831776559352874756e-02 -5.241610407829284668e-01 -4.032414257526397705e-01
-5.031588673591613770e-02 1.719674468040466309e-02 1.773011311888694763e-02
-1.058254763484001160e-01 -9.965242445468902588e-02 -3.008485734462738037e-01
9.638413786888122559e-02 -5.108147263526916504e-01 -3.625575900077819824e-01
-2.265618145465850830e-01 -1.503923684358596802e-01 1.107900068163871765e-01
6.868693977594375610e-02 -4.151087999343872070e-02 3.875774890184402466e-02
2.003746852278709412e-02 -2.945787906646728516e-01 -4.527918398380279541e-01
-2.401481866836547852e-01 -2.155729830265045166e-01 -4.307279735803604126e-02
1.333746910095214844e-01 -6.180493235588073730e-01 1.256359368562698364e-01
1.226178407669067383e-01 -3.436687886714935303e-01 3.947173357009887695e-01
-1.671765595674514771e-01 -4.778043031692504883e-01 2.993621826171875000e-01
1.399648636579513550e-01 -1.629913449287414551e-01 -1.033652871847152710e-01
1.314985603094100952e-01 -3.000459074974060059e-01 -3.124426305294036865e-01
1.870471835136413574e-01 -5.155537128448486328e-01 2.905448339879512787e-02
-6.027694791555404663e-03 -6.520047783851623535e-01 2.410591244697570801e-01
1.427349001169204712e-01 -4.919157624244689941e-01 3.057533502578735352e-01
-6.003449484705924988e-02 -4.181152582168579102e-01 -4.583892226219177246e-01
-1.695269346237182617e-01 -8.535441756248474121e-02 2.609883844852447510e-01
-1.620349287986755371e-01 -8.358213305473327637e-02 -1.922710537910461426e-01
-1.499713063240051270e-01 -4.501859843730926514e-01 3.675239682197570801e-01
1.373127698898315430e-01 -3.545833230018615723e-01 3.642977476119995117e-01
-2.180188149213790894e-01 -3.628988564014434814e-01 -2.039451599121093750e-01
-2.259843945503234863e-01 -2.774029374122619629e-01 -1.836515665054321289e-01
1.066004335880279541e-01 -2.366916388273239136e-01 3.858708143234252930e-01
1.822229176759719849e-01 -3.968003690242767334e-01 -1.770130097866058350e-01
1.876708269119262695e-01 -3.609106838703155518e-01 1.795951724052429199e-01
-1.687603741884231567e-01 -1.454234868288040161e-01 -2.674311697483062744e-01
-1.369828879833221436e-01 -5.875564813613891602e-01 1.821410357952117920e-01
1.558182686567306519e-01 -5.367477536201477051e-01 -2.047268748283386230e-01
-1.961548328399658203e-01 -4.090248942375183105e-01 -2.578775584697723389e-01
1.112357527017593384e-01 -1.827955245971679688e-01 -2.530882358551025391e-01
1.305764764547348022e-01 -5.905758142471313477e-01 -2.070594429969787598e-01
-1.113233417272567749e-01 -6.191244125366210938e-01 1.722463369369506836e-01
-2.176577448844909668e-01 -2.935013175010681152e-01 -2.211239039897918701e-01
-1.359817981719970703e-01 -3.751441836357116699e-02 -1.435401737689971924e-01
-6.110468506813049316e-02 -1.462436020374298096e-01 4.518640935420989990e-01
-5.076621472835540771e-02 -3.162688016891479492e-01 5.139279365539550781e-01
1.642042845487594604e-01 -5.630815625190734863e-01 1.238908916711807251e-01
-2.354009076952934265e-03 -1.898092478513717651e-01 -4.067403376102447510e-01
9.214908629655838013e-02 -6.722124814987182617e-01 -6.094502657651901245e-02
1.991030424833297729e-01 -4.362903535366058350e-01 3.012801334261894226e-02
-1.923362910747528076e-01 -2.683248817920684814e-01 -2.953167855739593506e-01
-1.094679310917854309e-01 -5.011785626411437988e-01 3.860833346843719482e-01
-1.855050474405288696e-01 -4.158795475959777832e-01 3.128472268581390381e-01
-1.729766428470611572e-01 -4.388767480850219727e-02 -2.651119977235794067e-02
9.651418775320053101e-02 -9.530173242092132568e-02 2.041886746883392334e-01
-2.383712232112884521e-01 -2.902463078498840332e-01 1.598327457904815674e-01
-1.988894492387771606e-01 -4.651634097099304199e-01 -1.859273910522460938e-01
-2.171704918146133423e-01 -4.405398964881896973e-01 -1.206845268607139587e-01
1.873890161514282227e-01 -2.938753664493560791e-01 1.153869479894638062e-01
-1.960691064596176147e-01 -4.994990229606628418e-01 1.422512978315353394e-01
-1.963720768690109253e-01 -1.648296862840652466e-01 -2.191139161586761475e-01
-1.240487471222877502e-01 -6.023113727569580078e-01 -1.878042817115783691e-01
4.375271499156951904e-02 -6.782789826393127441e-01 -1.610542535781860352e-01
-1.893406510353088379e-01 -2.374036163091659546e-01 3.495310842990875244e-01
-1.846947818994522095e-01 -1.010980904102325439e-01 -1.615535616874694824e-01
1.256970912218093872e-01 -1.567665189504623413e-01 -1.604185104370117188e-01
-4.664334654808044434e-02 -1.936632096767425537e-01 -4.168390631675720215e-01
1.602914184331893921e-01 -4.495858848094940186e-01 -2.558761835098266602e-01
-5.838308483362197876e-02 -6.714267730712890625e-01 1.135180667042732239e-01
1.816381067037582397e-01 -2.919382750988006592e-01 -1.108431741595268250e-01
-2.283128947019577026e-01 -3.124619424343109131e-01 2.171071171760559082e-01
-1.947560608386993408e-01 -6.925404071807861328e-02 6.132274121046066284e-02
8.819993585348129272e-02 -6.283035278320312500e-01 -2.348420619964599609e-01
6.682696193456649780e-02 -6.844827532768249512e-01 6.840895116329193115e-02
-2.174312770366668701e-01 -2.546834945678710938e-01 2.678055465221405029e-01
-9.899523109197616577e-02 -4.828853309154510498e-01 4.161695837974548340e-01
2.449169754981994629e-02 -3.413113951683044434e-01 -4.611568152904510498e-01
-2.392864972352981567e-02 -6.948446035385131836e-01 2.340949885547161102e-02
-1.471053063869476318e-01 -5.990889072418212891e-01 7.634802162647247314e-02
1.168315485119819641e-02 -6.955101490020751953e-01 -9.060415625572204590e-02
6.306817382574081421e-02 -4.104297161102294922e-01 4.681803882122039795e-01
-2.186356186866760254e-01 -4.153747856616973877e-01 1.800899207592010498e-01
-1.973909586668014526e-01 -4.352600574493408203e-01 2.543175816535949707e-01
-9.342849254608154297e-02 -6.161304712295532227e-01 -2.341146469116210938e-01
-1.429675519466400146e-01 -5.922346115112304688e-01 -1.422579586505889893e-01
1.450042426586151123e-01 -6.170381307601928711e-01 -3.513630107045173645e-02
8.622810244560241699e-02 -2.464640736579895020e-01 4.268125295639038086e-01
-1.584023684263229370e-01 -2.866074442863464355e-02 1.229688674211502075e-01
-2.088696062564849854e-01 -3.759765028953552246e-01 2.677298188209533691e-01
-1.458749473094940186e-01 -3.004209697246551514e-01 4.376502931118011475e-01
-5.351692438125610352e-02 9.122401475906372070e-03 1.624878048896789551e-01
-1.434951424598693848e-01 -4.289302229881286621e-01 3.957422673702239990e-01
-2.376659065485000610e-01 -1.876632720232009888e-01 -3.664905205368995667e-03
1.609086692333221436e-01 -4.818412065505981445e-01 -2.379504144191741943e-01
1.001785248517990112e-01 -2.275710701942443848e-01 -3.268944025039672852e-01
1.950982958078384399e-01 -3.971278667449951172e-01 1.266065835952758789e-01
1.281573623418807983e-01 -4.144641458988189697e-01 3.778183460235595703e-01
9.495685249567031860e-02 -8.666306734085083008e-02 -9.131141752004623413e-02
-4.933122545480728149e-04 -5.750259757041931152e-01 3.772037327289581299e-01
1.643788367509841919e-01 -3.600452840328216553e-01 2.880577743053436279e-01
-1.583374291658401489e-01 -5.885994434356689453e-01 -1.976593956351280212e-02
5.132158100605010986e-02 -1.050345152616500854e-01 3.440378010272979736e-01
4.032924771308898926e-03 -3.131311535835266113e-01 5.129663944244384766e-01
1.183335036039352417e-01 -5.249039530754089355e-01 -3.163980841636657715e-01
-2.376630753278732300e-01 -1.945687085390090942e-01 9.442397207021713257e-02
-1.784336268901824951e-01 -5.507935285568237305e-01 -7.284221053123474121e-02
1.705356389284133911e-01 -5.164588093757629395e-01 1.831651329994201660e-01
-8.713276684284210205e-02 -3.268640637397766113e-01 4.964357018470764160e-01
-1.780220717191696167e-01 -3.880996108055114746e-01 3.521327972412109375e-01
7.176905870437622070e-02 -7.541510462760925293e-02 -1.464153826236724854e-01
8.969708532094955444e-02 -6.621406078338623047e-01 -1.341708898544311523e-01
-2.183698266744613647e-01 -4.615031480789184570e-01 5.199806392192840576e-02
6.148587912321090698e-02 -4.436770677566528320e-01 -4.304140508174896240e-01
1.469644308090209961e-01 -1.563407033681869507e-01 2.863204106688499451e-03
1.888679862022399902e-01 -4.970353245735168457e-01 7.965602725744247437e-02
-1.119815111160278320e-01 -2.901748418807983398e-01 4.777291119098663330e-01
4.515584558248519897e-02 -5.410844683647155762e-01 4.015146195888519287e-01
1.778638809919357300e-01 -5.441625714302062988e-01 5.644874647259712219e-02
-9.524799883365631104e-02 -8.315274119377136230e-02 3.719494044780731201e-01
-2.351525723934173584e-01 -3.634513020515441895e-01 -9.921827167272567749e-02
1.307981014251708984e-01 -2.319760471582412720e-01 -2.601505219936370850e-01
3.562921658158302307e-02 -2.178332209587097168e-01 4.693652689456939697e-01
1.384655013680458069e-02 -1.453407257795333862e-01 4.339427649974822998e-01
-2.177859842777252197e-01 -3.876424729824066162e-01 2.194177806377410889e-01
1.676839739084243774e-01 -2.547024786472320557e-01 2.059717774391174316e-01
1.522225588560104370e-01 -1.706787347793579102e-01 9.836961328983306885e-02
-1.335031092166900635e-01 -1.085758209228515625e-02 1.401413232088088989e-01
1.064050197601318359e-01 -1.532703340053558350e-01 -2.204274535179138184e-01
-1.133690923452377319e-01 -3.451090157032012939e-01 4.716967642307281494e-01
1.612181365489959717e-01 -2.987226843833923340e-01 2.772150337696075439e-01
-2.526847459375858307e-02 -1.302948147058486938e-01 -3.587942719459533691e-01
-4.472360014915466309e-03 -7.145971059799194336e-02 -2.657158970832824707e-01
1.995739191770553589e-01 -3.669386506080627441e-01 1.946515962481498718e-02
-2.296548336744308472e-01 -1.587643027305603027e-01 -2.902718633413314819e-02
2.192272618412971497e-02 -4.271855950355529785e-01 4.879525303840637207e-01
-7.619059085845947266e-02 -5.121495723724365234e-01 4.121488928794860840e-01
-2.168194353580474854e-01 -1.677853465080261230e-01 -1.443465948104858398e-01
-9.224022924900054932e-02 -5.314465165138244629e-01 3.748997747898101807e-01
-2.321323156356811523e-01 -2.075798958539962769e-01 1.695650517940521240e-01
-2.457116991281509399e-01 -2.911792695522308350e-01 7.566221058368682861e-02
-6.956462562084197998e-02 -2.733072638511657715e-01 -4.508682191371917725e-01
7.178349792957305908e-02 -5.131310224533081055e-01 4.055292010307312012e-01
5.443762987852096558e-02 -5.815663337707519531e-01 -3.460218012332916260e-01
-6.964762508869171143e-02 -4.736130833625793457e-01 4.497753083705902100e-01
7.033666223287582397e-02 -3.844570219516754150e-01 -4.299618601799011230e-01
6.212483346462249756e-02 -1.269559264183044434e-01 -2.764008045196533203e-01
7.316955924034118652e-02 -6.632044911384582520e-01 1.603958010673522949e-01
7.400362938642501831e-02 -4.724657237529754639e-01 -4.091252684593200684e-01
2.062034979462623596e-02 -5.226908922195434570e-01 -4.168196320533752441e-01
-1.710126996040344238e-01 -3.321778178215026855e-01 3.902714550495147705e-01
-2.244858592748641968e-01 -1.836435198783874512e-01 1.919574737548828125e-01
