-1.668656170368194580e-01 -3.703004419803619385e-01 -2.385833710432052612e-01
8.950286358594894409e-02 -3.124151825904846191e-01 4.475357830524444580e-01
3.648153692483901978e-02 -2.656807303428649902e-01 1.455076187849044800e-01
-2.190644443035125732e-01 -3.579204678535461426e-01 4.491612687706947327e-02
2.043861448764801025e-01 -3.265445828437805176e-01 -3.110052347183227539e-01
3.270814418792724609e-01 -3.324119448661804199e-01 3.474159240722656250e-01
-7.911909371614456177e-02 -2.922262549400329590e-01 1.410142481327056885e-01
-5.114164203405380249e-02 -5.251042842864990234e-01 -6.377695500850677490e-02
1.127132177352905273e-01 -4.310698211193084717e-01 3.877331316471099854e-01
1.575468033552169800e-01 -4.663397371768951416e-01 2.577491998672485352e-01
-1.093052700161933899e-01 -3.508779406547546387e-01 -2.648329138755798340e-01
1.872405707836151123e-01 -2.724347710609436035e-01 -9.491842240095138550e-02
-1.982873678207397461e-01 -3.814616203308105469e-01 -2.086732387542724609e-01
2.532981336116790771e-03 -3.680858612060546875e-01 -3.951092958450317383e-01
1.543605327606201172e-01 -3.375355601310729980e-01 -3.514195084571838379e-01
1.695909053087234497e-01 -4.292848408222198486e-01 3.668272793292999268e-01
1.145553588867187500e-01 -2.585375905036926270e-01 6.674820184707641602e-02
-1.781723797321319580e-01 -3.389352262020111084e-01 -5.491255968809127808e-02
2.348786592483520508e-01 -2.581381201744079590e-01 1.715299487113952637e-01
3.980858922004699707e-01 -3.371327817440032959e-01 -8.327713608741760254e-02
-4.404283314943313599e-02 -5.265412926673889160e-01 -1.386660784482955933e-01
-2.051123231649398804e-02 -3.967088758945465088e-01 -4.280729889869689941e-01
6.446427851915359497e-02 -3.960482180118560791e-01 4.519357979297637939e-01
3.911051526665687561e-02 -2.744112908840179443e-01 -4.224922880530357361e-02
-2.166373133659362793e-01 -4.878925681114196777e-01 -1.626045815646648407e-02
1.806810945272445679e-01 -2.887297570705413818e-01 -1.869293004274368286e-01
3.855863511562347412e-01 -3.171258568763732910e-01 -5.965675041079521179e-02
-3.332602232694625854e-02 -3.265177607536315918e-01 -2.619547843933105469e-01
-7.194749265909194946e-02 -2.955812811851501465e-01 -2.279774472117424011e-02
1.887823939323425293e-01 -3.347282111644744873e-01 -3.364698588848114014e-01
-2.266577780246734619e-01 -3.768793344497680664e-01 -1.020473390817642212e-01
1.803813576698303223e-01 -4.913737177848815918e-01 -2.813004255294799805e-01
-2.382900118827819824e-01 -4.702693223953247070e-01 -1.528233885765075684e-01
1.364090889692306519e-01 -5.125942826271057129e-01 -8.202222734689712524e-02
4.198456183075904846e-02 -3.117018938064575195e-01 -2.582305669784545898e-01
-2.170717716217041016e-02 -5.242506265640258789e-01 -2.129573673009872437e-01
6.811403483152389526e-02 -2.980346977710723877e-01 4.121487140655517578e-01
3.732168972492218018e-01 -2.934342026710510254e-01 8.959263563156127930e-02
6.582556664943695068e-02 -4.432168006896972656e-01 -4.582970738410949707e-01
-2.136646807193756104e-01 -4.390144646167755127e-01 1.967497169971466064e-01
-3.244673460721969604e-02 -5.043456554412841797e-01 -3.485000431537628174e-01
2.449689209461212158e-01 -3.199230432510375977e-01 -2.728876471519470215e-01
-2.095370888710021973e-01 -3.975597321987152100e-01 2.369274795055389404e-01
2.286054491996765137e-01 -4.805582761764526367e-01 -2.509461641311645508e-01
2.996834814548492432e-01 -4.349595308303833008e-01 -2.850874066352844238e-01
-2.022063732147216797e-02 -5.256286263465881348e-01 -6.025571003556251526e-02
2.409385740756988525e-01 -4.668880105018615723e-01 1.535614132881164551e-01
1.150898560881614685e-01 -5.164436101913452148e-01 -1.293852776288986206e-01
-2.489057183265686035e-02 -3.128941059112548828e-01 -2.141603976488113403e-01
2.790005803108215332e-01 -4.382401704788208008e-01 -3.144269883632659912e-01
1.163728684186935425e-01 -2.870912253856658936e-01 3.962737023830413818e-01
2.347507774829864502e-01 -2.632791697978973389e-01 7.935382425785064697e-03
5.024771392345428467e-02 -5.197745561599731445e-01 -2.349458038806915283e-01
8.679524064064025879e-03 -4.456047415733337402e-01 -4.558519721031188965e-01
2.965762615203857422e-01 -2.894504666328430176e-01 3.223708868026733398e-01
-5.843155831098556519e-02 -4.367922246456146240e-01 -4.354712367057800293e-01
-2.292610704898834229e-01 -4.737921953201293945e-01 4.147711023688316345e-02
-1.610482633113861084e-01 -4.207295775413513184e-01 -3.417513966560363770e-01
3.494869172573089600e-01 -3.192835152149200439e-01 3.029322922229766846e-01
2.987550199031829834e-01 -2.815853059291839600e-01 2.889380753040313721e-01
1.878215521574020386e-01 -4.669975638389587402e-01 2.271513491868972778e-01
1.249843761324882507e-01 -2.694197893142700195e-01 3.222904205322265625e-01
-1.194492802023887634e-01 -5.168892145156860352e-01 -2.867833152413368225e-02
1.436654031276702881e-01 -3.777729868888854980e-01 -4.217106401920318604e-01
-1.127128824591636658e-01 -3.219258189201354980e-01 -1.322662234306335449e-01
3.432326912879943848e-01 -2.838578224182128906e-01 1.957620382308959961e-01
1.605743914842605591e-02 -3.382472097873687744e-01 -3.325383067131042480e-01
-1.360924839973449707e-01 -5.149124264717102051e-01 -1.806954145431518555e-01
5.705600231885910034e-02 -5.224670171737670898e-01 -6.451515853404998779e-02
2.734914124011993408e-01 -3.339835107326507568e-01 -2.869835793972015381e-01
9.324051439762115479e-02 -5.157463550567626953e-01 -8.173691108822822571e-03
-6.068243831396102905e-02 -5.231407880783081055e-01 -3.362388163805007935e-02
1.994011998176574707e-01 -3.674736320972442627e-01 -3.901892304420471191e-01
3.018587231636047363e-01 -4.622705578804016113e-01 -1.704608555883169174e-03
2.280923724174499512e-01 -2.895422577857971191e-01 -1.737993657588958740e-01
1.887691318988800049e-01 -2.594479918479919434e-01 2.465762943029403687e-01
-6.726730614900588989e-02 -4.697584509849548340e-01 2.780796885490417480e-01
-1.987340301275253296e-02 -5.092304944992065430e-01 1.136332526803016663e-01
3.159027099609375000e-01 -4.524834156036376953e-01 -1.626588851213455200e-01
-9.719411283731460571e-02 -3.388417959213256836e-01 -2.381599992513656616e-01
5.548846721649169922e-02 -2.656911313533782959e-01 2.244042903184890747e-01
1.520956754684448242e-01 -2.552589178085327148e-01 1.244467422366142273e-01
-6.160426884889602661e-02 -4.964207410812377930e-01 -3.651151061058044434e-01
1.665812879800796509e-01 -3.123034536838531494e-01 -2.805442810058593750e-01
3.183099627494812012e-01 -3.750354647636413574e-01 -2.968547940254211426e-01
-2.320469915866851807e-02 -2.860594093799591064e-01 -4.825550317764282227e-02
-8.481525629758834839e-02 -5.240628719329833984e-01 -1.255307048559188843e-01
2.297053337097167969e-01 -3.939519822597503662e-01 3.977221250534057617e-01
-1.094007864594459534e-01 -3.025205135345458984e-01 5.620659515261650085e-02
-4.501529037952423096e-03 -5.196605920791625977e-01 2.675700187683105469e-02
2.176084816455841064e-01 -4.881339669227600098e-01 -2.213931679725646973e-01
-1.486409902572631836e-01 -3.185331225395202637e-01 1.315057128667831421e-01
3.061847984790802002e-01 -2.913941442966461182e-01 -1.122228801250457764e-01
2.788773477077484131e-01 -2.833294570446014404e-01 -1.026298254728317261e-01
-4.907149821519851685e-02 -4.403593540191650391e-01 3.609828650951385498e-01
-2.160518467426300049e-01 -4.584036171436309814e-01 1.452545374631881714e-01
1.160848587751388550e-01 -3.397959768772125244e-01 -3.598415255546569824e-01
3.002969622611999512e-01 -4.577965438365936279e-01 -1.888849437236785889e-01
8.571660518646240234e-02 -2.690084278583526611e-01 2.975949048995971680e-01
2.977775037288665771e-01 -4.531071484088897705e-01 1.101643592119216919e-01
4.329435527324676514e-02 -4.160524606704711914e-01 4.247657954692840576e-01
1.925079226493835449e-01 -4.830013811588287354e-01 -3.062207400798797607e-01
-1.621181964874267578e-01 -3.240990042686462402e-01 1.051374971866607666e-01
-1.277320384979248047e-01 -4.154216349124908447e-01 3.476318418979644775e-01
-1.458114683628082275e-01 -4.871710240840911865e-01 1.531160473823547363e-01
-1.028213277459144592e-01 -3.070539236068725586e-01 2.318273037672042847e-01
6.092061474919319153e-02 -5.231804847717285156e-01 -1.320917010307312012e-01
8.561368286609649658e-02 -4.984191656112670898e-01 -3.498055040836334229e-01
2.249744236469268799e-01 -4.262250065803527832e-01 -3.942443430423736572e-01
4.542370140552520752e-02 -4.325303733348846436e-01 3.951355516910552979e-01
3.773245513439178467e-01 -3.649386763572692871e-01 2.391765862703323364e-01
2.230629697442054749e-02 -2.964407503604888916e-01 -1.769809126853942871e-01
4.171618819236755371e-01 -3.495208621025085449e-01 7.212521135807037354e-02
-2.460364103317260742e-01 -3.876866102218627930e-01 -5.032568424940109253e-02
2.705187797546386719e-01 -4.476159512996673584e-01 2.019594907760620117e-01
-9.287019819021224976e-02 -3.788556456565856934e-01 -3.542179167270660400e-01
4.493202269077301025e-02 -4.912708103656768799e-01 2.078966498374938965e-01
2.684172391891479492e-01 -4.199686646461486816e-01 -3.543153405189514160e-01
-5.436802655458450317e-02 -4.989724457263946533e-01 1.657162457704544067e-01
1.445502638816833496e-01 -4.976935386657714844e-01 -2.983264029026031494e-01
8.075818419456481934e-03 -5.257023572921752930e-01 -7.370997965335845947e-02
1.624012887477874756e-01 -3.119937181472778320e-01 4.476992189884185791e-01
3.829582929611206055e-01 -3.119225502014160156e-01 2.038554251194000244e-01
1.249660551548004150e-01 -4.231171309947967529e-01 -4.517395496368408203e-01
4.605238884687423706e-02 -2.697103321552276611e-01 -1.633845735341310501e-03
-1.228028461337089539e-01 -5.191869139671325684e-01 -1.034122332930564880e-01
-1.441863477230072021e-01 -3.249207139015197754e-01 -6.905415654182434082e-02
-1.382520049810409546e-02 -2.781335115432739258e-01 2.176773995161056519e-01
-2.770161628723144531e-02 -2.993426322937011719e-01 -1.402678191661834717e-01
1.049900427460670471e-01 -2.834780514240264893e-01 -1.553362309932708740e-01
-1.052101477980613708e-01 -4.012607336044311523e-01 -3.796708285808563232e-01
-1.800874471664428711e-01 -3.331425786018371582e-01 4.951675236225128174e-02
2.790912389755249023e-01 -4.711916446685791016e-01 -1.539025306701660156e-01
-1.310267150402069092e-01 -4.598082900047302246e-01 2.638324201107025146e-01
-1.191524192690849304e-01 -3.130501508712768555e-01 -4.901545494794845581e-02
-5.753263831138610840e-04 -2.738021612167358398e-01 5.465124174952507019e-02
6.687417626380920410e-04 -5.178769826889038086e-01 -2.781569063663482666e-01
-4.314383119344711304e-02 -3.668805062770843506e-01 -3.684979081153869629e-01
-1.370656490325927734e-02 -2.957841157913208008e-01 3.422403633594512939e-01
7.287636399269104004e-03 -5.116593837738037109e-01 9.566701203584671021e-02
2.471205592155456543e-01 -3.558925092220306396e-01 4.246249496936798096e-01
1.633938848972320557e-01 -2.582257986068725586e-01 3.901219367980957031e-02
3.550069928169250488e-01 -2.963428795337677002e-01 -4.418703541159629822e-02
1.751862466335296631e-03 -3.246574401855468750e-01 -2.821908891201019287e-01
1.060886904597282410e-01 -3.830499351024627686e-01 4.625105559825897217e-01
3.700584471225738525e-01 -3.163579702377319336e-01 -1.027943566441535950e-01
-1.212136819958686829e-01 -3.192189931869506836e-01 2.573876380920410156e-01
1.901338994503021240e-02 -4.897447228431701660e-01 2.195509225130081177e-01
1.883568763732910156e-01 -3.720030784606933594e-01 4.484938085079193115e-01
-1.832591891288757324e-01 -4.125917553901672363e-01 2.822062671184539795e-01
1.120221167802810669e-01 -3.122130632400512695e-01 -2.815245091915130615e-01
7.413654774427413940e-02 -5.142808556556701660e-01 -2.658774256706237793e-01
-9.838568419218063354e-02 -4.223189055919647217e-01 3.638927042484283447e-01
-1.321401298046112061e-01 -4.929255545139312744e-01 -3.212309479713439941e-01
2.434972822666168213e-01 -4.011877775192260742e-01 3.739159703254699707e-01
1.144564002752304077e-01 -2.569385766983032227e-01 1.297710835933685303e-01
2.000062465667724609e-01 -2.720008492469787598e-01 3.336248695850372314e-01
1.142125427722930908e-01 -2.658278048038482666e-01 2.929978370666503906e-01
3.171689808368682861e-02 -3.868522942066192627e-01 -4.330692589282989502e-01
9.537311643362045288e-02 -4.719517827033996582e-01 2.731465995311737061e-01
3.882963359355926514e-01 -4.095308184623718262e-01 -8.596847765147686005e-04
2.165577709674835205e-01 -2.876203060150146484e-01 3.842454254627227783e-01
3.173927664756774902e-01 -2.814849019050598145e-01 -3.174873441457748413e-02
-1.783078610897064209e-01 -3.346515893936157227e-01 -6.184312980622053146e-03
3.492221534252166748e-01 -4.366430640220642090e-01 2.791551873087882996e-02
3.086444437503814697e-01 -3.035145103931427002e-01 -1.628564298152923584e-01
-1.665430366992950439e-01 -3.900560736656188965e-01 -2.895503640174865723e-01
-1.354727149009704590e-01 -4.085431694984436035e-01 -3.591828346252441406e-01
-3.779952228069305420e-02 -2.811552286148071289e-01 7.248450815677642822e-02
-7.371547073125839233e-02 -2.970074713230133057e-01 2.385326623916625977e-01
-2.491168677806854248e-01 -3.878957033157348633e-01 -1.288047805428504944e-02
-2.349871397018432617e-01 -4.631210565567016602e-01 7.463596016168594360e-02
2.596377134323120117e-01 -2.628465890884399414e-01 5.112788081169128418e-02
2.010940909385681152e-01 -4.008689224720001221e-01 -4.157100319862365723e-01
2.493216097354888916e-01 -2.736279964447021484e-01 -7.023251056671142578e-02
-1.319941580295562744e-01 -4.729450941085815430e-01 2.233826220035552979e-01
1.083599776029586792e-01 -3.775071203708648682e-01 -4.268143475055694580e-01
-2.836662530899047852e-02 -5.225062370300292969e-01 -7.453502621501684189e-03
2.233906984329223633e-01 -4.919990897178649902e-01 -1.365985274314880371e-01
2.886061668395996094e-01 -3.709039986133575439e-01 3.757190704345703125e-01
3.454083800315856934e-01 -2.907527387142181396e-01 2.362090200185775757e-01
3.856952190399169922e-01 -4.118631482124328613e-01 -3.958723321557044983e-02
-5.408010631799697876e-02 -4.684089124202728271e-01 -4.220956563949584961e-01
-3.087986260652542114e-02 -5.191044211387634277e-01 -2.669771909713745117e-01
-1.384854018688201904e-01 -3.173102140426635742e-01 1.832461655139923096e-01
-1.410781443119049072e-01 -3.748791217803955078e-01 -2.916591763496398926e-01
2.265866845846176147e-02 -3.757991790771484375e-01 4.615905880928039551e-01
-7.019964605569839478e-02 -5.234715938568115234e-01 -1.918729841709136963e-01
-6.735190749168395996e-03 -4.927659034729003906e-01 -3.901670873165130615e-01
3.477468490600585938e-01 -2.830484807491302490e-01 1.624923050403594971e-01
7.104951888322830200e-02 -3.017751872539520264e-01 -2.314009517431259155e-01
2.609618306159973145e-01 -3.868018388748168945e-01 -3.664407134056091309e-01
1.459354311227798462e-01 -4.045202136039733887e-01 -4.419052302837371826e-01
3.928791880607604980e-01 -3.084513843059539795e-01 1.282604336738586426e-01
6.065184623003005981e-02 -4.778438806533813477e-01 2.623003125190734863e-01
4.351677373051643372e-02 -3.538689017295837402e-01 -3.809744417667388916e-01
3.589418530464172363e-01 -3.426979780197143555e-01 -1.962055116891860962e-01
3.567566871643066406e-01 -4.238967895507812500e-01 1.021174192428588867e-01
5.219913274049758911e-02 -3.360180556774139404e-01 -3.407043218612670898e-01
4.513602703809738159e-02 -2.817208170890808105e-01 3.396838307380676270e-01
7.709907740354537964e-02 -4.649544358253479004e-01 3.047269284725189209e-01
-1.790459752082824707e-01 -5.059269666671752930e-01 -8.085783571004867554e-02
-2.121967822313308716e-02 -4.636140763759613037e-01 -4.380477964878082275e-01
9.874075651168823242e-02 -2.801127731800079346e-01 3.660165369510650635e-01
1.081950515508651733e-01 -3.553258180618286133e-01 4.760520756244659424e-01
3.679454028606414795e-01 -3.302772045135498047e-01 2.753028273582458496e-01
4.014231562614440918e-01 -3.887428939342498779e-01 7.905153930187225342e-02
2.963265478610992432e-01 -2.799304127693176270e-01 -5.853109434247016907e-02
3.675425425171852112e-02 -5.165553689002990723e-01 4.354618489742279053e-02
1.352757215499877930e-02 -4.976601600646972656e-01 1.815395504236221313e-01
2.247512936592102051e-01 -4.816960990428924561e-01 8.230002969503402710e-02
-1.524170488119125366e-02 -3.115812540054321289e-01 3.920945823192596436e-01
2.465843260288238525e-01 -3.051288425922393799e-01 -2.255933880805969238e-01
-7.717788964509963989e-02 -4.438202679157257080e-01 3.403384089469909668e-01
3.118951320648193359e-01 -3.989492356777191162e-01 2.992585301399230957e-01
-9.125051647424697876e-02 -4.264332950115203857e-01 -4.128930270671844482e-01
3.518176972866058350e-01 -2.856248617172241211e-01 3.962827101349830627e-02
2.150636017322540283e-01 -3.129994869232177734e-01 -2.683523893356323242e-01
3.805402219295501709e-01 -4.124415814876556396e-01 5.740033835172653198e-02
1.492611169815063477e-01 -2.752667069435119629e-01 -1.160520687699317932e-01
5.611225590109825134e-02 -4.954741597175598145e-01 -3.746763467788696289e-01
3.423706293106079102e-01 -4.431684613227844238e-01 -7.411196827888488770e-02
-1.072404459118843079e-01 -3.671872317790985107e-01 3.818605542182922363e-01
-8.859165012836456299e-03 -2.920848727226257324e-01 -1.188132762908935547e-01
3.712408840656280518e-01 -4.086875319480895996e-01 1.312699317932128906e-01
1.498877704143524170e-01 -5.011616349220275879e-01 -2.673727869987487793e-01
2.093194723129272461e-01 -3.000795841217041016e-01 -2.262573540210723877e-01
-1.162407547235488892e-02 -4.270990490913391113e-01 3.982969820499420166e-01
3.988091945648193359e-01 -3.608423471450805664e-01 -1.163453161716461182e-01
2.520664036273956299e-01 -4.223088026046752930e-01 3.170594573020935059e-01
1.955396234989166260e-01 -4.813377559185028076e-01 1.406337469816207886e-01
-1.562152504920959473e-01 -4.282458126544952393e-01 3.019306957721710205e-01
3.430546522140502930e-01 -4.280489087104797363e-01 1.284723877906799316e-01
-1.100888848304748535e-02 -3.549861311912536621e-01 -3.613974153995513916e-01
-8.345740288496017456e-02 -2.959590554237365723e-01 1.692543737590312958e-02
-1.102518513798713684e-01 -4.459297358989715576e-01 3.142745494842529297e-01
2.283867076039314270e-02 -5.259394049644470215e-01 -1.313895136117935181e-01
-1.654871404170989990e-01 -5.039625167846679688e-01 1.404919289052486420e-02
1.882978528738021851e-01 -5.019483566284179688e-01 -9.179565310478210449e-02
-6.297255307435989380e-02 -4.899948239326477051e-01 2.050160020589828491e-01
3.600836396217346191e-01 -4.000938832759857178e-01 2.013733834028244019e-01
1.668293476104736328e-01 -5.044152736663818359e-01 -1.928981542587280273e-01
-2.539709806442260742e-01 -4.608460962772369385e-01 -3.736242279410362244e-02
-5.709087103605270386e-02 -3.228793144226074219e-01 3.772193491458892822e-01
-1.752093732357025146e-01 -5.010788440704345703e-01 -2.098937183618545532e-01
2.041139900684356689e-01 -4.956809282302856445e-01 -1.796295642852783203e-01
1.378307193517684937e-01 -5.116042494773864746e-01 -1.702960133552551270e-01
-7.467246800661087036e-02 -2.930950522422790527e-01 1.915046274662017822e-01
-8.138992637395858765e-02 -5.160155892372131348e-01 -2.626258730888366699e-01
3.984859883785247803e-01 -3.275107443332672119e-01 1.799356192350387573e-01
2.586668729782104492e-01 -4.614896178245544434e-01 -2.830452322959899902e-01
-8.623088151216506958e-02 -5.203466415405273438e-01 -1.975944824516773224e-02
-6.313084810972213745e-02 -3.083956539630889893e-01 3.254655897617340088e-01
7.088942825794219971e-02 -3.901219367980957031e-01 -4.418398439884185791e-01
-6.553545594215393066e-02 -3.683488816022872925e-02 -2.097298353910446167e-01
4.591091871261596680e-01 1.174784377217292786e-01 -1.261030733585357666e-01
4.320873022079467773e-01 -1.006504967808723450e-01 -2.072315216064453125e-01
-3.937733173370361328e-02 -7.849885523319244385e-02 -1.178154721856117249e-01
1.144338771700859070e-01 -3.347946703433990479e-02 -5.934455394744873047e-01
3.781604170799255371e-01 5.546489357948303223e-02 -5.313779711723327637e-01
3.769571483135223389e-01 1.668375581502914429e-01 9.482332319021224976e-02
3.796026408672332764e-01 7.937580347061157227e-02 -4.997989237308502197e-01
3.305017352104187012e-01 1.580476760864257812e-01 3.193015456199645996e-01
4.686706960201263428e-01 -9.290069341659545898e-02 2.980772964656352997e-02
2.343310266733169556e-01 -1.491145789623260498e-01 2.829901576042175293e-01
4.372565746307373047e-01 4.593168944120407104e-02 4.465610980987548828e-01
2.965077757835388184e-01 -1.557574123144149780e-01 -1.203305795788764954e-01
3.645023107528686523e-01 -1.442545354366302490e-01 -5.130020529031753540e-02
-7.373246550559997559e-02 -3.235425800085067749e-02 1.515428423881530762e-01
3.336578607559204102e-01 1.103303655982017517e-01 4.962866306304931641e-01
-8.678409457206726074e-02 7.082393020391464233e-02 9.368707984685897827e-02
2.108722627162933350e-01 -1.589214801788330078e-01 1.797019094228744507e-01
2.082681208848953247e-01 3.158859536051750183e-02 6.535311341285705566e-01
2.048461884260177612e-01 1.272723525762557983e-01 5.180896520614624023e-01
1.102599799633026123e-01 1.573441922664642334e-01 -4.064532220363616943e-01
1.304606646299362183e-01 1.686417758464813232e-01 -3.699384629726409912e-01
3.266989886760711670e-01 -1.079466119408607483e-01 -4.041234850883483887e-01
-1.639674603939056396e-02 -1.899562589824199677e-02 4.113681018352508545e-01
2.811429202556610107e-01 4.400347918272018433e-02 -6.328754425048828125e-01
4.866265356540679932e-01 8.276528120040893555e-02 -1.672496795654296875e-01
4.632473886013031006e-01 3.386987745761871338e-02 -3.701420426368713379e-01
3.346602916717529297e-01 3.162764012813568115e-02 -5.968455076217651367e-01
3.430659770965576172e-01 1.659879684448242188e-01 2.405940294265747070e-01
3.121071159839630127e-01 -6.797659397125244141e-02 -5.320831537246704102e-01
-9.638795256614685059e-02 4.944496229290962219e-02 5.558915063738822937e-02
1.613047420978546143e-01 1.789481043815612793e-01 -3.297743499279022217e-01
1.931464523077011108e-01 1.962261199951171875e-01 -1.853825002908706665e-01
-1.103332638740539551e-02 1.535737514495849609e-01 -1.171663030982017517e-02
4.921451210975646973e-01 2.393412031233310699e-02 -2.717302143573760986e-01
5.976986885070800781e-02 1.388180255889892578e-01 3.764654397964477539e-01
1.739335954189300537e-01 1.881755739450454712e-01 -2.664920687675476074e-01
1.684002578258514404e-01 2.014368474483489990e-01 -3.190463036298751831e-02
4.553180634975433350e-01 1.166753172874450684e-01 -1.627301573753356934e-01
3.966585397720336914e-01 -1.342185884714126587e-01 4.845067486166954041e-02
2.819061577320098877e-01 1.459935456514358521e-01 4.320759773254394531e-01
-9.179025888442993164e-02 4.417112842202186584e-02 -1.629379093647003174e-01
1.955469697713851929e-01 2.010800242424011230e-01 -9.210041910409927368e-02
2.257297933101654053e-01 -5.950567126274108887e-02 -5.867798924446105957e-01
-2.721661329269409180e-02 -5.191722512245178223e-02 3.135593831539154053e-01
-2.901613712310791016e-02 8.409404754638671875e-02 -3.824766874313354492e-01
2.162197232246398926e-02 1.679167896509170532e-01 5.448758602142333984e-02
1.139056384563446045e-01 -4.709066823124885559e-03 -6.207224726676940918e-01
4.571090936660766602e-01 -3.001188673079013824e-02 -3.612015247344970703e-01
1.107023879885673523e-01 -3.369279205799102783e-02 5.888525247573852539e-01
2.054659724235534668e-01 -9.553722292184829712e-02 5.237970352172851562e-01
3.996341228485107422e-01 -1.053994894027709961e-01 3.289455175399780273e-01
1.273852884769439697e-01 1.738192886114120483e-01 2.969603836536407471e-01
1.156807392835617065e-01 1.957614123821258545e-01 -4.634474962949752808e-02
7.979039847850799561e-02 -1.183826550841331482e-01 -3.103729784488677979e-01
4.829427003860473633e-01 -7.948660850524902344e-02 5.796410515904426575e-02
2.793095707893371582e-01 1.233660057187080383e-01 -5.228117704391479492e-01
2.053024321794509888e-01 1.764205694198608398e-01 3.190389871597290039e-01
4.107488691806793213e-01 -7.246954739093780518e-02 4.221484661102294922e-01
-3.259566426277160645e-02 -8.822023123502731323e-02 2.933122776448726654e-02
3.014240264892578125e-01 8.760428428649902344e-02 -5.777880549430847168e-01
-1.626434922218322754e-02 -4.065632820129394531e-02 3.756490349769592285e-01
4.636776447296142578e-01 1.189618781208992004e-01 4.722365736961364746e-02
4.464681148529052734e-01 2.065785415470600128e-02 -4.209173917770385742e-01
7.131411135196685791e-02 -1.409620642662048340e-01 2.959435805678367615e-02
-5.099478363990783691e-02 1.082402169704437256e-01 1.770162284374237061e-01
9.026578068733215332e-02 -6.396053358912467957e-03 5.923863649368286133e-01
4.104703068733215332e-01 -3.121984191238880157e-02 -4.669905006885528564e-01
-1.914927363395690918e-02 -4.356214404106140137e-02 -3.743056952953338623e-01
3.427188992500305176e-01 1.465624421834945679e-01 3.582931756973266602e-01
1.197767332196235657e-01 6.931938230991363525e-02 5.937108397483825684e-01
4.556696414947509766e-01 -9.651274979114532471e-02 -1.107617020606994629e-01
5.231897234916687012e-01 8.160632103681564331e-03 -3.013265505433082581e-02
2.770705521106719971e-02 -2.372051961719989777e-02 4.968782067298889160e-01
2.048176676034927368e-01 1.174210160970687866e-01 -5.648548603057861328e-01
2.364699691534042358e-01 -1.329836994409561157e-01 -3.538759350776672363e-01
4.105105996131896973e-03 1.560007929801940918e-01 -1.646440774202346802e-01
3.408693671226501465e-01 1.818208098411560059e-01 -3.345067845657467842e-03
2.363539189100265503e-01 1.128905341029167175e-01 5.511890649795532227e-01
-5.594640970230102539e-02 1.125910282135009766e-01 -1.631808280944824219e-01
5.370111763477325439e-02 1.661365777254104614e-01 2.193201333284378052e-01
2.720214426517486572e-01 1.367862820625305176e-01 -4.900440573692321777e-01
5.332702398300170898e-02 -4.254515469074249268e-02 5.123063325881958008e-01
2.980199456214904785e-01 1.921999007463455200e-01 -3.872737288475036621e-02
2.463497221469879150e-02 1.315190196037292480e-01 3.371402025222778320e-01
1.999887377023696899e-01 -7.434108108282089233e-02 -5.573536753654479980e-01
4.116324484348297119e-01 1.205914467573165894e-01 -3.256188631057739258e-01
1.447120308876037598e-01 8.679960668087005615e-02 -6.074804067611694336e-01
6.773191690444946289e-02 1.818012297153472900e-01 9.956192225217819214e-02
2.150180637836456299e-01 1.865421682596206665e-01 -2.802361845970153809e-01
2.046465426683425903e-01 1.818546801805496216e-01 2.833214998245239258e-01
3.522570729255676270e-01 1.285849809646606445e-01 -4.254951477050781250e-01
1.585279554128646851e-01 2.004028409719467163e-01 -6.656189262866973877e-02
8.871195465326309204e-02 1.890937685966491699e-01 -1.079300418496131897e-01
-9.870091080665588379e-02 4.240778833627700806e-02 -7.129643857479095459e-02
4.727858304977416992e-02 -1.323802918195724487e-01 -1.545207016170024872e-02
9.256260842084884644e-02 -1.453682184219360352e-01 -8.421872556209564209e-02
-2.101114392280578613e-02 8.696349710226058960e-02 3.593124747276306152e-01
6.619048118591308594e-02 -1.383168250322341919e-01 7.370802015066146851e-02
3.919398486614227295e-01 1.683850586414337158e-02 5.455345511436462402e-01
2.620656490325927734e-01 1.700404137372970581e-01 -3.601458668708801270e-01
1.593278348445892334e-01 -3.635405004024505615e-02 -6.135447025299072266e-01
5.002716779708862305e-01 -4.251430928707122803e-02 1.854027062654495239e-01
-7.053455710411071777e-02 6.917270272970199585e-02 2.169427871704101562e-01
3.082537055015563965e-01 -1.446666568517684937e-01 2.641566395759582520e-01
4.771340191364288330e-01 -4.161482304334640503e-02 3.094985783100128174e-01
2.676720023155212402e-01 -8.821433037519454956e-02 5.378861427307128906e-01
1.498317718505859375e-01 -1.586754024028778076e-01 6.535273045301437378e-02
2.404305040836334229e-01 -1.189728453755378723e-01 4.477516412734985352e-01
1.644029468297958374e-01 -1.235856190323829651e-01 4.071772694587707520e-01
3.649957478046417236e-02 -1.252664625644683838e-01 1.087196394801139832e-01
1.590653508901596069e-01 -6.201931089162826538e-02 5.815649032592773438e-01
4.690327942371368408e-01 -8.454667776823043823e-02 1.668624877929687500e-01
2.517232000827789307e-01 1.912550777196884155e-01 -2.075382620096206665e-01
3.643267750740051270e-01 6.118055433034896851e-02 5.512928366661071777e-01
9.797585755586624146e-02 -1.422410011291503906e-01 1.775257289409637451e-01
6.836950778961181641e-04 8.333375304937362671e-02 -4.549625217914581299e-01
3.728682994842529297e-01 -1.386945396661758423e-01 1.542194038629531860e-01
-5.011650919914245605e-02 4.655190184712409973e-02 3.340140581130981445e-01
2.169645577669143677e-01 2.017330080270767212e-01 -3.643303737044334412e-02
4.484503865242004395e-01 7.333733141422271729e-02 -3.612667918205261230e-01
4.961589872837066650e-01 8.565601706504821777e-02 3.706254065036773682e-02
3.656196594238281250e-01 -1.184706762433052063e-02 5.745833516120910645e-01
3.296612799167633057e-01 -1.352238804101943970e-01 -2.608724832534790039e-01
1.058590412139892578e-02 -1.041499823331832886e-01 2.019407004117965698e-01
1.511564403772354126e-01 -1.574603319168090820e-01 1.091823279857635498e-01
3.426276445388793945e-01 -9.893257915973663330e-02 4.531291127204895020e-01
5.162543058395385742e-01 3.320962563157081604e-02 1.327097266912460327e-01
2.734852433204650879e-01 -8.211936801671981812e-03 -6.328237652778625488e-01
1.231571659445762634e-01 -1.392632871866226196e-01 -2.472674548625946045e-01
1.540526151657104492e-01 1.298247650265693665e-02 6.423792243003845215e-01
3.505997061729431152e-01 -1.476871035993099213e-02 -5.693084597587585449e-01
7.625736296176910400e-02 -1.302505880594253540e-01 -2.181953191757202148e-01
1.036472693085670471e-01 -1.343495845794677734e-01 2.677148282527923584e-01
2.032199651002883911e-01 -1.557834595441818237e-01 2.146826088428497314e-01
1.989296525716781616e-01 -1.346853375434875488e-01 -3.434371054172515869e-01
3.922940492630004883e-01 -5.590671673417091370e-03 -5.207371115684509277e-01
2.474029064178466797e-01 1.790504008531570435e-01 -3.169964253902435303e-01
-8.837696909904479980e-02 -1.928369887173175812e-02 6.169656664133071899e-02
3.830015361309051514e-01 1.669612228870391846e-01 4.507686477154493332e-03
-5.270197987556457520e-02 -6.361059099435806274e-02 1.304218769073486328e-01
-6.962433457374572754e-02 2.981975115835666656e-02 2.691408991813659668e-01
2.128464281558990479e-01 -1.646861582994461060e-01 1.031410321593284607e-02
6.991574168205261230e-02 4.066639021039009094e-02 5.719547867774963379e-01
2.120003104209899902e-03 1.495951563119888306e-01 -2.171831130981445312e-01
1.424966752529144287e-02 -3.105221129953861237e-02 4.629942774772644043e-01
2.047297656536102295e-01 1.933094114065170288e-01 -2.197803258895874023e-01
3.719795942306518555e-01 -1.391060501337051392e-01 -1.059632673859596252e-01
9.903246164321899414e-02 -1.304739415645599365e-01 -2.700599730014801025e-01
4.643028974533081055e-02 5.616600066423416138e-02 -5.583911538124084473e-01
3.626902103424072266e-01 1.659267395734786987e-01 -1.956761777400970459e-01
2.644386887550354004e-02 1.594929844141006470e-01 1.858090907335281372e-01
3.101678490638732910e-01 -8.226244151592254639e-02 5.295940041542053223e-01
5.232624411582946777e-01 -9.522773325443267822e-05 4.549526423215866089e-02
1.187743321061134338e-01 -1.487765759229660034e-01 -1.367786079645156860e-01
-4.232254624366760254e-02 -5.334090441465377808e-02 -2.628679871559143066e-01
8.555559813976287842e-02 -1.249408051371574402e-01 2.949204146862030029e-01
3.598641157150268555e-01 -1.188874468207359314e-01 -3.055985867977142334e-01
-5.674049258232116699e-02 7.219313085079193115e-02 2.734302282333374023e-01
2.349470853805541992e-01 1.689513921737670898e-01 -3.840016722679138184e-01
1.610694527626037598e-01 -9.693266823887825012e-03 -6.403350830078125000e-01
1.718837767839431763e-01 1.975122839212417603e-01 -1.584967225790023804e-01
5.151861906051635742e-01 -1.674853079020977020e-02 1.406507790088653564e-01
4.347217679023742676e-01 9.864538908004760742e-02 -3.370446264743804932e-01
2.625772655010223389e-01 -1.607210189104080200e-01 1.364607065916061401e-01
4.226793944835662842e-01 -1.211763098835945129e-01 9.366343915462493896e-02
2.408293187618255615e-01 1.886150389909744263e-01 -2.467146068811416626e-01
1.427976489067077637e-01 1.074863374233245850e-01 -5.735383629798889160e-01
1.762339472770690918e-02 1.266711652278900146e-01 -3.827465772628784180e-01
1.482967138290405273e-01 -8.497606962919235229e-02 5.271035432815551758e-01
3.760819435119628906e-01 -1.100350096821784973e-01 3.594017624855041504e-01
2.463040053844451904e-01 1.959194540977478027e-01 -1.513490378856658936e-01
1.238490492105484009e-01 -1.085305437445640564e-01 4.334148764610290527e-01
5.129927396774291992e-01 -3.131101280450820923e-02 1.093239337205886841e-01
2.590999007225036621e-02 9.201988577842712402e-02 -4.865178167819976807e-01
3.477156162261962891e-01 1.772058010101318359e-01 -1.127134412527084351e-01
1.774692684412002563e-01 -9.043268859386444092e-02 -5.124159455299377441e-01
-6.820234656333923340e-02 -2.500109374523162842e-03 2.592773437500000000e-01
-3.668716549873352051e-02 -6.007986143231391907e-03 3.707840144634246826e-01
3.567647933959960938e-02 -1.202242597937583923e-01 -1.650433391332626343e-01
-6.627207994461059570e-02 -5.245072394609451294e-02 8.940786868333816528e-02
4.758474230766296387e-01 -8.370073884725570679e-02 -6.353012472391128540e-02
3.761748373508453369e-01 -8.207854628562927246e-02 4.579774737358093262e-01
1.489498913288116455e-01 -9.926941990852355957e-02 4.876176416873931885e-01
4.364578425884246826e-01 -1.150797680020332336e-01 2.964173816144466400e-02
8.185853064060211182e-02 1.414725929498672485e-01 -4.381670951843261719e-01
3.334797024726867676e-01 2.180121839046478271e-03 6.107714176177978516e-01
1.388673186302185059e-01 1.984429210424423218e-01 2.973894029855728149e-02
2.465749382972717285e-01 -1.555324792861938477e-01 -1.843231767416000366e-01
-9.094637632369995117e-02 7.274690270423889160e-02 -3.255724906921386719e-02
1.340611577033996582e-01 1.965917348861694336e-01 -1.147410273551940918e-01
3.443608880043029785e-01 1.765490919351577759e-01 1.242246702313423157e-01
3.235010206699371338e-01 -1.728636585175991058e-02 -5.937215089797973633e-01
4.212090969085693359e-01 8.813311904668807983e-02 -4.018978178501129150e-01
-5.728930234909057617e-02 -2.542681433260440826e-02 -2.882882654666900635e-01
4.871309697628021240e-01 9.991950355470180511e-03 3.243261277675628662e-01
2.822875976562500000e-01 -1.129508242011070251e-01 -4.246110022068023682e-01
5.172108411788940430e-01 -2.661560289561748505e-02 -1.845456846058368683e-02
4.036882221698760986e-01 1.340229660272598267e-01 -2.863328754901885986e-01
1.287901848554611206e-01 -1.545391082763671875e-01 -6.071162968873977661e-02
2.483215928077697754e-01 1.897887438535690308e-01 1.963154971599578857e-01
-2.619132399559020996e-02 1.041954979300498962e-01 2.977566421031951904e-01
4.925144612789154053e-01 -6.364704668521881104e-02 -8.695513010025024414e-02
2.584951817989349365e-01 -1.525324136018753052e-01 2.455701828002929688e-01
4.600350856781005859e-01 4.154495894908905029e-02 3.937249779701232910e-01
2.318486273288726807e-01 -1.598747074604034424e-01 -1.341424733400344849e-01
2.748317718505859375e-01 -1.034979745745658875e-01 -4.630681574344635010e-01
1.540386676788330078e-02 1.471544429659843445e-02 4.996753334999084473e-01
1.940264552831649780e-01 1.975030153989791870e-01 1.284091472625732422e-01
2.944023609161376953e-01 1.926620304584503174e-01 2.809562161564826965e-02
-5.645647644996643066e-03 1.188665553927421570e-01 -3.528665304183959961e-01
1.637014150619506836e-01 1.922406405210494995e-01 -2.219834029674530029e-01
3.202417492866516113e-01 -9.495676308870315552e-02 -4.559401571750640869e-01
5.089724063873291016e-01 4.387592524290084839e-02 1.732165366411209106e-01
4.592227935791015625e-02 -8.890018612146377563e-02 -3.837203085422515869e-01
3.755463063716888428e-01 1.520723104476928711e-01 2.550280690193176270e-01
1.095534041523933411e-01 1.821735054254531860e-01 2.111286222934722900e-01
-3.802728652954101562e-02 1.148153990507125854e-01 2.097015231847763062e-01
3.814943432807922363e-01 -6.800366938114166260e-02 -4.505542814731597900e-01
9.972929209470748901e-02 1.006921306252479553e-01 5.301174521446228027e-01
3.534296751022338867e-01 -1.485207229852676392e-01 -9.427998214960098267e-03
-8.979052305221557617e-02 1.514765806496143341e-02 1.504896283149719238e-01
5.064377188682556152e-02 -6.107728928327560425e-02 4.738907516002655029e-01
1.571337431669235229e-01 -1.542347967624664307e-01 -1.525731384754180908e-01
1.914520561695098877e-01 -2.500604279339313507e-02 -6.339259743690490723e-01
3.523626923561096191e-01 5.075669288635253906e-02 -5.688591599464416504e-01
2.192223072052001953e-02 -9.733040630817413330e-02 2.889438867568969727e-01
2.571622133255004883e-01 1.768296211957931519e-01 2.957381606101989746e-01
3.577151000499725342e-01 -1.353765279054641724e-01 -1.991749256849288940e-01
5.118361115455627441e-01 -3.189992159605026245e-02 -8.198665827512741089e-02
3.155023455619812012e-01 -1.571903377771377563e-01 3.471322357654571533e-02
4.366070032119750977e-01 -7.016227394342422485e-02 3.673690557479858398e-01
3.249875903129577637e-01 8.595223724842071533e-02 5.564160943031311035e-01
2.410216331481933594e-01 1.423839628696441650e-01 4.668998420238494873e-01
3.027706742286682129e-01 -1.351251006126403809e-01 -2.994178831577301025e-01
2.074521481990814209e-01 6.955121457576751709e-02 -6.374998688697814941e-01
-9.168004989624023438e-02 -2.015901729464530945e-03 1.015944853425025940e-01
1.102124750614166260e-01 1.415219157934188843e-01 -4.670894145965576172e-01
1.302623748779296875e-02 1.060733851045370102e-02 -5.151926279067993164e-01
1.832849383354187012e-01 -1.498122811317443848e-01 -2.306259423494338989e-01
5.703066289424896240e-02 1.820593923330307007e-01 -6.238696351647377014e-02
2.747353315353393555e-01 7.381871342658996582e-02 6.076596379280090332e-01
-7.123440504074096680e-02 1.034526303410530090e-01 -7.043175399303436279e-02
1.231445819139480591e-01 -9.909848868846893311e-02 -4.533811211585998535e-01
-1.093439757823944092e-02 5.982707440853118896e-02 4.276183545589447021e-01
2.084379494190216064e-01 1.992684602737426758e-01 9.566123038530349731e-02
4.335027337074279785e-01 6.950806826353073120e-02 4.205585122108459473e-01
-2.376176416873931885e-02 1.419694870710372925e-01 -1.350958496332168579e-01
-6.791839003562927246e-02 1.617692038416862488e-02 -3.057876825332641602e-01
1.893696188926696777e-02 -4.478922486305236816e-02 -4.588199257850646973e-01
4.593797624111175537e-01 1.182899028062820435e-01 1.194617226719856262e-01
2.971856594085693359e-01 1.853090077638626099e-01 -1.914686858654022217e-01
9.896311908960342407e-02 1.812803596258163452e-01 -2.446448951959609985e-01
4.018028974533081055e-01 -1.045498624444007874e-01 -2.847695052623748779e-01
4.433649778366088867e-02 1.276467889547348022e-01 -4.308229088783264160e-01
-4.430815577507019043e-02 -6.020939350128173828e-02 2.089084684848785400e-01
4.080209732055664062e-01 1.244672611355781555e-01 3.177735805511474609e-01
1.430006027221679688e-01 9.782738983631134033e-02 5.663567185401916504e-01
2.383085340261459351e-01 9.349285066127777100e-02 -6.028878688812255859e-01
2.102319002151489258e-01 -1.633803546428680420e-01 9.354447573423385620e-02
5.100182294845581055e-01 4.207656532526016235e-02 -1.443063169717788696e-01
1.835426688194274902e-01 -4.356709867715835571e-02 6.183869242668151855e-01
3.814829587936401367e-01 1.536822766065597534e-01 -2.345591336488723755e-01
5.283981561660766602e-02 1.595053225755691528e-01 -3.086473643779754639e-01
5.030467510223388672e-01 1.653694920241832733e-02 2.503224015235900879e-01
6.630642712116241455e-02 -1.307290047407150269e-01 -1.814115494489669800e-01
4.081593453884124756e-02 -1.275949478149414062e-01 -9.006065130233764648e-02
1.049140915274620056e-01 1.513513922691345215e-01 3.876076638698577881e-01
4.354298114776611328e-01 -4.066992551088333130e-04 4.692144393920898438e-01
3.532047867774963379e-01 -7.386843115091323853e-02 -4.768688380718231201e-01
1.271972954273223877e-01 1.917675137519836426e-01 1.389886885881423950e-01
3.435650765895843506e-01 1.805764585733413696e-01 3.398713469505310059e-02
1.158897876739501953e-01 1.305785626173019409e-01 -5.048866271972656250e-01
2.431810349225997925e-01 1.991409957408905029e-01 5.133278667926788330e-02
2.932998538017272949e-01 -1.421771496534347534e-01 -2.627454996109008789e-01
1.643475890159606934e-01 -1.601584255695343018e-01 -5.463821068406105042e-02
3.106385171413421631e-01 -1.059055104851722717e-01 4.619968533515930176e-01
1.963252276182174683e-01 -1.446553319692611694e-01 -2.791053056716918945e-01
-4.419487714767456055e-02 -2.728947438299655914e-02 -3.345662951469421387e-01
-2.448362112045288086e-02 -8.341554552316665649e-02 1.779530048370361328e-01
3.375258445739746094e-01 -3.528050333261489868e-02 5.851055383682250977e-01
3.416489064693450928e-02 1.692423373460769653e-01 1.183997243642807007e-01
1.587886959314346313e-01 1.721799969673156738e-01 3.316354751586914062e-01
1.573546677827835083e-01 1.440914571285247803e-01 4.550030529499053955e-01
-3.911927342414855957e-03 1.528721302747726440e-01 9.989918768405914307e-02
9.828556329011917114e-02 1.024347245693206787e-01 -5.551156401634216309e-01
3.271262347698211670e-02 3.673690557479858398e-02 5.249559879302978516e-01
1.896321624517440796e-01 -1.396072953939437866e-01 3.382878005504608154e-01
4.679788053035736084e-01 1.160014122724533081e-01 -4.106581211090087891e-03
3.049319982528686523e-01 -1.384745240211486816e-01 3.144155442714691162e-01
4.743094444274902344e-01 1.494907401502132416e-02 3.688281476497650146e-01
1.962697505950927734e-02 -1.163723841309547424e-01 -1.188719645142555237e-01
2.395409196615219116e-01 -1.087877079844474792e-01 -4.582911431789398193e-01
1.263379454612731934e-01 1.535299420356750488e-01 -4.361244738101959229e-01
4.974393844604492188e-01 7.692655175924301147e-02 -1.075868606567382812e-01
3.075165748596191406e-01 -1.584447622299194336e-01 -2.628019079566001892e-03
3.563464283943176270e-01 -8.034047484397888184e-02 4.896431863307952881e-01
-6.450259685516357422e-02 -5.217573046684265137e-02 -1.286891698837280273e-01
3.147359788417816162e-01 1.868743449449539185e-01 -1.027008891105651855e-01
2.122860848903656006e-01 7.883188128471374512e-02 6.142851710319519043e-01
1.661580801010131836e-02 5.988941341638565063e-02 4.823594391345977783e-01
-8.901885151863098145e-02 -7.680457085371017456e-03 -1.401878148317337036e-01
4.410597681999206543e-01 -1.118820682168006897e-01 6.324879825115203857e-02
4.074068665504455566e-01 8.743103593587875366e-02 -4.344749748706817627e-01
3.678331673145294189e-01 1.554407626390457153e-01 -2.656574845314025879e-01
1.032337546348571777e-03 1.049466207623481750e-01 -4.112503826618194580e-01
-5.160140991210937500e-02 1.240547075867652893e-01 2.181845158338546753e-02
-3.215664625167846680e-02 -7.249593734741210938e-02 -2.163462489843368530e-01
5.101488828659057617e-01 1.534069422632455826e-02 -1.773587465286254883e-01
4.961945712566375732e-01 -5.106694996356964111e-02 -1.364798396825790405e-01
-8.481851220130920410e-02 6.590299308300018311e-02 1.326973438262939453e-01
2.576790153980255127e-01 -1.439789086580276489e-01 3.146564066410064697e-01
5.379188060760498047e-02 1.160417869687080383e-01 4.407106637954711914e-01
4.246532917022705078e-04 -1.093591675162315369e-01 -5.631473660469055176e-02
1.550267040729522705e-01 -1.479509919881820679e-01 2.451014071702957153e-01
5.965477228164672852e-02 -1.179629787802696228e-01 -2.674749493598937988e-01
1.810719072818756104e-01 -1.441139280796051025e-01 3.029136061668395996e-01
4.632227122783660889e-01 1.049443036317825317e-01 2.021407783031463623e-01
2.684465944766998291e-01 -4.082290083169937134e-02 -6.040489673614501953e-01
1.601870357990264893e-02 1.394019275903701782e-01 -3.265754282474517822e-01
3.185822665691375732e-01 -1.212281510233879089e-01 3.939501047134399414e-01
2.043244391679763794e-01 1.786509603261947632e-01 -3.387583792209625244e-01
1.171216517686843872e-01 1.793760806322097778e-01 -2.890554368495941162e-01
-4.862365126609802246e-02 2.930311486124992371e-03 -3.665006458759307861e-01
5.790889263153076172e-03 1.459006816148757935e-01 2.109541594982147217e-01
2.147056758403778076e-01 1.925368756055831909e-01 1.895122826099395752e-01
4.042913317680358887e-01 3.549966216087341309e-02 5.188535451889038086e-01
4.523000121116638184e-02 1.780874580144882202e-01 1.971586048603057861e-02
2.529065310955047607e-01 1.989149153232574463e-01 -5.186112225055694580e-02
4.263117313385009766e-01 1.126887276768684387e-03 -4.634989500045776367e-01
4.123140573501586914e-01 -1.275452822446823120e-01 9.038213640451431274e-03
2.399204373359680176e-01 1.545963585376739502e-01 4.210702776908874512e-01
3.826260566711425781e-01 -1.191178932785987854e-01 2.969730198383331299e-01
2.802951931953430176e-01 1.939892172813415527e-01 6.929663568735122681e-02
4.237097501754760742e-01 9.548576921224594116e-02 3.828917145729064941e-01
1.920384615659713745e-01 1.518756747245788574e-01 -4.666981101036071777e-01
2.532036304473876953e-01 -3.836186230182647705e-02 6.270797848701477051e-01
4.986902177333831787e-01 -3.545683622360229492e-02 2.200136482715606689e-01
2.892080843448638916e-01 -5.369959026575088501e-02 -5.744988918304443359e-01
3.503115177154541016e-01 1.230484694242477417e-01 4.388343691825866699e-01
1.692505776882171631e-01 7.521656155586242676e-02 -6.287857294082641602e-01
2.432480901479721069e-01 1.568567752838134766e-01 -4.356102049350738525e-01
1.973733454942703247e-01 9.590468555688858032e-02 5.869873166084289551e-01
3.804000020027160645e-01 -1.389981955289840698e-01 9.986238926649093628e-02
2.562060654163360596e-01 -1.440472006797790527e-01 -2.794254422187805176e-01
9.063158929347991943e-02 1.562555432319641113e-01 3.481711447238922119e-01
4.175074398517608643e-02 -1.164821162819862366e-01 -2.245362699031829834e-01
3.956637382507324219e-01 -1.322207897901535034e-01 -7.437954843044281006e-02
7.628653943538665771e-02 7.220871746540069580e-02 -5.780814290046691895e-01
5.097104609012603760e-02 -8.505950868129730225e-02 4.095732271671295166e-01
2.858517765998840332e-01 -1.598666608333587646e-01 1.084841936826705933e-01
1.671985983848571777e-01 1.237463653087615967e-01 -5.470548868179321289e-01
2.669796943664550781e-01 1.677658259868621826e-01 3.431845307350158691e-01
-2.243264019489288330e-02 1.451366096735000610e-01 -9.690010547637939453e-02
3.151784241199493408e-01 1.826199740171432495e-01 1.506309658288955688e-01
1.438663005828857422e-01 1.834675222635269165e-01 2.454819977283477783e-01
4.600581526756286621e-01 5.478281527757644653e-04 -3.824620842933654785e-01
3.289183974266052246e-01 1.538717448711395264e-01 -3.603590726852416992e-01
3.021427989006042480e-01 -1.501829624176025391e-01 -1.806235909461975098e-01
2.238555103540420532e-01 -1.646198481321334839e-01 5.272192135453224182e-02
1.868349313735961914e-01 -8.027219027280807495e-02 5.570420026779174805e-01
1.252568662166595459e-01 -1.549288332462310791e-01 -8.715881034731864929e-03
1.049001514911651611e-02 -7.001830637454986572e-02 -3.741121292114257812e-01
2.393543720245361328e-03 -1.045525372028350830e-01 1.535192877054214478e-01
1.839783191680908203e-01 -1.100812926888465881e-01 4.720361232757568359e-01
1.575420647859573364e-01 1.632905602455139160e-01 -4.127005040645599365e-01
4.777763187885284424e-01 1.062107756733894348e-01 -3.814721480011940002e-02
2.838144302368164062e-01 1.837498247623443604e-01 2.097439467906951904e-01
8.661207556724548340e-02 -5.521535873413085938e-02 5.345417857170104980e-01
4.148841798305511475e-01 -1.057410240173339844e-01 2.838826179504394531e-01
2.480383366346359253e-01 -1.643604338169097900e-01 -2.746738493442535400e-03
4.639236330986022949e-01 -9.278696775436401367e-02 1.268441379070281982e-01
-6.928646564483642578e-02 8.511815220117568970e-02 -2.188161313533782959e-01
