-2.724123559892177582e-02 -1.105948463082313538e-01 3.433903455734252930e-01
-7.858149707317352295e-02 -3.314530253410339355e-01 -2.344821989536285400e-01
1.700686365365982056e-01 -2.762194275856018066e-01 2.836853265762329102e-01
1.838049292564392090e-01 -2.460334002971649170e-01 -1.884332150220870972e-01
-7.862389832735061646e-02 -3.177549540996551514e-01 3.724524080753326416e-01
-1.401748806238174438e-01 -3.044557869434356689e-01 -8.518008887767791748e-02
1.328634172677993774e-01 -3.548374176025390625e-01 -9.202408790588378906e-02
1.771037727594375610e-01 -2.923538982868194580e-01 -2.112108618021011353e-01
1.128332540392875671e-01 -1.875262856483459473e-01 3.887649476528167725e-01
3.700858354568481445e-02 -1.422931104898452759e-01 4.148935675621032715e-01
4.135242104530334473e-02 -3.364186882972717285e-01 4.315811097621917725e-01
1.150759980082511902e-01 -3.385019898414611816e-01 3.304780125617980957e-01
-1.899109221994876862e-03 -1.100321188569068909e-01 3.158752918243408203e-01
5.414205789566040039e-02 -1.193986460566520691e-01 -3.212921917438507080e-01
1.523531526327133179e-01 -2.175619900226593018e-01 3.149313032627105713e-01
5.891075730323791504e-02 -1.067844182252883911e-01 9.071205556392669678e-02
-2.754368633031845093e-02 -3.437739610671997070e-01 -2.922395169734954834e-01
1.178358197212219238e-01 -3.455659747123718262e-01 -2.441593855619430542e-01
4.623124748468399048e-02 -1.369730532169342041e-01 3.749961555004119873e-01
5.021511763334274292e-02 -1.029983013868331909e-01 -1.677368432283401489e-01
-5.470452457666397095e-02 -2.608982920646667480e-01 5.638307332992553711e-01
-5.685935914516448975e-02 -8.007799088954925537e-02 8.610059320926666260e-02
-8.337347209453582764e-02 -3.381944894790649414e-01 -1.400373131036758423e-01
-2.260624989867210388e-02 -1.523689925670623779e-01 -5.462207794189453125e-01
1.254549622535705566e-01 -3.540838360786437988e-01 -1.466172933578491211e-01
1.689176708459854126e-01 -3.251143395900726318e-01 1.433667689561843872e-01
6.631360389292240143e-03 -3.493368625640869141e-01 -3.045395612716674805e-01
4.551964253187179565e-02 -3.760514259338378906e-01 6.452785432338714600e-02
3.902142494916915894e-02 -1.047997102141380310e-01 -2.518034875392913818e-01
-1.023830026388168335e-01 -3.333737552165985107e-01 -2.949514426290988922e-02
-2.324754185974597931e-02 -3.646153211593627930e-01 -7.429805397987365723e-02
-4.209128208458423615e-03 -8.318763971328735352e-02 3.549002576619386673e-03
1.348416060209274292e-01 -3.110152781009674072e-01 3.708031177520751953e-01
-1.071589738130569458e-01 -2.804066240787506104e-01 -4.065302014350891113e-01
-4.148706048727035522e-02 -3.614691495895385742e-01 1.318692229688167572e-02
-2.030108422040939331e-01 -1.817972213029861450e-01 1.224515289068222046e-01
1.400098651647567749e-01 -1.585022062063217163e-01 -9.992778301239013672e-02
-1.822956949472427368e-01 -2.567719221115112305e-01 -9.430044889450073242e-02
-1.581498980522155762e-01 -2.706740200519561768e-01 2.602101564407348633e-01
-1.095374450087547302e-01 -3.027862310409545898e-01 -3.027043640613555908e-01
1.932509541511535645e-01 -2.711241543292999268e-01 6.840611994266510010e-02
7.213036715984344482e-02 -1.180680692195892334e-01 1.600171178579330444e-01
1.671995073556900024e-01 -1.982304900884628296e-01 1.322602629661560059e-01
3.031567670404911041e-02 -1.041790843009948730e-01 2.019486129283905029e-01
-1.921225786209106445e-01 -1.686865091323852539e-01 2.067859172821044922e-01
-8.320870250463485718e-02 -8.006322383880615234e-02 -1.400950551033020020e-01
1.260997503995895386e-01 -1.487179994583129883e-01 -1.542421728372573853e-01
7.001542486250400543e-03 -3.703753054141998291e-01 -8.483147621154785156e-02
-1.228449121117591858e-01 -2.988213300704956055e-01 -2.672165036201477051e-01
1.801321506500244141e-01 -3.140068054199218750e-01 -7.432702183723449707e-02
9.011027961969375610e-02 -2.154023200273513794e-01 -5.258991718292236328e-01
-1.263281553983688354e-01 -1.178852990269660950e-01 -3.579269945621490479e-01
-6.304162740707397461e-02 -8.952794969081878662e-02 2.060094326734542847e-01
-1.151237189769744873e-01 -3.100721836090087891e-01 -2.303511947393417358e-01
-1.424216032028198242e-01 -1.129496470093727112e-01 -2.870900630950927734e-01
1.574743539094924927e-01 -3.392572999000549316e-01 1.205172836780548096e-01
1.053204163908958435e-01 -1.722656041383743286e-01 -4.096395671367645264e-01
-1.964498758316040039e-01 -2.139370292425155640e-01 1.706836521625518799e-01
1.683416813611984253e-01 -1.966287195682525635e-01 -1.445691883563995361e-01
-2.239322103559970856e-02 -3.664451241493225098e-01 -2.514636330306529999e-02
1.276187226176261902e-02 -3.728680610656738281e-01 -4.064010456204414368e-02
2.341828308999538422e-02 -2.968021035194396973e-01 5.458351373672485352e-01
-1.181015893816947937e-01 -2.104617059230804443e-01 4.991115629673004150e-01
7.003732025623321533e-02 -1.092393323779106140e-01 -9.702706336975097656e-02
9.943988174200057983e-02 -1.526081562042236328e-01 2.954632043838500977e-01
-2.644057869911193848e-01 1.951888501644134521e-01 6.903966665267944336e-01
-1.724914014339447021e-01 2.186015844345092773e-01 -3.969960808753967285e-01
2.518041729927062988e-01 2.088247984647750854e-01 3.978768289089202881e-01
1.340519785881042480e-01 2.180765718221664429e-01 -5.154744386672973633e-01
-5.355103686451911926e-02 1.626879572868347168e-01 5.985189080238342285e-01
-2.763914167881011963e-01 1.678250879049301147e-01 1.057804822921752930e-01
-2.517689168453216553e-01 1.909149289131164551e-01 7.365815043449401855e-01
2.023351192474365234e-01 2.190201282501220703e-01 -1.718894578516483307e-02
-2.374492138624191284e-01 2.163848876953125000e-01 -2.618565261363983154e-01
4.633156582713127136e-03 1.564731597900390625e-01 1.806138753890991211e-01
1.327397227287292480e-01 1.588118523359298706e-01 -9.696329385042190552e-02
1.880456507205963135e-01 2.091637998819351196e-01 5.632772445678710938e-01
2.448401786386966705e-02 2.215235084295272827e-01 -4.744609594345092773e-01
1.452425271272659302e-01 2.190906405448913574e-01 2.871430516242980957e-01
-1.490864753723144531e-01 1.663670986890792847e-01 -4.652601182460784912e-01
1.224569138139486313e-02 2.198007851839065552e-01 4.375616014003753662e-01
2.851433753967285156e-01 2.096095830202102661e-01 -3.581583499908447266e-01
-1.479441374540328979e-01 1.768866926431655884e-01 -7.198457717895507812e-01
1.062913313508033752e-01 2.201700657606124878e-01 -4.630056023597717285e-01
-2.020163536071777344e-01 2.077593356370925903e-01 6.442718505859375000e-01
-6.250214576721191406e-02 1.736486852169036865e-01 8.490566015243530273e-01
1.705188006162643433e-01 1.660162508487701416e-01 -4.679988622665405273e-01
-1.535469014197587967e-02 2.172442227602005005e-01 5.456472635269165039e-01
-8.503638207912445068e-03 2.242165058851242065e-01 -2.799372076988220215e-01
-2.770339250564575195e-01 1.696507483720779419e-01 3.301870822906494141e-01
-1.664389222860336304e-01 1.603968143463134766e-01 -2.484576031565666199e-02
-2.531243264675140381e-01 2.150637805461883545e-01 2.305208444595336914e-01
2.860061526298522949e-01 2.078528851270675659e-01 -4.256966412067413330e-01
2.016330957412719727e-01 2.132686078548431396e-01 4.053187668323516846e-01
-1.610978543758392334e-01 1.680970042943954468e-01 6.508756875991821289e-01
5.526600405573844910e-02 1.716901361942291260e-01 -7.329201698303222656e-01
-2.877170443534851074e-01 2.123780697584152222e-01 -1.926761865615844727e-01
1.443775594234466553e-01 1.637594252824783325e-01 -4.234237670898437500e-01
-1.999487876892089844e-01 1.662583351135253906e-01 -3.356453478336334229e-01
1.115645617246627808e-01 2.230982780456542969e-01 7.845832966268062592e-03
1.879621446132659912e-01 1.652112305164337158e-01 -3.956481814384460449e-01
-3.274327218532562256e-01 1.743344366550445557e-01 6.702542304992675781e-02
-1.433053314685821533e-01 2.185333967208862305e-01 -4.728502631187438965e-01
-1.960601843893527985e-02 1.584040373563766479e-01 3.965917527675628662e-01
2.352776527404785156e-01 2.083482444286346436e-01 -5.970742702484130859e-01
1.779383867979049683e-01 2.182197570800781250e-01 -3.940713703632354736e-01
-1.093490272760391235e-01 2.160993963479995728e-01 -6.158391237258911133e-01
-3.271462395787239075e-02 1.662589907646179199e-01 7.167124152183532715e-01
-2.037319839000701904e-01 2.125228643417358398e-01 5.163266062736511230e-01
-4.986494407057762146e-02 2.121807038784027100e-01 -7.607458233833312988e-01
2.614969909191131592e-01 1.685123145580291748e-01 3.264178037643432617e-01
-3.882050141692161560e-02 1.648132801055908203e-01 -5.436304807662963867e-01
3.060921430587768555e-01 1.705971360206604004e-01 4.713408648967742920e-02
7.059036195278167725e-02 1.952562332153320312e-01 8.967054486274719238e-01
-2.757033407688140869e-01 1.834606528282165527e-01 -5.470557212829589844e-01
1.961786448955535889e-01 1.630602777004241943e-01 -2.481338679790496826e-01
2.318065315485000610e-01 2.075726389884948730e-01 4.966313242912292480e-01
-1.738129369914531708e-02 2.079593986272811890e-01 -8.420783281326293945e-01
-1.668091714382171631e-01 1.611026823520660400e-01 3.026308715343475342e-01
2.514021992683410645e-01 1.650905162096023560e-01 1.184580102562904358e-01
-2.569181025028228760e-01 2.159408777952194214e-01 -1.448326408863067627e-01
2.057565599679946899e-01 1.628608703613281250e-01 2.614440917968750000e-01
-1.026031151413917542e-01 2.119095474481582642e-01 -7.268175482749938965e-01
-1.545739173889160156e-01 2.049572616815567017e-01 7.617502808570861816e-01
-2.244138568639755249e-01 1.823470741510391235e-01 7.684745788574218750e-01
-9.069667756557464600e-02 2.216678857803344727e-01 -4.051550030708312988e-01
-1.606105081737041473e-02 1.572078466415405273e-01 -1.315481960773468018e-01
1.755887269973754883e-02 1.648326963186264038e-01 -5.602714419364929199e-01
2.480007112026214600e-01 1.656425744295120239e-01 2.241013646125793457e-01
-3.654440343379974365e-01 1.987730860710144043e-01 1.355021595954895020e-01
7.363374531269073486e-02 1.578983664512634277e-01 2.946806550025939941e-01
-9.872531145811080933e-02 2.233724892139434814e-01 1.383087635040283203e-01
8.518549054861068726e-02 2.230136990547180176e-01 1.413136720657348633e-01
2.536167502403259277e-01 1.749797612428665161e-01 -5.412601232528686523e-01
5.452521145343780518e-02 1.580108404159545898e-01 3.362660109996795654e-01
1.827818453311920166e-01 2.189145535230636597e-01 -3.231515586376190186e-01
-3.091550245881080627e-02 2.250472158193588257e-01 -4.285788536071777344e-02
1.177308782935142517e-01 1.586614549160003662e-01 -1.389812827110290527e-01
5.482699349522590637e-02 1.570634245872497559e-01 -8.837480098009109497e-02
1.703455001115798950e-01 2.173391729593276978e-01 -4.667767882347106934e-01
-1.368720233440399170e-01 1.744140088558197021e-01 8.084306716918945312e-01
3.116666376590728760e-01 1.740192323923110962e-01 -2.667071819305419922e-01
-1.176007278263568878e-02 2.227928340435028076e-01 -4.023526310920715332e-01
-2.912354469299316406e-01 2.066302299499511719e-01 4.319093525409698486e-01
-2.129828482866287231e-01 2.184310108423233032e-01 1.859482526779174805e-01
2.571226954460144043e-01 1.661062240600585938e-01 -1.426978409290313721e-01
-7.481808215379714966e-02 1.713282167911529541e-01 -6.948000192642211914e-01
-1.200239434838294983e-01 1.591918170452117920e-01 3.000192940235137939e-01
7.337548583745956421e-02 1.593794375658035278e-01 -2.878541946411132812e-01
1.807912886142730713e-01 1.603587567806243896e-01 -5.063202232122421265e-03
3.592002764344215393e-02 1.577543914318084717e-01 -1.908575594425201416e-01
1.703647822141647339e-01 2.201403528451919556e-01 1.024505272507667542e-01
1.016703397035598755e-01 2.202768921852111816e-01 3.179827630519866943e-01
-2.676499821245670319e-02 1.576525568962097168e-01 -1.708832383155822754e-01
3.898135153576731682e-03 2.245344817638397217e-01 9.803671389818191528e-02
3.166947960853576660e-01 1.739957928657531738e-01 2.224757671356201172e-01
-7.134319096803665161e-02 1.591215729713439941e-01 -2.384240925312042236e-01
1.223651170730590820e-01 1.638632416725158691e-01 -4.615896940231323242e-01
-1.471385806798934937e-01 1.593685448169708252e-01 1.795599237084388733e-02
-2.163809537887573242e-01 1.698433607816696167e-01 5.842128396034240723e-01
-1.714039593935012817e-01 2.178266048431396484e-01 -4.389946758747100830e-01
-2.487100102007389069e-02 1.715444922447204590e-01 8.262811303138732910e-01
2.349260076880455017e-02 1.566152721643447876e-01 -5.021512135863304138e-02
-1.657788902521133423e-01 2.183371186256408691e-01 3.624730706214904785e-01
3.320274055004119873e-01 1.928129494190216064e-01 3.720954656600952148e-01
2.118098735809326172e-01 1.897910088300704956e-01 7.482184171676635742e-01
-1.952823847532272339e-01 1.666065454483032227e-01 5.311850905418395996e-01
-1.555717140436172485e-01 1.907090544700622559e-01 8.810205459594726562e-01
1.252627521753311157e-01 1.891879588365554810e-01 8.728235363960266113e-01
-1.393413543701171875e-01 1.686055660247802734e-01 6.960665583610534668e-01
6.550498306751251221e-02 2.105937600135803223e-01 6.964097619056701660e-01
-2.428355813026428223e-01 2.125772237777709961e-01 4.077214598655700684e-01
-4.485910013318061829e-02 2.232519984245300293e-01 -3.514514565467834473e-01
-1.061739474534988403e-01 1.777460873126983643e-01 -7.802292704582214355e-01
-3.191577494144439697e-01 2.067316770553588867e-01 -2.551368474960327148e-01
6.249361485242843628e-02 2.163398861885070801e-01 5.407287478446960449e-01
2.355586886405944824e-01 1.658477336168289185e-01 -2.630992829799652100e-01
3.556045889854431152e-02 1.568299531936645508e-01 2.249189615249633789e-01
-6.254153698682785034e-02 1.962155103683471680e-01 9.150834679603576660e-01
8.841821551322937012e-02 2.195858806371688843e-01 -5.183186531066894531e-01
-1.482435762882232666e-01 2.210542559623718262e-01 -3.127905130386352539e-01
3.291690051555633545e-01 1.858288794755935669e-01 -4.511647820472717285e-01
-1.603020727634429932e-01 2.201090306043624878e-01 2.669779956340789795e-01
4.833058454096317291e-03 2.223256826400756836e-01 3.031938970088958740e-01
-1.809181123971939087e-01 1.627976447343826294e-01 -2.046024501323699951e-01
6.361646950244903564e-02 2.085625678300857544e-01 -8.256778717041015625e-01
-9.117184579372406006e-02 2.080278098583221436e-01 -8.031224012374877930e-01
-6.736492365598678589e-02 2.163238823413848877e-01 5.660661458969116211e-01
-2.646695673465728760e-01 1.737811267375946045e-01 5.470371246337890625e-01
1.137505471706390381e-01 2.206501960754394531e-01 -4.207227826118469238e-01
-3.716312944889068604e-01 1.881354004144668579e-01 -5.802097171545028687e-02
7.603005319833755493e-02 1.568791568279266357e-01 7.340189069509506226e-02
1.426156796514987946e-02 1.573523432016372681e-01 3.077646493911743164e-01
1.834742873907089233e-01 1.636656373739242554e-01 4.072476029396057129e-01
-5.332525819540023804e-03 2.235052883625030518e-01 2.169858515262603760e-01
-2.405176758766174316e-01 1.738646924495697021e-01 6.216193437576293945e-01
-7.976813614368438721e-02 2.195919901132583618e-01 4.298151433467864990e-01
-1.758030951023101807e-01 1.666412055492401123e-01 5.787677764892578125e-01
3.520572558045387268e-02 1.747185438871383667e-01 -7.926451563835144043e-01
-2.434425503015518188e-01 1.657793670892715454e-01 -9.638300538063049316e-02
-1.417524963617324829e-01 1.610294282436370850e-01 3.906123638153076172e-01
6.451105326414108276e-02 1.567477732896804810e-01 1.687888056039810181e-02
-2.083822898566722870e-02 1.564045548439025879e-01 3.170597925782203674e-02
1.171834394335746765e-01 1.586071848869323730e-01 2.511245608329772949e-01
-2.445971369743347168e-01 1.654827296733856201e-01 -5.056006461381912231e-02
-8.776635676622390747e-02 2.134464532136917114e-01 6.412730216979980469e-01
-2.405032068490982056e-01 2.001216858625411987e-01 -6.645550131797790527e-01
-9.437552839517593384e-02 2.241653800010681152e-01 -1.077544838190078735e-01
-1.191121712327003479e-02 2.134213894605636597e-01 6.612440943717956543e-01
1.650171726942062378e-01 1.597942560911178589e-01 1.519721150398254395e-01
6.339296698570251465e-02 1.663717925548553467e-01 6.958714127540588379e-01
-8.366483449935913086e-02 2.200663387775421143e-01 -4.998780786991119385e-01
-2.335908710956573486e-01 2.176334410905838013e-01 1.244335696101188660e-01
-3.234628960490226746e-02 1.712480187416076660e-01 -7.184793353080749512e-01
1.455161720514297485e-01 1.603630781173706055e-01 3.210011720657348633e-01
1.675583422183990479e-01 2.199292480945587158e-01 1.415094435214996338e-01
-2.835938334465026855e-01 2.133993655443191528e-01 1.238179951906204224e-01
6.153678148984909058e-02 2.067827135324478149e-01 7.734757065773010254e-01
-2.772271037101745605e-01 2.114972025156021118e-01 3.109866678714752197e-01
2.388732582330703735e-01 2.165563851594924927e-01 -9.827946126461029053e-02
-8.501727879047393799e-02 1.623927354812622070e-01 -4.075586199760437012e-01
2.111115455627441406e-01 2.027068734169006348e-01 -7.429857254028320312e-01
-1.030159890651702881e-01 1.840289682149887085e-01 -8.513658046722412109e-01
2.892230451107025146e-01 2.100994735956192017e-01 1.489232778549194336e-01
1.843053400516510010e-01 1.712255477905273438e-01 6.475729942321777344e-01
-2.075750380754470825e-01 1.718887537717819214e-01 -5.107205510139465332e-01
-1.611350923776626587e-01 2.102849781513214111e-01 6.504819393157958984e-01
-3.329325318336486816e-01 1.766910105943679810e-01 2.604882121086120605e-01
6.441507488489151001e-02 2.231445312500000000e-01 -3.266209959983825684e-01
9.637501835823059082e-02 2.119304537773132324e-01 -7.462236881256103516e-01
1.174033060669898987e-01 1.579027026891708374e-01 4.590659402310848236e-03
3.595229387283325195e-01 1.857995837926864624e-01 -2.479751706123352051e-01
-1.195779070258140564e-01 1.599086672067642212e-01 -1.931642889976501465e-01
-6.614077091217041016e-02 1.582743078470230103e-01 -1.759305298328399658e-01
2.132118046283721924e-01 1.688869446516036987e-01 -4.763488769531250000e-01
2.324174493551254272e-01 1.634827554225921631e-01 -2.467024140059947968e-02
-2.231325954198837280e-01 2.179633677005767822e-01 -2.187685072422027588e-01
-1.751631349325180054e-01 1.815610527992248535e-01 8.386553525924682617e-01
-3.130695596337318420e-02 1.609224230051040649e-01 -3.891265988349914551e-01
-1.371234953403472900e-01 2.230419814586639404e-01 -3.147203475236892700e-02
-2.171957790851593018e-01 1.750298887491226196e-01 6.978831291198730469e-01
-2.931016385555267334e-01 2.110609114170074463e-01 2.369351685047149658e-01
-2.073691487312316895e-01 2.197895944118499756e-01 -8.694864064455032349e-02
-2.013557404279708862e-01 1.825714707374572754e-01 8.086789250373840332e-01
1.834113746881484985e-01 1.610288321971893311e-01 -1.178892403841018677e-01
-3.398424759507179260e-02 1.570284515619277954e-01 2.511765062808990479e-01
-2.103132605552673340e-01 2.196843922138214111e-01 -4.442231357097625732e-02
5.506376177072525024e-02 1.600791066884994507e-01 -3.469485342502593994e-01
-2.452110946178436279e-01 1.675266325473785400e-01 3.931584656238555908e-01
1.419428884983062744e-01 1.726548373699188232e-01 7.430287003517150879e-01
-1.532866954803466797e-01 2.128605395555496216e-01 -6.404692530632019043e-01
1.655623316764831543e-01 2.080244272947311401e-01 6.317976713180541992e-01
-9.078069776296615601e-02 1.578774154186248779e-01 -6.061416864395141602e-02
-1.848192512989044189e-01 1.825267076492309570e-01 -7.383247613906860352e-01
-7.379750907421112061e-02 1.710414737462997437e-01 8.034195303916931152e-01
-2.132844924926757812e-01 2.088655978441238403e-01 -6.110362410545349121e-01
1.706801801919937134e-01 1.765149384737014771e-01 -7.298499941825866699e-01
-2.742527425289154053e-02 2.248715162277221680e-01 3.542933613061904907e-02
2.387873083353042603e-01 2.114873975515365601e-01 3.514224588871002197e-01
-1.882722526788711548e-01 1.785705089569091797e-01 -6.834124922752380371e-01
-1.129501014947891235e-01 2.175996005535125732e-01 4.840192198753356934e-01
1.983474344015121460e-01 2.188330739736557007e-01 6.814716756343841553e-02
-2.521013319492340088e-01 2.087727040052413940e-01 5.061441063880920410e-01
-9.788741171360015869e-02 1.680796742439270020e-01 7.273153662681579590e-01
-9.248518943786621094e-02 2.231850624084472656e-01 -2.830156683921813965e-01
-2.834649085998535156e-01 1.720137149095535278e-01 4.113616645336151123e-01
3.065136969089508057e-01 1.850102543830871582e-01 -5.373834371566772461e-01
1.327921301126480103e-01 2.023165076971054077e-01 7.746338844299316406e-01
8.701059967279434204e-02 1.678965091705322266e-01 -6.288427710533142090e-01
4.927692562341690063e-02 2.201803624629974365e-01 -5.278488397598266602e-01
3.290500342845916748e-01 2.035443484783172607e-01 1.696898937225341797e-01
8.811821788549423218e-02 1.704407185316085815e-01 7.646913528442382812e-01
-2.426873445510864258e-01 2.099735885858535767e-01 -5.083110332489013672e-01
-5.885212123394012451e-02 2.123008370399475098e-01 6.841238141059875488e-01
2.114389836788177490e-01 2.174703776836395264e-01 1.283887326717376709e-01
-3.679776489734649658e-01 1.881686300039291382e-01 -1.167653426527976990e-01
-3.622129261493682861e-01 1.875934302806854248e-01 -1.734080910682678223e-01
1.257126182317733765e-01 2.137287557125091553e-01 5.498020052909851074e-01
1.647008657455444336e-01 2.209880948066711426e-01 9.540732949972152710e-03
-6.323211640119552612e-02 2.247515618801116943e-01 -8.194470405578613281e-02
5.104441568255424500e-02 2.239874154329299927e-01 1.080048009753227234e-01
2.511063814163208008e-01 1.695825308561325073e-01 4.193027913570404053e-01
7.544317096471786499e-02 1.577180474996566772e-01 -1.389924883842468262e-01
3.273314237594604492e-01 1.754724234342575073e-01 -2.089312374591827393e-01
1.388863325119018555e-01 2.086449712514877319e-01 6.601167321205139160e-01
-1.239570230245590210e-01 1.635331213474273682e-01 -3.986248970031738281e-01
2.122163213789463043e-02 1.909784227609634399e-01 9.375734329223632812e-01
-2.030211240053176880e-01 1.677530109882354736e-01 -3.896499276161193848e-01
1.751721650362014771e-01 1.623509675264358521e-01 3.599580824375152588e-01
-2.170102298259735107e-01 2.172752916812896729e-01 2.603052854537963867e-01
3.000867962837219238e-01 1.895014494657516479e-01 -5.871109366416931152e-01
1.325260549783706665e-01 2.154286205768585205e-01 4.825846552848815918e-01
-4.544500261545181274e-02 2.233119606971740723e-01 2.252488434314727783e-01
3.287677168846130371e-01 2.058676481246948242e-01 -1.551325619220733643e-01
8.441406488418579102e-02 2.234839200973510742e-01 -2.387394607067108154e-01
-6.642865389585494995e-02 1.570763587951660156e-01 1.765408217906951904e-01
-1.711055338382720947e-01 1.706515401601791382e-01 -5.555405616760253906e-01
-2.223937399685382843e-02 2.179462313652038574e-01 -6.239210963249206543e-01
1.409399807453155518e-01 1.706806272268295288e-01 -6.512693762779235840e-01
-1.400938034057617188e-01 2.225196212530136108e-01 -1.879551410675048828e-01
-3.251970708370208740e-01 2.037600874900817871e-01 -3.106161952018737793e-01
-2.862142212688922882e-02 2.238676398992538452e-01 1.816326379776000977e-01
-1.485947072505950928e-01 1.624848842620849609e-01 4.624389410018920898e-01
1.293167471885681152e-01 2.111943811178207397e-01 6.147119402885437012e-01
-2.118704766035079956e-01 2.177679985761642456e-01 -2.998567223548889160e-01
1.351720243692398071e-01 2.224319428205490112e-01 -1.048239618539810181e-01
9.318194538354873657e-02 1.661044508218765259e-01 -5.719285011291503906e-01
2.768402099609375000e-01 2.119085192680358887e-01 -2.782019078731536865e-01
2.113461345434188843e-01 1.769597977399826050e-01 -6.743416190147399902e-01
-5.607725679874420166e-02 2.225956022739410400e-01 2.747625112533569336e-01
2.906080782413482666e-01 2.113634645938873291e-01 3.620907664299011230e-03
8.784046769142150879e-02 2.239001989364624023e-01 -1.130468323826789856e-01
3.678622841835021973e-01 1.851423233747482300e-01 -9.232515096664428711e-02
2.757737338542938232e-01 2.131814658641815186e-01 -4.714268445968627930e-02
-5.864460766315460205e-02 2.077925801277160645e-01 -8.285199403762817383e-01
-2.827116250991821289e-01 2.093119621276855469e-01 3.792462646961212158e-01
-1.064880862832069397e-01 2.023756504058837891e-01 8.383016586303710938e-01
2.550817728042602539e-01 1.651727855205535889e-01 2.500134147703647614e-02
-9.947693347930908203e-02 2.220339626073837280e-01 2.646650671958923340e-01
1.521475799381732941e-02 2.248005270957946777e-01 -1.808540821075439453e-01
-3.104239702224731445e-01 1.723359376192092896e-01 2.104695439338684082e-01
2.954457327723503113e-02 2.194172143936157227e-01 -5.700331926345825195e-01
-2.928840517997741699e-01 2.023553252220153809e-01 -4.888870716094970703e-01
2.560002505779266357e-01 1.652915179729461670e-01 6.408628821372985840e-02
-1.490257829427719116e-01 1.829775124788284302e-01 -7.938514351844787598e-01
-1.697716861963272095e-01 2.215197086334228516e-01 -1.489979624748229980e-01
-1.871544420719146729e-01 1.651465594768524170e-01 4.926702380180358887e-01
1.325036734342575073e-01 1.583253741264343262e-01 8.365330845117568970e-02
2.091568708419799805e-02 2.248723208904266357e-01 6.397604010999202728e-03
1.467224210500717163e-01 1.651114523410797119e-01 5.563051104545593262e-01
-2.020505964756011963e-01 1.620059162378311157e-01 7.097940146923065186e-02
3.543236255645751953e-01 1.936216056346893311e-01 2.205433249473571777e-01
-2.851319909095764160e-01 1.688092052936553955e-01 3.975735604763031006e-02
-1.899656206369400024e-01 2.127593606710433960e-01 -5.734045505523681641e-01
-3.123850524425506592e-01 2.076846808195114136e-01 2.838912308216094971e-01
1.307116001844406128e-01 2.221740633249282837e-01 6.236100196838378906e-02
-1.769340783357620239e-01 1.620943844318389893e-01 -1.659642755985260010e-01
-1.031640693545341492e-01 1.670776158571243286e-01 -5.587704777717590332e-01
-1.802955865859985352e-01 1.739263534545898438e-01 7.455482482910156250e-01
8.006189018487930298e-02 2.197478711605072021e-01 3.817102611064910889e-01
-1.031083911657333374e-01 1.604203730821609497e-01 4.392686486244201660e-01
-6.166426837444305420e-02 1.568877249956130981e-01 3.302747756242752075e-02
1.329491436481475830e-01 1.587357074022293091e-01 1.955815255641937256e-01
2.209018683061003685e-03 2.234779745340347290e-01 -3.513028025627136230e-01
-3.673290461301803589e-02 1.564922034740447998e-01 8.957758545875549316e-02
1.495030969381332397e-01 1.624754965305328369e-01 -3.503165245056152344e-01
2.419848367571830750e-02 1.607791334390640259e-01 -3.957564830780029297e-01
-6.080215424299240112e-02 2.161304354667663574e-01 -6.607931852340698242e-01
4.059702530503273010e-02 1.564531922340393066e-01 1.172847375273704529e-01
1.492733322083950043e-02 1.662623137235641479e-01 7.161326408386230469e-01
-1.860444545745849609e-01 1.643175333738327026e-01 -2.826501727104187012e-01
-8.547548949718475342e-02 2.242268323898315430e-01 3.594101220369338989e-02
-3.365854620933532715e-01 1.947280466556549072e-01 4.511837661266326904e-01
2.119531929492950439e-01 2.156836688518524170e-01 2.575505673885345459e-01
-1.640463322401046753e-01 2.217475026845932007e-01 7.248227298259735107e-02
-1.446086764335632324e-01 2.213745415210723877e-01 2.127563655376434326e-01
2.921179533004760742e-01 2.094933241605758667e-01 -3.158326745033264160e-01
4.885826259851455688e-02 1.683179140090942383e-01 7.504895329475402832e-01
2.526643276214599609e-01 1.656575500965118408e-01 1.845804750919342041e-01
4.417795687913894653e-03 1.583893895149230957e-01 -2.503528892993927002e-01
2.200022935867309570e-01 1.643597483634948730e-01 3.010158836841583252e-01
1.416318714618682861e-01 1.682981699705123901e-01 6.566314101219177246e-01
2.872740030288696289e-01 2.090099900960922241e-01 2.253378033638000488e-01
1.256972365081310272e-02 1.976028233766555786e-01 -9.307225942611694336e-01
2.093433141708374023e-01 2.185859382152557373e-01 -1.476403176784515381e-01
8.158046007156372070e-02 1.610867232084274292e-01 -3.806969821453094482e-01
-2.049565762281417847e-01 1.628897488117218018e-01 2.671134471893310547e-01
-3.078507781028747559e-01 2.108721286058425903e-01 -8.450937271118164062e-02
-2.764447331428527832e-01 1.689812541007995605e-01 2.868040502071380615e-01
-8.100038766860961914e-02 2.204879820346832275e-01 3.841124176979064941e-01
-2.441108524799346924e-01 1.652042418718338013e-01 1.980649828910827637e-01
2.629506289958953857e-01 1.733211278915405273e-01 4.848092496395111084e-01
-3.511723596602678299e-03 2.058758735656738281e-01 8.140757679939270020e-01
-1.782258450984954834e-01 2.166139185428619385e-01 4.179479181766510010e-01
-3.179536461830139160e-01 2.086603790521621704e-01 1.789868772029876709e-01
-1.538717448711395264e-01 1.604033708572387695e-01 -1.096056029200553894e-01
7.125940173864364624e-04 2.208248227834701538e-01 3.917473852634429932e-01
7.586720585823059082e-02 2.241687625646591187e-01 -3.941656276583671570e-02
6.453751027584075928e-02 2.226759642362594604e-01 -3.667796850204467773e-01
1.152509078383445740e-01 2.222340703010559082e-01 -2.883222103118896484e-01
1.372470855712890625e-01 2.222423255443572998e-01 -1.579869985580444336e-01
4.670082405209541321e-02 1.607490777969360352e-01 5.142899155616760254e-01
2.930203080177307129e-01 1.689699590206146240e-01 -2.250621654093265533e-02
6.234089285135269165e-02 2.148632258176803589e-01 -7.011436223983764648e-01
-1.953242421150207520e-01 2.044789493083953857e-01 7.161658406257629395e-01
1.947557032108306885e-01 1.661798357963562012e-01 4.839301109313964844e-01
-2.432068437337875366e-01 1.791616082191467285e-01 -5.766117572784423828e-01
2.868728339672088623e-01 2.120003849267959595e-01 -9.925207495689392090e-02
2.271468341350555420e-01 1.642098277807235718e-01 -1.846539080142974854e-01
8.851009607315063477e-02 1.711369603872299194e-01 -7.065787911415100098e-01
-1.435273289680480957e-01 1.591161340475082397e-01 1.133733987808227539e-01
-1.269485503435134888e-01 1.635984927415847778e-01 5.566732287406921387e-01
-2.238403558731079102e-01 2.150579094886779785e-01 3.626854121685028076e-01
-8.758717030286788940e-02 2.231296151876449585e-01 1.909285485744476318e-01
1.824650168418884277e-01 1.720947027206420898e-01 -6.273425221443176270e-01
-2.029921114444732666e-01 1.632058322429656982e-01 -1.297515034675598145e-01
9.013249725103378296e-02 2.156572937965393066e-01 -6.594777703285217285e-01
-3.304373621940612793e-01 1.937893927097320557e-01 -4.031635522842407227e-01
-2.722693979740142822e-01 2.150247991085052490e-01 -3.695490770041942596e-03
-3.588646650314331055e-01 1.810494810342788696e-01 9.968944638967514038e-02
1.397739201784133911e-01 2.206290960311889648e-01 -3.540024459362030029e-01
1.584454476833343506e-01 1.605781614780426025e-01 -1.935010254383087158e-01
-1.035636067390441895e-01 1.581416577100753784e-01 2.249045968055725098e-01
-1.012013703584671021e-01 2.183556556701660156e-01 -5.497101545333862305e-01
-3.256184607744216919e-02 2.246938943862915039e-01 -1.993494033813476562e-01
-2.319369316101074219e-01 1.640014350414276123e-01 1.202060282230377197e-01
-2.394335269927978516e-01 1.688429117202758789e-01 4.791689813137054443e-01
1.101000905036926270e-01 2.075615972280502319e-01 7.175545096397399902e-01
-1.495024655014276505e-03 1.747265756130218506e-01 8.707393407821655273e-01
-2.485542893409729004e-01 2.107160836458206177e-01 4.573525786399841309e-01
-2.901454269886016846e-01 1.711547374725341797e-01 -1.559369564056396484e-01
-9.052772819995880127e-02 1.611596792936325073e-01 4.995119869709014893e-01
1.277794837951660156e-01 1.607784479856491089e-01 -2.952135801315307617e-01
-3.082549273967742920e-01 1.884056180715560913e-01 5.844719409942626953e-01
2.661507427692413330e-01 2.135749012231826782e-01 -2.267427146434783936e-01
2.865751832723617554e-02 2.228413373231887817e-01 -3.905936777591705322e-01
-2.017469406127929688e-01 2.099318206310272217e-01 5.942893624305725098e-01
-3.208938837051391602e-01 1.744152754545211792e-01 -8.788355439901351929e-02
-1.945494264364242554e-01 2.145080268383026123e-01 -5.101605057716369629e-01
-3.535389527678489685e-02 1.680054813623428345e-01 -6.407192945480346680e-01
-3.617777526378631592e-01 1.950283348560333252e-01 2.826241850852966309e-01
-1.234947293996810913e-01 1.727442890405654907e-01 -6.762734651565551758e-01
8.868295699357986450e-02 1.657067239284515381e-01 6.563360095024108887e-01
-1.157067483291029930e-03 2.250727415084838867e-01 -1.091371402144432068e-01
-1.848046779632568359e-01 2.204724848270416260e-01 1.280403435230255127e-01
-3.538850694894790649e-02 1.613714396953582764e-01 5.542166233062744141e-01
7.828221470117568970e-02 1.606381833553314209e-01 4.783679842948913574e-01
-9.383824467658996582e-02 1.697960346937179565e-01 -6.428983211517333984e-01
-1.021374240517616272e-01 2.238272130489349365e-01 -1.574570238590240479e-01
1.746997833251953125e-01 1.614255607128143311e-01 2.948122620582580566e-01
-7.083752751350402832e-02 1.578248441219329834e-01 -1.175087243318557739e-01
-1.183341965079307556e-01 2.207385301589965820e-01 3.214547336101531982e-01
3.133103251457214355e-01 1.718941628932952881e-01 -9.689231216907501221e-02
-1.697336435317993164e-01 2.208637744188308716e-01 -2.419589757919311523e-01
2.123997360467910767e-01 1.710083633661270142e-01 -5.432655811309814453e-01
-4.751846566796302795e-02 1.590975522994995117e-01 4.277765452861785889e-01
-1.532334983348846436e-01 1.714258641004562378e-01 -6.058160066604614258e-01
1.637288630008697510e-01 2.124803811311721802e-01 5.220076441764831543e-01
3.139035403728485107e-02 2.178140580654144287e-01 5.104538798332214355e-01
-4.396122321486473083e-02 1.600948870182037354e-01 -3.353082537651062012e-01
-9.344664961099624634e-02 1.971384584903717041e-01 -8.908817172050476074e-01
2.263424843549728394e-01 1.709086298942565918e-01 5.415193438529968262e-01
2.847885154187679291e-02 2.021260857582092285e-01 8.570095896720886230e-01
-2.590771317481994629e-01 1.858163326978683472e-01 -6.164417862892150879e-01
-9.755765786394476891e-04 2.216553390026092529e-01 3.466201722621917725e-01
2.246200144290924072e-01 1.631988435983657837e-01 -8.375669270753860474e-02
-1.380540281534194946e-01 1.678558886051177979e-01 -5.337106585502624512e-01
1.369589567184448242e-01 2.161285728216171265e-01 -5.866880416870117188e-01
-2.687165513634681702e-02 2.249313592910766602e-01 -1.524517834186553955e-01
9.179671853780746460e-02 2.234340906143188477e-01 5.939278751611709595e-02
-6.870359927415847778e-02 1.646628975868225098e-01 6.566811203956604004e-01
1.987625956535339355e-01 1.996818482875823975e-01 7.078601717948913574e-01
1.395158842206001282e-02 2.250226885080337524e-01 -4.081577435135841370e-02
3.553661704063415527e-01 1.991764008998870850e-01 -1.850494742393493652e-01
9.206502139568328857e-02 2.186122685670852661e-01 4.189215600490570068e-01
1.655289977788925171e-01 2.206941246986389160e-01 -2.249489724636077881e-01
-5.608983710408210754e-02 1.635179519653320312e-01 -4.848950207233428955e-01
-2.086979299783706665e-01 1.652211695909500122e-01 4.259208738803863525e-01
-2.682922780513763428e-02 1.578762084245681763e-01 3.509987890720367432e-01
1.734273433685302734e-01 1.795728504657745361e-01 -7.698476910591125488e-01
-2.431129515171051025e-01 1.714213341474533081e-01 -3.960055410861968994e-01
5.952342413365840912e-03 2.245353907346725464e-01 -2.363403439521789551e-01
1.406350433826446533e-01 1.781546622514724731e-01 8.135550618171691895e-01
-2.163496315479278564e-01 1.630419641733169556e-01 1.533500477671623230e-02
2.698421478271484375e-01 1.678608506917953491e-01 -1.977559626102447510e-01
5.674385651946067810e-02 1.583747416734695435e-01 -2.295925319194793701e-01
-3.890368714928627014e-02 2.037274390459060669e-01 -8.830655813217163086e-01
2.947173416614532471e-01 1.817912608385086060e-01 5.095393657684326172e-01
2.467500567436218262e-01 2.114474475383758545e-01 -4.689364135265350342e-01
-1.402952075004577637e-01 1.591810286045074463e-01 1.891730129718780518e-01
-9.999729692935943604e-02 1.815277487039566040e-01 9.068042039871215820e-01
-2.593378126621246338e-01 2.133541852235794067e-01 -3.250599503517150879e-01
1.242869645357131958e-01 1.691815257072448730e-01 7.011150121688842773e-01
-2.821438312530517578e-01 2.138683199882507324e-01 7.249920815229415894e-02
1.392076760530471802e-01 1.678891777992248535e-01 -5.795593857765197754e-01
2.450110167264938354e-01 2.137050628662109375e-01 2.158926725387573242e-01
2.170996069908142090e-01 2.164174765348434448e-01 -3.455989956855773926e-01
-1.063358336687088013e-01 1.579078435897827148e-01 1.462798416614532471e-01
-1.869051903486251831e-01 1.627611368894577026e-01 3.559667468070983887e-01
5.252217128872871399e-02 1.636362820863723755e-01 6.237099766731262207e-01
-3.667403757572174072e-02 1.733167320489883423e-01 -7.572323083877563477e-01
-2.091413587331771851e-01 1.695239543914794922e-01 -4.363217055797576904e-01
2.869473770260810852e-02 2.118086516857147217e-01 -7.810028791427612305e-01
-5.538834258913993835e-02 2.236341238021850586e-01 -3.063642978668212891e-01
2.474716454744338989e-01 1.858019530773162842e-01 -7.073807716369628906e-01
-5.851108953356742859e-02 2.070148289203643799e-01 7.923339009284973145e-01
-2.190099097788333893e-03 1.633480787277221680e-01 -5.057554841041564941e-01
-3.371481299400329590e-01 1.766602247953414917e-01 -3.940356895327568054e-02
1.655564457178115845e-01 2.124279737472534180e-01 -6.499509215354919434e-01
5.429053679108619690e-02 1.568087637424468994e-01 1.836127340793609619e-01
3.139198571443557739e-02 2.131011188030242920e-01 6.572271585464477539e-01
7.001802325248718262e-02 2.240851521492004395e-01 -1.860859692096710205e-01
2.546553909778594971e-01 2.134209871292114258e-01 1.764486432075500488e-01
-2.494932115077972412e-01 1.736373305320739746e-01 -4.418017864227294922e-01
-5.290586501359939575e-02 2.241628617048263550e-01 1.289524137973785400e-01
2.382375150918960571e-01 2.106436192989349365e-01 -5.266652107238769531e-01
-1.665224321186542511e-02 1.764409542083740234e-01 -8.154665827751159668e-01
1.724051982164382935e-01 1.780650466680526733e-01 7.686034440994262695e-01
2.915193438529968262e-01 2.010883837938308716e-01 4.424563944339752197e-01
-2.560576200485229492e-01 2.116195708513259888e-01 -4.123350977897644043e-01
-2.586274147033691406e-01 2.160807549953460693e-01 -9.389842301607131958e-02
4.788547009229660034e-02 2.246994227170944214e-01 -7.150765508413314819e-02
1.815926283597946167e-02 1.815799623727798462e-01 -8.820679187774658203e-01
7.996420562267303467e-02 1.595400869846343994e-01 4.140815734863281250e-01
3.672034144401550293e-01 1.856558769941329956e-01 -1.342381834983825684e-01
1.083077043294906616e-01 1.590791344642639160e-01 -2.083818018436431885e-01
-2.316387295722961426e-01 2.180733531713485718e-01 7.453973591327667236e-02
2.390501350164413452e-01 1.691882014274597168e-01 -4.128304123878479004e-01
7.659206539392471313e-02 1.621777117252349854e-01 -4.376942813396453857e-01
1.563603579998016357e-01 2.037917226552963257e-01 -8.126646280288696289e-01
9.201136231422424316e-02 1.575926542282104492e-01 -7.601757347583770752e-02
2.693191766738891602e-01 1.927316784858703613e-01 6.066488623619079590e-01
1.290163397789001465e-01 1.582870632410049438e-01 1.237116232514381409e-01
3.213204145431518555e-01 2.073796540498733521e-01 -5.198535323143005371e-02
-2.961384356021881104e-01 2.048281580209732056e-01 -4.338971972465515137e-01
3.454361557960510254e-01 1.864895075559616089e-01 -3.684771358966827393e-01
1.834203004837036133e-01 2.194110751152038574e-01 -2.712784409523010254e-01
1.749325990676879883e-01 2.164094448089599609e-01 3.478624224662780762e-01
1.997522264719009399e-02 2.102029919624328613e-01 7.295925617218017578e-01
-3.158572614192962646e-01 2.054644972085952759e-01 3.498062193393707275e-01
2.714674770832061768e-01 1.698554307222366333e-01 -3.094745576381683350e-01
-1.354796886444091797e-01 1.649789214134216309e-01 5.952911376953125000e-01
5.496367812156677246e-02 1.794591844081878662e-01 -8.550915718078613281e-01
-1.178930252790451050e-01 1.657063663005828857e-01 -4.944067001342773438e-01
4.736306145787239075e-03 1.590709239244461060e-01 -2.984485030174255371e-01
1.429858058691024780e-01 2.107322514057159424e-01 -7.226339578628540039e-01
-1.653573513031005859e-01 2.143072783946990967e-01 5.313960909843444824e-01
1.202479898929595947e-01 1.616890579462051392e-01 4.656558334827423096e-01
1.100029144436120987e-02 1.642653346061706543e-01 6.615763306617736816e-01
-3.681736439466476440e-02 2.196426093578338623e-01 4.490847885608673096e-01
7.986469566822052002e-02 1.570996195077896118e-01 1.536418199539184570e-01
2.168044447898864746e-02 1.715067178010940552e-01 8.209552168846130371e-01
-1.331539154052734375e-01 2.222352325916290283e-01 1.647872924804687500e-01
-3.558343648910522461e-01 1.953963339328765869e-01 -2.439866960048675537e-01
-1.235201731324195862e-01 2.135367691516876221e-01 6.098608970642089844e-01
-3.224978223443031311e-02 1.601152271032333374e-01 4.960803091526031494e-01
-5.873103067278862000e-02 2.240607142448425293e-01 -2.547983229160308838e-01
2.798558771610260010e-01 1.818408370018005371e-01 5.607932806015014648e-01
2.419088184833526611e-01 1.916431486606597900e-01 6.807801723480224609e-01
2.562176585197448730e-01 2.133242785930633545e-01 -3.310016393661499023e-01
-1.915489882230758667e-01 1.617638319730758667e-01 2.218897342681884766e-01
1.093821600079536438e-01 1.626947075128555298e-01 5.291534662246704102e-01
3.653046488761901855e-01 1.835770308971405029e-01 1.889920607209205627e-02
1.634230464696884155e-02 1.596244424581527710e-01 4.730366170406341553e-01
3.019970953464508057e-01 2.059356123208999634e-01 2.673933804035186768e-01
-8.484765887260437012e-02 1.607630699872970581e-01 -3.245588541030883789e-01
-4.268274456262588501e-02 2.141461223363876343e-01 -7.219570279121398926e-01
-3.691152334213256836e-01 1.920750737190246582e-01 2.329898774623870850e-01
-6.590203195810317993e-02 2.178471833467483521e-01 5.124663710594177246e-01
-2.933395802974700928e-01 2.128263413906097412e-01 -3.979323804378509521e-02
7.829181849956512451e-02 2.181870788335800171e-01 -5.868778824806213379e-01
1.155983433127403259e-01 1.579879671335220337e-01 -3.850000724196434021e-02
-1.377032399177551270e-01 2.076089084148406982e-01 -7.613575458526611328e-01
1.516718417406082153e-01 2.199601829051971436e-01 2.069283723831176758e-01
3.585304021835327148e-01 1.807646602392196655e-01 -4.388704523444175720e-02
-5.131324380636215210e-02 2.152021974325180054e-01 6.077274084091186523e-01
2.368975728750228882e-01 2.164684832096099854e-01 -1.820957660675048828e-01
3.752119839191436768e-02 1.583547592163085938e-01 3.813329041004180908e-01
2.412545531988143921e-01 2.125769853591918945e-01 2.945617139339447021e-01
-1.249087005853652954e-01 2.227744758129119873e-01 -2.264924943447113037e-01
1.919437795877456665e-01 2.175993621349334717e-01 2.211380898952484131e-01
-1.152069494128227234e-01 2.069918960332870483e-01 7.640691399574279785e-01
8.126066625118255615e-02 2.130960673093795776e-01 6.218800544738769531e-01
-1.335214674472808838e-01 1.618209034204483032e-01 -2.906355857849121094e-01
1.784837692975997925e-01 2.204758375883102417e-01 -6.177931278944015503e-02
-1.091887727379798889e-01 -1.468737274408340454e-01 -1.817478239536285400e-01
2.088360488414764404e-01 1.053454056382179260e-01 1.212024316191673279e-02
-1.677658706903457642e-01 -7.212106138467788696e-04 3.557709455490112305e-01
-6.816041655838489532e-03 1.635299175977706909e-01 -5.186214447021484375e-01
-1.707981973886489868e-01 1.423081159591674805e-01 3.015423417091369629e-01
-1.283829808235168457e-01 1.883464306592941284e-01 -3.511431813240051270e-01
-5.063492059707641602e-02 -1.779157221317291260e-01 1.994235366582870483e-01
-1.166832223534584045e-01 -1.513612717390060425e-01 1.175470277667045593e-02
-1.301184892654418945e-01 2.351107001304626465e-01 4.130477830767631531e-02
2.222410142421722412e-01 -7.634136825799942017e-02 1.832779198884963989e-01
1.609709560871124268e-01 -1.597924232482910156e-01 -3.086059689521789551e-01
-1.064300611615180969e-01 7.819160819053649902e-02 4.975639581680297852e-01
-2.117697000503540039e-01 6.583114154636859894e-03 -1.380213201045989990e-01
-1.209449991583824158e-01 3.657985478639602661e-03 4.733726382255554199e-01
-2.597051113843917847e-02 -1.927390694618225098e-01 -2.088502049446105957e-01
-1.564790606498718262e-01 -1.054572463035583496e-01 -1.233215779066085815e-01
2.146843671798706055e-01 9.743375331163406372e-02 -4.923238605260848999e-02
1.049632951617240906e-01 -2.049515843391418457e-01 1.312501132488250732e-01
-1.024831980466842651e-01 -1.443665474653244019e-01 -2.342728823423385620e-01
2.096401005983352661e-01 3.262162953615188599e-02 -3.513502180576324463e-01
-6.631975062191486359e-03 2.537126243114471436e-01 7.311372458934783936e-02
-1.748411506414413452e-01 -6.853327900171279907e-02 -1.913330405950546265e-01
1.998226530849933624e-02 8.593097329139709473e-02 5.454979538917541504e-01
-1.044524926692247391e-02 -8.844951540231704712e-02 5.033630132675170898e-01
1.296829432249069214e-01 1.700460463762283325e-01 2.201395332813262939e-01
2.434869110584259033e-02 -1.374080479145050049e-01 -4.829368591308593750e-01
7.975565269589424133e-03 -8.312102407217025757e-03 5.714805722236633301e-01
1.285842657089233398e-01 -4.114274308085441589e-02 -5.592117905616760254e-01
5.515440180897712708e-02 1.301258504390716553e-01 -5.496141314506530762e-01
2.217900454998016357e-01 2.241701073944568634e-02 1.934756636619567871e-01
1.347653567790985107e-01 -1.799355447292327881e-01 -2.902283668518066406e-01
2.021624706685543060e-03 -1.777844876050949097e-01 2.948022484779357910e-01
-3.384303674101829529e-02 -1.935218572616577148e-01 1.355284154415130615e-01
8.582025021314620972e-02 2.273697406053543091e-01 -3.304976597428321838e-02
-6.066549569368362427e-02 -1.175722777843475342e-01 -4.430196583271026611e-01
-1.014401838183403015e-01 2.626782096922397614e-02 -5.508330464363098145e-01
-1.869885027408599854e-01 -5.465593934059143066e-02 -1.525045931339263916e-01
-7.976546883583068848e-02 -1.236135065555572510e-01 3.547035157680511475e-01
-5.063429847359657288e-02 2.547231018543243408e-01 -1.463826596736907959e-01
-1.743143200874328613e-01 5.702665448188781738e-02 -3.880865871906280518e-01
-2.074719071388244629e-01 1.213728263974189758e-01 1.644445955753326416e-01
-5.819143354892730713e-02 1.309857964515686035e-01 4.951052069664001465e-01
-2.118472754955291748e-02 -1.547352373600006104e-01 -3.990637958049774170e-01
-1.774156540632247925e-01 -6.991184502840042114e-02 1.458443552255630493e-01
9.818825125694274902e-02 5.458462238311767578e-02 5.052321553230285645e-01
1.866486668586730957e-01 -7.272046804428100586e-02 3.308050036430358887e-01
1.085102558135986328e-03 2.486191093921661377e-01 1.181387603282928467e-01
1.156735718250274658e-01 1.132598444819450378e-01 -5.015345215797424316e-01
-1.693514361977577209e-02 2.009953558444976807e-01 -4.307438433170318604e-01
-4.959852620959281921e-02 2.049830704927444458e-01 3.490343689918518066e-01
5.125442519783973694e-03 2.429167479276657104e-01 -2.361218333244323730e-01
1.593680530786514282e-01 1.705211699008941650e-01 -1.210288554430007935e-01
6.156880035996437073e-02 3.584469854831695557e-02 5.510848164558410645e-01
6.595024466514587402e-02 2.037045806646347046e-01 -3.502302169799804688e-01
-1.845938414335250854e-01 1.336014866828918457e-01 -2.944909930229187012e-01
-6.848483532667160034e-02 2.155854851007461548e-01 3.039397895336151123e-01
5.321088805794715881e-02 -2.002576589584350586e-01 -2.687682807445526123e-01
1.906858384609222412e-01 1.011153236031532288e-01 1.968653947114944458e-01
-2.432716637849807739e-02 -1.403746306896209717e-01 -4.376852214336395264e-01
2.470036149024963379e-01 -3.142124786972999573e-02 -2.815533429384231567e-02
-1.019307971000671387e-01 6.591320037841796875e-02 -5.497294664382934570e-01
-1.399509906768798828e-01 1.274691522121429443e-01 4.028959870338439941e-01
-2.024387568235397339e-01 -3.632119670510292053e-02 2.005052566528320312e-02
2.404669970273971558e-01 -5.304954946041107178e-02 -1.811111867427825928e-01
-5.669566988945007324e-02 -8.063693344593048096e-02 -5.211195945739746094e-01
