-2.527725696563720703e-01 -3.622265756130218506e-01 8.344928920269012451e-02
-8.917462080717086792e-02 -3.277831375598907471e-01 -1.412445604801177979e-01
-2.515173852443695068e-01 -6.161566972732543945e-01 -2.393165230751037598e-01
-2.595315575599670410e-01 -3.452547490596771240e-01 -4.028722941875457764e-01
-2.583582997322082520e-01 -4.496427774429321289e-01 9.974212944507598877e-02
-2.625569701194763184e-01 -4.081667959690093994e-01 8.355136215686798096e-02
-2.607683837413787842e-01 -6.012401580810546875e-01 -4.175667166709899902e-01
-1.665997803211212158e-01 -4.623300433158874512e-01 1.854826062917709351e-01
-2.462478429079055786e-01 -3.197693526744842529e-01 3.220210969448089600e-02
-8.346125483512878418e-02 -3.760181069374084473e-01 -2.335351407527923584e-01
-1.774116754531860352e-01 -5.576246380805969238e-01 -5.570314526557922363e-01
-2.047872841358184814e-01 -6.249096989631652832e-01 -1.982748657464981079e-01
-2.845771610736846924e-01 -4.889658391475677490e-01 -4.922582507133483887e-01
-8.659340441226959229e-02 -4.671186208724975586e-01 -1.769658774137496948e-01
-2.925317287445068359e-01 -3.862151205539703369e-01 -1.849971413612365723e-01
-2.086305171251296997e-01 -2.595658302307128906e-01 -2.046081721782684326e-01
-2.910228669643402100e-01 -4.115339219570159912e-01 -7.627123594284057617e-02
-1.049447730183601379e-01 -3.374396264553070068e-01 7.409740984439849854e-02
-1.503928154706954956e-01 -2.492067515850067139e-01 -8.351019024848937988e-02
-2.402058839797973633e-01 -4.420711398124694824e-01 1.477463990449905396e-01
-2.499314248561859131e-01 -3.600520491600036621e-01 -4.747977256774902344e-01
-2.997337579727172852e-01 -4.557621479034423828e-01 -1.294007003307342529e-01
-2.997028827667236328e-01 -4.375545382499694824e-01 -3.403621912002563477e-01
-2.016942948102951050e-01 -6.290017366409301758e-01 -3.139322996139526367e-01
-1.647626906633377075e-01 -6.115028858184814453e-01 -2.864684462547302246e-01
-1.703614294528961182e-01 -5.655463933944702148e-01 -5.301828980445861816e-01
-2.585458457469940186e-01 -5.256116390228271484e-01 -5.676485896110534668e-01
-2.910056114196777344e-01 -4.197237193584442139e-01 -3.963079154491424561e-01
-8.739908784627914429e-02 -3.855470716953277588e-01 -2.937428951263427734e-01
-1.692582368850708008e-01 -2.936926484107971191e-01 -4.074633121490478516e-01
-1.059106737375259399e-01 -5.228965878486633301e-01 -1.271063834428787231e-01
-2.785614430904388428e-01 -4.962136149406433105e-01 -5.180586576461791992e-01
-2.002653777599334717e-01 -2.871074080467224121e-01 -3.810503482818603516e-01
-1.598513424396514893e-01 -2.687845528125762939e-01 -3.124209046363830566e-01
-2.994041144847869873e-01 -5.244745016098022461e-01 -3.502424061298370361e-01
-1.110933348536491394e-01 -4.074939489364624023e-01 -4.510264992713928223e-01
-1.053490266203880310e-01 -4.521085321903228760e-01 -4.270454347133636475e-01
-1.326768100261688232e-01 -5.651078820228576660e-01 -3.778585195541381836e-01
-2.652023434638977051e-01 -4.346620142459869385e-01 7.929374277591705322e-02
-2.156619131565093994e-01 -5.726081132888793945e-01 -5.651370882987976074e-01
-1.141005307435989380e-01 -4.312784671783447266e-01 -4.702382683753967285e-01
-8.113804459571838379e-02 -3.834518790245056152e-01 -9.197903424501419067e-02
-1.030221283435821533e-01 -5.157229304313659668e-01 -2.964567244052886963e-01
-2.494212388992309570e-01 -5.577300786972045898e-01 2.601131796836853027e-03
-2.580856680870056152e-01 -3.917760848999023438e-01 -5.074908137321472168e-01
-1.257997006177902222e-01 -5.555281639099121094e-01 -1.051116213202476501e-01
-1.332302689552307129e-01 -5.569969415664672852e-01 -4.135674238204956055e-01
-1.431781053543090820e-01 -2.969847023487091064e-01 -3.808795213699340820e-01
-2.684318125247955322e-01 -3.488926291465759277e-01 -2.076835930347442627e-02
-1.040912941098213196e-01 -5.096964240074157715e-01 -3.358011841773986816e-01
-9.198611974716186523e-02 -3.251964449882507324e-01 -5.161617696285247803e-02
-2.295306622982025146e-01 -2.777229547500610352e-01 -5.522881448268890381e-02
-9.628771245479583740e-02 -4.248514473438262939e-01 -3.795019984245300293e-01
-1.318984180688858032e-01 -5.714486837387084961e-01 -3.328172266483306885e-01
-1.050568297505378723e-01 -4.345838725566864014e-01 7.754434645175933838e-02
-2.702381610870361328e-01 -5.942781567573547363e-01 -3.922079801559448242e-01
-1.232141256332397461e-01 -5.615371465682983398e-01 -1.835394352674484253e-01
-1.961232721805572510e-01 -5.153874158859252930e-01 1.351421922445297241e-01
-1.083419770002365112e-01 -2.911432683467864990e-01 -2.066179662942886353e-01
-2.928864657878875732e-01 -5.370671749114990234e-01 -1.602045297622680664e-01
-1.681288033723831177e-01 -5.786494612693786621e-01 -2.227680385112762451e-02
-2.211943417787551880e-01 -2.849130928516387939e-01 -3.290993571281433105e-01
-2.943779826164245605e-01 -4.000190198421478271e-01 -1.463666409254074097e-01
-1.436422467231750488e-01 -2.528247237205505371e-01 -6.317757070064544678e-02
-1.163265407085418701e-01 -5.061516165733337402e-01 1.340501010417938232e-02
-1.499079465866088867e-01 -5.308365821838378906e-01 -5.333326458930969238e-01
-1.257688701152801514e-01 -4.953866899013519287e-01 -4.914348125457763672e-01
-1.466882675886154175e-01 -5.928362607955932617e-01 -1.983128339052200317e-01
-2.703358232975006104e-01 -4.056892096996307373e-01 -4.867624044418334961e-01
-2.816225886344909668e-01 -5.607749819755554199e-01 -1.380943059921264648e-01
-1.689934581518173218e-01 -6.145080327987670898e-01 -2.564624845981597900e-01
-1.853153556585311890e-01 -2.479932308197021484e-01 -8.752684295177459717e-02
-1.249189078807830811e-01 -5.195051431655883789e-01 -4.576287269592285156e-01
-2.643739879131317139e-01 -3.170641064643859863e-01 -1.805234998464584351e-01
-9.083526581525802612e-02 -4.846177399158477783e-01 -2.180665135383605957e-01
-1.326543986797332764e-01 -5.581927299499511719e-01 -7.127027213573455811e-02
-2.354829907417297363e-01 -6.200451850891113281e-01 -4.061168134212493896e-01
-2.414483577013015747e-01 -2.899101078510284424e-01 -2.498166561126708984e-01
-1.106015145778656006e-01 -3.780861794948577881e-01 -4.274668693542480469e-01
-2.649191319942474365e-01 -6.026124954223632812e-01 -2.227316647768020630e-01
-8.709447830915451050e-02 -4.466775953769683838e-01 -6.510145962238311768e-02
-2.657000422477722168e-01 -6.043806672096252441e-01 -3.542566299438476562e-01
-2.680806517601013184e-01 -3.717037439346313477e-01 2.727282047271728516e-02
-1.213621273636817932e-01 -4.043930768966674805e-01 -4.869641065597534180e-01
-2.485231161117553711e-01 -3.110600411891937256e-01 -8.529812097549438477e-03
-2.482941448688507080e-01 -6.209152340888977051e-01 -2.993864417076110840e-01
-2.684462070465087891e-01 -4.583137929439544678e-01 6.338442862033843994e-02
-8.848967403173446655e-02 -3.492057919502258301e-01 -2.416546791791915894e-01
-1.271285414695739746e-01 -5.689433813095092773e-01 -2.068746834993362427e-01
-1.507514715194702148e-01 -5.746499300003051758e-01 -4.469587802886962891e-01
-2.540702521800994873e-01 -6.019653081893920898e-01 -1.510370820760726929e-01
-3.017873167991638184e-01 -4.402858614921569824e-01 -3.100304305553436279e-01
-1.083603277802467346e-01 -5.265130400657653809e-01 -3.175088167190551758e-01
-2.021532654762268066e-01 -5.389515161514282227e-01 -6.035105586051940918e-01
-2.565993070602416992e-01 -4.600032567977905273e-01 -5.754719972610473633e-01
-1.352755278348922729e-01 -5.528405904769897461e-01 -3.660376369953155518e-02
-2.832124531269073486e-01 -3.675745427608489990e-01 -1.014206707477569580e-01
-2.684151530265808105e-01 -3.361316323280334473e-01 -3.100760877132415771e-01
-2.989157736301422119e-01 -4.320205152034759521e-01 -1.390557289123535156e-01
-1.510305553674697876e-01 -2.534902095794677734e-01 -2.032002508640289307e-01
-2.873148918151855469e-01 -3.737591207027435303e-01 -2.829244434833526611e-01
-9.101133048534393311e-02 -3.638371825218200684e-01 -2.979224324226379395e-01
-1.239571273326873779e-01 -5.287655591964721680e-01 -4.354022443294525146e-01
-9.083767980337142944e-02 -4.795176982879638672e-01 -1.241244301199913025e-01
-8.018019050359725952e-02 -4.098809659481048584e-01 -1.258727014064788818e-01
-2.969899475574493408e-01 -5.027291774749755859e-01 -1.284138858318328857e-01
-2.158324867486953735e-01 -3.188587725162506104e-01 1.291141957044601440e-01
-2.839118838310241699e-01 -4.737250804901123047e-01 -1.163667440414428711e-02
-1.940879076719284058e-01 -2.625584006309509277e-01 -2.790671885013580322e-01
-2.488111108541488647e-01 -3.781152963638305664e-01 1.127033680677413940e-01
-2.866771221160888672e-01 -5.729060769081115723e-01 -3.231409490108489990e-01
-1.072629466652870178e-01 -2.856224179267883301e-01 -1.142328456044197083e-01
-1.949965059757232666e-01 -5.826237201690673828e-01 -5.362074375152587891e-01
-1.794974654912948608e-01 -2.829684913158416748e-01 -3.781267404556274414e-01
-3.017406463623046875e-01 -4.290097355842590332e-01 -2.537584900856018066e-01
-1.197355240583419800e-01 -5.324358940124511719e-01 -4.007854461669921875e-01
-1.616333574056625366e-01 -2.747424542903900146e-01 8.754922449588775635e-02
-9.919574111700057983e-02 -4.888619184494018555e-01 -5.188375711441040039e-02
-8.364652842283248901e-02 -4.043827652931213379e-01 -2.635495662689208984e-01
-2.236164063215255737e-01 -6.299265027046203613e-01 -3.094209432601928711e-01
-9.795507043600082397e-02 -4.647069871425628662e-01 -3.711336255073547363e-01
-2.994006872177124023e-01 -4.196772575378417969e-01 -1.802555918693542480e-01
-2.698968052864074707e-01 -3.471244275569915771e-01 -3.483258187770843506e-01
-2.911495268344879150e-01 -5.222918987274169922e-01 -4.408411979675292969e-01
-2.353715598583221436e-01 -3.248965144157409668e-01 -4.310182034969329834e-01
-1.905368268489837646e-01 -2.665964066982269287e-01 -3.063724935054779053e-01
-2.687860131263732910e-01 -4.193131327629089355e-01 -5.103719830513000488e-01
-2.095949649810791016e-01 -4.229568243026733398e-01 1.984175890684127808e-01
-2.784507572650909424e-01 -5.891694426536560059e-01 -2.895746827125549316e-01
-2.434889078140258789e-01 -4.721230566501617432e-01 -6.030342578887939453e-01
-2.493485063314437866e-01 -3.694046139717102051e-01 -4.946227073669433594e-01
-2.710544466972351074e-01 -3.339099586009979248e-01 -2.633662223815917969e-01
-1.560163795948028564e-01 -5.947647094726562500e-01 -3.876601755619049072e-01
-2.164788544178009033e-01 -5.833629369735717773e-01 -8.564472198486328125e-03
-1.535398513078689575e-01 -2.506474852561950684e-01 -4.357101023197174072e-02
-1.048882678151130676e-01 -5.258246660232543945e-01 -1.746404767036437988e-01
-2.934574186801910400e-01 -4.057543277740478516e-01 -3.375405073165893555e-01
-2.905134856700897217e-01 -5.610894560813903809e-01 -2.377746552228927612e-01
-2.015910297632217407e-01 -5.772117376327514648e-01 1.353235542774200439e-02
-1.334447115659713745e-01 -5.739035606384277344e-01 -1.589951664209365845e-01
-9.707920253276824951e-02 -3.069075345993041992e-01 -7.728004455566406250e-02
-1.963018327951431274e-01 -2.752562761306762695e-01 -3.399380445480346680e-01
-8.362726122140884399e-02 -3.938235044479370117e-01 -4.495821893215179443e-02
-9.675834327936172485e-02 -3.162883818149566650e-01 -2.188931852579116821e-01
-1.505880802869796753e-01 -3.736546635627746582e-01 2.011116892099380493e-01
-1.452549844980239868e-01 -5.738244056701660156e-01 -4.231249690055847168e-01
-1.061726212501525879e-01 -5.286725759506225586e-01 -2.607766687870025635e-01
-2.318598777055740356e-01 -3.759391903877258301e-01 -5.411930680274963379e-01
-2.834391593933105469e-01 -5.491918325424194336e-01 -4.531195163726806641e-01
-8.271304517984390259e-02 -4.408552944660186768e-01 -1.347254514694213867e-01
-1.380070447921752930e-01 -5.121840834617614746e-01 -5.188596248626708984e-01
-9.711327403783798218e-02 -5.064441561698913574e-01 -1.950973421335220337e-01
-2.037207484245300293e-01 -3.506698906421661377e-01 1.853280812501907349e-01
-8.834450691938400269e-02 -4.079548716545104980e-01 -3.165503144264221191e-01
-2.467980235815048218e-01 -6.084952354431152344e-01 -4.398126602172851562e-01
-2.537361681461334229e-01 -6.107655167579650879e-01 -3.989875912666320801e-01
-1.444744169712066650e-01 -3.176959156990051270e-01 1.564309149980545044e-01
-1.125061288475990295e-01 -5.172413587570190430e-01 -3.954876959323883057e-02
-1.097722724080085754e-01 -5.020490884780883789e-01 -1.174090802669525146e-02
-2.034090608358383179e-01 -3.699414134025573730e-01 1.976289600133895874e-01
-2.458851635456085205e-01 -6.194313764572143555e-01 -3.699997663497924805e-01
-1.756836175918579102e-01 -5.604003667831420898e-01 4.222877323627471924e-02
-2.669234871864318848e-01 -6.045404672622680664e-01 -2.781921327114105225e-01
-2.956536412239074707e-01 -5.484923720359802246e-01 -2.673075199127197266e-01
-2.135922908782958984e-01 -5.252671241760253906e-01 -6.155536770820617676e-01
-1.741982102394104004e-01 -3.628562390804290771e-01 -5.449056625366210938e-01
-2.815714776515960693e-01 -5.440258383750915527e-01 -9.127707779407501221e-02
-2.510156631469726562e-01 -2.967268228530883789e-01 -1.520383208990097046e-01
-2.288383394479751587e-01 -5.473853349685668945e-01 -5.926463603973388672e-01
-2.240070402622222900e-01 -6.085523366928100586e-01 -1.044394895434379578e-01
-2.363247275352478027e-01 -5.360332727432250977e-01 6.956987082958221436e-02
-1.074441671371459961e-01 -2.857267260551452637e-01 -9.097865223884582520e-02
-1.230080872774124146e-01 -3.466208577156066895e-01 1.442523151636123657e-01
-1.125259846448898315e-01 -4.295187890529632568e-01 1.109878867864608765e-01
-9.832756221294403076e-02 -3.592644929885864258e-01 6.074355542659759521e-02
-2.218628972768783569e-01 -5.020081996917724609e-01 1.354929953813552856e-01
-2.113992571830749512e-01 -4.697626531124114990e-01 1.753398627042770386e-01
-8.502212911844253540e-02 -4.457535445690155029e-01 -9.440543502569198608e-02
-1.321089267730712891e-01 -2.959928810596466064e-01 -3.496407270431518555e-01
-1.398514509201049805e-01 -5.858094692230224609e-01 -2.992357611656188965e-01
-3.031924664974212646e-01 -4.539546072483062744e-01 -1.879774183034896851e-01
-2.390147745609283447e-01 -6.206190586090087891e-01 -2.101973891258239746e-01
-2.958636879920959473e-01 -4.092434942722320557e-01 -3.152427077293395996e-01
-1.142869815230369568e-01 -2.763924598693847656e-01 -1.423472911119461060e-01
-1.481181234121322632e-01 -5.399217009544372559e-01 4.376833140850067139e-02
-2.295032888650894165e-01 -5.697194337844848633e-01 1.346684992313385010e-02
-2.403609752655029297e-01 -3.108107745647430420e-01 -3.694649338722229004e-01
-1.014935076236724854e-01 -3.158407807350158691e-01 -2.626749277114868164e-01
-2.913378775119781494e-01 -4.303794801235198975e-01 -5.956996977329254150e-02
-2.809632122516632080e-01 -5.233170986175537109e-01 -4.971868395805358887e-01
-2.642238438129425049e-01 -5.775947570800781250e-01 -4.843437671661376953e-01
-2.659468948841094971e-01 -4.606879055500030518e-01 -5.525004267692565918e-01
-2.968715429306030273e-01 -5.266413688659667969e-01 -3.826406598091125488e-01
-2.487263679504394531e-01 -5.975242853164672852e-01 -1.111429706215858459e-01
-2.626110911369323730e-01 -5.925468802452087402e-01 -4.464669227600097656e-01
-2.589640021324157715e-01 -4.137748777866363525e-01 -5.340961813926696777e-01
-2.944619357585906982e-01 -4.744908213615417480e-01 -8.055421710014343262e-02
-2.676669061183929443e-01 -3.575573563575744629e-01 4.916697740554809570e-03
-1.754470616579055786e-01 -2.974277734756469727e-01 1.408175975084304810e-01
-3.035300374031066895e-01 -4.988403916358947754e-01 -3.195290565490722656e-01
-2.836035788059234619e-01 -5.062357187271118164e-01 -3.786981105804443359e-02
-1.815134137868881226e-01 -2.694073915481567383e-01 -3.256960213184356689e-01
-3.049810826778411865e-01 -4.644366502761840820e-01 -2.455932646989822388e-01
-1.123407408595085144e-01 -2.797150015830993652e-01 -6.751112639904022217e-02
-2.395669817924499512e-01 -2.853452265262603760e-01 -2.230903357267379761e-01
-8.052807301282882690e-02 -4.222072362899780273e-01 -1.496029049158096313e-01
-1.736193895339965820e-01 -6.134840250015258789e-01 -1.896698772907257080e-01
-2.027342170476913452e-01 -6.280587315559387207e-01 -3.420696258544921875e-01
-2.681402862071990967e-01 -4.096072912216186523e-01 6.206326186656951904e-02
-2.759658098220825195e-01 -3.466767668724060059e-01 -2.861513793468475342e-01
-2.225267887115478516e-01 -2.796105146408081055e-01 -2.964172959327697754e-01
-1.243077814579010010e-01 -5.646557807922363281e-01 -2.697649896144866943e-01
-1.230231747031211853e-01 -3.009924888610839844e-01 8.488039672374725342e-02
-1.433449983596801758e-01 -5.330334901809692383e-01 -5.103904008865356445e-01
-1.318871825933456421e-01 -4.889040291309356689e-01 -5.185234546661376953e-01
-2.345809042453765869e-01 -3.323518037796020508e-01 -4.525644779205322266e-01
-1.312592923641204834e-01 -5.685002207756042480e-01 -1.385921388864517212e-01
-1.102815717458724976e-01 -4.692038595676422119e-01 5.791680514812469482e-02
-2.791393697261810303e-01 -4.139484465122222900e-01 1.121407747268676758e-02
-1.628860831260681152e-01 -5.602642893791198730e-01 2.352535724639892578e-02
-2.784691154956817627e-01 -3.457944393157958984e-01 -1.675426363945007324e-01
-2.245650291442871094e-01 -6.111214160919189453e-01 -4.665006399154663086e-01
-1.833923012018203735e-01 -2.490894943475723267e-01 -1.840543746948242188e-01
-1.179033145308494568e-01 -4.934992492198944092e-01 -4.593248367309570312e-01
-2.003265172243118286e-01 -2.581171393394470215e-01 -3.173607587814331055e-02
-1.516495794057846069e-01 -5.634641647338867188e-01 -1.268415153026580811e-02
-2.360106110572814941e-01 -3.189513683319091797e-01 7.313837110996246338e-02
-1.329963505268096924e-01 -4.210749566555023193e-01 1.699851900339126587e-01
-2.829130887985229492e-01 -3.791985511779785156e-01 -3.602240383625030518e-01
-1.473537683486938477e-01 -5.957506895065307617e-01 -2.608563899993896484e-01
-1.729047298431396484e-01 -4.402012825012207031e-01 2.037578076124191284e-01
-1.722187399864196777e-01 -5.361759662628173828e-01 9.164659678936004639e-02
-2.157971709966659546e-01 -2.762523293495178223e-01 1.412580907344818115e-02
-2.846336364746093750e-01 -5.663538575172424316e-01 -3.990368843078613281e-01
-1.059785857796669006e-01 -3.520748615264892578e-01 9.250281751155853271e-02
-2.496481984853744507e-01 -4.725878238677978516e-01 1.127143055200576782e-01
-1.503240913152694702e-01 -4.102678298950195312e-01 -5.609005093574523926e-01
-9.160825610160827637e-02 -3.501086533069610596e-01 -2.768063843250274658e-01
-2.200388908386230469e-01 -2.744103670120239258e-01 -2.747899889945983887e-01
-8.522746711969375610e-02 -3.528034389019012451e-01 -6.498268246650695801e-02
-9.743870049715042114e-02 -3.369767069816589355e-01 -2.940427362918853760e-01
-2.128727436065673828e-01 -2.634441852569580078e-01 -5.371086299419403076e-02
-2.810033559799194336e-01 -3.914670050144195557e-01 -2.317999303340911865e-02
-1.615835428237915039e-01 -6.010585427284240723e-01 -1.500958949327468872e-01
-2.527736127376556396e-01 -4.909218549728393555e-01 -5.895331501960754395e-01
-1.491713821887969971e-01 -3.033654689788818359e-01 1.413338333368301392e-01
-1.008167639374732971e-01 -3.226363658905029297e-01 2.727280557155609131e-02
-2.355827391147613525e-01 -3.007157444953918457e-01 2.502942085266113281e-02
-2.747731506824493408e-01 -5.947227478027343750e-01 -3.170641064643859863e-01
-9.898248314857482910e-02 -4.846303164958953857e-01 -3.501101136207580566e-01
-9.431875497102737427e-02 -4.702214002609252930e-01 -3.318224549293518066e-01
-1.101572588086128235e-01 -2.939363121986389160e-01 4.747211933135986328e-03
-2.431518882513046265e-01 -5.639440417289733887e-01 -5.584117174148559570e-01
-2.730683088302612305e-01 -5.002099871635437012e-01 1.750262081623077393e-02
-1.417391300201416016e-01 -5.464510917663574219e-01 8.599460124969482422e-03
-1.111129894852638245e-01 -5.304062962532043457e-01 -1.060127094388008118e-01
-1.770959049463272095e-01 -2.811701893806457520e-01 1.045448035001754761e-01
-2.698614001274108887e-01 -3.352159857749938965e-01 -8.588273078203201294e-02
-2.480006068944931030e-01 -5.162355303764343262e-01 -5.923796296119689941e-01
-2.316213101148605347e-01 -6.156902909278869629e-01 -1.531573981046676636e-01
-1.013475954532623291e-01 -4.617862999439239502e-01 -3.977092802524566650e-01
-2.816443145275115967e-01 -3.965837359428405762e-01 -4.154158830642700195e-01
-1.143478751182556152e-01 -2.996683120727539062e-01 4.780678451061248779e-02
-1.584432423114776611e-01 -2.470730543136596680e-01 -1.396970450878143311e-01
-9.089884161949157715e-02 -3.223572373390197754e-01 -1.004682183265686035e-01
-1.566154658794403076e-01 -3.780833780765533447e-01 -5.444747209548950195e-01
-2.513133883476257324e-01 -5.688502788543701172e-01 -2.798555791378021240e-02
-2.558103203773498535e-01 -3.280374109745025635e-01 -3.633576929569244385e-01
-9.422199428081512451e-02 -4.198023080825805664e-01 3.319612145423889160e-02
-1.335942894220352173e-01 -2.581013441085815430e-01 -1.463413834571838379e-01
-2.494776844978332520e-01 -4.398435652256011963e-01 -5.789062380790710449e-01
-2.393290102481842041e-01 -3.166094422340393066e-01 -3.939095139503479004e-01
-1.421979367733001709e-01 -5.092202425003051758e-01 9.352613985538482666e-02
-2.659686803817749023e-01 -3.818273544311523438e-01 5.050669610500335693e-02
-1.026630848646163940e-01 -3.777432739734649658e-01 8.938650786876678467e-02
-8.443361520767211914e-02 -3.521018326282501221e-01 -1.816248744726181030e-01
-1.879594326019287109e-01 -2.676798701286315918e-01 5.148528516292572021e-02
-2.542033493518829346e-01 -3.387146592140197754e-01 3.912635147571563721e-02
-2.242035418748855591e-01 -3.943883478641510010e-01 1.783808618783950806e-01
-8.083205670118331909e-02 -3.750716745853424072e-01 -1.612026244401931763e-01
-1.802320778369903564e-01 -2.486560642719268799e-01 -5.655522644519805908e-02
-2.898872196674346924e-01 -4.683196544647216797e-01 -4.587982296943664551e-01
-8.227365463972091675e-02 -4.154707789421081543e-01 -2.415230870246887207e-01
-2.481379061937332153e-01 -5.857855081558227539e-01 -6.718894839286804199e-02
-2.972673773765563965e-01 -4.041678905487060547e-01 -2.132655978202819824e-01
-2.172022759914398193e-01 -5.269625782966613770e-01 1.078837662935256958e-01
-2.256469726562500000e-01 -3.387486934661865234e-01 1.360778957605361938e-01
-1.887251883745193481e-01 -2.482574582099914551e-01 -1.137344092130661011e-01
-9.198991209268569946e-02 -3.337906002998352051e-01 -2.137663960456848145e-02
-2.393358647823333740e-01 -4.722003042697906494e-01 1.353077441453933716e-01
-1.258211135864257812e-01 -3.749957978725433350e-01 1.626849025487899780e-01
-1.216315701603889465e-01 -4.427768886089324951e-01 -4.989527463912963867e-01
-2.945335507392883301e-01 -5.046932697296142578e-01 -4.292659163475036621e-01
-2.658944129943847656e-01 -4.857722222805023193e-01 -5.595260858535766602e-01
-1.066905185580253601e-01 -5.314739942550659180e-01 -2.097507268190383911e-01
-2.420016229152679443e-01 -2.935221791267395020e-01 -2.739375233650207520e-01
-2.975593209266662598e-01 -5.162071585655212402e-01 -1.582209467887878418e-01
-2.474098354578018188e-01 -3.048310577869415283e-01 -3.066278696060180664e-01
-2.626429796218872070e-01 -3.900865316390991211e-01 7.251019775867462158e-02
-1.456009745597839355e-01 -5.935009121894836426e-01 -2.343062162399291992e-01
-2.704486846923828125e-01 -3.302213251590728760e-01 -2.370227575302124023e-01
-2.431255280971527100e-01 -3.956127762794494629e-01 1.388885527849197388e-01
-8.152596652507781982e-02 -4.340061247348785400e-01 -1.782380491495132446e-01
-1.104064285755157471e-01 -3.242593705654144287e-01 -3.409291803836822510e-01
-1.795424371957778931e-01 -3.297020792961120605e-01 1.846195608377456665e-01
-1.750187277793884277e-01 -3.310445845127105713e-01 -4.958629012107849121e-01
-1.118545085191726685e-01 -2.829439938068389893e-01 -4.152876138687133789e-02
-1.265950500965118408e-01 -3.076286911964416504e-01 1.080986410379409790e-01
-1.879267841577529907e-01 -3.457771539688110352e-01 -5.253435969352722168e-01
-1.862461566925048828e-01 -5.225099325180053711e-01 -6.057022809982299805e-01
-2.540269494056701660e-01 -4.259970784187316895e-01 1.154856532812118530e-01
-1.634598225355148315e-01 -4.508655667304992676e-01 -5.968211889266967773e-01
-2.524481117725372314e-01 -3.423770666122436523e-01 -4.245075285434722900e-01
-1.302243322134017944e-01 -2.804930210113525391e-01 -2.884018421173095703e-01
-2.272320687770843506e-01 -3.630324304103851318e-01 1.569692939519882202e-01
-2.777714133262634277e-01 -4.144925177097320557e-01 -4.679804444313049316e-01
-1.817746460437774658e-01 -2.525867819786071777e-01 -2.253441959619522095e-01
-1.822587996721267700e-01 -6.142369508743286133e-01 -1.586727201938629150e-01
-2.451549172401428223e-01 -3.783715963363647461e-01 -5.201042294502258301e-01
-9.270787984132766724e-02 -3.163248300552368164e-01 -1.224201545119285583e-01
-1.620723307132720947e-01 -3.473113775253295898e-01 -5.123560428619384766e-01
-2.999441027641296387e-01 -5.051327943801879883e-01 -3.759303689002990723e-01
-8.528444916009902954e-02 -4.575634598731994629e-01 -2.189470082521438599e-01
-2.319734245538711548e-01 -2.763831019401550293e-01 -2.026408612728118896e-01
-2.978348433971405029e-01 -4.625723063945770264e-01 -1.074233129620552063e-01
-1.929777711629867554e-01 -2.644814252853393555e-01 2.875493466854095459e-02
-1.213696524500846863e-01 -2.734839618206024170e-01 -2.176111936569213867e-02
-1.503161638975143433e-01 -4.254806041717529297e-01 1.944398432970046997e-01
-2.834304571151733398e-01 -3.919653892517089844e-01 -3.926720023155212402e-01
-1.518830657005310059e-01 -2.874364852905273438e-01 1.133594363927841187e-01
-9.134511649608612061e-02 -3.988902270793914795e-01 2.564282715320587158e-02
-1.499427556991577148e-01 -4.784753918647766113e-01 1.519294828176498413e-01
-2.670202851295471191e-01 -5.923269987106323242e-01 -1.706603467464447021e-01
-8.214929699897766113e-02 -4.362437725067138672e-01 -2.048898339271545410e-01
-1.329269558191299438e-01 -2.701104283332824707e-01 2.078413963317871094e-02
-2.667190432548522949e-01 -4.417298138141632080e-01 -5.386018157005310059e-01
-3.040266036987304688e-01 -4.647496044635772705e-01 -3.096872568130493164e-01
-2.807443439960479736e-01 -3.510397076606750488e-01 -2.214388698339462280e-01
-1.286130249500274658e-01 -4.747728407382965088e-01 1.131301373243331909e-01
-1.239947527647018433e-01 -2.826381325721740723e-01 3.729425370693206787e-02
-2.151673436164855957e-01 -2.698880732059478760e-01 -1.731996238231658936e-02
-1.689077019691467285e-01 -6.129810810089111328e-01 -3.280684649944305420e-01
-2.569805383682250977e-01 -4.917277097702026367e-01 7.919843494892120361e-02
-1.368730515241622925e-01 -5.364134907722473145e-01 -4.812644720077514648e-01
-2.123013585805892944e-01 -3.424292802810668945e-01 -5.096068382263183594e-01
-1.718325912952423096e-01 -5.867489576339721680e-01 -4.838728904724121094e-01
-1.181776449084281921e-01 -5.523614287376403809e-01 -2.894730865955352783e-01
-1.306398510932922363e-01 -5.270685553550720215e-01 2.239005267620086670e-02
-1.409003734588623047e-01 -4.073010385036468506e-01 1.885594874620437622e-01
-1.191961988806724548e-01 -2.725071310997009277e-01 -1.708419620990753174e-01
-1.187216416001319885e-01 -4.744775295257568359e-01 8.318988978862762451e-02
-1.356151103973388672e-01 -3.285909295082092285e-01 -4.361694455146789551e-01
-1.649270802736282349e-01 -2.657439112663269043e-01 5.835075676441192627e-02
-1.788646578788757324e-01 -6.173487305641174316e-01 -3.574053049087524414e-01
-9.480388462543487549e-02 -3.323837220668792725e-01 2.738237380981445312e-03
-3.005451560020446777e-01 -5.083186030387878418e-01 -1.809916794300079346e-01
-2.045075893402099609e-01 -6.249442100524902344e-01 -3.833931088447570801e-01
-2.858150005340576172e-01 -5.646233558654785156e-01 -1.899629682302474976e-01
-9.135487675666809082e-02 -4.653055965900421143e-01 -3.081408739089965820e-01
-1.975123882293701172e-01 -4.089581966400146484e-01 -6.009460091590881348e-01
-1.592045575380325317e-01 -5.931026935577392578e-01 -4.143884479999542236e-01
-9.216506779193878174e-02 -4.523991346359252930e-01 -2.369891107082366943e-02
-1.027767881751060486e-01 -2.936905026435852051e-01 -1.341138780117034912e-01
-2.920329570770263672e-01 -3.858574032783508301e-01 -2.637808918952941895e-01
-8.437997847795486450e-02 -4.315831363201141357e-01 -2.650937736034393311e-01
-1.889207810163497925e-01 -6.080576181411743164e-01 -1.060844808816909790e-01
-2.085323631763458252e-01 -6.271665692329406738e-01 -2.192523926496505737e-01
-1.145445480942726135e-01 -2.991672456264495850e-01 -2.887291014194488525e-01
-2.631866335868835449e-01 -3.759186863899230957e-01 -4.626635909080505371e-01
-2.007583230733871460e-01 -3.278628289699554443e-01 -4.896044135093688965e-01
-2.838519811630249023e-01 -5.216389894485473633e-01 -6.085206568241119385e-02
-1.243432015180587769e-01 -3.305687308311462402e-01 -4.087195396423339844e-01
-8.424621820449829102e-02 -3.488155901432037354e-01 -1.464615017175674438e-01
-1.366820931434631348e-01 -2.632289230823516846e-01 -1.944676041603088379e-03
-8.252374082803726196e-02 -4.203615784645080566e-01 -8.145765215158462524e-02
-9.251674264669418335e-02 -4.307882487773895264e-01 1.120865345001220703e-02
-1.807087361812591553e-01 -5.830720067024230957e-01 -5.140091776847839355e-01
-3.036432266235351562e-01 -5.069810748100280762e-01 -2.641111016273498535e-01
-2.572194039821624756e-01 -3.086291849613189697e-01 -2.393322288990020752e-01
-2.839181423187255859e-01 -3.645764589309692383e-01 -1.270722448825836182e-01
-1.165462583303451538e-01 -3.439328670501708984e-01 1.243712455034255981e-01
-2.059414237737655640e-01 -5.444047451019287109e-01 8.605368435382843018e-02
-2.853774130344390869e-01 -5.580120086669921875e-01 -4.198645055294036865e-01
-8.492364734411239624e-02 -3.455283045768737793e-01 -1.126418039202690125e-01
-2.894627749919891357e-01 -4.896784126758575439e-01 -5.507455766201019287e-02
-2.801128327846527100e-01 -4.399850666522979736e-01 1.536448299884796143e-02
-1.395459175109863281e-01 -4.816377460956573486e-01 -5.453790426254272461e-01
-1.442247778177261353e-01 -5.672372579574584961e-01 -5.223995447158813477e-02
-2.992534637451171875e-01 -4.501204788684844971e-01 -3.682056367397308350e-01
-1.252634823322296143e-01 -2.715504169464111328e-01 -2.166375517845153809e-01
-2.583904862403869629e-01 -6.056616306304931641e-01 -1.953121125698089600e-01
-1.419607400894165039e-01 -3.386032581329345703e-01 -4.677482843399047852e-01
-2.499605119228363037e-01 -3.059824705123901367e-01 -4.162167012691497803e-02
-1.242029517889022827e-01 -2.940285801887512207e-01 -3.158203363418579102e-01
-2.132823765277862549e-01 -6.185172796249389648e-01 -4.347235262393951416e-01
-2.743598222732543945e-01 -4.581801593303680420e-01 4.005877673625946045e-02
-2.180794179439544678e-01 -4.895750582218170166e-01 1.523899286985397339e-01
-3.022616207599639893e-01 -4.876870810985565186e-01 -1.744654178619384766e-01
-2.942298650741577148e-01 -5.399997830390930176e-01 -1.853234469890594482e-01
-2.304276376962661743e-01 -2.964232861995697021e-01 -3.491344451904296875e-01
-2.839136123657226562e-01 -4.346783459186553955e-01 -6.508201360702514648e-03
-1.281244754791259766e-01 -4.541519880294799805e-01 1.354629844427108765e-01
-1.130374446511268616e-01 -3.812911510467529297e-01 1.289665848016738892e-01
-2.715852558612823486e-01 -3.310151696205139160e-01 -2.143675684928894043e-01
-8.672631531953811646e-02 -3.934942483901977539e-01 -1.059038937091827393e-02
-1.267412751913070679e-01 -4.655970931053161621e-01 -5.127589702606201172e-01
-1.413670480251312256e-01 -2.527381777763366699e-01 -1.264597773551940918e-01
-2.972479462623596191e-01 -4.848838746547698975e-01 -4.113045930862426758e-01
-1.032034456729888916e-01 -3.993636667728424072e-01 -4.108846187591552734e-01
-2.351233065128326416e-01 -4.304376244544982910e-01 -5.949841141700744629e-01
-2.871549129486083984e-01 -4.227204620838165283e-01 -3.311258554458618164e-02
-2.233196347951889038e-01 -2.914149463176727295e-01 4.482750594615936279e-02
-8.075372129678726196e-02 -4.070788621902465820e-01 -1.020440310239791870e-01
-2.637688517570495605e-01 -5.205618143081665039e-01 2.651734650135040283e-02
-8.927793800830841064e-02 -4.744544327259063721e-01 -2.459875047206878662e-01
-1.314489096403121948e-01 -4.228563308715820312e-01 -5.254198312759399414e-01
-2.722261250019073486e-01 -5.267339348793029785e-01 -1.328513026237487793e-02
-1.077489331364631653e-01 -3.202386498451232910e-01 -3.170920610427856445e-01
-2.938759326934814453e-01 -4.098762869834899902e-01 -1.104329973459243774e-01
-9.517918527126312256e-02 -3.543222844600677490e-01 3.794413805007934570e-02
-9.064363688230514526e-02 -4.350817203521728516e-01 -3.343901932239532471e-01
-1.980052590370178223e-01 -6.284239888191223145e-01 -2.932124137878417969e-01
-1.550379246473312378e-01 -5.516297817230224609e-01 -5.167284011840820312e-01
-9.931886196136474609e-02 -3.050208687782287598e-01 -4.904502630233764648e-02
-1.525882482528686523e-01 -4.648272693157196045e-01 -5.794476866722106934e-01
-1.081867218017578125e-01 -4.286157488822937012e-01 -4.446052908897399902e-01
-3.050906956195831299e-01 -4.730888903141021729e-01 -2.780260145664215088e-01
-1.892110407352447510e-01 -4.595012366771697998e-01 -6.228618621826171875e-01
-2.336366325616836548e-01 -3.383424878120422363e-01 1.149919480085372925e-01
-2.030725181102752686e-01 -2.938301563262939453e-01 1.050493866205215454e-01
-2.388584315776824951e-01 -5.136637687683105469e-01 9.701071679592132568e-02
-3.041427731513977051e-01 -4.849525392055511475e-01 -2.102283239364624023e-01
-1.662174761295318604e-01 -2.749211192131042480e-01 -3.439837694168090820e-01
-2.074101418256759644e-01 -2.567802965641021729e-01 -1.679979264736175537e-01
-1.402923166751861572e-01 -2.775364816188812256e-01 -3.095460534095764160e-01
-2.874062657356262207e-01 -3.705412745475769043e-01 -1.633614152669906616e-01
-1.543362289667129517e-01 -5.370217561721801758e-01 6.409956514835357666e-02
-2.340562939643859863e-01 -5.932236313819885254e-01 -5.144397616386413574e-01
-1.235203295946121216e-01 -4.096863865852355957e-01 1.539307683706283569e-01
-1.450116932392120361e-01 -5.830959081649780273e-01 -1.271322071552276611e-01
-2.689012289047241211e-01 -5.623662471771240234e-01 -4.985805749893188477e-01
-3.027735352516174316e-01 -4.397932887077331543e-01 -2.081991434097290039e-01
-1.946946680545806885e-01 -4.317050278186798096e-01 -6.154091954231262207e-01
-1.431708037853240967e-01 -5.856893658638000488e-01 -3.466526865959167480e-01
-8.181692659854888916e-02 -4.289400875568389893e-01 -1.161167100071907043e-01
-2.885330021381378174e-01 -5.321185588836669922e-01 -1.102967262268066406e-01
-1.573055237531661987e-01 -2.540391087532043457e-01 -2.247070670127868652e-01
-8.797353506088256836e-02 -4.712719917297363281e-01 -1.465448737144470215e-01
-1.338659822940826416e-01 -2.690235972404479980e-01 -2.471497207880020142e-01
-1.964175105094909668e-01 -5.634251236915588379e-01 -5.716174840927124023e-01
-1.844646483659744263e-01 -6.130151152610778809e-01 -4.150070846080780029e-01
-2.718862295150756836e-01 -4.790928661823272705e-01 3.993971645832061768e-02
-1.296773850917816162e-01 -5.735645890235900879e-01 -2.421360462903976440e-01
-2.536968290805816650e-01 -5.964202880859375000e-01 -4.663458466529846191e-01
-2.701929807662963867e-01 -5.194006562232971191e-01 -5.401071310043334961e-01
-9.718711674213409424e-02 -4.975280761718750000e-01 -1.087150722742080688e-01
-2.780268788337707520e-01 -3.590672612190246582e-01 -7.258416712284088135e-02
-9.945680946111679077e-02 -4.403248131275177002e-01 4.398901760578155518e-02
-2.001417875289916992e-01 -3.156046569347381592e-01 1.506577879190444946e-01
-1.679520606994628906e-01 -2.553760707378387451e-01 9.742796421051025391e-03
-2.989098429679870605e-01 -5.302640199661254883e-01 -2.227598577737808228e-01
-1.086909696459770203e-01 -5.020288228988647461e-01 -3.943208158016204834e-01
-2.306615114212036133e-01 -3.383690714836120605e-01 -4.751940369606018066e-01
-1.835590898990631104e-01 -2.531157135963439941e-01 -1.943822205066680908e-02
-8.850024640560150146e-02 -3.387265503406524658e-01 -2.054396569728851318e-01
-8.054503053426742554e-02 -3.804236352443695068e-01 -1.186967119574546814e-01
-1.667883098125457764e-01 -5.284405946731567383e-01 -5.743467211723327637e-01
-9.938101470470428467e-02 -4.958318471908569336e-01 -7.395344972610473633e-02
-2.687850892543792725e-01 -3.422500491142272949e-01 -4.413163661956787109e-02
-2.729855477809906006e-01 -3.363628089427947998e-01 -1.267391443252563477e-01
-1.502302139997482300e-01 -4.634900987148284912e-01 1.679870039224624634e-01
-1.796482801437377930e-01 -2.713103890419006348e-01 7.393054664134979248e-02
-1.180987507104873657e-01 -5.547465682029724121e-01 -2.354708462953567505e-01
-1.359972953796386719e-01 2.999149262905120850e-01 -1.015779525041580200e-01
-2.668004333972930908e-01 3.455205559730529785e-01 6.262329965829849243e-02
-2.736188471317291260e-01 5.597540140151977539e-01 2.898447513580322266e-01
-2.078441977500915527e-01 2.933221459388732910e-01 1.597477942705154419e-01
-2.497313767671585083e-01 8.079979419708251953e-01 2.301067262887954712e-01
-2.675996422767639160e-01 6.845852136611938477e-01 2.860867977142333984e-01
-7.658983021974563599e-02 6.795814633369445801e-01 1.373402178287506104e-01
-1.031971648335456848e-01 4.012328386306762695e-01 -2.300301641225814819e-01
-2.718328535556793213e-01 7.951191663742065430e-01 7.368497550487518311e-02
-9.304761141538619995e-02 6.588466167449951172e-01 2.285413742065429688e-01
-2.029850482940673828e-01 7.065897583961486816e-01 -3.922353982925415039e-01
-2.936761081218719482e-01 6.756669282913208008e-01 2.339333668351173401e-02
-6.729762256145477295e-02 5.819882154464721680e-01 -1.945315748453140259e-01
-8.027310669422149658e-02 6.111776828765869141e-01 1.639117747545242310e-01
-2.046646326780319214e-01 7.089480161666870117e-01 3.889178633689880371e-01
-1.169744655489921570e-01 7.440284490585327148e-01 2.826142311096191406e-01
-2.401380836963653564e-01 7.811782360076904297e-01 -2.544812262058258057e-01
-2.619078159332275391e-01 3.685856461524963379e-01 -1.487333327531814575e-01
-2.442004084587097168e-01 8.517037630081176758e-01 -1.145305782556533813e-01
-2.968215048313140869e-01 5.154849886894226074e-01 9.649313986301422119e-02
-7.345105707645416260e-02 5.519868731498718262e-01 -2.318451553583145142e-01
-2.018786221742630005e-01 8.800414204597473145e-01 -2.216555476188659668e-01
-2.848938405513763428e-01 7.002993822097778320e-01 -8.909166604280471802e-02
-2.867596447467803955e-01 6.578920483589172363e-01 -1.191906705498695374e-01
-7.218600064516067505e-02 4.983762502670288086e-01 -7.217872887849807739e-03
-9.304212033748626709e-02 4.827816486358642578e-01 1.615815609693527222e-01
-6.807477027177810669e-02 6.834253668785095215e-01 6.455586105585098267e-02
-2.426234483718872070e-01 8.770002722740173340e-01 6.026060879230499268e-02
-2.325855791568756104e-01 4.678961336612701416e-01 -3.439888954162597656e-01
-1.934932172298431396e-01 4.099808931350708008e-01 3.308796882629394531e-01
-2.341156452894210815e-01 7.680889368057250977e-01 3.213688135147094727e-01
-2.622821331024169922e-01 4.059601426124572754e-01 -2.019411623477935791e-01
-6.185816973447799683e-02 6.415616273880004883e-01 -1.320528686046600342e-01
-1.277999281883239746e-01 9.267144203186035156e-01 -9.811660274863243103e-04
-6.349938362836837769e-02 5.753425359725952148e-01 -1.249682679772377014e-01
-1.321472227573394775e-01 4.874941408634185791e-01 3.067340254783630371e-01
-7.411175966262817383e-02 7.121654152870178223e-01 1.039197519421577454e-01
-2.666100859642028809e-01 5.183199048042297363e-01 -2.574430108070373535e-01
-1.463924348354339600e-01 6.697034835815429688e-01 -4.290680885314941406e-01
-9.694905579090118408e-02 5.211322307586669922e-01 2.117469608783721924e-01
-1.845312267541885376e-01 3.088468313217163086e-01 1.926604658365249634e-01
-7.937688380479812622e-02 4.579834640026092529e-01 1.530591398477554321e-04
-2.426668405532836914e-01 8.764458298683166504e-01 -1.450956240296363831e-02
-1.808915287256240845e-01 9.468430280685424805e-01 1.099581271409988403e-02
-2.347604632377624512e-01 8.791798949241638184e-01 -9.122453629970550537e-02
-1.895258724689483643e-01 6.562895178794860840e-01 4.051876664161682129e-01
-1.268099546432495117e-01 3.133551478385925293e-01 -1.451038103550672531e-02
-1.005415990948677063e-01 3.833801150321960449e-01 -1.632329523563385010e-01
-1.670432239770889282e-01 9.398875832557678223e-01 8.628159016370773315e-02
-2.273498475551605225e-01 6.904500126838684082e-01 3.777068257331848145e-01
-1.200305521488189697e-01 3.761443495750427246e-01 1.507629752159118652e-01
-2.440743744373321533e-01 4.947119653224945068e-01 -3.268632292747497559e-01
-2.824652493000030518e-01 5.882252454757690430e-01 2.504255175590515137e-01
-1.113868579268455505e-01 4.220348596572875977e-01 1.825173050165176392e-01
-8.954377472400665283e-02 4.100408554077148438e-01 -1.660564355552196503e-02
-2.363346368074417114e-01 5.845996737480163574e-01 3.828474283218383789e-01
-1.360142827033996582e-01 6.739057898521423340e-01 3.498074412345886230e-01
-2.399326264858245850e-01 8.786470890045166016e-01 -4.306404292583465576e-02
-1.505418121814727783e-01 4.253932237625122070e-01 -3.761513233184814453e-01
-1.022424846887588501e-01 4.745619297027587891e-01 1.996398866176605225e-01
-2.806147933006286621e-01 4.507409930229187012e-01 1.969186961650848389e-01
-2.305356860160827637e-01 2.955877482891082764e-01 1.240386068820953369e-01
-1.569335460662841797e-01 7.121831178665161133e-01 -4.178989529609680176e-01
-2.308548539876937866e-01 2.782916128635406494e-01 8.419670164585113525e-03
-2.672748565673828125e-01 3.706452548503875732e-01 1.516274064779281616e-01
-2.368906438350677490e-01 3.646081984043121338e-01 2.532126307487487793e-01
-1.980007141828536987e-01 8.756635189056396484e-01 2.443155497312545776e-01
-1.556501537561416626e-01 7.955580949783325195e-01 -3.657518625259399414e-01
-8.039575815200805664e-02 4.632413983345031738e-01 -1.749434918165206909e-01
-1.614818871021270752e-01 3.183177709579467773e-01 -2.515699565410614014e-01
-7.390755414962768555e-02 6.272028088569641113e-01 -2.609009742736816406e-01
-2.838352918624877930e-01 6.258656978607177734e-01 -1.623990088701248169e-01
-2.303314059972763062e-01 5.013017058372497559e-01 -3.622218370437622070e-01
-1.238876134157180786e-01 8.782391548156738281e-01 1.609065681695938110e-01
-2.876610755920410156e-01 7.149501442909240723e-01 -1.319664530456066132e-02
-1.851724982261657715e-01 2.652626931667327881e-01 -1.071231514215469360e-01
-1.264505833387374878e-01 3.632383346557617188e-01 -2.604404389858245850e-01
-1.851868033409118652e-01 6.658607721328735352e-01 -4.252710342407226562e-01
-1.162767410278320312e-01 4.678889513015747070e-01 2.483571022748947144e-01
-6.099093705415725708e-02 6.427398920059204102e-01 -1.026694178581237793e-01
-1.168816462159156799e-01 8.802500367164611816e-01 -2.025715857744216919e-01
-2.751604318618774414e-01 7.117373347282409668e-01 -1.581698805093765259e-01
-9.082914143800735474e-02 7.502470612525939941e-01 1.823264807462692261e-01
-1.600590944290161133e-01 2.780659198760986328e-01 -1.246977746486663818e-01
-1.609658896923065186e-01 2.710909247398376465e-01 -7.452359423041343689e-03
-1.564476042985916138e-01 6.232782602310180664e-01 3.855616450309753418e-01
-2.453847825527191162e-01 6.103432774543762207e-01 3.680910468101501465e-01
-1.393944770097732544e-01 8.620445728302001953e-01 -2.824155688285827637e-01
-2.948620319366455078e-01 6.139372587203979492e-01 -6.208119541406631470e-02
-1.900900304317474365e-01 3.613105416297912598e-01 2.792758941650390625e-01
-1.049194484949111938e-01 3.752399981021881104e-01 5.136919021606445312e-02
-7.426056265830993652e-02 7.609106302261352539e-01 5.484095215797424316e-02
-2.830153405666351318e-01 4.734338521957397461e-01 -1.445231884717941284e-01
-1.311275511980056763e-01 9.045145511627197266e-01 -1.840420961380004883e-01
-1.936566233634948730e-01 5.643679499626159668e-01 -4.277243614196777344e-01
-2.766969203948974609e-01 7.581027746200561523e-01 1.446248143911361694e-01
-8.027754724025726318e-02 4.775702953338623047e-01 6.063820421695709229e-02
-8.784779161214828491e-02 4.482063353061676025e-01 7.880021631717681885e-02
-6.965907663106918335e-02 5.091800689697265625e-01 -3.502291440963745117e-02
-2.786692976951599121e-01 5.113996863365173340e-01 -1.953654289245605469e-01
-9.931032359600067139e-02 8.154619932174682617e-01 1.586803197860717773e-01
-7.081557065248489380e-02 6.065227985382080078e-01 -2.368478178977966309e-01
-2.439748048782348633e-01 7.720910906791687012e-01 2.947747707366943359e-01
-2.245353758335113525e-01 2.751584947109222412e-01 4.747308790683746338e-02
-1.194684654474258423e-01 6.515656113624572754e-01 -4.059798121452331543e-01
-2.475546598434448242e-01 3.240294456481933594e-01 -1.315323710441589355e-01
-2.349967807531356812e-01 3.864556550979614258e-01 2.836750149726867676e-01
-1.681746244430541992e-01 7.594905495643615723e-01 3.593459129333496094e-01
-1.260253489017486572e-01 4.399845898151397705e-01 -3.544962406158447266e-01
-8.167544007301330566e-02 6.320487856864929199e-01 -3.029801845550537109e-01
-1.579145193099975586e-01 3.081818521022796631e-01 -2.243002206087112427e-01
-2.812708020210266113e-01 6.891524195671081543e-01 -1.366690695285797119e-01
-2.315371632575988770e-01 8.986246585845947266e-01 3.742602467536926270e-02
-1.963245123624801636e-01 4.556404352188110352e-01 -3.928672671318054199e-01
-6.282395869493484497e-02 5.908701419830322266e-01 -2.086921781301498413e-02
-6.957703828811645508e-02 6.390060782432556152e-01 8.928924798965454102e-02
-2.288826406002044678e-01 8.535024523735046387e-01 -1.900915354490280151e-01
-1.715252846479415894e-01 5.754472613334655762e-01 -4.405398964881896973e-01
-7.810218632221221924e-02 7.914415001869201660e-01 -1.611349284648895264e-01
-2.821834683418273926e-01 4.177472293376922607e-01 1.316321641206741333e-01
-9.440799057483673096e-02 5.814238190650939941e-01 2.278639376163482666e-01
-2.043983638286590576e-01 9.142308235168457031e-01 -1.281917393207550049e-01
-8.642515540122985840e-02 7.225819230079650879e-01 1.773980557918548584e-01
-2.697244882583618164e-01 7.680395841598510742e-01 -1.172380149364471436e-01
-2.437997758388519287e-01 5.341721773147583008e-01 -3.382825255393981934e-01
-2.804877161979675293e-01 6.618109941482543945e-01 -1.656403839588165283e-01
-8.797790110111236572e-02 4.125883579254150391e-01 -4.585702344775199890e-02
-2.803110182285308838e-01 4.238927662372589111e-01 -1.083338484168052673e-01
-1.111242398619651794e-01 5.062254667282104492e-01 -3.671255111694335938e-01
-2.683480381965637207e-01 3.611715435981750488e-01 1.163587272167205811e-01
-2.009300589561462402e-01 5.006036758422851562e-01 3.876523971557617188e-01
-2.518869042396545410e-01 3.683842122554779053e-01 2.202242910861968994e-01
-1.157489493489265442e-01 4.349443912506103516e-01 2.155972421169281006e-01
-2.444236576557159424e-01 8.049437999725341797e-01 -2.074476927518844604e-01
-1.276484131813049316e-01 3.284456133842468262e-01 -1.816162019968032837e-01
-8.557227998971939087e-02 7.898863554000854492e-01 1.119578927755355835e-01
-9.966388344764709473e-02 6.146128773689270020e-01 2.551345229148864746e-01
-9.246227890253067017e-02 5.414584875106811523e-01 -3.279335498809814453e-01
-1.274429559707641602e-01 4.025473594665527344e-01 2.190788686275482178e-01
-1.306066215038299561e-01 5.148859024047851562e-01 3.176730871200561523e-01
-2.741402089595794678e-01 6.161070466041564941e-01 2.862554788589477539e-01
-2.307454645633697510e-01 6.569725275039672852e-01 -3.615639209747314453e-01
-8.313683420419692993e-02 4.997589588165283203e-01 -2.540538907051086426e-01
-1.343313604593276978e-01 5.917156934738159180e-01 -4.278091192245483398e-01
-1.545132845640182495e-01 7.992056608200073242e-01 3.195676803588867188e-01
-1.063665747642517090e-01 6.672943234443664551e-01 2.768512964248657227e-01
