-9.068288654088973999e-02 -1.549423392862081528e-02 2.696814239025115967e-01
7.992853969335556030e-02 -3.543122485280036926e-02 3.465201556682586670e-01
-8.962682634592056274e-02 1.132820826023817062e-02 -2.187003940343856812e-01
5.239008367061614990e-02 3.350178524851799011e-02 3.905944228172302246e-01
8.319512009620666504e-03 -3.444707393646240234e-02 -3.364400863647460938e-01
1.534499824047088623e-01 -3.710708022117614746e-02 2.549208402633666992e-01
2.150215208530426025e-03 -5.643351376056671143e-02 1.491357684135437012e-01
4.591246694326400757e-02 -3.451182693243026733e-02 -3.478355705738067627e-01
-5.385836213827133179e-02 3.255626559257507324e-02 2.006936073303222656e-01
2.132531106472015381e-01 -3.202650696039199829e-02 1.441557705402374268e-01
1.671442538499832153e-01 7.631445676088333130e-02 1.351583302021026611e-01
7.228688150644302368e-02 -4.858612269163131714e-02 -2.260739654302597046e-01
4.485383629798889160e-03 -5.293058604001998901e-02 -1.811738014221191406e-01
3.273664116859436035e-01 1.309305056929588318e-02 4.246735200285911560e-02
8.397002518177032471e-02 7.358011603355407715e-02 -5.739068984985351562e-02
1.704998612403869629e-01 -4.460754245519638062e-02 6.211361289024353027e-02
1.865409165620803833e-01 -3.175534680485725403e-02 2.375826090574264526e-01
-4.067217558622360229e-02 4.308188706636428833e-02 -1.469823122024536133e-01
-5.675794929265975952e-02 3.576958552002906799e-02 1.516381800174713135e-01
-1.756469160318374634e-02 5.364373698830604553e-02 2.879072912037372589e-03
2.393092513084411621e-01 7.578823715448379517e-02 1.057897061109542847e-01
2.411319613456726074e-01 5.804291367530822754e-02 -3.286893069744110107e-01
3.823976218700408936e-02 6.231931969523429871e-02 1.385455280542373657e-01
3.269553184509277344e-01 4.754830524325370789e-02 -1.706946641206741333e-01
1.504541337490081787e-01 -4.647934436798095703e-02 -1.134441122412681580e-01
6.330884248018264771e-02 -3.026206418871879578e-02 -3.707512915134429932e-01
2.373719513416290283e-01 6.140366196632385254e-02 2.576636373996734619e-01
1.290964782238006592e-01 -5.131036043167114258e-02 -5.420940369367599487e-02
2.783211171627044678e-01 5.918831750750541687e-02 2.083413898944854736e-01
1.089676395058631897e-01 7.410238683223724365e-02 -1.539705246686935425e-01
-2.794571965932846069e-02 3.721809387207031250e-02 2.436122447252273560e-01
2.227007150650024414e-01 3.617135435342788696e-02 -4.115543961524963379e-01
1.842870414257049561e-01 7.752989232540130615e-02 1.168243885040283203e-01
-5.284135788679122925e-02 -4.652611166238784790e-02 -1.871742457151412964e-01
-4.741810262203216553e-03 1.857145689427852631e-03 4.079121649265289307e-01
2.187308073043823242e-01 -2.750695496797561646e-02 1.892463117837905884e-01
-5.370446294546127319e-02 -2.641228213906288147e-02 3.236186802387237549e-01
9.672334790229797363e-02 -3.888643905520439148e-02 3.127799630165100098e-01
-3.377860039472579956e-02 1.834823936223983765e-02 3.356808125972747803e-01
8.360461890697479248e-02 7.346323132514953613e-02 1.555567886680364609e-02
2.350094914436340332e-02 4.854078963398933411e-02 2.685629725456237793e-01
-1.144885644316673279e-01 -3.900905698537826538e-02 1.776446402072906494e-02
3.371104300022125244e-01 2.486595883965492249e-02 -9.247201681137084961e-02
-8.694692701101303101e-02 -4.440582543611526489e-02 -1.167692244052886963e-01
-7.285155355930328369e-03 -5.812048912048339844e-02 9.888564050197601318e-02
1.950938105583190918e-01 6.085335463285446167e-02 -3.446921706199645996e-01
2.641222476959228516e-01 -1.837360486388206482e-02 -1.146393269300460815e-01
2.753173708915710449e-01 7.454646378755569458e-02 -8.196175843477249146e-02
-2.131605893373489380e-02 -4.092971608042716980e-02 2.973427176475524902e-01
3.781769424676895142e-02 -2.639130875468254089e-02 -3.855076134204864502e-01
-5.776879936456680298e-02 4.065421223640441895e-02 -5.089447647333145142e-02
2.627647221088409424e-01 -2.010150626301765442e-02 -8.205840736627578735e-02
1.630258709192276001e-01 -3.751737996935844421e-02 -2.285369485616683960e-01
9.368896484375000000e-03 6.024966016411781311e-02 1.547113340348005295e-02
1.713533103466033936e-01 7.039514929056167603e-02 2.173968702554702759e-01
4.716146737337112427e-02 -5.136843025684356689e-02 -2.047392427921295166e-01
-1.264979541301727295e-01 -3.312882035970687866e-04 -4.982780292630195618e-02
6.756560504436492920e-02 6.897175312042236328e-02 1.019993126392364502e-01
-7.095234841108322144e-02 3.594059869647026062e-02 -1.420333143323659897e-02
1.429994851350784302e-01 5.151732638478279114e-02 -3.959997296333312988e-01
-4.611357301473617554e-02 4.494448378682136536e-02 1.683441549539566040e-02
3.027292490005493164e-01 -4.078486934304237366e-03 -4.539297893643379211e-02
2.029803991317749023e-01 -3.569789603352546692e-02 -1.255404949188232422e-01
-9.988049417734146118e-02 1.133027393370866776e-02 -1.731124073266983032e-01
1.314634829759597778e-01 -4.470983892679214478e-02 2.087903916835784912e-01
3.043736517429351807e-01 -1.601436175405979156e-03 6.565796583890914917e-02
1.569156348705291748e-01 7.740909606218338013e-02 -1.631184369325637817e-01
-1.124306768178939819e-02 -5.687473714351654053e-02 1.283922642469406128e-01
2.144496291875839233e-01 -2.570427581667900085e-02 2.237658053636550903e-01
1.766633689403533936e-01 6.005750223994255066e-02 3.035182356834411621e-01
5.786379054188728333e-02 5.574889481067657471e-02 2.647149860858917236e-01
1.467833220958709717e-01 7.258544862270355225e-02 -2.352254688739776611e-01
2.869101762771606445e-01 2.380471117794513702e-02 -3.146107196807861328e-01
1.225532591342926025e-01 -5.255262553691864014e-02 -2.889928594231605530e-02
4.736752435564994812e-02 -2.414663136005401611e-02 4.028553068637847900e-01
3.891871869564056396e-02 -5.737087875604629517e-02 1.259567290544509888e-01
1.652980446815490723e-01 6.297701597213745117e-02 2.840217053890228271e-01
-3.323771059513092041e-03 -5.880792438983917236e-02 -4.900891333818435669e-02
-1.758808642625808716e-02 5.260781943798065186e-02 -9.080877155065536499e-02
-1.067058667540550232e-01 -9.704352356493473053e-03 2.195450365543365479e-01
4.052743315696716309e-03 -2.859815023839473724e-03 -4.178186953067779541e-01
1.210735887289047241e-01 7.254503667354583740e-02 1.564701646566390991e-01
2.080414146184921265e-01 8.093936741352081299e-02 -5.383658781647682190e-02
2.601408958435058594e-01 2.414667233824729919e-02 -3.684560656547546387e-01
9.951805323362350464e-02 -5.420309305191040039e-02 9.695541113615036011e-02
1.610078960657119751e-01 -3.929633274674415588e-02 2.138662189245223999e-01
1.890962272882461548e-01 7.949869334697723389e-02 7.012297958135604858e-02
2.292461693286895752e-02 -5.956766009330749512e-02 5.049140006303787231e-02
-6.444870680570602417e-02 2.446445450186729431e-02 2.293641120195388794e-01
1.755013465881347656e-01 -2.340866252779960632e-03 -4.240428805351257324e-01
2.477010488510131836e-01 6.725146621465682983e-02 -2.604042291641235352e-01
1.665690839290618896e-01 5.102590098977088928e-02 3.552524745464324951e-01
-8.342946320772171021e-02 -4.283208400011062622e-02 -1.478289067745208740e-01
2.738539576530456543e-01 5.833916366100311279e-03 -2.965031564235687256e-01
8.947331458330154419e-02 -4.887183196842670441e-03 -4.533644020557403564e-01
-1.003168597817420959e-01 -4.461660236120223999e-02 5.615932494401931763e-02
2.378946542739868164e-01 1.765157468616962433e-02 -3.956131041049957275e-01
9.061795473098754883e-02 -5.066480860114097595e-02 1.946171075105667114e-01
2.232493907213211060e-01 -1.967281475663185120e-02 2.534734904766082764e-01
1.652969866991043091e-01 8.006372302770614624e-02 3.320216387510299683e-02
1.968656778335571289e-01 4.398061707615852356e-02 3.707584738731384277e-01
8.063217997550964355e-02 7.119317352771759033e-02 -1.388990581035614014e-01
7.413885742425918579e-02 6.516928225755691528e-02 1.881059855222702026e-01
1.995085477828979492e-01 8.066353946924209595e-02 -8.585654944181442261e-02
2.065867930650711060e-02 4.457037895917892456e-02 2.942387163639068604e-01
2.370352745056152344e-01 3.833685815334320068e-02 3.499034047126770020e-01
7.800002396106719971e-02 7.202313095331192017e-02 -9.985662996768951416e-02
1.153425946831703186e-01 -2.897353842854499817e-02 -3.590112030506134033e-01
8.828079700469970703e-02 6.976738572120666504e-02 1.452982574701309204e-01
1.742115616798400879e-02 -4.620385169982910156e-02 -2.598164379596710205e-01
2.249952256679534912e-01 -3.134464845061302185e-02 -9.479509294033050537e-02
-2.439469844102859497e-02 -5.794364213943481445e-02 -3.856175765395164490e-02
1.752804219722747803e-02 -5.105835571885108948e-02 -2.099353969097137451e-01
5.608493834733963013e-02 -1.360800582915544510e-02 4.310283958911895752e-01
2.634554207324981689e-01 7.677020877599716187e-02 -8.909387513995170593e-03
1.259109377861022949e-01 7.828935235738754272e-02 -1.795985735952854156e-02
7.329215109348297119e-02 -2.467716857790946960e-02 3.999539017677307129e-01
2.954886257648468018e-01 6.759466230869293213e-02 7.685489952564239502e-02
1.369127631187438965e-01 6.481239106506109238e-03 -4.626162648200988770e-01
2.557153254747390747e-02 4.205532744526863098e-02 -3.448547720909118652e-01
2.474976181983947754e-01 7.613780349493026733e-02 8.235507458448410034e-02
4.354722797870635986e-03 5.763820931315422058e-02 -1.130348294973373413e-01
3.295674324035644531e-01 1.797535084187984467e-02 7.439747452735900879e-02
-1.242508813738822937e-01 3.350545186549425125e-03 4.322395846247673035e-02
8.467757701873779297e-02 5.639905110001564026e-02 -3.320185244083404541e-01
1.906582117080688477e-01 5.088543891906738281e-02 3.481216728687286377e-01
1.002189293503761292e-01 7.420738041400909424e-02 -1.245113387703895569e-01
1.780885010957717896e-01 7.236965745687484741e-02 -2.514217197895050049e-01
2.845444530248641968e-02 -5.880529433488845825e-02 -6.185057759284973145e-02
9.880107641220092773e-02 6.758662313222885132e-02 1.976078450679779053e-01
2.897230684757232666e-01 -1.852614805102348328e-03 1.645465046167373657e-01
1.307681947946548462e-01 -4.892216995358467102e-02 -1.255988478660583496e-01
6.529670208692550659e-02 7.057715952396392822e-02 -7.832438498735427856e-02
2.371609807014465332e-01 6.574739515781402588e-02 2.262540757656097412e-01
5.685831978917121887e-02 4.659891873598098755e-02 3.313279151916503906e-01
7.507583498954772949e-02 -5.074972659349441528e-02 -1.954285055398941040e-01
1.358016878366470337e-01 -3.276605159044265747e-02 -3.157984316349029541e-01
8.202752470970153809e-02 -5.701009184122085571e-02 2.472339943051338196e-02
-7.753633707761764526e-02 2.467991039156913757e-02 1.753324121236801147e-01
1.926398873329162598e-01 -2.634846791625022888e-02 -2.794612646102905273e-01
2.390691936016082764e-01 7.938106358051300049e-02 -5.570505931973457336e-02
1.786881685256958008e-01 -1.876622810959815979e-02 -3.546213209629058838e-01
8.005302399396896362e-02 -1.427133288234472275e-02 -4.318924248218536377e-01
2.235411852598190308e-01 8.016818761825561523e-02 -7.311481237411499023e-02
3.329896926879882812e-01 2.688919380307197571e-02 9.561377018690109253e-02
4.609133303165435791e-02 -5.905929207801818848e-02 -2.117819525301456451e-02
-7.594410330057144165e-02 -4.222051799297332764e-02 2.032606452703475952e-01
3.175866603851318359e-01 5.937441065907478333e-02 -1.366581618785858154e-01
2.884302139282226562e-01 6.306566298007965088e-02 -2.170092314481735229e-01
-7.541782408952713013e-02 2.924272045493125916e-02 -1.442840099334716797e-01
4.394517093896865845e-02 3.928009420633316040e-02 3.576304912567138672e-01
-5.714448541402816772e-02 4.016596823930740356e-02 -8.026123791933059692e-02
-1.225415840744972229e-01 -1.370722427964210510e-03 -1.030405834317207336e-01
2.287257313728332520e-01 -2.742338180541992188e-02 -1.579199433326721191e-01
-7.197722047567367554e-02 2.595529332756996155e-02 -1.969403177499771118e-01
3.344798386096954346e-01 1.839265786111354828e-02 -4.663950204849243164e-02
1.266744881868362427e-01 3.713356330990791321e-02 4.101665914058685303e-01
2.677053809165954590e-01 -2.467821352183818817e-03 -2.702778577804565430e-01
1.956032216548919678e-01 8.110398799180984497e-02 -8.009530603885650635e-03
-1.587372273206710815e-02 -5.192666500806808472e-02 2.058507949113845825e-01
-4.121578484773635864e-02 -2.441529184579849243e-02 3.461027443408966064e-01
1.860698163509368896e-01 -3.397321701049804688e-02 2.140885144472122192e-01
2.570036947727203369e-01 -1.100822072476148605e-02 -2.417389452457427979e-01
1.259375661611557007e-01 7.734336704015731812e-02 5.154958367347717285e-02
3.308346867561340332e-02 -4.407320544123649597e-02 -2.812663614749908447e-01
5.695295706391334534e-02 -5.784574151039123535e-02 -6.365743279457092285e-02
2.290880382061004639e-01 -2.275161072611808777e-02 -2.197275459766387939e-01
3.834425657987594604e-02 -5.609898269176483154e-02 -1.317099928855895996e-01
-7.131836563348770142e-02 1.029091142117977142e-02 2.817461490631103516e-01
2.811850309371948242e-01 7.238442450761795044e-02 -1.162286400794982910e-01
1.374161988496780396e-02 -2.361998707056045532e-02 3.946326971054077148e-01
5.235682800412178040e-02 -4.437690600752830505e-02 2.940627038478851318e-01
-2.042780071496963501e-02 -2.829342335462570190e-02 3.570119738578796387e-01
1.542779803276062012e-01 -3.683746792376041412e-03 -4.362578988075256348e-01
3.112926185131072998e-01 5.139358807355165482e-03 1.027753651142120361e-01
2.632367312908172607e-01 -1.900793612003326416e-02 9.035496413707733154e-02
2.813573777675628662e-01 -1.833200454711914062e-03 2.011343687772750854e-01
-4.111418873071670532e-02 4.471250623464584351e-02 -1.111032366752624512e-01
1.380586177110671997e-01 -4.284712672233581543e-02 -2.127346247434616089e-01
3.127235472202301025e-01 2.656349912285804749e-03 -8.366858214139938354e-02
-1.063005998730659485e-01 -3.911802172660827637e-02 -8.835249394178390503e-02
2.902946472167968750e-01 6.900560110807418823e-02 -1.422646045684814453e-01
3.149756193161010742e-01 6.332767009735107422e-02 2.764905616641044617e-02
2.179510295391082764e-01 8.022063225507736206e-02 2.073222026228904724e-02
1.366679370403289795e-02 -5.981021374464035034e-02 1.364877726882696152e-02
9.170636534690856934e-03 -5.910655856132507324e-02 7.682272046804428101e-02
1.718318313360214233e-01 8.070106804370880127e-02 5.681405775249004364e-03
5.901363864541053772e-02 6.600023061037063599e-02 -1.792118996381759644e-01
1.388234645128250122e-01 7.674027234315872192e-02 9.927803277969360352e-02
9.476718306541442871e-02 7.000999152660369873e-02 -2.018585205078125000e-01
-1.572947949171066284e-02 5.019244551658630371e-02 1.338154971599578857e-01
6.767057627439498901e-02 -5.808980762958526611e-02 6.381096318364143372e-04
1.830651015043258667e-01 -4.254475980997085571e-02 3.402069211006164551e-02
2.110151946544647217e-01 6.486006826162338257e-02 2.560290098190307617e-01
-2.745315432548522949e-03 -5.771368741989135742e-02 -8.744791895151138306e-02
2.613211870193481445e-01 -1.718045398592948914e-02 -1.547885984182357788e-01
9.572595357894897461e-03 5.761311203241348267e-02 1.125745996832847595e-01
-3.258881717920303345e-02 4.773702099919319153e-02 8.096061646938323975e-02
2.388708889484405518e-01 7.948927581310272217e-02 -2.799337729811668396e-02
1.880785226821899414e-01 -1.216453034430742264e-02 3.623138964176177979e-01
-6.440753489732742310e-02 -2.431679144501686096e-02 -2.948380112648010254e-01
-1.092097908258438110e-02 3.968254476785659790e-02 2.671881020069122314e-01
2.266091704368591309e-01 7.072022557258605957e-02 -2.511094212532043457e-01
-1.008098945021629333e-01 2.102168276906013489e-02 4.326893761754035950e-02
1.338320076465606689e-01 7.797555625438690186e-02 -1.056755706667900085e-01
1.230497062206268311e-01 -4.230664670467376709e-02 2.527306377887725830e-01
1.445987969636917114e-01 -1.126927044242620468e-02 4.103125333786010742e-01
7.601596415042877197e-02 -3.916172683238983154e-02 3.241932392120361328e-01
4.417006671428680420e-02 5.302187427878379822e-02 -3.005201816558837891e-01
1.215743348002433777e-01 6.313878297805786133e-02 -3.142585456371307373e-01
5.661961808800697327e-02 -5.726508051156997681e-02 1.080417037010192871e-01
-1.110835745930671692e-01 1.969146542251110077e-03 1.709290593862533569e-01
2.517743706703186035e-01 -2.454110607504844666e-02 -5.194324627518653870e-02
-2.558768540620803833e-02 1.099229417741298676e-02 3.700203895568847656e-01
1.477524936199188232e-01 -3.797754272818565369e-02 -2.528356313705444336e-01
-5.066824704408645630e-02 -5.378396064043045044e-02 1.176801472902297974e-01
-3.336466103792190552e-02 -5.353620648384094238e-02 1.615311205387115479e-01
8.257851004600524902e-02 -4.727017506957054138e-02 2.484971731901168823e-01
-8.464405685663223267e-02 9.026335552334785461e-03 2.476749867200851440e-01
-1.351198554039001465e-02 -5.532506853342056274e-02 -1.293865591287612915e-01
3.341163396835327148e-01 2.544763311743736267e-02 -1.277725547552108765e-01
1.948065757751464844e-01 7.843962311744689941e-02 9.665188193321228027e-02
1.948302835226058960e-01 -3.185453265905380249e-02 -2.181277722120285034e-01
1.347782164812088013e-01 6.960444897413253784e-02 -2.621498703956604004e-01
3.156653791666030884e-02 6.405890733003616333e-02 -1.005133464932441711e-01
2.878385186195373535e-01 -2.399301156401634216e-04 -2.152610868215560913e-01
-1.357241719961166382e-02 3.951072320342063904e-02 -2.831685543060302734e-01
1.014770567417144775e-01 5.366538837552070618e-02 -3.655591309070587158e-01
3.207138180732727051e-01 4.062601178884506226e-02 1.635977178812026978e-01
-2.687595039606094360e-02 3.875482827425003052e-02 -2.527108490467071533e-01
-2.250308543443679810e-02 -4.121412709355354309e-02 -2.726440131664276123e-01
-7.790064066648483276e-02 3.191490471363067627e-02 -7.298433035612106323e-02
7.912588119506835938e-02 -5.469759553670883179e-02 -1.181317567825317383e-01
1.881070137023925781e-01 7.830693572759628296e-02 -1.608849912881851196e-01
1.977484226226806641e-01 7.241382449865341187e-02 1.911829262971878052e-01
8.127906918525695801e-02 -2.382063493132591248e-02 -3.984912931919097900e-01
2.461559325456619263e-02 -1.799995079636573792e-02 -4.082108139991760254e-01
8.182190358638763428e-02 7.006177306175231934e-02 1.233087778091430664e-01
2.265642583370208740e-02 6.332828849554061890e-02 -2.460224926471710205e-02
-4.165895283222198486e-03 -4.062122851610183716e-02 -2.921129167079925537e-01
1.298884600400924683e-01 6.952790170907974243e-02 2.084807455539703369e-01
1.682279407978057861e-01 6.960935890674591064e-02 -2.793731987476348877e-01
1.976971626281738281e-01 7.973010838031768799e-02 -1.235253438353538513e-01
-1.871047914028167725e-02 -5.883564054965972900e-02 1.700224727392196655e-02
3.372145891189575195e-01 4.601222276687622070e-02 4.640091583132743835e-02
2.706537246704101562e-01 -1.825464516878128052e-02 -3.253483399748802185e-02
-5.444339662790298462e-02 4.071897268295288086e-02 7.590251415967941284e-02
1.868401169776916504e-01 -7.752711884677410126e-03 -3.954483270645141602e-01
1.473723948001861572e-01 7.970640063285827637e-02 4.305550828576087952e-04
1.913999319076538086e-01 1.463011279702186584e-02 4.139016568660736084e-01
9.532500058412551880e-02 -4.839366301894187927e-02 -2.062062323093414307e-01
7.272968441247940063e-02 3.439941629767417908e-02 -4.281542897224426270e-01
1.356063783168792725e-01 -2.822843194007873535e-02 3.472050726413726807e-01
1.196910589933395386e-01 6.254363805055618286e-02 2.721012830734252930e-01
1.839474588632583618e-01 -3.949628397822380066e-02 1.352526247501373291e-01
1.207845956087112427e-01 6.571462005376815796e-02 2.432075291872024536e-01
4.876568913459777832e-03 2.344091609120368958e-02 -3.915220797061920166e-01
2.609609961509704590e-01 5.914001539349555969e-02 2.404043972492218018e-01
-9.563698619604110718e-02 -2.395306900143623352e-02 2.432722002267837524e-01
1.631726324558258057e-02 -5.257274210453033447e-02 2.145431637763977051e-01
4.479776322841644287e-02 1.431713066995143890e-02 -4.471679925918579102e-01
2.887538373470306396e-01 5.127215385437011719e-02 2.271798700094223022e-01
6.199436262249946594e-02 -5.804457515478134155e-02 -4.009913280606269836e-02
2.557854354381561279e-01 -2.357025817036628723e-02 9.980435483157634735e-03
-4.951716214418411255e-02 -5.473516136407852173e-02 -6.579780578613281250e-02
2.292369753122329712e-01 -3.025285899639129639e-02 8.472581952810287476e-02
1.068197190761566162e-01 -4.695229232311248779e-02 2.228204607963562012e-01
-1.067394688725471497e-01 1.328093931078910828e-02 -1.140753179788589478e-01
-1.021163240075111389e-01 -4.339373856782913208e-02 -4.312542825937271118e-02
1.356194615364074707e-01 -5.091002583503723145e-02 2.406758069992065430e-02
2.356097996234893799e-01 7.194899022579193115e-02 1.672086715698242188e-01
-2.767122536897659302e-02 2.650219947099685669e-02 -3.257030546665191650e-01
1.010335981845855713e-03 -4.694315791130065918e-02 2.683783769607543945e-01
-3.754895180463790894e-02 -5.647591501474380493e-02 8.491031080484390259e-02
-9.653199464082717896e-02 1.124873198568820953e-02 1.916235238313674927e-01
1.801789849996566772e-01 -4.164277762174606323e-02 -9.904354065656661987e-02
2.170532345771789551e-01 4.265844449400901794e-02 3.598915934562683105e-01
-1.640825718641281128e-02 -2.308430150151252747e-02 -3.638367652893066406e-01
2.466000616550445557e-02 -4.720690473914146423e-02 2.727696001529693604e-01
1.392853409051895142e-01 -4.820369929075241089e-02 1.232633441686630249e-01
6.450305879116058350e-02 6.952138990163803101e-02 7.294432073831558228e-02
2.840268611907958984e-01 9.326590225100517273e-03 2.494442909955978394e-01
2.907753288745880127e-01 7.091102749109268188e-02 3.153560683131217957e-02
3.041302859783172607e-01 4.032085649669170380e-03 1.394508332014083862e-01
9.597300738096237183e-02 -4.539931565523147583e-02 -2.425094842910766602e-01
2.455286383628845215e-01 5.532379448413848877e-02 2.828009426593780518e-01
2.877483069896697998e-01 -1.145851332694292068e-02 -9.119812399148941040e-03
1.729780435562133789e-01 7.902071624994277954e-02 -1.379139125347137451e-01
-2.363920956850051880e-02 -2.953608706593513489e-02 -3.339028954505920410e-01
-1.211600974202156067e-01 -1.613699272274971008e-02 -1.383083164691925049e-01
3.162477612495422363e-01 8.535194210708141327e-03 -1.371658593416213989e-01
-1.421869546175003052e-02 4.659186676144599915e-02 -2.167282253503799438e-01
-1.215038076043128967e-01 -2.478952333331108093e-02 1.361499130725860596e-01
1.561580002307891846e-01 -4.647163301706314087e-02 -8.539245277643203735e-02
-8.609540760517120361e-03 5.517901480197906494e-02 5.611637979745864868e-02
2.450483143329620361e-01 -1.349516492336988449e-02 2.400110960006713867e-01
1.801832020282745361e-01 -4.161501675844192505e-02 1.024520695209503174e-01
-2.178557962179183960e-02 3.153983131051063538e-02 2.978947758674621582e-01
1.512831449508666992e-02 4.663128405809402466e-02 -2.954142689704895020e-01
1.428062319755554199e-01 6.178515404462814331e-02 2.894997596740722656e-01
2.908530533313751221e-01 -1.886846497654914856e-03 -1.872214823961257935e-01
1.269764155149459839e-01 7.795505225658416748e-02 2.583677694201469421e-02
2.177578508853912354e-01 -3.417943790555000305e-02 -5.963307991623878479e-02
3.157910406589508057e-01 2.105078846216201782e-02 1.742752641439437866e-01
1.465329825878143311e-01 4.549311473965644836e-02 3.812206983566284180e-01
3.297575712203979492e-01 4.345868155360221863e-02 1.134782955050468445e-01
-5.496736615896224976e-02 1.063614524900913239e-02 3.191592395305633545e-01
-9.621383994817733765e-02 2.274681441485881805e-02 6.817643344402313232e-02
1.404842585325241089e-01 -2.174124121665954590e-02 3.755474090576171875e-01
2.368952333927154541e-01 7.825710624456405640e-02 5.346247553825378418e-02
1.158643215894699097e-01 -3.815907239913940430e-02 3.003774881362915039e-01
2.481966912746429443e-01 4.434796981513500214e-03 -3.485854864120483398e-01
-6.293100863695144653e-02 2.384352870285511017e-02 -2.466710358858108521e-01
1.074086055159568787e-01 7.464654743671417236e-02 8.479236066341400146e-02
2.885476648807525635e-01 -5.892832763493061066e-03 -1.552980989217758179e-01
8.704845607280731201e-02 7.097888737916946411e-02 -1.649948805570602417e-01
1.238115131855010986e-03 -3.496586903929710388e-02 3.457911312580108643e-01
3.144810199737548828e-01 6.462545692920684814e-02 -1.508219353854656219e-02
-8.636549860239028931e-02 5.657410249114036560e-03 -2.509940564632415771e-01
1.186691895127296448e-01 -5.194929987192153931e-02 -8.417176455259323120e-02
3.082590401172637939e-01 4.058057442307472229e-02 -2.603110671043395996e-01
2.438187599182128906e-03 3.843691200017929077e-02 -3.252091705799102783e-01
-4.094708710908889771e-02 3.714915737509727478e-02 -2.202949374914169312e-01
5.916381999850273132e-02 5.074234306812286377e-02 3.066281676292419434e-01
2.299789786338806152e-01 -1.036248076707124710e-02 -3.165675401687622070e-01
-1.361444592475891113e-02 -1.486158277839422226e-02 -3.865388333797454834e-01
2.132601737976074219e-01 -1.756879314780235291e-02 2.920910418033599854e-01
1.737419366836547852e-01 7.960833609104156494e-03 -4.465873837471008301e-01
2.951013147830963135e-01 6.605828553438186646e-02 1.011040285229682922e-01
-1.190398260951042175e-01 5.775628611445426941e-03 -7.989560812711715698e-02
3.279140889644622803e-01 5.707994848489761353e-02 -7.932513207197189331e-02
1.092257797718048096e-01 -3.434436023235321045e-02 -3.287904858589172363e-01
1.562001109123229980e-01 7.890088111162185669e-02 -1.227136701345443726e-01
3.314170837402343750e-01 1.508904621005058289e-02 -2.406257204711437225e-03
3.058467805385589600e-01 4.378157481551170349e-02 2.081273943185806274e-01
1.575875580310821533e-01 4.090739786624908447e-02 -4.343003034591674805e-01
2.321113348007202148e-01 -3.071495145559310913e-02 2.707406878471374512e-02
-6.768750399351119995e-02 3.696089982986450195e-02 2.968508377671241760e-02
7.326180487871170044e-02 5.800083279609680176e-02 -3.050482571125030518e-01
1.187660098075866699e-01 -2.010777592658996582e-02 -4.014528095722198486e-01
2.659834623336791992e-01 4.192948713898658752e-02 -3.502149581909179688e-01
-5.580598860979080200e-02 -5.112620070576667786e-02 -1.227284148335456848e-01
9.219201654195785522e-02 6.880810111761093140e-02 1.693487465381622314e-01
-7.241276651620864868e-02 -1.501520257443189621e-02 3.119566142559051514e-01
2.193803340196609497e-02 -3.872706368565559387e-02 -3.176723122596740723e-01
1.699762344360351562e-01 -3.259078413248062134e-02 -2.672722041606903076e-01
3.228809237480163574e-01 1.137677207589149475e-02 -1.117759570479393005e-01
-9.838124364614486694e-02 1.996598206460475922e-02 9.810870140790939331e-02
-2.851761132478713989e-02 4.197925701737403870e-02 1.961510628461837769e-01
1.005845218896865845e-01 4.822278767824172974e-02 3.574886918067932129e-01
1.977502107620239258e-01 6.803719699382781982e-02 2.364310473203659058e-01
1.208371669054031372e-01 7.746943086385726929e-02 -7.693474739789962769e-02
2.222349643707275391e-01 -2.759941294789314270e-02 -1.832789480686187744e-01
2.456064820289611816e-01 -7.507507689297199249e-03 -2.985119819641113281e-01
5.992598831653594971e-02 -5.773285031318664551e-02 8.435547351837158203e-02
2.704748213291168213e-01 7.585603743791580200e-02 -4.063794016838073730e-02
2.236195802688598633e-01 7.781000435352325439e-02 -1.523633003234863281e-01
6.918731331825256348e-02 -5.144340172410011292e-02 2.090044766664505005e-01
-3.148242831230163574e-04 -2.951305732131004333e-02 3.678542971611022949e-01
1.325085610151290894e-01 -5.000939965248107910e-02 1.000716015696525574e-01
2.465274035930633545e-01 -2.560067549347877502e-02 6.628713011741638184e-02
1.647675335407257080e-01 -4.623242840170860291e-02 6.140211597084999084e-03
2.258310317993164062e-01 7.888428866863250732e-02 -1.219356507062911987e-01
1.263621151447296143e-01 7.429301738739013672e-02 1.329372674226760864e-01
-4.493794590234756470e-02 -2.831258811056613922e-03 -3.564230799674987793e-01
-9.072080254554748535e-03 5.594106018543243408e-02 -2.076907828450202942e-02
-1.374192237854003906e-01 -1.117783337831497192e-01 -1.022441312670707703e-02
-4.271009564399719238e-01 -7.635085284709930420e-02 -8.894881606101989746e-02
-1.874429285526275635e-01 2.686595544219017029e-02 6.332992017269134521e-02
-3.559194505214691162e-01 -1.543016433715820312e-01 -4.991002753376960754e-02
-3.247127830982208252e-01 -1.640768796205520630e-01 -1.635359041392803192e-02
-3.971116244792938232e-01 -7.262587547302246094e-03 -6.843788176774978638e-02
-2.676204144954681396e-01 2.908803150057792664e-02 6.109160929918289185e-02
-3.280615210533142090e-01 -1.648117452859878540e-01 5.945476703345775604e-03
-3.942239582538604736e-01 -1.296299546957015991e-01 6.405419856309890747e-02
-1.035992503166198730e-01 -6.390268355607986450e-02 -3.523347526788711548e-02
-1.004196852445602417e-01 -7.800185680389404297e-02 4.338537901639938354e-02
-4.724686145782470703e-01 -5.130034312605857849e-02 -6.074075400829315186e-02
-3.287039101123809814e-01 -1.996923238039016724e-03 -8.189592510461807251e-02
-3.528976440429687500e-01 -5.066651478409767151e-02 9.507315605878829956e-02
-1.164896786212921143e-01 -8.175989985466003418e-02 5.697632580995559692e-02
-4.233273565769195557e-01 -1.573382690548896790e-02 5.078565701842308044e-02
-4.243616461753845215e-01 -6.438050419092178345e-03 3.847602382302284241e-02
-4.952817559242248535e-01 -1.008099466562271118e-01 -4.731926694512367249e-02
-3.022740185260772705e-01 -1.251932680606842041e-01 7.951188832521438599e-02
-1.960708498954772949e-01 -2.062160521745681763e-03 8.920329064130783081e-02
-2.597762048244476318e-01 -1.771301403641700745e-02 9.859058260917663574e-02
-2.163839489221572876e-01 -1.022403687238693237e-01 8.681620657444000244e-02
-4.993688166141510010e-01 -1.036359369754791260e-01 1.559332106262445450e-02
-2.645527124404907227e-01 -6.208561360836029053e-02 1.048668473958969116e-01
-3.069723248481750488e-01 -1.169109418988227844e-01 -8.723857253789901733e-02
-2.837737500667572021e-01 3.150711581110954285e-02 5.406051874160766602e-02
-1.438883244991302490e-01 1.867711916565895081e-02 -3.872720897197723389e-02
-4.913999140262603760e-01 -7.281744480133056641e-02 -5.344051495194435120e-02
-2.917973399162292480e-01 4.110101237893104553e-02 2.795953303575515747e-02
-2.032351642847061157e-01 -7.455137372016906738e-02 9.720705449581146240e-02
-4.377490282058715820e-01 -2.316747605800628662e-02 4.766961187124252319e-02
-2.673943638801574707e-01 -1.343598514795303345e-01 -6.498035788536071777e-02
-9.239514172077178955e-02 -1.723837107419967651e-03 -1.850789040327072144e-02
-3.946264386177062988e-01 -1.151060536503791809e-01 -8.625306189060211182e-02
-4.482675790786743164e-01 -1.762696355581283569e-02 3.151514008641242981e-02
-1.074127256870269775e-01 -9.407074749469757080e-02 1.459841150790452957e-02
-4.241752028465270996e-01 -1.514938175678253174e-01 2.244690060615539551e-02
-3.081497848033905029e-01 3.752273693680763245e-02 3.125620633363723755e-02
-4.587828814983367920e-01 -2.067841216921806335e-02 2.335557900369167328e-02
-1.608094274997711182e-01 3.873752430081367493e-02 -8.746275678277015686e-03
-1.310547143220901489e-01 -6.535937637090682983e-02 7.717637717723846436e-02
-1.983117461204528809e-01 -3.723653405904769897e-02 -8.658737689256668091e-02
-3.475846052169799805e-01 -3.148426860570907593e-02 -9.604075551033020020e-02
-2.475124150514602661e-01 -5.815751478075981140e-02 -9.773624688386917114e-02
-2.441575676202774048e-01 4.672004655003547668e-02 2.083724364638328552e-02
-4.193581938743591309e-01 2.841282635927200317e-03 2.626364305615425110e-02
-3.513829708099365234e-01 -1.920631900429725647e-02 -8.986421674489974976e-02
-4.226825237274169922e-01 -1.553578823804855347e-01 -2.845731191337108612e-02
-4.817626774311065674e-01 -9.677001833915710449e-02 -6.107991561293601990e-02
-1.865839064121246338e-01 -8.908148109912872314e-02 -7.350064069032669067e-02
-2.499953061342239380e-01 -1.353090256452560425e-01 -5.812600255012512207e-02
-3.659126758575439453e-01 -1.519384384155273438e-01 4.406242445111274719e-02
-9.693720936775207520e-02 5.639780312776565552e-03 4.258377477526664734e-02
-3.552569746971130371e-01 1.434985175728797913e-02 5.431414395570755005e-02
-4.164712429046630859e-01 -6.632972508668899536e-02 7.768296450376510620e-02
-3.238390088081359863e-01 -1.446135193109512329e-01 -6.340844929218292236e-02
-2.624800503253936768e-01 -8.390795439481735229e-02 -9.613786637783050537e-02
-1.577920168638229370e-01 2.625444903969764709e-02 5.598817020654678345e-02
-2.469925880432128906e-01 2.957984432578086853e-02 -5.348309874534606934e-02
-2.193234562873840332e-01 3.853330388665199280e-02 4.802917689085006714e-02
-4.321366548538208008e-01 -5.181647837162017822e-02 6.787120550870895386e-02
-3.727749288082122803e-01 -1.303328275680541992e-01 6.863090395927429199e-02
-1.906487941741943359e-01 -7.269583642482757568e-02 -8.156439661979675293e-02
-2.289923429489135742e-01 -1.384283453226089478e-01 -4.360936209559440613e-02
-3.278856873512268066e-01 -3.683098405599594116e-02 9.722779691219329834e-02
-4.389511942863464355e-01 -1.337778121232986450e-01 -6.050164997577667236e-02
-2.613846957683563232e-01 -6.302912533283233643e-02 -9.952308237552642822e-02
-2.476525753736495972e-01 -1.548226475715637207e-01 1.120837405323982239e-03
-3.166672587394714355e-01 4.031950607895851135e-02 -7.419766392558813095e-03
-4.694297313690185547e-01 -1.137404665350914001e-01 4.028198868036270142e-02
-1.494847834110260010e-01 -1.203252971172332764e-01 -1.379306660965085030e-03
-2.053490728139877319e-01 -3.835298866033554077e-02 1.012037917971611023e-01
-4.237325787544250488e-01 -1.531300693750381470e-02 -6.351234018802642822e-02
-2.567749917507171631e-01 7.723420858383178711e-04 -8.213344216346740723e-02
-3.515905439853668213e-01 -1.897808164358139038e-03 7.349383831024169922e-02
-2.616795301437377930e-01 2.232145145535469055e-02 -6.332785636186599731e-02
-2.607885599136352539e-01 -2.824264019727706909e-02 -9.574337303638458252e-02
-3.857100009918212891e-01 -1.039753034710884094e-01 -9.252560138702392578e-02
-2.485474944114685059e-01 -1.363057792186737061e-01 6.124526262283325195e-02
-1.601428091526031494e-01 -1.261539161205291748e-01 8.968617767095565796e-03
-1.931933462619781494e-01 -1.204012781381607056e-01 -5.036682263016700745e-02
-9.174406528472900391e-02 -6.502989679574966431e-02 -2.026144042611122131e-02
-9.958140552043914795e-02 -3.712239116430282593e-02 6.491108238697052002e-02
-2.128857970237731934e-01 3.709028288722038269e-02 -3.692311421036720276e-02
-2.730305194854736328e-01 4.637501016259193420e-02 5.022294353693723679e-03
-1.561694294214248657e-01 -9.554001688957214355e-02 -5.373819172382354736e-02
-1.846007704734802246e-01 3.412444144487380981e-03 8.437108248472213745e-02
-1.415005028247833252e-01 9.173754602670669556e-03 -4.719845205545425415e-02
-2.682537436485290527e-01 -1.574701815843582153e-01 1.753078959882259369e-02
-3.742704689502716064e-01 -6.932443380355834961e-02 -1.000071689486503601e-01
-3.396357595920562744e-01 -4.914361238479614258e-02 9.755512326955795288e-02
-3.409054577350616455e-01 -8.083246648311614990e-02 9.691454470157623291e-02
-1.043427735567092896e-01 -7.171513140201568604e-02 5.479787662625312805e-02
-2.156483680009841919e-01 -1.466629803180694580e-01 8.554229512810707092e-03
-8.435550332069396973e-02 -6.968677043914794922e-02 4.563157912343740463e-03
-2.375776767730712891e-01 -4.053468629717826843e-02 -9.530544281005859375e-02
-1.667499989271163940e-01 -9.102869778871536255e-03 -6.934469193220138550e-02
-4.508459568023681641e-01 -9.004479646682739258e-02 6.094497442245483398e-02
-3.499062955379486084e-01 -1.379156708717346191e-01 6.516847014427185059e-02
-4.045642018318176270e-01 7.057387381792068481e-03 -4.353591054677963257e-02
-1.301595568656921387e-01 -1.015059426426887512e-01 -2.383827976882457733e-02
-1.456198692321777344e-01 -2.642206847667694092e-02 8.684602379798889160e-02
-3.802246153354644775e-01 -4.292013496160507202e-02 -9.496279805898666382e-02
-3.091845214366912842e-01 -1.526740342378616333e-01 -4.832591861486434937e-02
-1.617255061864852905e-01 -1.131013333797454834e-01 -3.801298886537551880e-02
-8.142586052417755127e-02 2.914220094680786133e-04 1.022367831319570541e-02
-3.652340471744537354e-01 -8.275835216045379639e-02 9.217132627964019775e-02
-4.864933788776397705e-01 -1.174461990594863892e-01 2.128019183874130249e-02
-2.043014168739318848e-01 9.014476090669631958e-03 8.306028693914413452e-02
-9.933121502399444580e-02 1.597326621413230896e-02 2.186241559684276581e-02
-2.755396068096160889e-01 -1.595633625984191895e-01 -8.701021783053874969e-03
-2.658647000789642334e-01 -8.859622478485107422e-02 9.933409094810485840e-02
-3.642815947532653809e-01 -1.619767397642135620e-02 -8.572132140398025513e-02
-4.700170159339904785e-01 -4.286763444542884827e-02 3.704655170440673828e-02
-3.440992832183837891e-01 -6.461528688669204712e-02 9.781613945960998535e-02
-1.540158987045288086e-01 -7.821245491504669189e-02 -6.376635283231735229e-02
-2.789104580879211426e-01 -4.437442868947982788e-02 1.041696220636367798e-01
-2.291643321514129639e-01 -6.316267699003219604e-02 1.031578779220581055e-01
-1.694871485233306885e-01 -9.639546275138854980e-02 -6.086254119873046875e-02
-2.648521065711975098e-01 1.045823469758033752e-02 8.186192810535430908e-02
-4.225098490715026855e-01 -1.576514393091201782e-01 -1.439317874610424042e-02
-3.727411031723022461e-01 -5.379679054021835327e-02 9.067942947149276733e-02
-9.712797403335571289e-02 -4.210503399372100830e-02 -3.666982427239418030e-02
-2.471603006124496460e-01 2.738098427653312683e-02 6.572407484054565430e-02
-4.556002616882324219e-01 -1.511146873235702515e-02 -3.393829241394996643e-02
-1.545351445674896240e-01 -1.082714274525642395e-02 -6.548715382814407349e-02
-2.746806144714355469e-01 -1.460785418748855591e-01 5.228012800216674805e-02
-2.519966661930084229e-01 -1.211419403553009033e-01 -7.397697120904922485e-02
-1.951757073402404785e-01 1.956575736403465271e-02 -5.757222324609756470e-02
-2.456643730401992798e-01 1.495015993714332581e-02 7.929204404354095459e-02
-3.044773042201995850e-01 -8.760973811149597168e-02 9.919526427984237671e-02
-3.832445740699768066e-01 -3.268530219793319702e-02 8.155971020460128784e-02
-3.989410400390625000e-01 -1.621218025684356689e-01 -7.566653657704591751e-03
-2.417688071727752686e-01 2.170546725392341614e-02 -6.307008117437362671e-02
-3.134207725524902344e-01 -1.613239794969558716e-01 -2.640397474169731140e-02
-4.862782359123229980e-01 -1.269933283329010010e-01 7.017144467681646347e-03
-3.753335177898406982e-01 -1.600272953510284424e-01 -3.468546271324157715e-02
-2.907058894634246826e-01 -1.396550238132476807e-01 -6.440065056085586548e-02
-3.413707613945007324e-01 3.540300205349922180e-02 4.270111676305532455e-03
-2.118196189403533936e-01 -1.410664319992065430e-01 -2.460189349949359894e-02
-2.945864498615264893e-01 -1.071707457304000854e-01 -9.148313850164413452e-02
-2.154895961284637451e-01 -1.023521274328231812e-02 9.498792886734008789e-02
-2.210118770599365234e-01 -3.317549079656600952e-02 -9.116539359092712402e-02
-2.484333813190460205e-01 -1.420097500085830688e-01 -4.722080007195472717e-02
-2.746013104915618896e-01 4.092972353100776672e-02 3.578188642859458923e-02
-3.421660661697387695e-01 1.487394794821739197e-02 -6.218505650758743286e-02
-1.350633352994918823e-01 -4.332046955823898315e-02 8.398438245058059692e-02
-1.254579275846481323e-01 2.876730635762214661e-02 2.641559205949306488e-02
-4.774079322814941406e-01 -1.368505060672760010e-01 -8.091068826615810394e-03
-2.745348811149597168e-01 -7.251659035682678223e-02 1.035741716623306274e-01
-2.608362436294555664e-01 1.963345333933830261e-02 7.365870475769042969e-02
-3.910855650901794434e-01 -1.395058929920196533e-01 5.533944070339202881e-02
-4.200648069381713867e-01 9.015452116727828979e-03 -8.784919045865535736e-03
-3.999904692173004150e-01 -1.595641821622848511e-01 -2.769648656249046326e-02
-5.046072006225585938e-01 -9.302706271409988403e-02 -3.724193945527076721e-02
-2.828230857849121094e-01 4.359297081828117371e-02 -1.688099093735218048e-02
-2.405086159706115723e-01 -1.404740214347839355e-01 5.202031135559082031e-02
-1.330814659595489502e-01 -1.114966496825218201e-01 1.952328253537416458e-03
-4.909479022026062012e-01 -5.370432883501052856e-02 -4.331226274371147156e-02
-1.453288346529006958e-01 -4.686092212796211243e-02 -6.780175119638442993e-02
-5.076534748077392578e-01 -9.813976287841796875e-02 2.034643664956092834e-03
-2.849389910697937012e-01 -1.586768180131912231e-01 2.334125526249408722e-02
-2.396077513694763184e-01 -8.212773501873016357e-02 9.982411563396453857e-02
-1.740362048149108887e-01 4.334484413266181946e-02 6.606229115277528763e-03
-4.752808213233947754e-01 -5.888336524367332458e-02 4.170097783207893372e-02
-2.067001163959503174e-01 -1.169543191790580750e-01 7.200974225997924805e-02
-1.540041863918304443e-01 -3.119893930852413177e-02 -7.100669294595718384e-02
-5.075193643569946289e-01 -7.199297100305557251e-02 2.136575523763895035e-03
-3.554020524024963379e-01 -1.636664122343063354e-01 1.456554606556892395e-02
-2.475545555353164673e-01 4.781923815608024597e-02 8.223390206694602966e-03
-2.227597832679748535e-01 -1.315360069274902344e-01 5.976534634828567505e-02
-3.338401615619659424e-01 2.494673803448677063e-02 4.764709249138832092e-02
-3.327892422676086426e-01 2.540798112750053406e-02 -4.863967746496200562e-02
-2.384910583496093750e-01 -1.511586904525756836e-01 -1.493200566619634628e-02
-3.161480426788330078e-01 3.646462038159370422e-02 -2.876305393874645233e-02
-4.969405531883239746e-01 -6.603363901376724243e-02 -4.416589066386222839e-02
-4.451120495796203613e-01 -1.194793432950973511e-01 -7.028090953826904297e-02
-2.830327451229095459e-01 -1.393124163150787354e-01 6.381075084209442139e-02
-2.487192451953887939e-01 -1.536297649145126343e-01 1.926709711551666260e-02
-1.401101052761077881e-01 2.773995324969291687e-02 -2.219896949827671051e-02
-1.863162666559219360e-01 -1.211307644844055176e-01 5.798814445734024048e-02
-3.579275310039520264e-01 -6.555894017219543457e-02 9.511189907789230347e-02
-2.266984283924102783e-01 4.801038280129432678e-02 5.473687313497066498e-03
-4.154580235481262207e-01 -1.185601130127906799e-01 6.529357284307479858e-02
-1.211410909891128540e-01 -8.759360760450363159e-02 -3.319586440920829773e-02
-1.871488541364669800e-01 -4.471099376678466797e-02 9.873260557651519775e-02
-1.839462220668792725e-01 1.216914132237434387e-02 -6.140306591987609863e-02
-3.563902974128723145e-01 -1.448285579681396484e-01 5.622150376439094543e-02
-3.344672322273254395e-01 7.730443030595779419e-03 7.035131007432937622e-02
-1.664659827947616577e-01 2.978030592203140259e-03 8.104203641414642334e-02
-2.836868762969970703e-01 -5.212627351284027100e-03 -8.687532693147659302e-02
-3.460679054260253906e-01 -7.633027434349060059e-02 -1.021734550595283508e-01
-1.766761243343353271e-01 -1.298001855611801147e-01 3.170697391033172607e-02
-2.273640036582946777e-01 -7.953365892171859741e-02 -9.033416211605072021e-02
-2.453474849462509155e-01 -1.243340075016021729e-01 7.476611435413360596e-02
-4.048821926116943359e-01 -5.521297454833984375e-02 -9.274344891309738159e-02
-2.269437462091445923e-01 -9.497221559286117554e-02 9.297957271337509155e-02
-3.938018679618835449e-01 -3.854334354400634766e-02 -9.042789041996002197e-02
-1.151819676160812378e-01 2.207702770829200745e-02 3.378524258732795715e-02
-3.036184906959533691e-01 -1.631672233343124390e-01 -9.345217607915401459e-03
-1.301577538251876831e-01 3.749012947082519531e-03 6.829915195703506470e-02
-7.055257260799407959e-02 -2.396994084119796753e-02 2.184774167835712433e-02
-3.312087357044219971e-01 3.574558719992637634e-02 1.987945102155208588e-02
-2.923785150051116943e-01 -9.291222691535949707e-02 -9.724721312522888184e-02
-4.152134954929351807e-01 -1.951698213815689087e-03 -5.163680016994476318e-02
-3.434806466102600098e-01 -1.157062500715255737e-02 8.298942446708679199e-02
-4.804464280605316162e-01 -3.480696678161621094e-02 1.332488004118204117e-02
-3.471600711345672607e-01 3.043594583868980408e-02 -2.849533967673778534e-02
-1.029613614082336426e-01 -8.789629489183425903e-02 2.837150171399116516e-02
-4.573066830635070801e-01 -1.104120165109634399e-01 -7.021190226078033447e-02
-4.183506965637207031e-01 -4.418947175145149231e-02 7.196470350027084351e-02
-4.823743999004364014e-01 -7.586508244276046753e-02 3.994331508874893188e-02
-3.169579505920410156e-01 -9.976536035537719727e-02 9.417998790740966797e-02
-2.157654017210006714e-01 -1.359459012746810913e-01 4.915450140833854675e-02
-2.685726583003997803e-01 -1.231648623943328857e-01 -7.644709199666976929e-02
-1.894918382167816162e-01 -4.422210156917572021e-03 -7.408446818590164185e-02
-2.108151614665985107e-01 -9.021785855293273926e-02 9.249666333198547363e-02
-4.005564451217651367e-01 -1.488266736268997192e-01 3.968515247106552124e-02
-4.925013780593872070e-01 -7.754500955343246460e-02 2.995684742927551270e-02
-4.723353981971740723e-01 -1.315297931432723999e-01 1.916216872632503510e-02
-1.012389212846755981e-01 -9.173374623060226440e-03 -3.342124447226524353e-02
-3.038292825222015381e-01 -5.064941942691802979e-03 8.779671788215637207e-02
-2.707251906394958496e-01 -1.024144440889358521e-01 -9.045344591140747070e-02
-3.829904198646545410e-01 -7.972367107868194580e-02 8.837463706731796265e-02
-1.782176196575164795e-01 -6.888523697853088379e-03 8.886614441871643066e-02
-2.690105736255645752e-01 7.455762475728988647e-03 -7.783981412649154663e-02
-4.381311535835266113e-01 -8.895447850227355957e-02 6.750734150409698486e-02
-1.852535754442214966e-01 -1.017261594533920288e-01 7.843541353940963745e-02
-4.854902029037475586e-01 -1.202370300889015198e-01 -4.291243106126785278e-02
-2.286193668842315674e-01 -1.065034121274948120e-01 8.641576766967773438e-02
-1.182569712400436401e-01 -2.312660217285156250e-03 -4.223860055208206177e-02
-4.379785656929016113e-01 -1.065869256854057312e-02 -4.682800918817520142e-02
-4.883512556552886963e-01 -5.836618691682815552e-02 2.781676501035690308e-02
-5.054167509078979492e-01 -1.066796854138374329e-01 -2.427955716848373413e-02
-4.598049521446228027e-01 -4.415402933955192566e-02 -6.555655598640441895e-02
-2.432017326354980469e-01 -2.866856753826141357e-03 -8.319043368101119995e-02
-4.717797935009002686e-01 -6.927844136953353882e-02 -6.833844631910324097e-02
-1.914566159248352051e-01 -5.926914885640144348e-02 9.846111387014389038e-02
-1.847612261772155762e-01 -2.861796133220195770e-02 -8.140201866626739502e-02
-4.456577897071838379e-01 -1.463625133037567139e-01 1.723936013877391815e-02
-3.502646684646606445e-01 -1.555145531892776489e-01 3.965448588132858276e-02
-2.306366562843322754e-01 -4.185854643583297729e-02 1.037886962294578552e-01
-3.331606984138488770e-01 -1.613936871290206909e-01 -3.107202053070068359e-02
-7.943788170814514160e-02 -4.543257504701614380e-02 -1.409374922513961792e-02
-2.257031798362731934e-01 3.832660242915153503e-02 -3.659532591700553894e-02
-2.999243140220642090e-01 -1.609591692686080933e-01 -2.196366898715496063e-02
-3.257615864276885986e-01 -5.670164898037910461e-02 -1.030660420656204224e-01
-2.178002297878265381e-01 -3.201175481081008911e-02 1.016263216733932495e-01
-1.324735134840011597e-01 -9.035479277372360229e-02 -4.098551347851753235e-02
-1.244822293519973755e-01 -1.040892750024795532e-01 -7.704609539359807968e-03
-4.014058113098144531e-01 7.260031998157501221e-04 4.628974944353103638e-02
-4.378482997417449951e-01 -1.414046883583068848e-01 3.297374770045280457e-02
-1.877283155918121338e-01 -1.026010662317276001e-01 -6.532099097967147827e-02
-4.726388454437255859e-01 -9.926053881645202637e-02 4.501895606517791748e-02
-2.287908792495727539e-01 -5.729658901691436768e-02 -9.436441212892532349e-02
-4.036456346511840820e-01 -1.539241522550582886e-01 -4.291683062911033630e-02
-3.956084847450256348e-01 1.874004676938056946e-02 -1.405753288418054581e-02
-4.021416306495666504e-01 -9.610968083143234253e-02 7.964456826448440552e-02
-4.856720566749572754e-01 -3.589964285492897034e-02 -2.367949113249778748e-02
-2.485788017511367798e-01 -5.691875517368316650e-02 1.048982292413711548e-01
