-1.994432806968688965e-01 1.708322465419769287e-01 -2.460698038339614868e-01
-1.319074928760528564e-01 2.189157903194427490e-01 -2.772744596004486084e-01
-2.729819118976593018e-01 2.030844092369079590e-01 -6.943951547145843506e-02
-1.884730607271194458e-01 1.862042546272277832e-01 3.024621009826660156e-01
1.301521658897399902e-01 1.923626214265823364e-01 4.640560597181320190e-03
-3.809078410267829895e-02 1.604301780462265015e-01 -2.010419405996799469e-02
1.520867645740509033e-02 1.668397337198257446e-01 -2.210756242275238037e-01
-4.911116138100624084e-02 1.652257740497589111e-01 2.401770055294036865e-01
1.814535260200500488e-02 2.159667909145355225e-01 7.792468369007110596e-02
-1.104199886322021484e-01 2.113171815872192383e-01 2.632444798946380615e-01
-1.203965842723846436e-01 2.215300202369689941e-01 -5.955412238836288452e-02
2.629208564758300781e-02 1.652839779853820801e-01 -1.480116695165634155e-01
4.365481436252593994e-02 1.653505712747573853e-01 1.127121299505233765e-01
7.859563827514648438e-02 1.946101784706115723e-01 2.925933301448822021e-01
-7.284320890903472900e-03 2.163781672716140747e-01 -2.471166551113128662e-01
9.026660025119781494e-02 1.707380563020706177e-01 3.765709698200225830e-04
-5.760601907968521118e-02 2.151429504156112671e-01 2.094136476516723633e-01
-8.366851508617401123e-02 1.635558158159255981e-01 1.836988329887390137e-01
-1.284762769937515259e-01 2.057086229324340820e-01 -4.797300994396209717e-01
5.770905315876007080e-02 2.019629627466201782e-01 2.793599069118499756e-01
-4.385472461581230164e-02 2.199110388755798340e-01 4.996715113520622253e-02
8.838698267936706543e-04 2.158312052488327026e-01 1.326332390308380127e-01
1.083401739597320557e-01 1.996583491563796997e-01 -1.414796561002731323e-01
-2.144139260053634644e-01 2.129459232091903687e-01 -2.847221195697784424e-01
-2.449420467019081116e-02 1.959121376276016235e-01 -4.818353354930877686e-01
-1.620875895023345947e-01 2.185655534267425537e-01 3.162774816155433655e-02
3.642678260803222656e-03 1.659558117389678955e-01 2.285546660423278809e-01
-1.705892980098724365e-01 1.648558825254440308e-01 -8.166050910949707031e-02
-8.089878410100936890e-02 2.097289711236953735e-01 2.970362007617950439e-01
-1.163748204708099365e-01 1.648062616586685181e-01 -2.427330166101455688e-01
-4.044846817851066589e-02 2.056643664836883545e-01 -4.529590010643005371e-01
-2.339931875467300415e-01 2.020536959171295166e-01 -3.825113177299499512e-01
-1.042416617274284363e-01 2.216140329837799072e-01 -3.510177880525588989e-02
-1.936598122119903564e-01 2.120878696441650391e-01 1.348829418420791626e-01
-1.145078018307685852e-01 2.180388122797012329e-01 -3.118630051612854004e-01
1.046312004327774048e-01 1.752575784921646118e-01 -7.628583908081054688e-02
-8.718162029981613159e-02 2.211416065692901611e-01 1.384932920336723328e-02
2.406768500804901123e-02 2.016924321651458740e-01 3.340741395950317383e-01
-1.258018463850021362e-01 1.708078980445861816e-01 -3.646987378597259521e-01
4.037924110889434814e-02 1.778424084186553955e-01 -3.392537236213684082e-01
-2.079606354236602783e-01 1.688165515661239624e-01 -8.322650194168090820e-02
-3.924071416258811951e-02 2.056677937507629395e-01 3.412708044052124023e-01
-1.986135840415954590e-01 2.108263224363327026e-01 -3.658203482627868652e-01
-1.556118279695510864e-01 1.820409744977951050e-01 -4.662652611732482910e-01
-2.165827453136444092e-01 1.706914305686950684e-01 1.663320139050483704e-02
-2.445507496595382690e-01 2.076851427555084229e-01 -2.847207486629486084e-01
8.469162881374359131e-02 2.041200995445251465e-01 1.718925386667251587e-01
-2.464579492807388306e-01 2.064381390810012817e-01 5.924538150429725647e-02
-1.693632453680038452e-01 1.788124293088912964e-01 2.998877167701721191e-01
3.132522106170654297e-02 2.027099281549453735e-01 -3.764035105705261230e-01
-2.649139165878295898e-01 2.063676863908767700e-01 -9.628298878669738770e-02
-3.393169865012168884e-02 1.755771636962890625e-01 3.756269216537475586e-01
-2.261262387037277222e-01 2.107654660940170288e-01 5.940430238842964172e-02
-6.694341450929641724e-02 2.216310948133468628e-01 -6.569261103868484497e-02
5.314813554286956787e-02 2.114442735910415649e-01 1.152243465185165405e-01
4.206775128841400146e-02 1.663021296262741089e-01 -1.307351887226104736e-01
-1.812257915735244751e-01 2.174644023180007935e-01 1.824877038598060608e-02
4.410845041275024414e-02 2.055150270462036133e-01 -3.224439918994903564e-01
-5.184486508369445801e-03 2.136816531419754028e-01 -3.084062635898590088e-01
-1.383521556854248047e-01 2.209329605102539062e-01 -1.586452871561050415e-01
-1.927204877138137817e-01 1.696960628032684326e-01 1.139542013406753540e-01
-2.015140354633331299e-01 1.786474287509918213e-01 2.332536876201629639e-01
6.137664616107940674e-02 2.093260884284973145e-01 -2.036724090576171875e-01
1.213921606540679932e-02 1.633790731430053711e-01 1.303355693817138672e-01
1.041420400142669678e-01 2.037521004676818848e-01 4.548298940062522888e-02
-8.392568677663803101e-02 1.758808791637420654e-01 3.684922158718109131e-01
-1.760779619216918945e-01 2.189783006906509399e-01 -5.266154557466506958e-02
-9.973098337650299072e-02 1.700456738471984863e-01 -3.635490536689758301e-01
9.769889712333679199e-02 2.042608410120010376e-01 9.494812786579132080e-02
-1.993805170059204102e-03 2.188283354043960571e-01 -3.706914931535720825e-02
1.047213524580001831e-01 1.743109226226806641e-01 8.623699843883514404e-02
-1.023582667112350464e-01 1.663006842136383057e-01 2.334336340427398682e-01
6.964457035064697266e-02 2.111836224794387817e-01 -1.502979546785354614e-02
1.811369508504867554e-02 1.707976311445236206e-01 -2.933833599090576172e-01
-1.902787685394287109e-01 2.058461159467697144e-01 -4.342501759529113770e-01
-1.209109723567962646e-01 1.622631400823593140e-01 6.688414514064788818e-02
-2.988178282976150513e-02 1.619905233383178711e-01 1.363092511892318726e-01
-4.738913476467132568e-02 1.682039499282836914e-01 -3.239335417747497559e-01
3.463705629110336304e-02 2.150208652019500732e-01 -1.339614093303680420e-01
-5.859062075614929199e-03 2.126154601573944092e-01 -3.295192420482635498e-01
-1.524825021624565125e-02 2.176775038242340088e-01 -2.238599807024002075e-01
-4.969082027673721313e-02 2.092822492122650146e-01 -4.284886419773101807e-01
-2.942305430769920349e-02 1.668558865785598755e-01 2.701280117034912109e-01
-3.227652609348297119e-02 1.652734577655792236e-01 -2.518042027950286865e-01
-2.473860383033752441e-01 2.089025080204010010e-01 -4.169777035713195801e-03
-1.882534623146057129e-01 1.670226901769638062e-01 -1.375545412302017212e-01
-8.208572864532470703e-03 1.622523665428161621e-01 1.202938407659530640e-01
-4.369263350963592529e-02 2.205086350440979004e-01 -1.576188355684280396e-01
-8.049998432397842407e-02 1.604221016168594360e-01 -3.627130016684532166e-02
-1.592102050781250000e-01 2.177126556634902954e-01 7.184806466102600098e-02
-1.209233850240707397e-01 1.617576926946640015e-01 -7.974183559417724609e-02
-1.497707962989807129e-01 1.634453684091567993e-01 -1.001199483871459961e-01
-2.406623959541320801e-01 2.059669196605682373e-01 9.254957735538482666e-02
-5.280337482690811157e-02 1.830994188785552979e-01 4.135424792766571045e-01
-8.603163808584213257e-02 2.170309424400329590e-01 1.677433997392654419e-01
1.631685346364974976e-02 2.160250395536422729e-01 -1.828695535659790039e-01
-4.661798477172851562e-03 2.187292128801345825e-01 4.545174539089202881e-03
-8.448082953691482544e-02 2.193363159894943237e-01 9.988294541835784912e-02
-1.038528978824615479e-03 2.169103622436523438e-01 9.805284440517425537e-02
-9.069934487342834473e-02 2.034357190132141113e-01 -4.938804507255554199e-01
-2.243555337190628052e-02 2.156879901885986328e-01 1.734898835420608521e-01
7.366041839122772217e-02 2.042818069458007812e-01 -2.474413961172103882e-01
1.053420305252075195e-01 1.741380393505096436e-01 -1.369750499725341797e-02
3.537125885486602783e-02 2.156387716531753540e-01 -4.775755107402801514e-02
-1.487205624580383301e-01 1.631025075912475586e-01 -3.481923788785934448e-02
-8.022890239953994751e-02 1.619545221328735352e-01 -1.637221574783325195e-01
-1.126776486635208130e-01 2.211425006389617920e-01 -2.932690083980560303e-03
-4.967896640300750732e-02 1.614694893360137939e-01 1.204622089862823486e-01
-1.707608997821807861e-01 2.160804420709609985e-01 -3.112319111824035645e-01
6.809745728969573975e-02 2.114166915416717529e-01 -4.540519416332244873e-02
4.460270702838897705e-02 2.113979607820510864e-01 1.490298062562942505e-01
-7.378651946783065796e-02 2.187193036079406738e-01 -2.826319038867950439e-01
-1.911720931529998779e-01 1.736594587564468384e-01 2.000633329153060913e-01
-1.265096068382263184e-01 2.144419252872467041e-01 1.994611471891403198e-01
-6.930753588676452637e-04 1.626154482364654541e-01 -1.110966578125953674e-01
-1.811568140983581543e-01 2.174497842788696289e-01 -2.437158077955245972e-01
-1.538880169391632080e-01 1.725356131792068481e-01 2.638170421123504639e-01
-6.998971104621887207e-02 1.602800637483596802e-01 -4.390425980091094971e-03
-5.862871557474136353e-02 1.606262922286987305e-01 -8.250559866428375244e-02
1.864699274301528931e-02 2.169500887393951416e-01 -1.124127507209777832e-01
-1.355160474777221680e-01 1.647461205720901489e-01 -2.152213752269744873e-01
-7.593340426683425903e-02 1.726741641759872437e-01 -4.007017016410827637e-01
8.460693061351776123e-02 2.075227946043014526e-01 -1.163362860679626465e-01
1.059107333421707153e-01 1.848111450672149658e-01 -2.024034857749938965e-01
-1.260742098093032837e-01 1.623923629522323608e-01 -1.204801648855209351e-01
2.437492460012435913e-02 2.066254466772079468e-01 -3.547184467315673828e-01
-1.883077621459960938e-01 2.181932777166366577e-01 -7.140745222568511963e-02
-1.582019031047821045e-01 2.146813869476318359e-01 -3.584937155246734619e-01
-3.022126480937004089e-02 1.620095670223236084e-01 -1.414631456136703491e-01
-2.195768058300018311e-03 1.726868897676467896e-01 -3.500103652477264404e-01
-2.039137184619903564e-01 2.153430581092834473e-01 1.398718729615211487e-02
-1.083365008234977722e-01 1.834042817354202271e-01 3.923373520374298096e-01
-4.208829998970031738e-02 2.008738070726394653e-01 3.808789849281311035e-01
3.949991613626480103e-02 1.708002537488937378e-01 2.687418162822723389e-01
8.671700954437255859e-03 1.780011057853698730e-01 -3.915590643882751465e-01
-1.218338310718536377e-01 1.723562180995941162e-01 3.059596121311187744e-01
-1.672527790069580078e-01 1.668303459882736206e-01 -2.181101143360137939e-01
6.892478466033935547e-02 2.098804116249084473e-01 -1.452946066856384277e-01
-2.284184694290161133e-01 1.764060407876968384e-01 -2.773832678794860840e-01
1.247689127922058105e-02 1.698478758335113525e-01 2.911016345024108887e-01
-1.643648743629455566e-01 2.196961641311645508e-01 -1.715850532054901123e-01
-1.523419916629791260e-01 2.059157192707061768e-01 2.881392240524291992e-01
-6.359830498695373535e-02 2.211769223213195801e-01 -5.416620522737503052e-03
5.723057687282562256e-02 1.667856276035308838e-01 -7.686391472816467285e-02
-1.246541738510131836e-02 1.617836952209472656e-01 -9.385384619235992432e-02
3.771822154521942139e-02 2.138638794422149658e-01 -1.731340736150741577e-01
-2.087235152721405029e-01 1.785764247179031372e-01 2.139971256256103516e-01
-9.682262688875198364e-02 2.033208906650543213e-01 3.552797734737396240e-01
-1.585004627704620361e-01 1.715836971998214722e-01 -3.469697833061218262e-01
-1.312052160501480103e-01 1.684904396533966064e-01 2.384575903415679932e-01
-1.048668399453163147e-01 1.654836088418960571e-01 -2.702967524528503418e-01
-1.983797550201416016e-02 1.871445477008819580e-01 4.165422320365905762e-01
-4.290031269192695618e-02 2.192210108041763306e-01 -2.264718711376190186e-01
1.691744476556777954e-02 2.172197997570037842e-01 -3.143880516290664673e-03
-1.306195259094238281e-01 1.990952044725418091e-01 3.592370152473449707e-01
7.026664912700653076e-02 1.682021617889404297e-01 1.037781834602355957e-01
-2.334456890821456909e-01 2.122564911842346191e-01 -2.142728269100189209e-01
-2.006336152553558350e-01 1.775892674922943115e-01 -3.692311942577362061e-01
-1.588965654373168945e-01 2.191784232854843140e-01 1.127884164452552795e-02
-6.264957785606384277e-02 1.812232136726379395e-01 -4.741675853729248047e-01
-1.629638969898223877e-01 1.647327989339828491e-01 4.128569737076759338e-02
7.627978920936584473e-03 2.105031013488769531e-01 2.451036274433135986e-01
-2.325983643531799316e-01 1.729547083377838135e-01 -1.585417985916137695e-02
-1.600821912288665771e-01 1.652301400899887085e-01 -1.741966307163238525e-01
-3.200310096144676208e-02 1.632853001356124878e-01 -1.944285929203033447e-01
-2.533617615699768066e-01 2.072940319776535034e-01 -2.457900643348693848e-01
-2.838213741779327393e-02 2.122831642627716064e-01 2.498691380023956299e-01
-2.572771012783050537e-01 1.780188381671905518e-01 -1.173411607742309570e-01
-2.950174361467361450e-02 2.100459188222885132e-01 2.855469584465026855e-01
-6.020590662956237793e-02 1.630517244338989258e-01 1.815871298313140869e-01
1.746525615453720093e-02 1.678913235664367676e-01 2.522151470184326172e-01
-7.443353533744812012e-02 2.160263508558273315e-01 1.925539523363113403e-01
9.571644663810729980e-02 1.866014450788497925e-01 -2.507393062114715576e-01
-2.853289246559143066e-03 2.085113525390625000e-01 -3.823132514953613281e-01
-1.773039400577545166e-01 2.127149850130081177e-01 -3.703354001045227051e-01
-2.233444005250930786e-01 2.080883681774139404e-01 -3.503645956516265869e-01
-4.372708499431610107e-03 2.186591327190399170e-01 -1.290573775768280029e-01
2.364118397235870361e-02 1.645214855670928955e-01 1.495330184698104858e-01
-6.733489036560058594e-02 1.619255989789962769e-01 1.376683861017227173e-01
1.101073324680328369e-01 1.838675588369369507e-01 2.076578438282012939e-01
1.562037318944931030e-02 2.052538245916366577e-01 3.086146116256713867e-01
-1.542438566684722900e-01 2.160070538520812988e-01 1.305097192525863647e-01
-9.649316221475601196e-02 2.217690050601959229e-01 -1.339855790138244629e-01
2.068573236465454102e-02 1.818281710147857666e-01 3.830020427703857422e-01
-2.168012261390686035e-01 1.735691726207733154e-01 -2.571310997009277344e-01
-5.406743288040161133e-02 1.604099273681640625e-01 -5.465003475546836853e-02
-1.306064873933792114e-01 2.213838845491409302e-01 -1.159784644842147827e-01
-1.105551570653915405e-01 1.746698319911956787e-01 3.404955863952636719e-01
9.189198911190032959e-02 2.064731121063232422e-01 -8.888582885265350342e-02
-1.136226058006286621e-01 1.622606962919235229e-01 -1.438104212284088135e-01
-2.280812263488769531e-01 1.739936023950576782e-01 6.619545817375183105e-02
3.233871608972549438e-02 1.820282489061355591e-01 -3.845745921134948730e-01
-1.770710647106170654e-01 1.779489517211914062e-01 -4.101260304450988770e-01
7.652588188648223877e-02 2.011755257844924927e-01 2.434982955455780029e-01
7.515545189380645752e-02 2.088585942983627319e-01 9.186501801013946533e-02
-2.031511962413787842e-01 2.124329656362533569e-01 -3.284185230731964111e-01
-2.014561742544174194e-01 1.687795668840408325e-01 -1.575020402669906616e-01
2.753339707851409912e-03 1.640793681144714355e-01 1.776283979415893555e-01
-1.934136152267456055e-01 2.177018970251083374e-01 -1.670631170272827148e-01
-2.168062180280685425e-01 2.149894684553146362e-01 -1.922932267189025879e-01
-1.542195826768875122e-01 2.198330312967300415e-01 -1.253582909703254700e-02
-5.629832297563552856e-02 2.182976454496383667e-01 1.281483322381973267e-01
-1.008696854114532471e-01 1.736675500869750977e-01 -4.132239818572998047e-01
-3.786920756101608276e-02 2.207940965890884399e-01 -8.022812753915786743e-02
-8.027269691228866577e-02 2.215721011161804199e-01 -2.510981447994709015e-02
-6.590384244918823242e-02 2.191514074802398682e-01 -2.618221044540405273e-01
-2.223293483257293701e-02 1.697448194026947021e-01 -3.302895128726959229e-01
-3.020250797271728516e-02 2.204479128122329712e-01 -5.210680887103080750e-02
-2.692059874534606934e-01 1.824762225151062012e-01 -3.239408880472183228e-02
-1.022949665784835815e-01 2.177129089832305908e-01 1.440910249948501587e-01
-2.338915467262268066e-01 1.759739965200424194e-01 -2.448556572198867798e-01
-2.451874017715454102e-01 2.109307497739791870e-01 -8.030860126018524170e-02
-1.732558906078338623e-01 2.193837910890579224e-01 -1.423976719379425049e-01
-1.531632542610168457e-01 2.127181440591812134e-01 1.993971467018127441e-01
-7.677402347326278687e-02 1.666538715362548828e-01 -3.037849664688110352e-01
-1.151774078607559204e-02 2.158564776182174683e-01 -2.716812789440155029e-01
-1.323644369840621948e-01 2.111249715089797974e-01 2.484776377677917480e-01
-1.278772354125976562e-01 1.647254526615142822e-01 1.566308438777923584e-01
9.880366921424865723e-02 1.957716345787048340e-01 -2.304238975048065186e-01
-1.697702109813690186e-01 1.687084883451461792e-01 -2.686660289764404297e-01
-5.988422781229019165e-02 1.863010078668594360e-01 -4.972777962684631348e-01
-1.637570559978485107e-01 1.793525815010070801e-01 -4.383745193481445312e-01
-1.839348971843719482e-01 1.786882579326629639e-01 2.723799347877502441e-01
8.580383658409118652e-02 1.700012385845184326e-01 5.779263749718666077e-02
-5.711484700441360474e-02 2.207029163837432861e-01 2.216418460011482239e-02
-1.130650192499160767e-01 1.616858392953872681e-01 -1.043425351381301880e-01
-5.181891471147537231e-02 2.204104065895080566e-01 -1.858292818069458008e-01
8.382345736026763916e-02 2.045098543167114258e-01 -2.006154358386993408e-01
-1.535170972347259521e-01 1.743453890085220337e-01 2.857637107372283936e-01
-7.286442816257476807e-02 1.983477324247360229e-01 -5.084067583084106445e-01
-1.306890696287155151e-02 1.703662872314453125e-01 3.175191581249237061e-01
-6.451702117919921875e-02 2.108178734779357910e-01 2.842308282852172852e-01
-2.569308280944824219e-01 1.880322247743606567e-01 -3.208169937133789062e-01
4.058275371789932251e-02 1.733170300722122192e-01 3.006946146488189697e-01
-1.246025636792182922e-01 2.212669104337692261e-01 -3.725061193108558655e-02
9.086482226848602295e-02 2.041999548673629761e-01 -1.688816398382186890e-01
-9.764622151851654053e-02 2.203987240791320801e-01 5.273237451910972595e-02
-4.555676877498626709e-02 2.161207348108291626e-01 -3.210461139678955078e-01
-2.569862008094787598e-01 1.822545528411865234e-01 -2.580203115940093994e-01
-1.441411823034286499e-01 2.166576087474822998e-01 -3.300998210906982422e-01
9.137052297592163086e-02 1.713491976261138916e-01 -3.813163191080093384e-02
-9.434509277343750000e-02 2.137733101844787598e-01 2.327311038970947266e-01
-2.848304808139801025e-03 2.035499513149261475e-01 -4.265425801277160645e-01
-1.106676980853080750e-01 1.639692932367324829e-01 -2.215951532125473022e-01
-8.869957178831100464e-02 2.217901498079299927e-01 -5.102778971195220947e-02
8.010512590408325195e-02 1.702188402414321899e-01 -8.496514707803726196e-02
1.273202151060104370e-01 1.859187632799148560e-01 1.045546978712081909e-01
-1.338509917259216309e-01 1.671225279569625854e-01 2.072787284851074219e-01
-2.663658857345581055e-01 1.856949031352996826e-01 5.209236219525337219e-02
3.437247127294540405e-02 2.045488506555557251e-01 2.917905449867248535e-01
-2.256670445203781128e-01 1.758022606372833252e-01 1.198914200067520142e-01
-1.542557924985885620e-01 2.022013515233993530e-01 -4.892210364341735840e-01
-1.663256138563156128e-01 2.071577459573745728e-01 -4.486277103424072266e-01
5.868732929229736328e-03 2.126207053661346436e-01 2.071908712387084961e-01
-2.071500569581985474e-02 2.009527981281280518e-01 3.741180300712585449e-01
5.759891867637634277e-02 1.936452537775039673e-01 -3.616404831409454346e-01
1.558524370193481445e-02 1.626213192939758301e-01 6.315740942955017090e-02
-1.083735376596450806e-01 1.610792577266693115e-01 -2.739420905709266663e-02
-1.273301094770431519e-01 2.162936776876449585e-01 1.597325503826141357e-01
-1.410163193941116333e-01 1.633500158786773682e-01 -1.359099894762039185e-01
-2.100075930356979370e-01 2.150971591472625732e-01 -2.301514297723770142e-01
-1.607288122177124023e-01 2.197720855474472046e-01 -3.510925546288490295e-02
-2.495023980736732483e-02 2.197953462600708008e-01 -1.430556029081344604e-01
-9.700676053762435913e-02 1.803882420063018799e-01 -4.757022559642791748e-01
1.883242279291152954e-02 1.633497178554534912e-01 -8.410236239433288574e-02
4.615180939435958862e-02 1.722166687250137329e-01 -2.586754858493804932e-01
-2.604146003723144531e-01 1.795527637004852295e-01 -1.631208360195159912e-01
-7.417646050453186035e-02 2.209812402725219727e-01 -1.882300376892089844e-01
-1.616465896368026733e-01 2.200787216424942017e-01 -7.965998351573944092e-02
-1.161901801824569702e-01 2.057766616344451904e-01 3.234512209892272949e-01
-2.644378542900085449e-01 2.050130516290664673e-01 -2.662319876253604889e-02
-1.342082619667053223e-01 2.206823229789733887e-01 -1.922166347503662109e-01
-3.964287787675857544e-02 1.611325293779373169e-01 -1.049754917621612549e-01
-7.082726061344146729e-02 1.631338894367218018e-01 -2.111954987049102783e-01
5.316440761089324951e-02 2.054615616798400879e-01 -2.989241182804107666e-01
-2.145021259784698486e-01 1.944144964218139648e-01 2.518332600593566895e-01
-1.422598361968994141e-01 1.643403917551040649e-01 -1.852011978626251221e-01
-3.427549824118614197e-02 2.204442322254180908e-01 -1.240585744380950928e-01
-7.740835845470428467e-02 2.139745503664016724e-01 -3.865869641304016113e-01
-4.457618668675422668e-02 2.137235254049301147e-01 2.328936457633972168e-01
-2.468263804912567139e-01 1.799525618553161621e-01 9.096978604793548584e-02
4.812216013669967651e-02 2.140652835369110107e-01 -1.272644847631454468e-03
-9.821049869060516357e-02 2.204105108976364136e-01 -2.326505482196807861e-01
-3.351145610213279724e-02 1.711866855621337891e-01 3.341785669326782227e-01
-2.407887279987335205e-01 2.068158984184265137e-01 -3.146106600761413574e-01
-8.434065431356430054e-02 2.173236608505249023e-01 -3.258096575736999512e-01
-5.789888650178909302e-02 1.653395444154739380e-01 -2.701608538627624512e-01
-2.384254634380340576e-01 2.009728699922561646e-01 -1.229622811079025269e-01
-6.047291755676269531e-01 1.770702898502349854e-01 -1.433838158845901489e-01
-6.014565229415893555e-01 2.032092660665512085e-01 -3.086339682340621948e-02
-4.615699350833892822e-01 1.759767681360244751e-01 1.753885895013809204e-01
-2.712671756744384766e-01 1.777624189853668213e-01 2.980664968490600586e-01
-8.839694261550903320e-01 1.903207600116729736e-01 -4.474858045578002930e-01
-1.601328849792480469e-01 1.973400712013244629e-01 -3.547159731388092041e-01
-3.331490755081176758e-01 1.767337322235107422e-01 2.054734677076339722e-01
-4.096257090568542480e-01 1.991467177867889404e-01 -7.245160341262817383e-01
-4.365469515323638916e-01 1.761718243360519409e-01 2.797708213329315186e-01
-1.242205798625946045e-01 1.947730928659439087e-01 4.269171953201293945e-01
-6.515163183212280273e-01 1.905896365642547607e-01 -8.880208134651184082e-01
-2.230702638626098633e-01 2.004496902227401733e-01 -1.910499483346939087e-01
-3.304060101509094238e-01 1.982908844947814941e-01 -6.953982114791870117e-01
-5.163618922233581543e-01 1.840533763170242310e-01 -8.013925552368164062e-01
-4.856000244617462158e-01 1.766817271709442139e-01 4.297504127025604248e-01
-9.602674841880798340e-02 1.959258317947387695e-01 4.773383960127830505e-02
-3.802011907100677490e-01 1.773018389940261841e-01 4.857503175735473633e-01
-3.679054081439971924e-01 2.023400366306304932e-01 -3.564628660678863525e-01
-5.691331028938293457e-01 1.789914965629577637e-01 -4.646324217319488525e-01
-3.344655036926269531e-01 1.918545067310333252e-01 -8.618667721748352051e-01
-3.050974607467651367e-01 2.019284367561340332e-01 -2.533585131168365479e-01
-7.080389857292175293e-01 2.012820839881896973e-01 1.766895651817321777e-01
-7.571059465408325195e-02 1.944621950387954712e-01 -3.632130846381187439e-02
-2.885275483131408691e-01 1.773426085710525513e-01 2.329382896423339844e-01
-1.316453814506530762e-01 1.816598474979400635e-01 -4.788972064852714539e-02
-4.319462478160858154e-01 1.762820184230804443e-01 -4.762272909283638000e-02
-8.119753599166870117e-01 1.831243038177490234e-01 -3.976196348667144775e-01
-4.015878438949584961e-01 1.781133860349655151e-01 6.079508662223815918e-01
-3.883340358734130859e-01 1.898597776889801025e-01 9.603527188301086426e-01
-4.363173544406890869e-01 1.790629476308822632e-01 -4.832787215709686279e-01
-8.741183876991271973e-01 1.930307447910308838e-01 3.671300113201141357e-01
-8.165569305419921875e-01 1.852225810289382935e-01 -5.205467939376831055e-01
-7.479712367057800293e-02 1.859605759382247925e-01 3.438142836093902588e-01
-7.464927434921264648e-01 1.789766103029251099e-01 2.149073779582977295e-01
-6.174585223197937012e-01 1.983778774738311768e-01 -7.616723179817199707e-01
-2.976271510124206543e-01 1.994747519493103027e-01 4.955152571201324463e-01
-2.785208225250244141e-01 1.890660822391510010e-01 8.893157839775085449e-01
-6.490162611007690430e-01 2.020985335111618042e-01 -3.838348686695098877e-01
-7.746726274490356445e-01 2.004656195640563965e-01 -1.504915580153465271e-02
-3.809414505958557129e-01 1.928346455097198486e-01 9.081112146377563477e-01
-3.426800370216369629e-01 2.001283764839172363e-01 4.950168430805206299e-01
-4.708095788955688477e-01 1.996834427118301392e-01 -7.220010757446289062e-01
-2.267538309097290039e-01 1.805518120527267456e-01 5.778481960296630859e-01
-7.180961370468139648e-01 1.989612281322479248e-01 4.487692713737487793e-01
-5.790635347366333008e-01 2.004106193780899048e-01 -6.593245267868041992e-01
-5.116227865219116211e-01 1.869525164365768433e-01 -8.910517096519470215e-01
-2.791299819946289062e-01 2.016536593437194824e-01 9.238526225090026855e-02
-2.214668691158294678e-01 1.817117035388946533e-01 -4.219096302986145020e-01
-6.105751991271972656e-01 1.768834441900253296e-01 -7.372146844863891602e-02
-5.180185437202453613e-01 1.769241839647293091e-01 -2.183733433485031128e-01
-4.775159060955047607e-01 1.869249939918518066e-01 9.773949384689331055e-01
-3.265158534049987793e-01 1.793635040521621704e-01 -4.126319587230682373e-01
-5.494114160537719727e-01 2.033572643995285034e-01 5.745014548301696777e-02
-4.402370452880859375e-01 2.033274173736572266e-01 -2.369382083415985107e-01
-5.064927339553833008e-01 2.025845646858215332e-01 -4.473842978477478027e-01
-6.421976685523986816e-01 1.833723634481430054e-01 -7.156372070312500000e-01
-7.346035838127136230e-01 1.785320639610290527e-01 8.989374339580535889e-02
-6.414703726768493652e-01 2.017438858747482300e-01 -4.579966664314270020e-01
-7.961715459823608398e-01 1.804232448339462280e-01 2.206277996301651001e-01
-5.811632871627807617e-01 2.019718736410140991e-01 -5.022323727607727051e-01
-2.998294532299041748e-01 1.793527156114578247e-01 6.179398894309997559e-01
-6.786761283874511719e-01 1.820853948593139648e-01 -6.056461334228515625e-01
-6.772624254226684570e-01 1.832634806632995605e-01 -6.752317547798156738e-01
-9.135389328002929688e-01 1.878942996263504028e-01 -2.102839350700378418e-01
-4.668325185775756836e-01 2.008110582828521729e-01 5.077885389328002930e-01
-3.465114831924438477e-01 2.027941942214965820e-01 -5.629004165530204773e-02
-4.048274159431457520e-01 1.789292395114898682e-01 -4.525594711303710938e-01
-4.070198833942413330e-01 2.011720687150955200e-01 4.451743662357330322e-01
-4.705199301242828369e-01 2.024742960929870605e-01 2.976712882518768311e-01
-7.330530881881713867e-02 1.924391537904739380e-01 -2.231392711400985718e-01
-8.253211975097656250e-01 1.989730894565582275e-01 -7.378692924976348877e-02
-1.082000434398651123e-01 1.823484301567077637e-01 1.310072243213653564e-01
-2.084078192710876465e-01 2.001112848520278931e-01 1.104285120964050293e-01
-5.875014066696166992e-01 1.929972767829895020e-01 8.872813582420349121e-01
-1.386646330356597900e-01 1.944992691278457642e-01 4.973672628402709961e-01
-5.370067358016967773e-01 2.001411169767379761e-01 -6.947766542434692383e-01
-4.203032851219177246e-01 1.781078726053237915e-01 -3.742148578166961670e-01
-6.405997276306152344e-01 1.769462823867797852e-01 1.036839187145233154e-01
-1.121848225593566895e-01 1.823382824659347534e-01 6.531549617648124695e-03
-5.958124995231628418e-01 1.779586374759674072e-01 -3.193026781082153320e-01
-4.481709599494934082e-01 1.853812932968139648e-01 -8.406728506088256836e-01
-7.595615386962890625e-01 1.793211847543716431e-01 -6.908412277698516846e-02
-1.990852653980255127e-01 1.966257095336914062e-01 5.327003598213195801e-01
-5.249275565147399902e-01 1.862118095159530640e-01 9.620470404624938965e-01
-5.435132980346679688e-01 2.028234153985977173e-01 2.150801420211791992e-01
-4.313926100730895996e-01 1.760920137166976929e-01 4.390276223421096802e-02
-1.006403863430023193e-01 1.858864873647689819e-01 -2.985149621963500977e-01
-5.159508585929870605e-01 2.017142623662948608e-01 4.041190743446350098e-01
-5.394213795661926270e-01 1.784603744745254517e-01 6.363224983215332031e-01
-2.354687750339508057e-01 1.785640120506286621e-01 3.313708007335662842e-01
-5.411769151687622070e-01 2.030113637447357178e-01 -3.575190603733062744e-01
-8.559253811836242676e-01 1.922109425067901611e-01 4.661674797534942627e-01
-3.507189154624938965e-01 1.807563304901123047e-01 -5.587939023971557617e-01
-9.153573513031005859e-01 1.914829760789871216e-01 -2.586669921875000000e-01
-7.075629234313964844e-01 2.015052735805511475e-01 -3.232758641242980957e-01
-8.361344337463378906e-01 1.818834841251373291e-01 2.000811249017715454e-01
-2.956317365169525146e-01 1.960566937923431396e-01 7.283515334129333496e-01
-1.168602705001831055e-01 1.820898652076721191e-01 2.316917330026626587e-01
-3.527231812477111816e-01 1.775733977556228638e-01 -2.251520603895187378e-01
-7.972283959388732910e-01 1.901024132966995239e-01 -6.956911087036132812e-01
-2.451187521219253540e-01 1.977152228355407715e-01 -5.861166715621948242e-01
-4.965845346450805664e-01 1.764367520809173584e-01 -1.185014843940734863e-01
-1.239619255065917969e-01 1.855115890502929688e-01 5.646968483924865723e-01
-4.560665488243103027e-01 2.030462622642517090e-01 -3.411864936351776123e-01
-8.694825172424316406e-01 1.833558231592178345e-01 -8.381707966327667236e-02
-7.902340888977050781e-01 1.963415443897247314e-01 4.762931466102600098e-01
-4.606448411941528320e-01 1.944215595722198486e-01 8.826646208763122559e-01
-6.517058610916137695e-02 1.933550834655761719e-01 1.369797587394714355e-01
-4.282399415969848633e-01 2.025467306375503540e-01 -4.137632548809051514e-01
-5.667325854301452637e-01 1.855755597352981567e-01 -8.448605537414550781e-01
-2.435551136732101440e-01 1.781923025846481323e-01 1.489892229437828064e-02
-2.772811949253082275e-01 1.793195456266403198e-01 -3.201559782028198242e-01
-4.748452305793762207e-01 1.957140713930130005e-01 8.355339765548706055e-01
-4.598793387413024902e-02 1.888391524553298950e-01 1.675152033567428589e-02
-6.933699846267700195e-01 1.780871003866195679e-01 -1.116791367530822754e-01
-7.129999995231628418e-01 1.856636852025985718e-01 -7.351286411285400391e-01
-3.744484782218933105e-01 1.791369318962097168e-01 6.838797926902770996e-01
-5.225580930709838867e-01 2.024536132812500000e-01 2.960293591022491455e-01
-3.363762497901916504e-01 1.988021880388259888e-01 6.032280325889587402e-01
-4.047831892967224121e-01 2.021797597408294678e-01 3.054811060428619385e-01
-6.406018733978271484e-01 1.965865939855575562e-01 7.163139581680297852e-01
-8.323538899421691895e-01 1.986531168222427368e-01 -1.769777387380599976e-02
-3.330451846122741699e-01 1.952186673879623413e-01 8.018326163291931152e-01
-6.641588807106018066e-01 2.009690105915069580e-01 3.415988087654113770e-01
-5.544682145118713379e-01 1.764469742774963379e-01 3.062901198863983154e-01
-4.550243318080902100e-01 2.000687569379806519e-01 5.742785334587097168e-01
-5.302492380142211914e-01 1.793830841779708862e-01 -5.190114974975585938e-01
-8.503201007843017578e-01 1.975984424352645874e-01 -2.479118704795837402e-01
-4.720296561717987061e-01 1.836688965559005737e-01 9.261675477027893066e-01
-7.019883990287780762e-01 1.787001639604568481e-01 3.879368007183074951e-01
-1.576047241687774658e-01 1.841687411069869995e-01 -4.166915416717529297e-01
-7.643893957138061523e-01 2.005392611026763916e-01 6.365495920181274414e-02
-2.287555336952209473e-01 1.840400397777557373e-01 7.681086659431457520e-01
-6.196250319480895996e-01 1.813667118549346924e-01 7.675333023071289062e-01
-1.974736154079437256e-01 1.791585385799407959e-01 6.322310864925384521e-02
-6.643782854080200195e-01 1.972249448299407959e-01 -7.731924653053283691e-01
-4.901465177536010742e-01 1.796285659074783325e-01 -5.449666380882263184e-01
-4.830021858215332031e-01 1.990073472261428833e-01 -7.640606760978698730e-01
-2.267296910285949707e-01 1.785035282373428345e-01 2.442347258329391479e-01
-2.396273165941238403e-01 1.783928424119949341e-01 -3.021267056465148926e-02
-8.978025317192077637e-01 1.854615509510040283e-01 1.571471542119979858e-01
-7.901236414909362793e-01 1.832441687583923340e-01 5.526612401008605957e-01
-4.706787168979644775e-01 1.801797151565551758e-01 -5.863528847694396973e-01
-5.108193755149841309e-01 1.999849677085876465e-01 5.803376436233520508e-01
-5.025674104690551758e-01 1.800058931112289429e-01 7.694742083549499512e-01
-4.504896998405456543e-01 2.006868869066238403e-01 -6.426988244056701660e-01
-2.018998563289642334e-01 2.001355439424514771e-01 -4.628684744238853455e-02
-3.489696085453033447e-01 1.769724637269973755e-01 -9.197707474231719971e-02
-7.464982271194458008e-01 1.816392689943313599e-01 5.712772607803344727e-01
-2.459845840930938721e-01 1.921627819538116455e-01 8.076843023300170898e-01
-7.469193935394287109e-01 1.842011958360671997e-01 -6.229702234268188477e-01
-4.839606583118438721e-01 2.021727561950683594e-01 3.465724885463714600e-01
-6.660087108612060547e-01 2.015953809022903442e-01 2.446739673614501953e-01
-5.113062858581542969e-01 1.826937198638916016e-01 8.907728791236877441e-01
-6.793068647384643555e-01 1.792592406272888184e-01 -3.570010066032409668e-01
-6.023480892181396484e-01 1.978146731853485107e-01 6.844244599342346191e-01
-5.506754517555236816e-01 2.031522393226623535e-01 -3.145648837089538574e-01
-2.605483233928680420e-01 2.014064639806747437e-01 5.007511749863624573e-02
-5.721011161804199219e-01 1.798900365829467773e-01 -5.443694591522216797e-01
-1.380321979522705078e-01 1.855522692203521729e-01 6.110686659812927246e-01
-7.383251786231994629e-01 1.989836543798446655e-01 4.008769989013671875e-01
-6.977148652076721191e-01 1.939602941274642944e-01 7.560082077980041504e-01
-5.773579478263854980e-01 1.993754804134368896e-01 -7.308871746063232422e-01
-5.165584683418273926e-01 1.766611933708190918e-01 -1.649784594774246216e-01
-7.522536516189575195e-01 1.896075010299682617e-01 -7.697210907936096191e-01
-9.214457869529724121e-01 1.920107454061508179e-01 7.959005236625671387e-02
-8.191931247711181641e-02 1.840111911296844482e-01 1.826953738927841187e-01
-8.119276762008666992e-01 1.985862255096435547e-01 -3.552553057670593262e-01
-6.460745334625244141e-01 1.770317107439041138e-01 6.059087440371513367e-02
-5.810819268226623535e-01 1.782719492912292480e-01 -3.759698271751403809e-01
-7.484664916992187500e-01 1.963494122028350830e-01 -6.934008598327636719e-01
-5.694059133529663086e-01 1.804337501525878906e-01 -5.884712934494018555e-01
-5.611685514450073242e-01 2.034852206707000732e-01 -1.203779429197311401e-01
-3.813500106334686279e-01 1.764681935310363770e-01 -1.703468337655067444e-02
-8.201866149902343750e-01 1.969345510005950928e-01 3.377970755100250244e-01
-2.294140756130218506e-01 1.804473400115966797e-01 -3.282093107700347900e-01
-8.204214572906494141e-01 1.906906366348266602e-01 6.020286083221435547e-01
-1.452586650848388672e-01 1.980399042367935181e-01 -1.540503650903701782e-01
-8.669327497482299805e-01 1.970218867063522339e-01 2.426173724234104156e-02
-5.420089960098266602e-01 2.033950984477996826e-01 -2.418786585330963135e-01
-2.266709506511688232e-01 1.886938661336898804e-01 -7.108693122863769531e-01
-5.886093378067016602e-01 2.008899003267288208e-01 4.540570676326751709e-01
-7.680385708808898926e-01 1.936578750610351562e-01 6.512148976325988770e-01
-5.818918943405151367e-01 1.786693483591079712e-01 -4.215608835220336914e-01
-6.759589910507202148e-01 2.020967453718185425e-01 1.052495390176773071e-01
-5.201699137687683105e-01 1.773844361305236816e-01 5.277650952339172363e-01
-1.881500482559204102e-01 1.803807169198989868e-01 4.358634948730468750e-01
-2.334890067577362061e-01 1.991615891456604004e-01 3.914315998554229736e-01
-9.161986112594604492e-01 1.933740824460983276e-01 2.928771078586578369e-03
-3.111965060234069824e-01 1.772715449333190918e-01 -5.290169641375541687e-02
-1.544803380966186523e-01 1.827864944934844971e-01 -3.108218312263488770e-01
-1.299125254154205322e-01 1.975508481264114380e-01 -9.714317321777343750e-02
-3.278782367706298828e-01 2.024399042129516602e-01 6.270183622837066650e-02
-5.192618370056152344e-01 1.810512840747833252e-01 8.213940262794494629e-01
-6.194561719894409180e-02 1.924716234207153320e-01 -1.161472350358963013e-01
-2.452237755060195923e-01 1.958370804786682129e-01 6.712526082992553711e-01
-5.935075283050537109e-01 1.995707005262374878e-01 5.709921717643737793e-01
-5.867063999176025391e-01 1.972126364707946777e-01 7.293907999992370605e-01
-4.486314356327056885e-01 1.804686337709426880e-01 8.009455800056457520e-01
-7.216346859931945801e-01 1.886810362339019775e-01 -7.997292876243591309e-01
-2.471240013837814331e-01 1.994217187166213989e-01 -4.587768316268920898e-01
-6.653053760528564453e-01 1.973565369844436646e-01 6.475072503089904785e-01
-7.800852060317993164e-01 1.873653978109359741e-01 6.981903314590454102e-01
-1.720699965953826904e-01 1.799344867467880249e-01 2.331798076629638672e-01
-9.308895468711853027e-02 1.882046312093734741e-01 -3.485420644283294678e-01
-7.285479307174682617e-01 2.004079669713973999e-01 -4.405608177185058594e-01
-3.521534204483032227e-01 1.822838485240936279e-01 8.468570709228515625e-01
-1.865422427654266357e-01 1.847387403249740601e-01 7.100535631179809570e-01
-9.143980741500854492e-01 1.934923827648162842e-01 -1.382919847965240479e-01
-3.265684247016906738e-01 1.951727569103240967e-01 -8.086704611778259277e-01
-7.139126658439636230e-01 1.784710735082626343e-01 2.885999083518981934e-01
-2.715929746627807617e-01 2.002719789743423462e-01 3.528083264827728271e-01
-3.005521297454833984e-01 1.823868751525878906e-01 -6.052266359329223633e-01
-3.684560060501098633e-01 1.863763630390167236e-01 -8.290325999259948730e-01
-7.076577544212341309e-01 2.018830478191375732e-01 -1.936319917440414429e-01
-7.460592985153198242e-01 1.985101401805877686e-01 -5.811800360679626465e-01
-8.090686798095703125e-01 1.816108971834182739e-01 -2.465071082115173340e-01
-7.262412309646606445e-01 1.801804900169372559e-01 5.030775666236877441e-01
-8.145152330398559570e-01 1.977402567863464355e-01 2.818871140480041504e-01
-4.249397814273834229e-01 2.003868818283081055e-01 5.364991426467895508e-01
-6.977192163467407227e-01 1.800730079412460327e-01 -4.125448465347290039e-01
-1.566900908946990967e-01 1.947441548109054565e-01 -5.055168867111206055e-01
-7.040472030639648438e-01 1.967454552650451660e-01 6.281956434249877930e-01
-6.107406020164489746e-01 1.859874278306961060e-01 -8.376873135566711426e-01
-4.194261133670806885e-01 1.979596614837646484e-01 7.153884172439575195e-01
-2.284913659095764160e-01 2.003410458564758301e-01 1.849661320447921753e-01
-3.321127891540527344e-01 2.009910494089126587e-01 -4.866046011447906494e-01
-8.832253217697143555e-01 1.932079344987869263e-01 3.160273432731628418e-01
-2.460211664438247681e-01 2.001957446336746216e-01 -3.617242574691772461e-01
-2.690693438053131104e-01 1.934240907430648804e-01 -7.721689343452453613e-01
-1.045959591865539551e-01 1.831074953079223633e-01 3.063662052154541016e-01
-1.600275933742523193e-01 1.802341043949127197e-01 1.741139143705368042e-01
-6.479046344757080078e-01 1.999607086181640625e-01 4.783394336700439453e-01
-3.994960784912109375e-01 1.761871874332427979e-01 1.935857236385345459e-01
-5.616353750228881836e-01 1.946559250354766846e-01 8.531290888786315918e-01
-2.408326864242553711e-01 2.007295340299606323e-01 -2.361665666103363037e-01
-3.135179877281188965e-01 2.010293006896972656e-01 3.422105908393859863e-01
-6.390767693519592285e-01 2.029047012329101562e-01 -9.827727079391479492e-02
-1.777081191539764404e-01 1.801689565181732178e-01 3.481355607509613037e-01
-4.579672217369079590e-01 1.789125055074691772e-01 6.984626650810241699e-01
-1.872758269309997559e-01 1.861527115106582642e-01 -5.786440372467041016e-01
-8.680689334869384766e-02 1.952577084302902222e-01 9.554375708103179932e-02
-4.275066554546356201e-01 1.763695329427719116e-01 3.408870697021484375e-01
-6.471920609474182129e-01 1.911287158727645874e-01 8.773515224456787109e-01
-3.922243118286132812e-01 1.801023185253143311e-01 7.630236148834228516e-01
-6.840181946754455566e-01 2.010613232851028442e-01 -4.687951505184173584e-01
-1.485680043697357178e-01 1.911919713020324707e-01 -5.568949580192565918e-01
-6.850279569625854492e-01 1.919923126697540283e-01 8.223414421081542969e-01
-2.561486363410949707e-01 1.803118288516998291e-01 6.227458715438842773e-01
-8.860603570938110352e-01 1.955368667840957642e-01 1.023824512958526611e-01
-9.138756990432739258e-01 1.901444047689437866e-01 2.207205146551132202e-01
-5.814447402954101562e-01 1.763949841260910034e-01 1.877548992633819580e-01
-6.897846460342407227e-01 2.021058797836303711e-01 2.882500365376472473e-02
-6.341663002967834473e-01 1.813601404428482056e-01 -6.070995926856994629e-01
-6.437592506408691406e-01 1.779228746891021729e-01 4.318180084228515625e-01
-7.357096076011657715e-01 2.007550746202468872e-01 -3.619406819343566895e-01
-3.641476035118103027e-01 2.019909620285034180e-01 2.832042276859283447e-01
-3.352401852607727051e-01 2.023925036191940308e-01 1.178088635206222534e-01
-6.671404242515563965e-01 1.957721412181854248e-01 -8.197883367538452148e-01
-4.327571094036102295e-01 2.034401595592498779e-01 -1.378113776445388794e-02
-2.905659675598144531e-01 1.781271398067474365e-01 -1.816925555467605591e-01
-8.042616248130798340e-01 1.966815441846847534e-01 4.127517044544219971e-01
-5.963000655174255371e-01 2.028341293334960938e-01 1.415106654167175293e-01
-6.920601725578308105e-01 1.815593689680099487e-01 6.794664859771728516e-01
-4.560862481594085693e-01 1.993136703968048096e-01 6.345019340515136719e-01
-2.936089634895324707e-01 1.854047030210494995e-01 -7.297776341438293457e-01
-6.629657149314880371e-01 1.773404926061630249e-01 -5.940677598118782043e-03
-8.821033239364624023e-01 1.863437145948410034e-01 -3.359901309013366699e-01
-6.420125961303710938e-01 1.985418796539306641e-01 5.999670028686523438e-01
-3.982331156730651855e-01 2.016555666923522949e-01 3.775880336761474609e-01
-5.964268445968627930e-01 1.823507398366928101e-01 -6.961997747421264648e-01
-3.002383708953857422e-01 1.815921664237976074e-01 7.694265842437744141e-01
-6.910792589187622070e-01 2.020760327577590942e-01 -2.338219285011291504e-01
-2.616365849971771240e-01 1.975660324096679688e-01 -6.276657581329345703e-01
-4.795917272567749023e-01 2.029173672199249268e-01 2.155485302209854126e-01
-7.994588613510131836e-01 1.990275681018829346e-01 1.808232814073562622e-01
-7.064871788024902344e-01 2.019691169261932373e-01 -6.708000600337982178e-02
-5.901647806167602539e-01 1.989194154739379883e-01 6.225649118423461914e-01
-3.036417365074157715e-01 2.013636082410812378e-01 2.645689547061920166e-01
-2.947761416435241699e-01 1.986580789089202881e-01 5.627987980842590332e-01
-5.134563446044921875e-01 2.033787518739700317e-01 8.647981286048889160e-02
-8.403565883636474609e-01 1.866212636232376099e-01 5.290674567222595215e-01
-1.980240345001220703e-01 1.797583252191543579e-01 -1.215603053569793701e-01
-5.821233391761779785e-01 1.775332540273666382e-01 -2.710058093070983887e-01
-7.619812488555908203e-01 1.800071299076080322e-01 -2.171399146318435669e-01
-2.561910152435302734e-01 1.778106391429901123e-01 1.594611704349517822e-01
-3.319435715675354004e-01 1.923355311155319214e-01 8.910732865333557129e-01
-4.644120931625366211e-01 1.773444265127182007e-01 -2.926794886589050293e-01
-6.392364501953125000e-01 2.010043114423751831e-01 3.801211714744567871e-01
-2.018207609653472900e-01 1.791911423206329346e-01 -4.746941849589347839e-03
-1.928374469280242920e-01 1.986952275037765503e-01 3.130326867103576660e-01
-1.532651484012603760e-01 1.976799815893173218e-01 2.683118581771850586e-01
-2.995035052299499512e-01 1.802905350923538208e-01 -4.576395153999328613e-01
-3.761916458606719971e-01 1.763139963150024414e-01 1.298099458217620850e-01
-5.570299625396728516e-01 2.014280855655670166e-01 4.189762771129608154e-01
-3.449085950851440430e-01 1.773176640272140503e-01 4.348585009574890137e-01
-4.809048771858215332e-01 2.032257914543151855e-01 1.391821950674057007e-01
-5.903895497322082520e-01 2.030324190855026245e-01 9.555292129516601562e-02
-5.594562888145446777e-01 1.763240844011306763e-01 -2.573952078819274902e-03
-4.082235991954803467e-01 2.011351138353347778e-01 -5.740295648574829102e-01
-3.232885599136352539e-01 2.024861574172973633e-01 -1.179915815591812134e-01
-1.667799651622772217e-01 1.844350695610046387e-01 6.544274091720581055e-01
-3.861194252967834473e-01 1.839049160480499268e-01 -7.591338157653808594e-01
-5.819752812385559082e-01 1.765529662370681763e-01 2.728712558746337891e-01
-2.077913880348205566e-01 1.931859850883483887e-01 -6.725780367851257324e-01
-6.593015789985656738e-01 1.779193878173828125e-01 -1.954789906740188599e-01
-7.643238306045532227e-01 2.007884383201599121e-01 -1.187219619750976562e-01
-7.936986684799194336e-01 1.955439299345016479e-01 -6.321119070053100586e-01
-3.834074139595031738e-01 1.813298016786575317e-01 -6.255053877830505371e-01
-8.028756380081176758e-01 1.809835284948348999e-01 -1.779509633779525757e-01
-5.305814743041992188e-01 1.764444112777709961e-01 3.443815112113952637e-01
-4.763638377189636230e-01 1.760756075382232666e-01 2.563554644584655762e-01
-9.207138419151306152e-02 1.871779710054397583e-01 4.836919307708740234e-01
-3.362222313880920410e-01 2.025605738162994385e-01 -1.840639263391494751e-01
-5.055556893348693848e-01 1.770170778036117554e-01 4.816291034221649170e-01
-6.294053792953491211e-01 2.017400860786437988e-01 2.960911691188812256e-01
-5.643403530120849609e-01 1.884676665067672729e-01 -9.115093350410461426e-01
-6.563422679901123047e-01 2.020956575870513916e-01 1.728047579526901245e-01
-3.859004676342010498e-01 1.934321373701095581e-01 -8.900181055068969727e-01
-2.982961237430572510e-01 1.981509327888488770e-01 -6.581808924674987793e-01
-4.890073835849761963e-01 1.907679289579391479e-01 -9.389376640319824219e-01
-1.242112219333648682e-01 1.966243237257003784e-01 -2.320100069046020508e-01
-2.503691911697387695e-01 2.007641196250915527e-01 -2.802135348320007324e-01
-3.004522323608398438e-01 2.013289034366607666e-01 -3.655084967613220215e-01
-4.441914558410644531e-01 2.027189880609512329e-01 2.416509687900543213e-01
-5.632767677307128906e-01 1.764663308858871460e-01 -5.514513328671455383e-02
-1.234555244445800781e-01 1.882029920816421509e-01 -4.628586769104003906e-01
-8.264235854148864746e-01 1.815280467271804810e-01 -1.154151111841201782e-01
-2.520145773887634277e-01 1.984015107154846191e-01 5.107985734939575195e-01
-8.483315706253051758e-01 1.916668564081192017e-01 -5.731613039970397949e-01
-4.032349288463592529e-01 2.017785459756851196e-01 -4.981365501880645752e-01
-6.191688776016235352e-01 1.775394529104232788e-01 -2.150900363922119141e-01
-5.066668391227722168e-01 1.771444380283355713e-01 -2.613485455513000488e-01
-3.337866067886352539e-01 2.009326964616775513e-01 3.920787572860717773e-01
-3.740179538726806641e-01 1.768996715545654297e-01 4.026725888252258301e-01
-3.266832232475280762e-01 1.769253909587860107e-01 4.727769643068313599e-03
-3.933423757553100586e-01 1.952272206544876099e-01 8.382931351661682129e-01
-5.920379161834716797e-01 2.017045617103576660e-01 3.531873822212219238e-01
-5.134851932525634766e-01 2.028713971376419067e-01 -3.968896567821502686e-01
3.839426040649414062e-01 1.993394345045089722e-01 -3.247259557247161865e-01
