-4.117608964443206787e-01 5.588367581367492676e-02 7.107484340667724609e-01
-4.411000013351440430e-01 8.627961575984954834e-02 5.330734252929687500e-01
-4.929396510124206543e-01 9.833409637212753296e-02 4.048125445842742920e-01
-2.864488363265991211e-01 -3.043672814965248108e-02 9.683240205049514771e-02
-3.397362232208251953e-01 4.850501567125320435e-02 -2.445977628231048584e-01
-2.625375390052795410e-01 -2.612322941422462463e-02 -2.142663598060607910e-01
-4.934102296829223633e-01 9.833286702632904053e-02 1.696355342864990234e-01
-3.009862303733825684e-01 5.142761021852493286e-02 -8.545267581939697266e-02
-4.476300477981567383e-01 8.167207986116409302e-02 -9.348425269126892090e-02
-3.616546988487243652e-01 -6.638508290052413940e-03 4.591015279293060303e-01
-3.438572287559509277e-01 3.734853118658065796e-03 5.614157915115356445e-01
-3.777377307415008545e-01 -1.957364007830619812e-02 -2.992573976516723633e-01
-3.183630704879760742e-01 6.259724497795104980e-02 4.792122244834899902e-01
-3.828989565372467041e-01 -9.984441101551055908e-03 3.951058983802795410e-01
-7.102055549621582031e-01 5.993529036641120911e-02 2.926124930381774902e-01
-5.579836368560791016e-01 8.830542862415313721e-02 -1.865387260913848877e-01
-6.920547485351562500e-01 4.107191041111946106e-02 4.175245761871337891e-03
-6.789289712905883789e-01 4.794180393218994141e-02 3.170209825038909912e-01
-6.740664839744567871e-01 1.052257865667343140e-01 3.934255540370941162e-01
-3.952526748180389404e-01 -1.027517020702362061e-02 -3.900801837444305420e-01
-4.858688414096832275e-01 3.655113279819488525e-03 3.898905813694000244e-01
-5.730009675025939941e-01 7.761435583233833313e-03 -1.924429237842559814e-01
-3.168575763702392578e-01 -3.069590404629707336e-02 -6.371647119522094727e-03
-3.705257475376129150e-01 1.336952857673168182e-02 6.169669628143310547e-01
-5.872650146484375000e-01 5.132755637168884277e-02 6.056683659553527832e-01
-7.185310721397399902e-01 9.297028183937072754e-02 -5.750973522663116455e-02
-7.141566276550292969e-01 6.499820202589035034e-02 3.208850026130676270e-01
-5.013691782951354980e-01 8.366081863641738892e-03 4.163379967212677002e-01
-3.218537569046020508e-01 5.206827819347381592e-02 -1.539523303508758545e-01
-5.017020702362060547e-01 8.008563518524169922e-02 6.726502180099487305e-01
-5.415858626365661621e-01 1.252780482172966003e-02 3.642012476921081543e-01
-4.512104392051696777e-01 5.505049973726272583e-02 -3.801586031913757324e-01
-4.165141284465789795e-01 5.829739943146705627e-02 -3.101890981197357178e-01
-3.816372156143188477e-01 -2.470205351710319519e-02 6.635963916778564453e-02
-4.247153997421264648e-01 8.893477916717529297e-02 3.613189458847045898e-01
-5.850029587745666504e-01 1.076063662767410278e-01 1.944264173507690430e-01
-2.821212410926818848e-01 3.829935565590858459e-02 -1.817030608654022217e-01
-3.108154535293579102e-01 -3.059337660670280457e-02 3.792020678520202637e-02
-1.981179714202880859e-01 2.694912999868392944e-02 2.179038226604461670e-01
-4.120764732360839844e-01 8.522288501262664795e-02 1.378802359104156494e-01
-5.149754881858825684e-01 5.372002720832824707e-03 -3.727548122406005859e-01
-5.758239626884460449e-01 6.274648010730743408e-03 -5.238871276378631592e-02
-5.738233327865600586e-01 1.049914509057998657e-01 4.333417713642120361e-01
-2.447900623083114624e-01 -1.245868578553199768e-02 -2.879933714866638184e-01
-7.056747674942016602e-01 5.847920477390289307e-02 -1.900933384895324707e-01
-2.579565048217773438e-01 -3.156376257538795471e-02 3.708185255527496338e-02
-6.832560300827026367e-01 8.145833015441894531e-02 5.001107454299926758e-01
-5.613067150115966797e-01 1.615745574235916138e-02 -3.679544329643249512e-01
-3.870900273323059082e-01 8.073880523443222046e-02 4.260150194168090820e-01
-5.488116145133972168e-01 1.048523932695388794e-01 3.672991991043090820e-01
-5.038074851036071777e-01 9.622705727815628052e-02 5.056941509246826172e-01
-6.144713163375854492e-01 1.088408380746841431e-01 3.443948030471801758e-01
-3.279049992561340332e-01 7.431969046592712402e-03 5.866651535034179688e-01
-6.815152764320373535e-01 6.730920076370239258e-02 4.660896658897399902e-01
-2.251905500888824463e-01 -2.187220752239227295e-02 -1.948010027408599854e-01
-5.065678358078002930e-01 8.298043161630630493e-03 -4.123502075672149658e-01
-4.186546802520751953e-01 -1.525153592228889465e-02 2.323717772960662842e-01
-2.326600551605224609e-01 -1.305118203163146973e-04 4.775055348873138428e-01
-2.785866260528564453e-01 -3.115460649132728577e-02 -1.023312807083129883e-01
-3.939126133918762207e-01 -2.069940790534019470e-02 1.680947393178939819e-01
-3.892826437950134277e-01 4.647507518529891968e-02 -3.582784831523895264e-01
-6.445716023445129395e-01 4.126276075839996338e-02 3.853610455989837646e-01
-4.506314098834991455e-01 3.946929797530174255e-02 7.013540267944335938e-01
-2.707083821296691895e-01 5.367787554860115051e-02 3.242378830909729004e-01
-4.729841649532318115e-01 7.452768087387084961e-02 -2.409802675247192383e-01
-4.988102912902832031e-01 -3.276564180850982666e-03 2.267345488071441650e-01
-4.685523808002471924e-01 9.340355545282363892e-02 1.042020171880722046e-01
-7.257344126701354980e-01 7.619228214025497437e-02 -1.309833824634552002e-01
-4.553321003913879395e-01 9.371574223041534424e-02 2.130704075098037720e-01
-6.176800727844238281e-01 1.094223707914352417e-01 2.192796766757965088e-01
-5.845035314559936523e-01 1.319455541670322418e-02 1.968042850494384766e-01
-6.498845815658569336e-01 1.065323650836944580e-01 4.081034362316131592e-01
-5.062295794486999512e-01 9.385609626770019531e-02 5.519806742668151855e-01
-3.369283378124237061e-01 -1.441099494695663452e-02 -3.710350990295410156e-01
-6.193021535873413086e-01 1.968633010983467102e-02 1.294988989830017090e-01
-3.905593454837799072e-01 3.269915282726287842e-02 -4.328428804874420166e-01
-6.522742509841918945e-01 3.557556122541427612e-02 -2.543177604675292969e-01
-5.440263152122497559e-01 1.976713538169860840e-04 5.488820374011993408e-02
-3.711302280426025391e-01 -2.676181867718696594e-02 -1.748928427696228027e-02
-2.222997397184371948e-01 3.093236684799194336e-02 4.182899594306945801e-01
-2.407631576061248779e-01 -3.089024499058723450e-02 -4.698102176189422607e-02
-4.681637585163116455e-01 6.607384979724884033e-02 -3.164408206939697266e-01
-3.009252548217773438e-01 -2.301803976297378540e-02 2.785117626190185547e-01
-3.548112809658050537e-01 -1.281153783202171326e-02 3.903038501739501953e-01
-5.462095737457275391e-01 1.023328453302383423e-01 4.563043415546417236e-01
-4.503829181194305420e-01 9.258486330509185791e-03 5.207161307334899902e-01
-3.784357309341430664e-01 8.072298765182495117e-02 2.956374883651733398e-01
-5.560075640678405762e-01 1.915045082569122314e-03 -1.427693665027618408e-02
-5.511445999145507812e-01 1.628044992685317993e-03 -1.478468775749206543e-01
-4.497414827346801758e-01 -1.418749615550041199e-02 1.460145115852355957e-01
-5.565971732139587402e-01 1.011610701680183411e-01 4.989653527736663818e-01
-2.883163094520568848e-01 -2.087536081671714783e-02 3.197517395019531250e-01
-4.389777779579162598e-01 -1.883675530552864075e-02 -9.105905890464782715e-02
-4.936724305152893066e-01 9.775075316429138184e-02 1.405276507139205933e-01
-3.961176872253417969e-01 7.855170220136642456e-02 2.234412729740142822e-02
-6.118218898773193359e-01 2.923997305333614349e-02 3.598094582557678223e-01
-2.221571952104568481e-01 3.743496909737586975e-02 2.497157156467437744e-01
-5.190805196762084961e-01 8.964511752128601074e-02 -1.186464130878448486e-01
-4.628497958183288574e-01 -1.542579382658004761e-02 -6.323437392711639404e-02
-2.015400826930999756e-01 2.447864226996898651e-02 4.557289183139801025e-02
-2.459953874349594116e-01 4.391653835773468018e-02 1.001583635807037354e-01
-2.847514450550079346e-01 1.469270698726177216e-02 -3.450345993041992188e-01
-4.097770154476165771e-01 8.344177901744842529e-02 8.809536695480346680e-02
-2.541215121746063232e-01 -2.616610005497932434e-02 2.240742146968841553e-01
-3.224571943283081055e-01 -1.992036402225494385e-02 3.158356547355651855e-01
-4.018622934818267822e-01 -2.188997715711593628e-02 -1.922966539859771729e-01
-5.607753992080688477e-01 1.064806729555130005e-01 2.698790132999420166e-01
-6.816059947013854980e-01 5.241779983043670654e-02 3.560540080070495605e-01
-5.782853960990905762e-01 8.351842314004898071e-02 -2.514780461788177490e-01
-3.308454155921936035e-01 -2.637353911995887756e-02 1.676286607980728149e-01
-2.462224513292312622e-01 -2.762526646256446838e-02 -1.653906404972076416e-01
-5.534828305244445801e-01 6.564110517501831055e-03 -2.736967504024505615e-01
-4.222195744514465332e-01 7.862764596939086914e-02 5.959581136703491211e-01
-2.715888023376464844e-01 4.240044578909873962e-02 -9.195898473262786865e-02
-2.270956784486770630e-01 3.863869234919548035e-02 1.544670760631561279e-01
-5.779547095298767090e-01 5.090890824794769287e-02 -4.281497895717620850e-01
-5.232336521148681641e-01 7.250988483428955078e-02 -3.165374398231506348e-01
-3.160556554794311523e-01 -2.176539599895477295e-02 -3.015981614589691162e-01
-6.077418327331542969e-01 1.422848738729953766e-02 -6.100027263164520264e-02
-4.239239990711212158e-01 8.011457324028015137e-02 -5.155397951602935791e-02
-3.824729621410369873e-01 6.242719292640686035e-02 -1.997965574264526367e-01
-4.695291221141815186e-01 -1.278375089168548584e-02 -1.916758418083190918e-01
-7.135567069053649902e-01 9.147535264492034912e-02 4.011557102203369141e-01
-6.412041783332824707e-01 2.525826916098594666e-02 1.073314175009727478e-01
-7.113717794418334961e-01 1.048863232135772705e-01 1.625718176364898682e-01
-5.834552049636840820e-01 2.009736187756061554e-02 -3.454622626304626465e-01
-5.432332158088684082e-01 -5.797632038593292236e-04 1.072774082422256470e-02
-5.456793308258056641e-01 7.158944755792617798e-02 -3.369764983654022217e-01
-1.967995464801788330e-01 -2.217030897736549377e-02 1.997914910316467285e-01
-4.749053418636322021e-01 -1.263181120157241821e-02 -1.590382158756256104e-01
-5.082371830940246582e-01 8.491787314414978027e-02 -1.692215800285339355e-01
-6.741225123405456543e-01 5.199960991740226746e-02 3.832787275314331055e-01
-2.074934989213943481e-01 2.506854757666587830e-02 6.275385618209838867e-03
-6.038787364959716797e-01 1.961399428546428680e-02 -2.683759629726409912e-01
-4.949860870838165283e-01 9.902061522006988525e-02 1.985337138175964355e-01
-3.761219978332519531e-01 9.303944185376167297e-03 5.892935991287231445e-01
-1.710639297962188721e-01 9.848235175013542175e-03 1.984640359878540039e-01
-3.989874720573425293e-01 5.775189399719238281e-02 -2.846312820911407471e-01
-2.421655505895614624e-01 1.150328479707241058e-02 -2.583360970020294189e-01
-4.403907954692840576e-01 -1.709367707371711731e-02 -1.925474703311920166e-01
-3.678409457206726074e-01 -1.283687353134155273e-02 -3.813692331314086914e-01
-5.302828550338745117e-01 -3.479760140180587769e-03 -2.598111331462860107e-02
-3.198077678680419922e-01 5.778798460960388184e-02 5.535633563995361328e-01
-3.776806294918060303e-01 6.492696702480316162e-02 -1.551510393619537354e-01
-5.911887884140014648e-01 1.046358346939086914e-01 4.605979323387145996e-01
-4.626445770263671875e-01 7.860541343688964844e-02 -1.736470460891723633e-01
-6.301623582839965820e-01 9.504677355289459229e-02 5.580297708511352539e-01
-4.772283434867858887e-01 8.559437096118927002e-02 -1.008011847734451294e-01
-7.505124807357788086e-01 8.098689466714859009e-02 1.419983506202697754e-01
-5.257606506347656250e-01 1.012529283761978149e-01 1.293508559465408325e-01
-3.900291323661804199e-01 -3.657400608062744141e-03 -4.342032968997955322e-01
-6.111325025558471680e-01 5.744699388742446899e-02 5.904529094696044922e-01
-4.821888804435729980e-01 -2.309225499629974365e-03 3.050122559070587158e-01
-2.594020664691925049e-01 4.978423565626144409e-02 1.623062491416931152e-01
-2.108778059482574463e-01 -2.689566090703010559e-02 1.347442269325256348e-01
-5.154032707214355469e-01 -2.891704440116882324e-03 -2.463785409927368164e-01
-6.886687278747558594e-01 1.078616380691528320e-01 2.563434243202209473e-01
-6.462582349777221680e-01 2.572494372725486755e-02 -9.397216141223907471e-02
-6.115444302558898926e-01 2.111893147230148315e-02 2.233968973159790039e-01
-5.002011060714721680e-01 3.826982155442237854e-02 -4.739132225513458252e-01
-1.963034868240356445e-01 8.468717336654663086e-03 -1.082471162080764771e-01
-7.167118787765502930e-01 1.033177226781845093e-01 1.259574741125106812e-01
-2.429977208375930786e-01 4.509793594479560852e-02 2.144820690155029297e-01
-5.737072825431823730e-01 5.694621056318283081e-02 6.483310461044311523e-01
-6.644638180732727051e-01 3.120219334959983826e-02 -5.448988080024719238e-02
-2.757039070129394531e-01 1.941158808767795563e-02 -3.056592345237731934e-01
-6.494089365005493164e-01 1.095388233661651611e-01 3.021524548530578613e-01
-4.975517392158508301e-01 -2.222318202257156372e-03 2.550376057624816895e-01
-3.526998758316040039e-01 7.370276749134063721e-02 1.467537879943847656e-01
-4.231047332286834717e-01 -2.080930024385452271e-02 -1.717992126941680908e-03
-1.810290217399597168e-01 -8.559651672840118408e-03 3.004193305969238281e-01
-3.219733834266662598e-01 4.622505605220794678e-02 -2.208475172519683838e-01
-6.081207990646362305e-01 1.634037122130393982e-02 -1.747484207153320312e-01
-3.529519438743591309e-01 -2.806748822331428528e-02 1.922263205051422119e-02
-4.147281646728515625e-01 -1.034876331686973572e-02 3.363077640533447266e-01
-3.529047071933746338e-01 7.238434255123138428e-02 9.530037641525268555e-02
-4.540983140468597412e-01 1.952671445906162262e-02 6.007400751113891602e-01
-5.393021106719970703e-01 8.544391021132469177e-03 -3.487245440483093262e-01
-5.669015645980834961e-01 1.058148294687271118e-01 1.630815118551254272e-01
-4.332432150840759277e-01 -2.837412059307098389e-03 -4.194100201129913330e-01
-4.014754295349121094e-01 1.386731117963790894e-02 6.062963604927062988e-01
-4.114328920841217041e-01 -2.137230709195137024e-02 6.426742672920227051e-02
-5.909395217895507812e-01 1.093883998692035675e-02 6.714189052581787109e-02
-3.243750929832458496e-01 -1.670506224036216736e-02 3.633728623390197754e-01
-7.033258080482482910e-01 8.808872103691101074e-02 4.424560964107513428e-01
-6.684415340423583984e-01 5.617218092083930969e-02 4.395699799060821533e-01
-3.400074541568756104e-01 2.710507251322269440e-02 -3.911789953708648682e-01
-5.616494417190551758e-01 4.145150631666183472e-02 5.963016748428344727e-01
-2.498186975717544556e-01 2.098463103175163269e-02 -2.272378504276275635e-01
-3.068484067916870117e-01 -2.842866256833076477e-02 1.455631107091903687e-01
-3.396527171134948730e-01 6.769602000713348389e-02 4.520428180694580078e-02
-2.616226673126220703e-01 8.829701691865921021e-03 5.535620450973510742e-01
-5.699274539947509766e-01 1.070705801248550415e-01 3.137809336185455322e-01
-6.192381978034973145e-01 1.068193018436431885e-01 8.676308393478393555e-02
-6.752955913543701172e-01 1.089452058076858521e-01 2.109347134828567505e-01
-2.904061079025268555e-01 -6.455015391111373901e-03 4.837116301059722900e-01
-5.958220958709716797e-01 4.447398334741592407e-02 5.503157377243041992e-01
-2.933543026447296143e-01 -2.477536723017692566e-02 2.493768632411956787e-01
-6.155768632888793945e-01 7.356637716293334961e-02 -3.257860243320465088e-01
-5.244781970977783203e-01 1.120899990200996399e-02 3.952663242816925049e-01
-5.958613753318786621e-01 1.087374389171600342e-01 2.552443742752075195e-01
-1.959466040134429932e-01 -6.835285574197769165e-03 3.639882206916809082e-01
-3.493321239948272705e-01 6.196475028991699219e-02 -1.088037937879562378e-01
-5.001141428947448730e-01 9.095861017704010010e-02 5.826243758201599121e-01
-4.636870026588439941e-01 5.905128270387649536e-02 7.223795652389526367e-01
-6.303801536560058594e-01 2.520448714494705200e-02 1.987089663743972778e-01
-3.443414568901062012e-01 -2.907593175768852234e-02 -3.445459902286529541e-02
-4.048431217670440674e-01 8.578367531299591064e-02 2.752101421356201172e-01
-4.587182402610778809e-01 4.650605842471122742e-02 -4.337144196033477783e-01
-3.292930722236633301e-01 -2.363647893071174622e-02 2.384135723114013672e-01
-2.880481183528900146e-01 9.681669995188713074e-03 5.820227861404418945e-01
-2.344986498355865479e-01 4.178996384143829346e-02 1.818227469921112061e-01
-5.370955467224121094e-01 9.739094972610473633e-02 -1.245026290416717529e-02
-2.664758563041687012e-01 -2.947218343615531921e-02 1.424570828676223755e-01
-6.492222547531127930e-01 3.232040256261825562e-02 2.317786514759063721e-01
-2.978363931179046631e-01 2.350551262497901917e-02 6.280771493911743164e-01
-1.834213137626647949e-01 -2.195439487695693970e-02 1.271009743213653564e-01
-1.980078816413879395e-01 2.680593356490135193e-02 1.826708912849426270e-01
-1.939691901206970215e-01 -1.293788477778434753e-02 -1.467967033386230469e-01
-4.337805807590484619e-01 1.140274107456207275e-04 4.479714334011077881e-01
-6.269583106040954590e-01 9.748949110507965088e-02 -1.047558337450027466e-01
-6.851240396499633789e-01 4.072209447622299194e-02 1.416948139667510986e-01
-5.613485574722290039e-01 7.201809436082839966e-03 1.786403656005859375e-01
-6.514616012573242188e-01 1.092651933431625366e-01 1.724920868873596191e-01
-7.305032014846801758e-01 5.977586656808853149e-02 3.078911453485488892e-02
-1.977042257785797119e-01 -2.204336225986480713e-03 3.924181461334228516e-01
-3.376695513725280762e-01 6.099242717027664185e-02 -8.134415745735168457e-02
-5.569712519645690918e-01 2.363660559058189392e-02 4.607370793819427490e-01
-2.408147901296615601e-01 -3.038097545504570007e-02 -7.728494703769683838e-02
-4.955682456493377686e-01 -5.390178412199020386e-03 -2.741024196147918701e-01
-5.034389495849609375e-01 -7.419776171445846558e-03 6.659418344497680664e-02
-4.284219741821289062e-01 -1.389796286821365356e-02 -3.075723052024841309e-01
-2.209673970937728882e-01 -2.170993015170097351e-02 2.684859037399291992e-01
-2.664992213249206543e-01 4.921843111515045166e-02 6.481163203716278076e-02
-3.546647727489471436e-01 -2.024688571691513062e-02 2.701789736747741699e-01
-2.241576313972473145e-01 -1.564922183752059937e-02 -2.319367527961730957e-01
-5.540025234222412109e-01 2.578267082571983337e-02 -4.351891577243804932e-01
-2.875951528549194336e-01 -2.241609990596771240e-02 -2.827870845794677734e-01
-5.647717118263244629e-01 7.458951324224472046e-03 -2.373474538326263428e-01
-6.620807647705078125e-01 3.180108219385147095e-02 -1.247870922088623047e-01
-2.671655714511871338e-01 -2.351454272866249084e-02 2.781147956848144531e-01
-3.090633749961853027e-01 1.084720343351364136e-02 -3.964041769504547119e-01
-3.408857285976409912e-01 7.256673276424407959e-02 2.553747296333312988e-01
-3.175571262836456299e-01 3.661636263132095337e-02 -2.938593626022338867e-01
-4.489651322364807129e-01 6.671252846717834473e-02 -2.845299541950225830e-01
-5.185775756835937500e-01 1.023503690958023071e-01 3.303633332252502441e-01
-2.502501904964447021e-01 -2.767882868647575378e-02 1.873569935560226440e-01
-5.655007362365722656e-01 8.892074227333068848e-02 6.310800313949584961e-01
-2.510570287704467773e-01 3.880076855421066284e-02 -4.577465355396270752e-02
-4.233464002609252930e-01 8.806141465902328491e-02 1.798710227012634277e-01
-4.419152736663818359e-01 -1.753496378660202026e-02 -1.635496616363525391e-01
-5.116165280342102051e-01 7.931713759899139404e-02 -2.411266565322875977e-01
-2.975319623947143555e-01 -1.868093386292457581e-02 3.495687246322631836e-01
-6.204299926757812500e-01 1.077584922313690186e-01 3.929912149906158447e-01
-7.329081296920776367e-01 9.724353998899459839e-02 6.595078110694885254e-02
-3.562154471874237061e-01 4.802103340625762939e-02 -2.867810130119323730e-01
-5.434110760688781738e-01 9.929759427905082703e-03 3.172091543674468994e-01
-3.955178856849670410e-01 8.368465304374694824e-02 3.579556345939636230e-01
-4.058209359645843506e-01 8.590650558471679688e-02 3.238013982772827148e-01
-3.029543757438659668e-01 6.105352193117141724e-02 1.147429719567298889e-01
-3.390802145004272461e-01 3.306556865572929382e-02 -3.599193096160888672e-01
-6.183850765228271484e-01 9.450064599514007568e-02 -1.436074078083038330e-01
-5.822076201438903809e-01 9.086826816201210022e-03 -1.588828563690185547e-01
-5.518269538879394531e-01 1.056075394153594971e-01 2.419101893901824951e-01
-2.690104246139526367e-01 5.327036231756210327e-02 1.974971443414688110e-01
-5.378908514976501465e-01 -4.017762839794158936e-04 -1.840863227844238281e-01
-6.624745130538940430e-01 3.128625825047492981e-02 8.249647915363311768e-02
-5.164688825607299805e-01 -1.197118312120437622e-03 1.985325217247009277e-01
-7.308724522590637207e-01 9.261868894100189209e-02 -1.528565585613250732e-02
-3.593121469020843506e-01 -1.641002669930458069e-02 3.317333161830902100e-01
-4.794622957706451416e-01 9.753958880901336670e-02 3.366838097572326660e-01
-5.387760400772094727e-01 1.032376438379287720e-01 1.580408215522766113e-01
-3.240730762481689453e-01 -2.897667512297630310e-02 9.002634882926940918e-02
-2.598304748535156250e-01 -2.114458382129669189e-02 3.138877749443054199e-01
-7.266113758087158203e-01 5.773406848311424255e-02 1.634389162063598633e-03
-6.159194111824035645e-01 1.686870120465755463e-02 4.062679409980773926e-02
-4.908380508422851562e-01 9.333671629428863525e-02 1.562597602605819702e-02
-7.036466598510742188e-01 9.840601682662963867e-02 -2.888208627700805664e-02
-7.269998788833618164e-01 6.071667000651359558e-02 1.707920730113983154e-01
-2.258056998252868652e-01 -2.017849683761596680e-02 2.981675863265991211e-01
-5.371416211128234863e-01 1.290002465248107910e-02 -3.935891091823577881e-01
-2.362851053476333618e-01 -1.805889979004859924e-02 3.383265137672424316e-01
-3.877067565917968750e-01 -1.259005442261695862e-02 3.499167859554290771e-01
-6.553297638893127441e-01 8.578842133283615112e-02 -2.212225198745727539e-01
-7.146965861320495605e-01 5.370109528303146362e-02 -8.512218296527862549e-02
-3.766991198062896729e-01 4.010658711194992065e-03 5.492534637451171875e-01
5.670466423034667969e-01 9.367103874683380127e-02 -3.017361164093017578e-01
5.301147103309631348e-01 1.174011379480361938e-01 4.454274773597717285e-01
5.972119569778442383e-01 1.223367974162101746e-01 1.612119376659393311e-02
5.009281039237976074e-01 1.261716932058334351e-01 1.516839116811752319e-01
4.917396306991577148e-01 1.049204245209693909e-01 -2.157004624605178833e-01
3.876093924045562744e-01 9.545439481735229492e-02 3.535643219947814941e-01
4.903405606746673584e-01 -4.440320283174514771e-02 -1.057782024145126343e-01
5.462673306465148926e-01 1.221382021903991699e-01 -5.620238184928894043e-02
5.944073796272277832e-01 -3.812983632087707520e-04 -3.136155009269714355e-01
4.377532601356506348e-01 8.696778863668441772e-02 -2.553082108497619629e-01
5.884242057800292969e-01 1.021029874682426453e-01 -2.350734323263168335e-01
7.155259847640991211e-01 3.133352845907211304e-02 7.462238520383834839e-02
3.576394915580749512e-01 -2.688860148191452026e-02 -6.287485361099243164e-03
3.176634311676025391e-01 4.260549694299697876e-02 1.392516493797302246e-02
4.942165017127990723e-01 1.156540438532829285e-01 4.390299916267395020e-01
3.910820782184600830e-01 -2.959023416042327881e-02 -1.170342415571212769e-01
4.913726150989532471e-01 -7.054910063743591309e-03 -3.570614457130432129e-01
5.389933586120605469e-01 -4.803325980901718140e-02 4.680410027503967285e-03
3.216411769390106201e-01 4.693312942981719971e-02 3.683745265007019043e-01
6.457471251487731934e-01 -1.996167376637458801e-02 -4.283621907234191895e-03
3.206331431865692139e-01 5.870776623487472534e-02 1.670719534158706665e-01
3.367114067077636719e-01 -2.241478487849235535e-02 1.161931306123733521e-01
6.379095911979675293e-01 -2.757587283849716187e-02 1.178833395242691040e-01
5.794789791107177734e-01 -2.804183214902877808e-02 -1.719315499067306519e-01
4.462073743343353271e-01 1.176094487309455872e-01 1.180799156427383423e-01
6.234665513038635254e-01 9.714256227016448975e-02 5.279000997543334961e-01
6.242444515228271484e-01 1.186311617493629456e-01 2.703424096107482910e-01
5.849657058715820312e-01 1.207503229379653931e-01 3.609480261802673340e-01
5.684713125228881836e-01 1.122570857405662537e-01 4.900205731391906738e-01
5.901823043823242188e-01 -1.749002188444137573e-02 5.718151926994323730e-01
5.452388525009155273e-01 -3.005680441856384277e-02 -2.104196101427078247e-01
6.938315033912658691e-01 5.823390185832977295e-02 4.519516825675964355e-01
3.266358375549316406e-01 -8.423130959272384644e-03 2.473235130310058594e-02
3.370672762393951416e-01 3.341438621282577515e-02 5.039011240005493164e-01
6.485017538070678711e-01 1.144302785396575928e-01 1.682758033275604248e-01
5.280403494834899902e-01 -5.152806639671325684e-02 6.996811181306838989e-02
5.390478968620300293e-01 1.941226422786712646e-02 -4.180282354354858398e-01
5.998929142951965332e-01 1.246711462736129761e-01 1.432513594627380371e-01
6.633118987083435059e-01 7.956024259328842163e-02 5.138291716575622559e-01
7.166594266891479492e-01 6.835068762302398682e-02 2.081790417432785034e-01
6.196201443672180176e-01 4.024807363748550415e-03 6.154614686965942383e-01
5.698026418685913086e-01 1.186316013336181641e-01 -9.739147126674652100e-02
7.109158635139465332e-01 6.674010306596755981e-02 -2.832651138305664062e-03
5.908863544464111328e-01 1.139511018991470337e-01 4.453547596931457520e-01
4.094025790691375732e-01 5.801517516374588013e-02 -3.145740032196044922e-01
4.037220478057861328e-01 1.063499152660369873e-01 1.984180212020874023e-01
4.897971451282501221e-01 9.892212599515914917e-02 5.905462503433227539e-01
3.302089869976043701e-01 6.791282445192337036e-02 2.026180028915405273e-01
3.732930421829223633e-01 9.446474909782409668e-02 1.547767370939254761e-01
3.390681147575378418e-01 6.606691330671310425e-02 3.709720969200134277e-01
6.494032740592956543e-01 -2.318284288048744202e-02 1.590835452079772949e-01
3.097848892211914062e-01 3.254104405641555786e-03 1.536557972431182861e-01
4.738898277282714844e-01 1.205420047044754028e-01 3.026868700981140137e-01
5.150052309036254883e-01 -5.405891686677932739e-02 1.839126199483871460e-01
4.199216961860656738e-01 -4.821714013814926147e-02 4.897324740886688232e-02
6.222286224365234375e-01 -2.954645454883575439e-02 3.514602780342102051e-03
5.686514377593994141e-01 -4.354867339134216309e-02 5.636870861053466797e-03
6.254562735557556152e-01 1.081350222229957581e-01 -1.212205439805984497e-01
6.383600234985351562e-01 5.418434739112854004e-05 -2.170647233724594116e-01
6.019473075866699219e-01 1.235546991229057312e-01 7.680893689393997192e-02
3.367193341255187988e-01 6.218260899186134338e-02 -2.531844377517700195e-02
5.637227892875671387e-01 7.185639441013336182e-02 -3.841643929481506348e-01
5.145560503005981445e-01 1.271158605813980103e-01 1.299147307872772217e-01
6.793630123138427734e-01 4.685588553547859192e-02 5.243200659751892090e-01
3.416386246681213379e-01 -2.578134462237358093e-02 2.478647232055664062e-01
6.862217187881469727e-01 -1.646026968955993652e-03 9.112360328435897827e-02
6.899750828742980957e-01 6.343331933021545410e-02 -1.502672880887985229e-01
5.567902922630310059e-01 1.274525672197341919e-01 9.102994203567504883e-02
5.866966843605041504e-01 -2.183202654123306274e-02 -2.080915123224258423e-01
3.627336025238037109e-01 -3.620675206184387207e-02 1.609254777431488037e-01
4.708028733730316162e-01 8.570058643817901611e-02 6.500487327575683594e-01
3.423909842967987061e-01 5.555076152086257935e-02 -1.023833602666854858e-01
4.181093573570251465e-01 2.380234003067016602e-02 -3.595039248466491699e-01
6.200457811355590820e-01 1.214201971888542175e-01 1.653492003679275513e-01
5.477983951568603516e-01 1.270469576120376587e-01 6.447538733482360840e-02
5.850434303283691406e-01 -3.697510063648223877e-02 -5.243611335754394531e-02
4.968969225883483887e-01 9.190485626459121704e-02 -3.052079677581787109e-01
3.411042690277099609e-01 7.580657303333282471e-02 2.329210340976715088e-01
4.519238173961639404e-01 1.161146312952041626e-01 3.186411857604980469e-01
7.130074501037597656e-01 3.344463929533958435e-02 2.935022115707397461e-01
4.461205005645751953e-01 7.168998569250106812e-02 6.813364028930664062e-01
4.458927214145660400e-01 -5.189696699380874634e-02 3.038151264190673828e-01
7.009398341178894043e-01 1.033722423017024994e-02 2.190790921449661255e-01
6.762723922729492188e-01 -8.676011115312576294e-03 2.188585847616195679e-01
3.799701929092407227e-01 9.522640705108642578e-02 2.924222946166992188e-01
5.460851788520812988e-01 8.999663591384887695e-02 -3.272417783737182617e-01
5.071848630905151367e-01 -4.569252580404281616e-02 4.397699236869812012e-01
3.490813970565795898e-01 6.996372342109680176e-02 -5.004981160163879395e-02
3.530139327049255371e-01 8.137544989585876465e-02 6.146218627691268921e-02
5.609782934188842773e-01 -3.394111990928649902e-05 -3.566145300865173340e-01
6.203972101211547852e-01 -3.416249901056289673e-02 1.872676312923431396e-01
5.230306386947631836e-01 -1.551141962409019470e-02 6.673365831375122070e-01
5.372235178947448730e-01 2.060197293758392334e-03 -3.799483776092529297e-01
5.724391341209411621e-01 -1.602863147854804993e-02 6.132501959800720215e-01
4.962904751300811768e-01 8.416697382926940918e-04 7.334307432174682617e-01
6.847597360610961914e-01 1.899466849863529205e-02 -1.264026910066604614e-01
6.541140675544738770e-01 -9.731441736221313477e-03 4.136670231819152832e-01
4.340645074844360352e-01 1.142325028777122498e-01 8.591137826442718506e-02
4.123576879501342773e-01 -2.926643937826156616e-02 5.385105609893798828e-01
4.779755473136901855e-01 1.118491888046264648e-01 -1.292405575513839722e-01
4.556927978992462158e-01 7.148926705121994019e-02 -3.504214882850646973e-01
4.169937670230865479e-01 9.671184420585632324e-02 4.739698767662048340e-01
3.680298924446105957e-01 -3.352308273315429688e-02 3.510704636573791504e-01
3.249512910842895508e-01 -1.213406398892402649e-02 2.900341451168060303e-01
5.355781912803649902e-01 1.248012483119964600e-01 3.225789964199066162e-01
4.383646845817565918e-01 -2.263131365180015564e-02 6.163064241409301758e-01
5.590673089027404785e-01 1.084552630782127380e-01 -2.099596709012985229e-01
5.034745931625366211e-01 -5.405469238758087158e-02 2.534741759300231934e-01
5.217972397804260254e-01 -4.511961340904235840e-02 -7.753539085388183594e-02
4.709089398384094238e-01 9.939385950565338135e-02 -2.315628379583358765e-01
5.379678606986999512e-01 1.199618130922317505e-01 4.118569493293762207e-01
3.847593069076538086e-01 -1.369471848011016846e-02 -2.039390057325363159e-01
4.825249612331390381e-01 -3.366548568010330200e-02 -2.108503431081771851e-01
3.669337630271911621e-01 -1.971173286437988281e-02 -1.145087629556655884e-01
5.359970331192016602e-01 -4.516413062810897827e-02 -5.588516592979431152e-02
6.940863132476806641e-01 4.960708320140838623e-03 2.429584860801696777e-01
4.377740919589996338e-01 -3.772950172424316406e-02 -1.418039351701736450e-01
6.946955323219299316e-01 3.839399665594100952e-03 1.797283589839935303e-01
5.491687059402465820e-01 1.036090701818466187e-01 5.730386376380920410e-01
5.867123603820800781e-01 9.692491963505744934e-03 6.940716505050659180e-01
4.751567840576171875e-01 1.916653662919998169e-02 -4.129542112350463867e-01
6.993566751480102539e-01 8.478952199220657349e-02 2.837309837341308594e-01
4.280087351799011230e-01 -5.120982229709625244e-02 1.115345954895019531e-01
5.151063799858093262e-01 -5.074618756771087646e-02 1.617969572544097900e-02
3.812122344970703125e-01 -3.278598934412002563e-02 -5.202923715114593506e-02
6.452363133430480957e-01 8.587206900119781494e-02 -2.262665182352066040e-01
3.637494444847106934e-01 8.987767249345779419e-02 1.908770352602005005e-01
5.688328742980957031e-01 1.998387277126312256e-02 7.364943027496337891e-01
3.713462054729461670e-01 8.972469717264175415e-02 3.259932994842529297e-01
5.119690299034118652e-01 9.764645993709564209e-02 6.119649410247802734e-01
3.365413844585418701e-01 6.987722218036651611e-02 2.965701818466186523e-01
7.105126380920410156e-01 7.632109522819519043e-02 2.358106970787048340e-01
7.177907228469848633e-01 4.068037867546081543e-02 2.573482692241668701e-01
4.110998213291168213e-01 1.029713526368141174e-01 -2.791590988636016846e-02
6.682254076004028320e-01 2.255402505397796631e-02 5.328347086906433105e-01
4.742869734764099121e-01 -4.831692576408386230e-02 4.103233516216278076e-01
3.307198882102966309e-01 1.011819019913673401e-02 -9.259773790836334229e-02
5.215602517127990723e-01 4.331476986408233643e-03 7.377589344978332520e-01
6.831978559494018555e-01 2.001127228140830994e-02 4.585770964622497559e-01
4.515273272991180420e-01 7.929132878780364990e-02 -3.160246014595031738e-01
6.146622300148010254e-01 1.207034066319465637e-01 4.556151479482650757e-02
3.956184387207031250e-01 -3.575486689805984497e-02 4.410900473594665527e-01
5.951098203659057617e-01 1.212805956602096558e-01 3.276957869529724121e-01
4.989882707595825195e-01 -3.941240161657333374e-02 -1.600315123796463013e-01
5.864498019218444824e-01 5.450034141540527344e-02 -3.971452713012695312e-01
6.632541418075561523e-01 1.072731912136077881e-01 4.407268762588500977e-02
4.757707715034484863e-01 -5.186139792203903198e-02 1.982359588146209717e-02
5.467829108238220215e-01 -1.884524524211883545e-02 -2.849096059799194336e-01
3.821325898170471191e-01 7.985542714595794678e-02 4.947205185890197754e-01
6.828391551971435547e-01 9.541584551334381104e-02 1.509055495262145996e-03
4.712250232696533203e-01 1.225174367427825928e-01 1.754812598228454590e-01
5.345411300659179688e-01 1.269978433847427368e-01 2.542046606540679932e-01
6.658654212951660156e-01 3.151268139481544495e-02 -2.407792061567306519e-01
4.246214628219604492e-01 3.297274932265281677e-02 7.259687185287475586e-01
5.926477313041687012e-01 1.074381694197654724e-01 5.064854621887207031e-01
4.821113049983978271e-01 -5.488019436597824097e-02 1.279616057872772217e-01
6.253746151924133301e-01 9.025162458419799805e-02 5.640203952789306641e-01
7.215433716773986816e-01 5.439470708370208740e-02 1.753016412258148193e-01
4.603087902069091797e-01 -5.447272956371307373e-02 2.277856022119522095e-01
4.198233485221862793e-01 -2.236677706241607666e-02 -2.296487540006637573e-01
5.973674654960632324e-01 8.139830827713012695e-02 6.486645340919494629e-01
4.614392220973968506e-01 1.081232056021690369e-01 4.726831316947937012e-01
5.950243473052978516e-01 1.236211955547332764e-01 2.680743634700775146e-01
4.367372989654541016e-01 1.041423529386520386e-01 -1.163715869188308716e-01
4.187280237674713135e-01 -4.736436903476715088e-02 3.371527194976806641e-01
3.232839107513427734e-01 2.085168287158012390e-02 4.366396665573120117e-01
6.279146671295166016e-01 6.811495125293731689e-02 6.395375728607177734e-01
6.870012283325195312e-01 7.577509433031082153e-02 4.337942600250244141e-01
4.552392661571502686e-01 1.196244731545448303e-01 1.994922757148742676e-01
6.183468103408813477e-01 8.174271881580352783e-02 -2.979359030723571777e-01
5.933707952499389648e-01 -3.771642595529556274e-02 -3.433078527450561523e-03
6.406220793724060059e-01 -2.528020367026329041e-02 2.679247856140136719e-01
3.461366891860961914e-01 -9.891476482152938843e-03 -8.969648182392120361e-02
5.486389398574829102e-01 -2.609810978174209595e-02 5.841532945632934570e-01
6.522502303123474121e-01 9.858150780200958252e-02 -1.267084330320358276e-01
3.749942183494567871e-01 -2.673146128654479980e-02 -8.904556930065155029e-02
4.713126420974731445e-01 -5.432780832052230835e-02 2.609291672706604004e-01
5.058363676071166992e-01 -5.256472527980804443e-02 5.108028650283813477e-02
4.572627544403076172e-01 -4.371484369039535522e-02 4.640145301818847656e-01
5.021221637725830078e-01 1.195809543132781982e-01 -6.514504551887512207e-02
7.076867818832397461e-01 4.239750280976295471e-02 -5.880902707576751709e-02
4.966005086898803711e-01 1.256613433361053467e-01 1.932968050241470337e-01
3.067901730537414551e-01 3.642676770687103271e-02 1.920412480831146240e-01
6.149660944938659668e-01 1.185607984662055969e-01 -6.643369793891906738e-03
5.844248533248901367e-01 -4.402219504117965698e-02 1.715734750032424927e-01
6.799053549766540527e-01 1.968935132026672363e-03 -3.882123529911041260e-02
6.507365107536315918e-01 1.077988669276237488e-01 3.406732082366943359e-01
5.246452093124389648e-01 -1.850102469325065613e-02 -3.021602034568786621e-01
5.118958950042724609e-01 1.141565069556236267e-01 4.752082824707031250e-01
3.423084318637847900e-01 6.390713155269622803e-02 4.131947159767150879e-01
5.794870853424072266e-01 1.248491257429122925e-01 3.453810513019561768e-02
4.876363277435302734e-01 -1.430600136518478394e-02 6.812713146209716797e-01
5.421970486640930176e-01 -3.565485775470733643e-02 -1.643076092004776001e-01
5.130016803741455078e-01 -4.046942293643951416e-02 4.983708262443542480e-01
3.752291202545166016e-01 9.247768670320510864e-02 4.308807849884033203e-02
7.138797044754028320e-01 4.763343185186386108e-02 3.207751214504241943e-01
6.382520198822021484e-01 7.907786965370178223e-02 -2.700165510177612305e-01
3.349215388298034668e-01 6.922024488449096680e-02 7.583430409431457520e-02
4.432429373264312744e-01 -5.190230906009674072e-02 7.112513482570648193e-02
5.613891482353210449e-01 -3.742741048336029053e-02 4.604817628860473633e-01
7.000547051429748535e-01 1.563597843050956726e-02 5.579605698585510254e-03
6.485114097595214844e-01 -3.548629581928253174e-03 4.895834922790527344e-01
6.034416556358337402e-01 1.025002002716064453e-01 -2.129859477281570435e-01
4.603651762008666992e-01 4.989396780729293823e-03 7.330557107925415039e-01
5.887073874473571777e-01 -3.520560264587402344e-02 4.093289971351623535e-01
3.165218830108642578e-01 5.341982096433639526e-02 2.190487682819366455e-01
3.587186634540557861e-01 2.836863324046134949e-02 5.899685621261596680e-01
3.243647813796997070e-01 -1.128997281193733215e-02 8.241535723209381104e-02
3.363844752311706543e-01 5.414335057139396667e-02 -7.416918873786926270e-02
4.880200624465942383e-01 1.217210814356803894e-01 7.660001516342163086e-03
7.204336524009704590e-01 4.396036639809608459e-02 9.690606594085693359e-02
5.346242189407348633e-01 -2.353486046195030212e-02 6.159746050834655762e-01
5.016459226608276367e-01 1.001910418272018433e-01 -2.594834566116333008e-01
5.156397819519042969e-01 -4.679462313652038574e-02 4.151349961757659912e-01
3.647298216819763184e-01 6.053503975272178650e-02 -1.821350008249282837e-01
6.412379741668701172e-01 1.072605252265930176e-01 3.905970454216003418e-01
3.110752105712890625e-01 2.263884060084819794e-02 3.381993472576141357e-01
5.823473334312438965e-01 9.829863905906677246e-02 -2.652080059051513672e-01
6.618613004684448242e-01 -1.446438953280448914e-02 2.902277708053588867e-01
5.070336461067199707e-01 -3.635722398757934570e-02 5.418981909751892090e-01
5.721383094787597656e-01 1.126424297690391541e-01 -1.644236594438552856e-01
5.781202912330627441e-01 1.202398464083671570e-01 -6.475108861923217773e-02
4.536963999271392822e-01 1.166109666228294373e-01 1.977950334548950195e-02
3.264780044555664062e-01 -9.165309369564056396e-03 3.431775271892547607e-01
4.932686984539031982e-01 1.210566684603691101e-01 3.495773077011108398e-01
6.707571744918823242e-01 9.284388273954391479e-02 4.063436388969421387e-01
4.670386612415313721e-01 -4.306562989950180054e-02 -1.154264658689498901e-01
7.199047803878784180e-01 6.239407137036323547e-02 1.368461996316909790e-01
3.554652333259582520e-01 -1.486389711499214172e-02 4.746248126029968262e-01
4.267188906669616699e-01 8.034092187881469727e-02 6.138148307800292969e-01
5.640569925308227539e-01 1.274896413087844849e-01 2.064980715513229370e-01
3.930338621139526367e-01 8.844508975744247437e-02 4.664850234985351562e-01
5.047917366027832031e-01 2.740246057510375977e-02 -4.310692548751831055e-01
5.543781518936157227e-01 -1.223024725914001465e-02 6.567002534866333008e-01
6.532669663429260254e-01 3.344679996371269226e-02 -2.810047864913940430e-01
5.680822134017944336e-01 4.990478605031967163e-02 -4.158337116241455078e-01
5.791467428207397461e-01 1.265086233615875244e-01 1.048629134893417358e-01
3.096805810928344727e-01 4.629291594028472900e-03 2.445982843637466431e-01
6.643202900886535645e-01 5.624203756451606750e-02 -2.550789117813110352e-01
3.647034764289855957e-01 4.467464238405227661e-02 -2.283616811037063599e-01
6.021473407745361328e-01 -8.800577372312545776e-03 5.968438386917114258e-01
4.444397985935211182e-01 -4.820688068866729736e-02 -1.812951266765594482e-02
6.106871962547302246e-01 1.071026362478733063e-02 6.566425561904907227e-01
3.435927033424377441e-01 7.186277210712432861e-02 3.465341925621032715e-01
4.333843588829040527e-01 9.465006738901138306e-02 5.367711782455444336e-01
3.816090226173400879e-01 7.096132636070251465e-02 5.485165119171142578e-01
3.976035714149475098e-01 -3.982231020927429199e-02 -2.428026497364044189e-02
6.478863358497619629e-01 1.134440973401069641e-01 6.765051931142807007e-02
6.458441019058227539e-01 -2.466974407434463501e-02 1.859108209609985352e-01
6.121661663055419922e-01 -8.558966219425201416e-04 -2.788858413696289062e-01
5.039501190185546875e-01 1.186441928148269653e-01 4.096121490001678467e-01
3.235328793525695801e-01 3.692636638879776001e-02 -5.397884547710418701e-02
7.003596425056457520e-01 8.819393813610076904e-02 9.956894814968109131e-02
4.584255218505859375e-01 -6.022829562425613403e-03 -3.456797003746032715e-01
5.436403751373291016e-01 -3.960658609867095947e-02 -1.195020228624343872e-01
4.088596105575561523e-01 -4.818402230739593506e-02 2.595707178115844727e-01
5.848848223686218262e-01 7.347413897514343262e-02 6.888391971588134766e-01
4.708296060562133789e-01 1.154789254069328308e-01 -6.459718942642211914e-02
4.325800538063049316e-01 1.126102134585380554e-01 4.234661161899566650e-02
7.027695775032043457e-01 6.992152333259582520e-02 3.653039336204528809e-01
3.704351782798767090e-01 -3.912848979234695435e-02 1.854154914617538452e-01
4.759989976882934570e-01 -5.329374969005584717e-02 3.041245937347412109e-01
4.640212953090667725e-01 -3.716775029897689819e-02 -1.735327392816543579e-01
6.351621150970458984e-01 3.633571043610572815e-02 -3.270161747932434082e-01
3.939689695835113525e-01 -4.583059996366500854e-02 1.958050727844238281e-01
4.683438837528228760e-01 7.335866987705230713e-02 6.991029381752014160e-01
7.164093255996704102e-01 5.759632587432861328e-02 2.583505213260650635e-02
4.635181427001953125e-01 4.818252846598625183e-02 -4.072264432907104492e-01
5.543188452720642090e-01 -4.872442781925201416e-02 8.839203417301177979e-02
5.368955135345458984e-01 4.272414743900299072e-02 7.697042226791381836e-01
4.593488276004791260e-01 1.153735145926475525e-01 3.650405406951904297e-01
4.209354519844055176e-01 -5.075301975011825562e-02 2.242872118949890137e-01
4.646254479885101318e-01 -3.797157853841781616e-02 5.283898711204528809e-01
4.347510635852813721e-01 1.068098619580268860e-01 -7.678107917308807373e-02
4.708613753318786621e-01 9.548053890466690063e-02 -2.581515312194824219e-01
4.008902311325073242e-01 1.028753817081451416e-01 3.050571382045745850e-01
3.119151592254638672e-01 6.929932162165641785e-03 6.875248998403549194e-02
6.451143026351928711e-01 1.138090789318084717e-01 2.553535699844360352e-01
3.328835964202880859e-01 1.027512177824974060e-02 4.762312769889831543e-01
4.391436278820037842e-01 -3.821467608213424683e-02 5.044886469841003418e-01
6.127380132675170898e-01 1.054519265890121460e-01 4.885115623474121094e-01
4.119614958763122559e-01 1.395014859735965729e-02 6.994135379791259766e-01
3.669968843460083008e-01 -3.736249357461929321e-02 2.448026835918426514e-01
4.535115063190460205e-01 1.016487628221511841e-01 5.208716988563537598e-01
6.782881617546081543e-01 8.164778351783752441e-02 -1.372234076261520386e-01
6.464572548866271973e-01 3.985619544982910156e-02 -3.044301271438598633e-01
6.578801870346069336e-01 1.109876260161399841e-01 1.043931618332862854e-01
4.368757307529449463e-01 -4.589454829692840576e-02 -4.247759282588958740e-02
4.166577160358428955e-01 5.213198438286781311e-02 6.929722428321838379e-01
5.893166661262512207e-01 9.754732251167297363e-02 5.816093087196350098e-01
6.225280761718750000e-01 -2.679517120122909546e-02 -4.200248420238494873e-02
3.916142582893371582e-01 8.043972402811050415e-02 -1.741318851709365845e-01
4.682673513889312744e-01 -2.274215593934059143e-02 6.364370584487915039e-01
4.751838147640228271e-01 1.089048981666564941e-01 -1.564319580793380737e-01
4.514560401439666748e-01 -4.594133794307708740e-02 -6.450043618679046631e-02
3.916102051734924316e-01 2.467926591634750366e-02 6.725500822067260742e-01
6.693722605705261230e-01 1.069257631897926331e-01 1.398118734359741211e-01
5.068947076797485352e-01 5.644942820072174072e-02 7.595415711402893066e-01
6.646211147308349609e-01 8.468696475028991699e-02 4.850631952285766602e-01
6.015935540199279785e-01 -2.771298587322235107e-02 4.567826390266418457e-01
6.326169371604919434e-01 -2.918419241905212402e-02 2.398315668106079102e-01
6.440613865852355957e-01 1.115443333983421326e-01 3.150322437286376953e-01
4.861821234226226807e-01 -4.479924589395523071e-02 4.607992768287658691e-01
4.603118598461151123e-01 1.030000820755958557e-01 -1.851184517145156860e-01
5.744193196296691895e-01 -4.599852114915847778e-02 2.068667709827423096e-01
3.518649041652679443e-01 8.237165957689285278e-02 1.066859513521194458e-01
4.178238213062286377e-01 9.614571928977966309e-02 -1.384479850530624390e-01
4.465132057666778564e-01 1.170546337962150574e-01 2.527357339859008789e-01
4.282775521278381348e-01 1.095396280288696289e-01 -3.477007150650024414e-03
5.998011827468872070e-01 -3.975959867238998413e-02 2.327771782875061035e-01
4.880322515964508057e-01 1.231267750263214111e-01 2.808693647384643555e-01
3.057925999164581299e-01 1.345316506922245026e-02 2.185797095298767090e-01
3.115174770355224609e-01 1.802934147417545319e-02 3.369741141796112061e-02
3.784569501876831055e-01 6.192116066813468933e-02 5.799872875213623047e-01
6.221131086349487305e-01 1.202843561768531799e-01 2.265713512897491455e-01
4.176295995712280273e-01 -4.893083870410919189e-02 2.897338867187500000e-01
5.420217514038085938e-01 8.226245641708374023e-02 -3.596444725990295410e-01
5.455973148345947266e-01 -5.064736306667327881e-02 2.245503813028335571e-01
5.895749330520629883e-01 7.979843765497207642e-02 -3.417646884918212891e-01
4.476447105407714844e-01 -4.947175830602645874e-02 3.662611842155456543e-01
3.857978880405426025e-01 1.340700127184391022e-02 -2.884076833724975586e-01
6.208483576774597168e-01 -3.073877096176147461e-02 3.192557096481323242e-01
5.617622137069702148e-01 1.080247089266777039e-01 5.330806970596313477e-01
3.632098138332366943e-01 8.926783502101898193e-02 1.307776272296905518e-01
6.388326883316040039e-01 -2.493519335985183716e-02 2.971333861351013184e-01
3.710312843322753906e-01 4.728980362415313721e-03 6.017711162567138672e-01
4.635090529918670654e-01 -5.211715400218963623e-02 3.284087181091308594e-01
5.463275909423828125e-01 -3.381917625665664673e-02 5.257388949394226074e-01
6.069569587707519531e-01 -2.176796272397041321e-02 4.971183538436889648e-01
5.405856370925903320e-01 -3.931312263011932373e-02 4.786968231201171875e-01
7.118620872497558594e-01 2.285817638039588928e-02 1.083677262067794800e-01
5.193858146667480469e-01 -4.846261441707611084e-02 3.815961778163909912e-01
5.464507341384887695e-01 -5.082299560308456421e-02 1.783890575170516968e-01
6.220961213111877441e-01 1.072741225361824036e-01 4.505549073219299316e-01
6.443162560462951660e-01 6.865614652633666992e-02 6.027745008468627930e-01
3.339828252792358398e-01 -2.182577550411224365e-02 1.718132048845291138e-01
6.275330781936645508e-01 -1.711170002818107605e-02 -1.326073557138442993e-01
4.120620787143707275e-01 6.423673778772354126e-02 6.529891490936279297e-01
6.338289380073547363e-01 1.009811460971832275e-01 4.751108288764953613e-01
4.761208891868591309e-01 -5.284465849399566650e-02 4.525227844715118408e-02
7.098711729049682617e-01 2.586781606078147888e-02 3.035570681095123291e-02
7.085630297660827637e-01 3.443854302167892456e-02 -3.147754073143005371e-02
4.430866241455078125e-01 9.155414998531341553e-02 5.787770748138427734e-01
4.158415496349334717e-01 -4.133424907922744751e-02 -6.001625955104827881e-02
