9.556446224451065063e-02 1.152477338910102844e-01 6.724456548690795898e-01
1.489650644361972809e-02 1.278633475303649902e-01 4.151012301445007324e-01
-9.929749369621276855e-02 4.556427150964736938e-02 -3.916873931884765625e-01
-2.350794076919555664e-01 1.153669357299804688e-01 4.366474151611328125e-01
-6.631759554147720337e-02 1.014277189970016479e-01 -8.602476716041564941e-01
-1.998300403356552124e-01 1.240676939487457275e-01 2.506880164146423340e-01
-3.582280576229095459e-01 7.307437062263488770e-02 -7.643004506826400757e-02
-1.626136898994445801e-01 4.374275356531143188e-02 -3.767947107553482056e-02
2.717669904232025146e-01 5.209130048751831055e-02 1.044398844242095947e-01
-2.626501023769378662e-01 5.614741146564483643e-02 3.033618330955505371e-01
-2.851966954767704010e-02 7.097753137350082397e-02 -8.664233684539794922e-01
-4.083900898694992065e-02 1.329922974109649658e-01 -1.051939204335212708e-01
1.385241933166980743e-02 4.179045930504798889e-02 -3.251394927501678467e-01
-1.174296140670776367e-01 1.275801062583923340e-01 3.279542326927185059e-01
-2.364917993545532227e-01 5.215356498956680298e-02 -2.407975792884826660e-01
2.963974475860595703e-01 1.063325405120849609e-01 -4.523541033267974854e-01
8.677291125059127808e-02 1.287270933389663696e-01 -3.622859716415405273e-01
1.219693273305892944e-01 4.063585400581359863e-02 -2.065689489245414734e-02
-2.271053045988082886e-01 1.034101024270057678e-01 6.489532589912414551e-01
-1.895391196012496948e-01 1.051333174109458923e-01 6.985530853271484375e-01
-3.249358236789703369e-01 1.099403724074363708e-01 7.940620929002761841e-02
-5.781687423586845398e-02 1.117874458432197571e-01 -7.689720988273620605e-01
-3.096309304237365723e-01 7.215944677591323853e-02 4.481333792209625244e-01
9.200538694858551025e-02 1.287056952714920044e-01 3.150142729282379150e-01
1.265107095241546631e-01 5.047956854104995728e-02 -5.363736748695373535e-01
9.651001542806625366e-02 5.109788104891777039e-02 5.918224453926086426e-01
-1.162418723106384277e-01 6.754978746175765991e-02 -7.876598834991455078e-01
2.205236405134201050e-01 1.107376739382743835e-01 -6.000422835350036621e-01
-2.236282229423522949e-01 6.168720871210098267e-02 5.703710317611694336e-01
1.595643907785415649e-01 1.281456947326660156e-01 -1.987221837043762207e-01
3.021908998489379883e-01 6.399869918823242188e-02 -4.026887118816375732e-01
-3.272278606891632080e-02 4.526115581393241882e-02 -4.507369995117187500e-01
2.819570899009704590e-01 9.939621388912200928e-02 -5.877924561500549316e-01
-3.514061272144317627e-01 9.348759800195693970e-02 3.013963401317596436e-01
2.312890589237213135e-01 1.200426965951919556e-01 2.976649403572082520e-01
4.567011073231697083e-02 1.085046827793121338e-01 -8.156122565269470215e-01
-8.256153762340545654e-02 1.064725071191787720e-01 -8.118215203285217285e-01
-8.483944833278656006e-02 9.738781303167343140e-02 8.628299832344055176e-01
9.741827845573425293e-02 9.715195745229721069e-02 -8.753392100334167480e-01
-2.387528270483016968e-01 4.995043948292732239e-02 -3.078052541241049767e-03
2.255898416042327881e-01 1.233481243252754211e-01 1.432819217443466187e-01
-5.882610008120536804e-02 1.310331225395202637e-01 -2.709666788578033447e-01
2.956372797489166260e-01 1.116843074560165405e-01 -3.301774859428405762e-01
-2.294877618551254272e-01 1.218496114015579224e-01 -2.405743002891540527e-01
1.639274209737777710e-01 5.967710912227630615e-02 6.666774153709411621e-01
2.684942483901977539e-01 1.185872852802276611e-01 -1.980154067277908325e-01
4.530745744705200195e-02 3.879370912909507751e-02 6.265656650066375732e-02
3.214855492115020752e-02 1.331528276205062866e-01 -9.326157718896865845e-02
-2.241310775279998779e-01 1.151122003793716431e-01 4.744082093238830566e-01
1.737819612026214600e-01 5.363984405994415283e-02 -5.406529307365417480e-01
-3.346254825592041016e-01 8.819088339805603027e-02 4.218651652336120605e-01
1.590437144041061401e-01 5.042421072721481323e-02 -4.865998029708862305e-01
-2.109771035611629486e-02 3.874195367097854614e-02 6.070801988244056702e-02
-1.730897724628448486e-01 1.282698065042495728e-01 -3.027508407831192017e-02
7.221736013889312744e-02 1.316724419593811035e-01 -2.009751498699188232e-01
3.023968636989593506e-01 5.584494769573211670e-02 1.670232787728309631e-02
7.195479422807693481e-02 1.322124600410461426e-01 -1.394093781709671021e-01
1.407221257686614990e-01 1.300417184829711914e-01 -7.173128426074981689e-02
-2.656554281711578369e-01 6.709738820791244507e-02 -5.165774822235107422e-01
-1.995621025562286377e-01 1.097959056496620178e-01 -6.344308853149414062e-01
4.110032692551612854e-02 4.038546234369277954e-02 2.545953989028930664e-01
1.503706537187099457e-02 4.760044813156127930e-02 5.497303605079650879e-01
1.224505081772804260e-01 4.170467704534530640e-02 1.969098895788192749e-01
4.570053890347480774e-02 9.253939241170883179e-02 -9.128299355506896973e-01
2.831062115728855133e-02 3.869571536779403687e-02 -5.607168748974800110e-02
-2.815921306610107422e-01 1.141949295997619629e-01 2.778791487216949463e-01
-5.421916395425796509e-02 1.294628232717514038e-01 3.304949700832366943e-01
2.761844694614410400e-01 5.408284813165664673e-02 2.126911878585815430e-01
9.766560047864913940e-02 1.260240823030471802e-01 -4.551286399364471436e-01
1.594910025596618652e-01 1.247131675481796265e-01 -3.901700675487518311e-01
-1.308279782533645630e-01 1.247918009757995605e-01 4.130914211273193359e-01
2.328394204378128052e-01 4.828682914376258850e-02 -1.418585926294326782e-01
-1.234884783625602722e-01 1.258109062910079956e-01 -4.147001802921295166e-01
-9.419327229261398315e-02 7.159430533647537231e-02 -8.381469845771789551e-01
-1.099549978971481323e-01 1.314167678356170654e-01 -5.485532805323600769e-02
1.150994300842285156e-01 4.724669829010963440e-02 -4.606610536575317383e-01
-2.404717803001403809e-01 1.155712679028511047e-01 -4.252531826496124268e-01
-7.152777910232543945e-02 4.050147905945777893e-02 -1.609708517789840698e-01
-1.480974629521369934e-02 4.563076421618461609e-02 4.911129176616668701e-01
2.981274425983428955e-01 1.139727383852005005e-01 1.782257109880447388e-01
-1.736364364624023438e-01 1.259345412254333496e-01 -2.771152853965759277e-01
2.138363718986511230e-01 1.164235025644302368e-01 -5.055540800094604492e-01
-9.563073515892028809e-02 1.217557638883590698e-01 5.465432405471801758e-01
-6.794873625040054321e-02 1.326703727245330811e-01 2.699538692831993103e-02
-3.021654300391674042e-02 1.182190477848052979e-01 -6.845287084579467773e-01
-5.057289730757474899e-03 3.855414688587188721e-02 1.117493212223052979e-02
3.350335955619812012e-01 6.228682771325111389e-02 9.205487370491027832e-02
1.135067548602819443e-03 4.291181638836860657e-02 3.966919481754302979e-01
-6.753765046596527100e-02 1.213030070066452026e-01 -6.054291725158691406e-01
4.694864526391029358e-02 4.341327026486396790e-02 4.059401154518127441e-01
-4.723113775253295898e-02 6.868223845958709717e-02 8.504413366317749023e-01
-1.584640145301818848e-01 1.245428025722503662e-01 3.644764423370361328e-01
-1.652729362249374390e-01 5.070387944579124451e-02 4.623798727989196777e-01
-2.288840524852275848e-02 4.149988293647766113e-02 -2.993418872356414795e-01
9.473548084497451782e-02 4.473614692687988281e-02 4.132490754127502441e-01
1.587264090776443481e-01 5.676510930061340332e-02 -6.261730194091796875e-01
1.927768290042877197e-01 1.159754171967506409e-01 -5.629505515098571777e-01
-3.329772651195526123e-01 1.084102168679237366e-01 3.637987002730369568e-02
-1.180089637637138367e-01 1.246007904410362244e-01 -4.650163352489471436e-01
2.988576143980026245e-02 6.535083800554275513e-02 8.291788101196289062e-01
-3.682810962200164795e-01 7.914587110280990601e-02 1.220473349094390869e-01
1.852469295263290405e-01 4.842427372932434082e-02 -3.650622069835662842e-01
-8.831940591335296631e-03 1.334405243396759033e-01 -4.938491806387901306e-02
-1.256446689367294312e-01 1.105493977665901184e-01 7.170134782791137695e-01
-1.204023286700248718e-01 4.848445579409599304e-02 -4.567271471023559570e-01
3.803525492548942566e-02 1.325357854366302490e-01 -1.769394278526306152e-01
1.528202444314956665e-01 1.277532279491424561e-01 2.147024273872375488e-01
-6.290986388921737671e-02 3.961258754134178162e-02 -7.295542955398559570e-02
7.507017254829406738e-02 1.322440654039382935e-01 8.068200945854187012e-02
2.554096877574920654e-01 9.956531971693038940e-02 -6.535717248916625977e-01
-1.853949129581451416e-01 1.259815692901611328e-01 2.007245719432830811e-01
1.648820787668228149e-01 1.271763145923614502e-01 -2.492846548557281494e-01
1.155386585742235184e-02 1.169568002223968506e-01 6.833587884902954102e-01
1.530967652797698975e-01 1.256847679615020752e-01 3.240168988704681396e-01
-2.837765216827392578e-01 1.157849580049514771e-01 -1.994731873273849487e-01
7.979134470224380493e-02 1.309408396482467651e-01 -2.459072768688201904e-01
1.875757277011871338e-01 7.208178937435150146e-02 7.585170269012451172e-01
1.866529881954193115e-02 1.327801346778869629e-01 1.311515420675277710e-01
1.125501394271850586e-01 5.796550214290618896e-02 7.006908655166625977e-01
-7.292893249541521072e-03 1.291478872299194336e-01 3.662767708301544189e-01
2.157377749681472778e-01 1.179935634136199951e-01 -4.607721269130706787e-01
2.788423001766204834e-01 1.180975735187530518e-01 -1.225768178701400757e-01
2.397442609071731567e-01 5.813602358102798462e-02 4.899417161941528320e-01
3.776457309722900391e-01 8.740611374378204346e-02 -2.005951553583145142e-01
-2.920330166816711426e-01 1.025865375995635986e-01 4.849639236927032471e-01
1.865646988153457642e-01 5.684388056397438049e-02 -5.843760371208190918e-01
-1.011826992034912109e-01 4.349051043391227722e-02 -2.967911064624786377e-01
2.041212171316146851e-01 1.095239818096160889e-01 6.157743334770202637e-01
-8.741378039121627808e-02 4.219886288046836853e-02 2.800298631191253662e-01
3.244630694389343262e-01 1.071830242872238159e-01 -2.907367646694183350e-01
3.210880979895591736e-02 4.358397051692008972e-02 -4.007195532321929932e-01
-5.541238188743591309e-02 1.176621317863464355e-01 6.597869992256164551e-01
2.665975391864776611e-01 5.335202440619468689e-02 -2.416810691356658936e-01
2.226506546139717102e-02 5.420577898621559143e-02 6.888886094093322754e-01
3.112646341323852539e-01 5.852376669645309448e-02 -1.665955781936645508e-01
3.582477271556854248e-01 1.021797135472297668e-01 8.958227187395095825e-02
1.830064505338668823e-01 4.390677809715270996e-02 -7.260373234748840332e-02
-1.304214745759963989e-01 4.521801695227622986e-02 3.422560393810272217e-01
1.073561832308769226e-01 1.114240735769271851e-01 7.192271947860717773e-01
1.495815217494964600e-01 4.594378545880317688e-02 3.648938834667205811e-01
1.471586227416992188e-01 9.966826438903808594e-02 7.973752021789550781e-01
1.060385406017303467e-01 5.474349111318588257e-02 6.548046469688415527e-01
-2.982274591922760010e-01 1.091746315360069275e-01 3.412244021892547607e-01
2.851290702819824219e-01 1.174106746912002563e-01 5.521003529429435730e-02
-6.554578244686126709e-02 3.952481225132942200e-02 5.998063459992408752e-02
-7.371827960014343262e-02 1.321739852428436279e-01 -1.361924707889556885e-01
-3.146367967128753662e-01 1.096101403236389160e-01 -2.270992547273635864e-01
2.309566438198089600e-01 1.186563670635223389e-01 -3.927820920944213867e-01
-1.780981272459030151e-01 9.996706992387771606e-02 7.599119544029235840e-01
5.084998533129692078e-02 1.067906767129898071e-01 8.071920871734619141e-01
-1.624419167637825012e-02 1.332637667655944824e-01 6.031220778822898865e-02
2.902947962284088135e-01 1.169301569461822510e-01 -8.186616003513336182e-03
7.625837624073028564e-02 4.256112873554229736e-02 3.435644209384918213e-01
-1.832899600267410278e-01 5.821435898542404175e-02 -5.743713378906250000e-01
-8.061497658491134644e-02 4.343192279338836670e-02 -3.314513564109802246e-01
-2.092982977628707886e-01 5.057767033576965332e-02 -2.976567149162292480e-01
3.385075330734252930e-01 7.396521419286727905e-02 3.746048808097839355e-01
-1.695086956024169922e-01 5.142861977219581604e-02 -4.475803375244140625e-01
9.910335391759872437e-02 1.212653443217277527e-01 5.506116151809692383e-01
5.355368927121162415e-02 1.124356985092163086e-01 7.403753995895385742e-01
-3.105181455612182617e-01 1.123446822166442871e-01 -1.285619884729385376e-01
2.474783211946487427e-01 1.221705377101898193e-01 -1.082549616694450378e-02
3.077985942363739014e-01 5.704868584871292114e-02 -9.252990782260894775e-02
-8.698051422834396362e-02 1.231057047843933105e-01 -5.462936758995056152e-01
1.849839538335800171e-01 1.022830754518508911e-01 -7.587464451789855957e-01
-7.159866392612457275e-02 5.540989339351654053e-02 -6.679891347885131836e-01
-3.660429120063781738e-01 9.706722944974899292e-02 5.534816533327102661e-02
-4.234884306788444519e-02 4.680677875876426697e-02 -4.936091303825378418e-01
9.521359950304031372e-02 4.901280254125595093e-02 5.438927412033081055e-01
-1.705076247453689575e-01 6.756471097469329834e-02 7.393958568572998047e-01
1.923716068267822266e-01 4.433999583125114441e-02 4.648803733289241791e-04
5.644222721457481384e-02 1.309779286384582520e-01 -2.808721661567687988e-01
3.058770298957824707e-01 1.002023518085479736e-01 4.687392711639404297e-01
-1.155744716525077820e-01 4.178771376609802246e-02 1.585537642240524292e-01
-1.877473145723342896e-01 5.009540542960166931e-02 3.837933838367462158e-01
-1.529548615217208862e-01 4.325169324874877930e-02 9.221362322568893433e-02
6.622980814427137375e-03 5.074364691972732544e-02 -6.085307002067565918e-01
-3.310062587261199951e-01 1.076887995004653931e-01 1.436034888029098511e-01
2.996967732906341553e-01 9.137560427188873291e-02 5.568702816963195801e-01
-2.977813128381967545e-03 1.326351314783096313e-01 -1.910806000232696533e-01
2.446805983781814575e-01 5.459365248680114746e-02 3.872408568859100342e-01
-3.003766946494579315e-02 4.811747372150421143e-02 5.564934611320495605e-01
-1.381525248289108276e-01 1.261303573846817017e-01 -3.723594844341278076e-01
-2.183499634265899658e-01 8.406995236873626709e-02 7.480812668800354004e-01
-2.150263786315917969e-01 5.472406744956970215e-02 -4.199204444885253906e-01
2.113343328237533569e-01 1.080318838357925415e-01 -6.571695804595947266e-01
-2.219444811344146729e-01 1.159907430410385132e-01 -4.723705053329467773e-01
8.314203470945358276e-02 1.230781301856040955e-01 -5.572225451469421387e-01
-2.271956764161586761e-02 1.322700679302215576e-01 1.812545806169509888e-01
1.243799179792404175e-01 4.724200442433357239e-02 4.584314823150634766e-01
2.902161180973052979e-01 5.590825900435447693e-02 -2.094312161207199097e-01
1.261709332466125488e-01 1.237939596176147461e-01 4.474694132804870605e-01
-1.931814998388290405e-01 1.266982406377792358e-01 6.620674580335617065e-02
-6.334313657134771347e-03 1.268119513988494873e-01 -4.864296317100524902e-01
3.379625268280506134e-04 1.311464309692382812e-01 -3.029798269271850586e-01
-2.216924279928207397e-01 6.021618843078613281e-02 -5.261839032173156738e-01
-2.008891999721527100e-01 1.263028830289840698e-01 -1.918776892125606537e-03
-2.844844162464141846e-01 5.763922631740570068e-02 -1.969852149486541748e-01
-2.266009598970413208e-01 1.112570762634277344e-01 5.447126030921936035e-01
-2.761271297931671143e-01 1.013221666216850281e-01 -5.502565503120422363e-01
-2.118174880743026733e-01 1.205006092786788940e-01 -3.756123781204223633e-01
2.003978192806243896e-01 1.223257631063461304e-01 3.227799236774444580e-01
-6.833036243915557861e-02 5.927085876464843750e-02 7.452826499938964844e-01
-9.321668744087219238e-02 4.060633853077888489e-02 1.175111383199691772e-01
-7.386612147092819214e-02 1.065934374928474426e-01 8.003950715065002441e-01
1.038249060511589050e-01 4.152632132172584534e-02 -2.213431298732757568e-01
1.286482363939285278e-01 1.257414817810058594e-01 3.764918446540832520e-01
1.150077730417251587e-01 4.074544832110404968e-02 -1.077031046152114868e-01
-2.469380944967269897e-01 1.196707040071487427e-01 2.414160668849945068e-01
1.638238579034805298e-01 6.901752948760986328e-02 -7.740650177001953125e-01
2.240040451288223267e-01 6.508803367614746094e-02 -6.425728201866149902e-01
1.531121283769607544e-01 4.274918884038925171e-02 -1.501906961202621460e-01
1.296843588352203369e-01 1.284624934196472168e-01 2.460465133190155029e-01
-2.995689213275909424e-01 5.837938189506530762e-02 1.030917689204216003e-01
2.168580144643783569e-01 5.046721547842025757e-02 3.481054604053497314e-01
2.098587155342102051e-02 5.148708820343017578e-02 6.384765505790710449e-01
3.530686199665069580e-01 1.046366319060325623e-01 -1.510286983102560043e-02
3.175451457500457764e-01 1.061400100588798523e-01 3.198748826980590820e-01
7.602865248918533325e-02 3.939858451485633850e-02 -6.735773384571075439e-02
-2.052869088947772980e-02 1.077698171138763428e-01 -8.257080316543579102e-01
3.041703999042510986e-01 1.113946884870529175e-01 2.464106231927871704e-01
-5.808330699801445007e-02 4.067399352788925171e-02 -2.062529176473617554e-01
-1.436253190040588379e-01 5.797772854566574097e-02 -6.359546780586242676e-01
-1.462749689817428589e-01 1.000214293599128723e-01 -8.047780990600585938e-01
1.415076404809951782e-01 7.999107241630554199e-02 8.457865118980407715e-01
2.188685834407806396e-01 9.788981080055236816e-02 7.090792655944824219e-01
1.503412127494812012e-01 4.201656952500343323e-02 7.755818963050842285e-02
1.209836602210998535e-01 6.239131465554237366e-02 -7.494082450866699219e-01
-1.269852370023727417e-01 4.318047687411308289e-02 -2.069520503282546997e-01
2.102187871932983398e-01 4.823436960577964783e-02 -2.718908786773681641e-01
-2.793972492218017578e-01 5.555691570043563843e-02 1.386606693267822266e-01
2.957806289196014404e-01 6.071530282497406006e-02 3.454647362232208252e-01
1.898087412118911743e-01 1.264579296112060547e-01 1.269740611314773560e-01
-1.290879026055335999e-02 5.814891308546066284e-02 7.495959997177124023e-01
-2.656744420528411865e-01 1.169433444738388062e-01 -2.707204222679138184e-01
4.082489758729934692e-02 1.331305652856826782e-01 2.947887778282165527e-02
1.645172834396362305e-01 1.061793565750122070e-01 7.202471494674682617e-01
9.762488305568695068e-02 4.046918451786041260e-02 -1.448727995157241821e-01
3.741419911384582520e-01 7.599050551652908325e-02 1.226640343666076660e-01
2.209810614585876465e-01 1.244095116853713989e-01 7.199674844741821289e-02
-9.020013362169265747e-02 4.795147478580474854e-02 5.071194171905517578e-01
-1.845625787973403931e-01 9.484596550464630127e-02 -7.815040946006774902e-01
-1.124194562435150146e-01 5.387882143259048462e-02 -6.008953452110290527e-01
-9.191072732210159302e-02 4.025613516569137573e-02 2.827496081590652466e-02
-2.300950735807418823e-01 5.064687132835388184e-02 -1.941798478364944458e-01
-3.028435707092285156e-01 5.870133638381958008e-02 -3.735575079917907715e-02
-6.090864911675453186e-02 6.360413879156112671e-02 8.001685142517089844e-01
1.480866223573684692e-01 6.441228091716766357e-02 7.447227239608764648e-01
-1.693050414323806763e-01 1.281267106533050537e-01 9.955067187547683716e-02
3.365279734134674072e-01 6.221575662493705750e-02 -5.787838622927665710e-02
8.610691875219345093e-03 4.197870567440986633e-02 3.555961251258850098e-01
8.901792764663696289e-02 1.263029426336288452e-01 4.173841178417205811e-01
-1.426215171813964844e-01 8.245383948087692261e-02 -8.429351449012756348e-01
2.429903000593185425e-01 8.181146532297134399e-02 -7.241511344909667969e-01
-2.469933182001113892e-01 1.208065897226333618e-01 -1.875442713499069214e-01
1.103199347853660583e-01 4.268844425678253174e-02 2.958775162696838379e-01
2.991137281060218811e-02 5.734901502728462219e-02 7.368922233581542969e-01
-2.668296992778778076e-01 1.196367889642715454e-01 -5.594446137547492981e-02
1.560937613248825073e-01 1.188031435012817383e-01 5.310212373733520508e-01
-3.687402606010437012e-02 3.895916789770126343e-02 -3.977217152714729309e-02
-2.869654595851898193e-01 1.166491359472274780e-01 8.561726659536361694e-02
-1.687269061803817749e-01 4.473624750971794128e-02 -1.320292502641677856e-01
-9.580281376838684082e-02 1.283820122480392456e-01 -3.581460118293762207e-01
-1.440032273530960083e-01 4.725455120205879211e-02 3.954697847366333008e-01
4.632601141929626465e-02 4.515033215284347534e-02 4.690736234188079834e-01
-1.605101376771926880e-01 4.477737098932266235e-02 -1.842368245124816895e-01
2.333260327577590942e-01 1.228693798184394836e-01 -1.653339564800262451e-01
8.590944111347198486e-02 1.073519140481948853e-01 7.837118506431579590e-01
-2.753646969795227051e-01 9.827885776758193970e-02 5.806905031204223633e-01
9.229215234518051147e-02 5.000358074903488159e-02 -5.599394440650939941e-01
-7.895668968558311462e-03 1.316555142402648926e-01 2.338024228811264038e-01
-1.435438841581344604e-01 1.169000416994094849e-01 -6.134404540061950684e-01
6.959144771099090576e-02 1.303015649318695068e-01 2.649146020412445068e-01
-9.507387131452560425e-02 4.135735705494880676e-02 1.981845200061798096e-01
7.075362652540206909e-02 4.329685866832733154e-02 -3.661651313304901123e-01
-2.282156050205230713e-01 1.192591339349746704e-01 3.449392318725585938e-01
1.159985587000846863e-01 5.308184400200843811e-02 -6.066635847091674805e-01
-1.583474874496459961e-01 1.184726059436798096e-01 -5.585096478462219238e-01
-2.342255264520645142e-01 5.009050294756889343e-02 1.465465575456619263e-01
-1.187240406870841980e-01 7.848358899354934692e-02 8.600311875343322754e-01
3.460910022258758545e-01 6.719806790351867676e-02 1.989701241254806519e-01
-2.291938848793506622e-02 1.037370711565017700e-01 8.427464962005615234e-01
8.104506880044937134e-02 4.707999899983406067e-02 -4.911331832408905029e-01
6.490527093410491943e-02 5.341919511556625366e-02 6.606031060218811035e-01
1.658913046121597290e-01 1.281946003437042236e-01 -1.550734937191009521e-01
-3.112082779407501221e-01 6.514401733875274658e-02 3.149761259555816650e-01
-1.600547879934310913e-01 1.290259659290313721e-01 2.820578590035438538e-02
1.950077265501022339e-01 1.267103254795074463e-01 -7.684984058141708374e-02
2.019386291503906250e-01 1.173884421586990356e-01 4.717958569526672363e-01
2.699957787990570068e-01 9.001756459474563599e-02 6.418631076812744141e-01
-1.177689656615257263e-01 4.268549010157585144e-02 2.314785122871398926e-01
1.018270254135131836e-01 1.295354217290878296e-01 -2.933106124401092529e-01
3.335418403148651123e-01 1.064086332917213440e-01 -2.460572123527526855e-01
2.988261543214321136e-02 3.964376449584960938e-02 -1.828781366348266602e-01
2.964592278003692627e-01 6.571528315544128418e-02 4.453682005405426025e-01
-1.566216908395290375e-02 4.044316709041595459e-02 2.638548016548156738e-01
-2.715201079845428467e-01 8.563676476478576660e-02 6.378459334373474121e-01
2.582487463951110840e-01 5.013712123036384583e-02 -3.097034618258476257e-02
-1.849931925535202026e-01 1.114334389567375183e-01 6.260484457015991211e-01
-8.271699398756027222e-02 1.314963996410369873e-01 -1.873440891504287720e-01
-2.388474345207214355e-02 1.319531649351119995e-01 -2.418660670518875122e-01
-2.908397614955902100e-01 1.121936514973640442e-01 -3.002201020717620850e-01
-1.304660178720951080e-02 5.371321365237236023e-02 -6.652227640151977539e-01
-7.935495674610137939e-02 4.919143021106719971e-02 5.516541004180908203e-01
-2.196708172559738159e-01 6.870387494564056396e-02 6.683729887008666992e-01
3.348899483680725098e-01 8.720652759075164795e-02 4.439999759197235107e-01
2.795266509056091309e-01 1.138647943735122681e-01 3.023234009742736816e-01
3.456440567970275879e-01 6.418781727552413940e-02 1.064212061464786530e-03
3.744834065437316895e-01 9.565085917711257935e-02 -1.164353117346763611e-01
-2.204463779926300049e-01 5.498475581407546997e-02 4.373920261859893799e-01
-3.834507986903190613e-02 1.305506229400634766e-01 2.876677215099334717e-01
2.567436099052429199e-01 5.020576715469360352e-02 -8.440392464399337769e-02
-1.208200231194496155e-01 5.886269733309745789e-02 -6.788119673728942871e-01
-3.272862359881401062e-02 6.479477882385253906e-02 -8.131279349327087402e-01
-3.862871974706649780e-02 3.910656273365020752e-02 9.679331630468368530e-02
1.237712427973747253e-01 4.084495082497596741e-02 -6.672476232051849365e-02
7.057174295186996460e-02 1.149232685565948486e-01 -7.254917025566101074e-01
-1.527404040098190308e-01 5.400861427187919617e-02 5.689992904663085938e-01
-5.471832677721977234e-02 4.446179792284965515e-02 4.296796321868896484e-01
-1.193537488579750061e-01 4.808928444981575012e-02 4.714545011520385742e-01
2.848739326000213623e-01 1.097753569483757019e-01 3.898469507694244385e-01
1.441899389028549194e-01 4.504326730966567993e-02 -3.276911377906799316e-01
3.569657728075981140e-02 1.135313063859939575e-01 -7.586725950241088867e-01
1.926392316818237305e-01 6.829128414392471313e-02 -7.300153374671936035e-01
-3.218508660793304443e-01 6.229039654135704041e-02 5.826324224472045898e-02
-1.126145422458648682e-01 1.118091195821762085e-01 -7.292760610580444336e-01
5.250224843621253967e-02 9.869336336851119995e-02 8.695197105407714844e-01
-4.703326523303985596e-02 1.269130855798721313e-01 4.373480677604675293e-01
2.569056749343872070e-01 6.520044803619384766e-02 -5.707286596298217773e-01
-1.867761760950088501e-01 1.203952282667160034e-01 4.343037903308868408e-01
-1.092857792973518372e-01 4.105967655777931213e-02 -5.770821496844291687e-02
1.273706108331680298e-01 4.642403870820999146e-02 -4.155730009078979492e-01
5.731512606143951416e-02 1.288813203573226929e-01 3.508322834968566895e-01
2.600616589188575745e-02 1.243977844715118408e-01 5.209618210792541504e-01
-2.005495727062225342e-01 1.230939924716949463e-01 2.961747646331787109e-01
-1.374950557947158813e-01 1.286126077175140381e-01 -2.455910742282867432e-01
-1.883858591318130493e-01 1.256023645401000977e-01 -2.327108830213546753e-01
1.902184933423995972e-01 4.764133691787719727e-02 -3.177871406078338623e-01
-9.559235721826553345e-02 1.156775876879692078e-01 -6.888903379440307617e-01
-1.464441567659378052e-01 4.507064074277877808e-02 -2.604631185531616211e-01
2.795903943479061127e-02 1.320441961288452148e-01 -2.331506162881851196e-01
5.767168104648590088e-02 1.229422390460968018e-01 5.441497564315795898e-01
-1.373297870159149170e-01 4.689717292785644531e-02 -3.697587549686431885e-01
2.426991313695907593e-01 1.111024841666221619e-01 5.023978948593139648e-01
3.065783083438873291e-01 5.963275209069252014e-02 2.502551078796386719e-01
1.661919802427291870e-01 5.364471301436424255e-02 5.574336647987365723e-01
-1.104588434100151062e-01 5.172307789325714111e-02 5.790514349937438965e-01
-1.875645816326141357e-01 6.686764955520629883e-02 -6.899767518043518066e-01
3.486205935478210449e-01 -6.099013239145278931e-02 2.870805859565734863e-01
3.034802377223968506e-01 -2.622896730899810791e-01 8.617410436272621155e-03
1.492038816213607788e-01 -2.880156040191650391e-01 1.346514672040939331e-01
2.913982570171356201e-01 -1.946784555912017822e-02 9.664495289325714111e-02
-4.043786227703094482e-01 -1.360690891742706299e-01 2.261556684970855713e-01
-2.988876104354858398e-01 -2.035577893257141113e-01 3.065498471260070801e-01
2.987669408321380615e-01 -9.390443563461303711e-02 4.572542607784271240e-01
3.978786766529083252e-01 -1.188933849334716797e-01 -1.786080300807952881e-01
3.261738121509552002e-01 -2.468786686658859253e-01 -1.130747869610786438e-01
6.007466092705726624e-02 -2.036993950605392456e-01 -5.248752832412719727e-01
3.143577575683593750e-01 -2.527950406074523926e-01 1.641344130039215088e-01
-3.193272054195404053e-01 -2.458883225917816162e-01 -9.214682504534721375e-03
-4.117347002029418945e-01 -1.955443024635314941e-01 -1.623992621898651123e-01
-2.080676406621932983e-01 -2.658190578222274780e-02 -3.710475862026214600e-01
-3.314188122749328613e-01 -2.339972704648971558e-01 -2.173116058111190796e-01
9.869351238012313843e-02 -1.724414080381393433e-01 -5.408677458763122559e-01
-2.829111218452453613e-01 -1.374930143356323242e-03 7.184941321611404419e-02
-1.916805654764175415e-01 -2.298236787319183350e-01 3.595889210700988770e-01
-1.230957284569740295e-01 -1.928889453411102295e-01 4.993122220039367676e-01
-3.898609876632690430e-01 -5.487594008445739746e-02 1.456262171268463135e-01
-1.773502230644226074e-01 -3.827710449695587158e-02 4.260669052600860596e-01
-1.102863848209381104e-01 -1.467038542032241821e-01 5.550318956375122070e-01
-2.376012057065963745e-01 -2.283823490142822266e-01 3.125816881656646729e-01
-3.184210956096649170e-01 -3.212309628725051880e-02 2.293686717748641968e-01
-1.572946906089782715e-01 1.063027977943420410e-02 -1.960274577140808105e-01
-2.922221645712852478e-02 -7.872998714447021484e-03 -3.373751640319824219e-01
1.141595840454101562e-01 -2.764517068862915039e-01 2.677570283412933350e-01
2.020311355590820312e-02 -2.395220994949340820e-01 -4.628559052944183350e-01
-1.321140676736831665e-01 -2.788396775722503662e-01 -2.477325797080993652e-01
-4.490508437156677246e-01 -9.981010854244232178e-02 4.567361623048782349e-02
4.331163130700588226e-03 -2.969940900802612305e-01 7.082221657037734985e-02
2.114092260599136353e-01 -2.869021147489547729e-02 3.806128203868865967e-01
2.424787729978561401e-02 -2.971484661102294922e-01 -1.174986064434051514e-01
-1.247969195246696472e-01 -2.892914414405822754e-01 2.937158383429050446e-02
4.023075848817825317e-02 2.536007761955261230e-02 6.651780568063259125e-03
3.462030291557312012e-01 -4.519297927618026733e-02 -2.658386714756488800e-02
-4.114447832107543945e-01 -6.855783611536026001e-02 -2.118196934461593628e-01
4.212197959423065186e-01 -1.004301309585571289e-01 -3.479072824120521545e-02
-4.253792166709899902e-01 -9.732156991958618164e-02 1.535450220108032227e-01
-4.343259930610656738e-01 -7.143549621105194092e-02 -2.076380420476198196e-03
-2.560355514287948608e-02 -2.785462886095046997e-02 4.647746682167053223e-01
-2.937568426132202148e-01 -4.161240905523300171e-02 3.095524609088897705e-01
-3.582429289817810059e-01 -2.006646543741226196e-01 -3.233243525028228760e-01
4.260123074054718018e-01 -9.659817814826965332e-02 4.478600993752479553e-02
-1.546990722417831421e-01 -1.549664884805679321e-02 3.697520196437835693e-01
4.199999868869781494e-01 -1.974225640296936035e-01 1.400107294321060181e-01
-2.680464684963226318e-01 -4.323481768369674683e-02 3.500005006790161133e-01
-3.266940414905548096e-01 -2.439691126346588135e-01 -8.874163776636123657e-02
-1.557771116495132446e-01 4.864737391471862793e-03 2.656440436840057373e-01
-2.905610203742980957e-01 -2.268720567226409912e-01 -3.490645587444305420e-01
1.953780055046081543e-01 -2.706287503242492676e-01 2.485438287258148193e-01
-1.551894005388021469e-02 2.248536050319671631e-02 -1.126189008355140686e-01
3.612011969089508057e-01 -2.362065315246582031e-01 -5.773754790425300598e-02
3.833354711532592773e-01 -2.071358412504196167e-01 -1.504575014114379883e-01
3.984413444995880127e-01 -2.178839743137359619e-01 1.044752448797225952e-01
-2.594912052154541016e-01 -2.283914983272552490e-01 2.821102440357208252e-01
-2.701356410980224609e-01 -2.586707174777984619e-01 -1.740211397409439087e-01
-6.502715405076742172e-03 -4.972478002309799194e-02 5.205139517784118652e-01
4.053382277488708496e-01 -7.626263797283172607e-02 7.657888531684875488e-02
-1.616340428590774536e-01 -1.938531100749969482e-01 4.735058248043060303e-01
-4.489308595657348633e-01 -8.722627907991409302e-02 -4.600377380847930908e-02
4.402514100074768066e-01 -1.750910133123397827e-01 3.624005243182182312e-02
3.932603895664215088e-01 -2.108974903821945190e-01 -9.605069458484649658e-02
4.384469985961914062e-01 -1.132811307907104492e-01 9.956125915050506592e-02
-2.240694463253021240e-01 -2.575651407241821289e-01 1.865422874689102173e-01
-1.184511408209800720e-01 -2.906879186630249023e-01 -9.433901309967041016e-02
8.976434171199798584e-02 2.062807977199554443e-02 1.185861825942993164e-01
3.878919482231140137e-01 -1.117280647158622742e-01 3.363569676876068115e-01
-2.449682652950286865e-01 3.927990794181823730e-03 1.320009380578994751e-01
-1.430576443672180176e-01 -2.725142836570739746e-01 2.016431987285614014e-01
1.658712029457092285e-01 -3.582981228828430176e-02 -3.405007421970367432e-01
-3.560223281383514404e-01 -3.701194375753402710e-02 -2.160503864288330078e-01
-3.517836332321166992e-01 -2.424378693103790283e-02 6.682571023702621460e-02
-2.934295833110809326e-01 -2.468081414699554443e-01 -2.272509932518005371e-01
4.062945842742919922e-01 -1.707082986831665039e-01 2.894084751605987549e-01
-4.037600159645080566e-01 -5.133984982967376709e-02 -1.342237293720245361e-01
4.215639233589172363e-01 -1.775625348091125488e-01 -9.725213050842285156e-02
-3.448718786239624023e-01 -1.254885196685791016e-01 3.468698561191558838e-01
-5.074035376310348511e-02 -2.109034061431884766e-01 4.978145360946655273e-01
-2.331562936305999756e-01 -8.827820420265197754e-03 -2.641073763370513916e-01
-4.698018357157707214e-02 -2.697139382362365723e-01 2.975980341434478760e-01
1.353998780250549316e-01 -8.200019598007202148e-03 -2.455187141895294189e-01
3.118711709976196289e-01 -7.054651528596878052e-02 3.942462205886840820e-01
1.206050887703895569e-01 -2.591425180435180664e-02 4.377229809761047363e-01
-3.386540412902832031e-01 -1.326019763946533203e-01 -4.437409043312072754e-01
3.066723048686981201e-01 -2.449736297130584717e-01 2.471847832202911377e-01
2.805802598595619202e-02 -5.951024591922760010e-02 5.403804183006286621e-01
1.374941039830446243e-02 -2.740668654441833496e-01 2.931224405765533447e-01
-2.424820810556411743e-01 -2.020414173603057861e-01 3.848125636577606201e-01
-1.255136579275131226e-01 -2.433138340711593628e-01 3.686116039752960205e-01
-3.323816061019897461e-01 -8.309051394462585449e-02 3.416329622268676758e-01
3.350248932838439941e-01 -2.118892073631286621e-01 3.415982425212860107e-01
-1.600297242403030396e-01 -2.853469550609588623e-01 -5.166575778275728226e-03
8.087738603353500366e-02 -6.757546961307525635e-02 -4.829773008823394775e-01
-1.039422024041414261e-02 -2.675786614418029785e-01 3.229426145553588867e-01
-1.323841214179992676e-01 2.300730347633361816e-02 9.059564024209976196e-02
1.903917789459228516e-01 -2.870705127716064453e-01 4.579601809382438660e-02
-7.408735156059265137e-02 -2.686588764190673828e-01 -3.511301875114440918e-01
1.681300699710845947e-01 8.986562490463256836e-03 1.502965837717056274e-01
3.825863003730773926e-01 -1.856273412704467773e-01 3.200328052043914795e-01
4.217696189880371094e-01 -1.135609000921249390e-01 -8.243243396282196045e-02
7.908628880977630615e-02 2.273900806903839111e-02 5.650778487324714661e-02
4.515971057116985321e-03 2.736312150955200195e-02 3.028998523950576782e-02
-3.246119022369384766e-01 -1.120202615857124329e-01 3.759367763996124268e-01
4.260510206222534180e-02 -2.781073451042175293e-01 -3.018474578857421875e-01
3.832520544528961182e-01 -1.939466148614883423e-01 -1.902815550565719604e-01
-2.114410251379013062e-01 -1.782533824443817139e-01 4.595695436000823975e-01
6.698983907699584961e-02 1.720730960369110107e-02 2.113864123821258545e-01
-4.143828749656677246e-01 -1.983785927295684814e-01 -7.354800403118133545e-02
-1.959429532289505005e-01 1.345890760421752930e-02 1.277519762516021729e-01
1.548676472157239914e-02 -1.353550255298614502e-01 -5.747741460800170898e-01
3.121261596679687500e-01 -2.489885091781616211e-01 2.060157209634780884e-01
-9.044954925775527954e-02 -2.500461339950561523e-01 -4.260756671428680420e-01
1.484360098838806152e-01 1.007762551307678223e-02 -6.816548854112625122e-02
-2.197579592466354370e-01 1.208555698394775391e-02 -7.373766601085662842e-02
3.509506285190582275e-01 -2.422545105218887329e-01 1.222724169492721558e-01
-4.430838823318481445e-01 -8.367064595222473145e-02 -1.196071505546569824e-01
-1.436573117971420288e-01 -4.157066345214843750e-03 3.277604281902313232e-01
-3.144987523555755615e-01 -9.025081992149353027e-03 -6.763201206922531128e-02
-1.159448400139808655e-01 -1.695180386304855347e-01 -5.701994299888610840e-01
-3.783978819847106934e-01 -6.142777204513549805e-02 2.058189362287521362e-01
-6.125511974096298218e-02 -2.596075534820556641e-01 -3.963335752487182617e-01
6.273200362920761108e-02 -2.431956231594085693e-01 4.308922290802001953e-01
2.519497275352478027e-01 -1.298478245735168457e-01 -4.324206411838531494e-01
-4.004888832569122314e-01 -2.069103419780731201e-01 -1.174953058362007141e-01
3.616914451122283936e-01 -2.245493382215499878e-01 2.316318601369857788e-01
-1.503949165344238281e-01 -1.559583842754364014e-02 -3.571871817111968994e-01
-3.959980905055999756e-01 -1.884561330080032349e-01 1.405911296606063843e-01
-1.261280775070190430e-01 2.343146502971649170e-02 -5.411035940051078796e-02
-2.012352496385574341e-01 -2.078177481889724731e-01 4.129200279712677002e-01
4.272804260253906250e-01 -1.828627884387969971e-01 1.767725199460983276e-01
9.257059544324874878e-02 2.085967361927032471e-02 4.754312336444854736e-03
3.091225326061248779e-01 -3.176455199718475342e-02 2.100481539964675903e-01
-1.356762051582336426e-01 -2.081760019063949585e-02 4.020218253135681152e-01
1.593215167522430420e-01 -2.914610505104064941e-01 -2.610772289335727692e-02
2.488062679767608643e-01 -1.515301167964935303e-01 5.242299437522888184e-01
2.327775955200195312e-02 -2.356947660446166992e-01 4.528031349182128906e-01
-1.777273267507553101e-01 1.803807914257049561e-02 -7.040732353925704956e-02
2.646815478801727295e-01 -8.131712675094604492e-02 -3.574155867099761963e-01
4.155602753162384033e-01 -8.844596147537231445e-02 7.707972545176744461e-03
1.790867745876312256e-01 -2.826961278915405273e-01 1.596053242683410645e-01
-2.784254252910614014e-01 1.271978020668029785e-03 -4.768437147140502930e-02
-2.079499363899230957e-01 -2.773778438568115234e-01 -5.161337554454803467e-02
-1.687688380479812622e-01 1.712013781070709229e-02 -1.073724180459976196e-01
6.095920130610466003e-02 -2.822776138782501221e-01 2.411465793848037720e-01
-1.320002228021621704e-01 3.671914339065551758e-03 -2.639742791652679443e-01
4.268184304237365723e-01 -1.656300574541091919e-01 2.280078530311584473e-01
1.441100686788558960e-01 -7.015196233987808228e-02 5.353544354438781738e-01
-1.818945854902267456e-01 -9.822040796279907227e-02 -5.397725105285644531e-01
-2.055408656597137451e-01 -7.601931691169738770e-03 2.867588400840759277e-01
1.457292884588241577e-01 1.377029716968536377e-02 1.184502840042114258e-01
-2.629438638687133789e-01 -2.080202102661132812e-01 3.450532257556915283e-01
1.976030915975570679e-01 -2.730536162853240967e-01 -2.088418155908584595e-01
-2.120847105979919434e-01 -2.454704344272613525e-01 2.741494774818420410e-01
3.345753848552703857e-01 -2.284481227397918701e-01 -1.999587863683700562e-01
-1.422203928232192993e-01 -1.853723526000976562e-01 -5.500474572181701660e-01
-1.433124393224716187e-01 -1.273651719093322754e-01 -5.709034800529479980e-01
-3.152568638324737549e-01 -2.450550794601440430e-01 -1.636465191841125488e-01
-1.077169105410575867e-01 4.482865333557128906e-04 -2.919386923313140869e-01
2.218692004680633545e-01 -1.824184507131576538e-02 3.142179548740386963e-01
3.531605303287506104e-01 -2.439837753772735596e-01 3.333058953285217285e-02
-3.049386739730834961e-01 -7.691837847232818604e-02 3.727023601531982422e-01
-2.706295251846313477e-01 -9.093332290649414062e-02 4.301879405975341797e-01
-1.884894371032714844e-01 1.831814646720886230e-02 -4.609742667526006699e-03
-1.964604407548904419e-01 7.414862513542175293e-03 -1.848170906305313110e-01
1.477180700749158859e-02 -6.938827037811279297e-02 -5.104811191558837891e-01
1.854922622442245483e-02 6.388559937477111816e-03 -2.448026239871978760e-01
-4.022907465696334839e-03 -2.495517730712890625e-01 -4.361018836498260498e-01
-5.844855681061744690e-02 -2.777450382709503174e-01 -3.033502399921417236e-01
-4.182311147451400757e-02 2.654100954532623291e-02 -4.579034447669982910e-02
-1.798808127641677856e-01 -2.435133159160614014e-01 3.204344511032104492e-01
-3.512408435344696045e-01 -2.136155664920806885e-01 -2.877966165542602539e-01
3.441018760204315186e-01 -5.175730586051940918e-02 -9.552004188299179077e-02
8.592909574508666992e-02 1.171480119228363037e-02 2.526545226573944092e-01
-3.134904801845550537e-01 -2.427653372287750244e-01 7.395215332508087158e-02
4.389003217220306396e-01 -1.337306201457977295e-01 -3.332731500267982483e-02
2.371220141649246216e-01 -2.788537144660949707e-01 -2.443858049809932709e-02
-3.248202502727508545e-01 -2.274402081966400146e-01 1.581327170133590698e-01
-2.959160208702087402e-01 -7.322807610034942627e-02 -4.308958947658538818e-01
2.429710328578948975e-01 -2.473475784063339233e-01 -2.872868776321411133e-01
2.164750695228576660e-01 -2.518846988677978516e-01 3.355645537376403809e-01
3.088581860065460205e-01 -2.229732275009155273e-01 -2.724609673023223877e-01
-2.840465903282165527e-01 -5.152509361505508423e-02 -3.906728029251098633e-01
9.395529329776763916e-02 1.818291842937469482e-02 1.641604304313659668e-01
3.822624385356903076e-01 -1.491934210062026978e-01 -2.398102730512619019e-01
3.862729966640472412e-01 -6.680461764335632324e-02 -1.169999316334724426e-02
4.101864695549011230e-01 -8.603267371654510498e-02 1.760890781879425049e-01
-2.790836393833160400e-01 1.450181007385253906e-03 1.228133216500282288e-02
-2.745840847492218018e-01 -5.301490426063537598e-03 -1.705981642007827759e-01
-4.602751135826110840e-02 2.453646063804626465e-02 -8.771162480115890503e-02
2.849985957145690918e-01 -4.152497649192810059e-02 -1.960080265998840332e-01
-7.487669587135314941e-02 4.551291465759277344e-03 3.205067813396453857e-01
3.795494139194488525e-01 -2.264422178268432617e-01 1.453734189271926880e-01
2.160231471061706543e-01 -2.833080291748046875e-01 6.039718631654977798e-03
-2.237079292535781860e-01 -2.015518844127655029e-01 -4.873240590095520020e-01
-1.630455404520034790e-01 -2.486387193202972412e-01 -3.974043726921081543e-01
-3.911841511726379395e-01 -4.044133424758911133e-02 1.502107456326484680e-02
4.378230571746826172e-01 -1.271222084760665894e-01 1.784974783658981323e-01
-3.541360497474670410e-01 -2.279131561517715454e-01 4.788758605718612671e-02
2.076808065176010132e-01 -2.812893092632293701e-01 -1.032051518559455872e-01
-4.263963699340820312e-01 -1.832298189401626587e-01 2.303912490606307983e-02
9.701054543256759644e-02 -1.555585861206054688e-02 4.089249372482299805e-01
4.080255925655364990e-01 -9.292961657047271729e-02 2.270912230014801025e-01
2.421650886535644531e-01 -2.203124910593032837e-01 4.268362224102020264e-01
-6.777448207139968872e-02 -1.504430323839187622e-01 -5.830675959587097168e-01
-2.533806860446929932e-01 -2.478179931640625000e-01 -3.054593801498413086e-01
2.648504078388214111e-01 -2.665373980998992920e-01 -1.252886503934860229e-01
-1.671012490987777710e-03 2.192924916744232178e-02 1.907860934734344482e-01
2.326228171586990356e-01 -3.088220953941345215e-03 1.955753006041049957e-02
-2.334942668676376343e-01 -1.327225118875503540e-01 4.783964753150939941e-01
-2.579482197761535645e-01 -5.762016028165817261e-02 -4.303862452507019043e-01
-2.040314078330993652e-01 1.534776389598846436e-02 6.173015385866165161e-02
-4.781081900000572205e-02 -6.803452968597412109e-02 -5.180882811546325684e-01
9.430768340826034546e-02 -2.658354043960571289e-01 -3.451806306838989258e-01
-9.300455451011657715e-02 -2.367759943008422852e-01 -4.674091935157775879e-01
-2.155687659978866577e-01 -2.196336239576339722e-01 -4.536310136318206787e-01
3.858431279659271240e-01 -2.165534794330596924e-01 1.957998722791671753e-01
2.341583669185638428e-01 -2.779524922370910645e-01 -6.841394305229187012e-02
-2.364926636219024658e-01 -2.682304978370666504e-01 -1.589111387729644775e-01
4.442583769559860229e-02 2.136960625648498535e-03 3.415752649307250977e-01
3.377994596958160400e-01 -6.939322501420974731e-02 -2.014930993318557739e-01
-5.173766240477561951e-02 2.663622796535491943e-02 1.058022379875183105e-01
-1.435544788837432861e-01 -3.506444394588470459e-02 4.404662549495697021e-01
1.925791203975677490e-01 -2.230715453624725342e-01 -4.155265986919403076e-01
-3.161429464817047119e-01 -1.343984901905059814e-02 1.029533594846725464e-01
4.066965579986572266e-01 -1.551835089921951294e-01 -1.758315861225128174e-01
7.415570318698883057e-02 -1.889571398496627808e-01 5.526790618896484375e-01
-1.260529160499572754e-01 -6.491120159626007080e-02 5.109804272651672363e-01
-2.355135977268218994e-01 4.216477274894714355e-03 -1.547908782958984375e-01
2.755014002323150635e-01 -2.575660943984985352e-01 2.244567722082138062e-01
5.377049371600151062e-02 -1.395791023969650269e-02 4.160319268703460693e-01
8.152495138347148895e-03 -3.009557723999023438e-03 3.738961219787597656e-01
2.707538604736328125e-01 -2.255356311798095703e-02 -1.055398732423782349e-01
2.788643836975097656e-01 -2.643665671348571777e-01 1.516801565885543823e-01
-2.161535769701004028e-01 1.415944099426269531e-02 2.510304376482963562e-02
2.424609065055847168e-01 -1.656050235033035278e-02 2.660001218318939209e-01
-1.251600831747055054e-01 -4.662951827049255371e-02 4.783442914485931396e-01
2.043533176183700562e-01 -1.941895484924316406e-01 -4.548006355762481689e-01
8.352506905794143677e-02 -1.379509717226028442e-01 5.923227071762084961e-01
-2.321255393326282501e-03 1.392972469329833984e-02 -1.974074095487594604e-01
-7.412609457969665527e-02 2.045226097106933594e-02 -1.417857855558395386e-01
2.368813902139663696e-01 -2.753876447677612305e-01 1.321388334035873413e-01
-4.633957520127296448e-02 -2.999929338693618774e-02 -4.248314201831817627e-01
-1.758383773267269135e-02 2.745243906974792480e-02 -6.731114815920591354e-03
1.921769529581069946e-01 3.037631511688232422e-03 1.788354218006134033e-01
-1.249919831752777100e-01 -9.177973121404647827e-02 -5.486004352569580078e-01
2.681970000267028809e-01 -1.959078758955001831e-02 2.281241267919540405e-01
2.934694662690162659e-02 -2.195328474044799805e-03 -2.913326621055603027e-01
-3.356719315052032471e-01 -1.917965710163116455e-01 2.766609787940979004e-01
-1.621261090040206909e-01 -2.706372141838073730e-01 -2.810850441455841064e-01
-1.866466104984283447e-01 -3.958240151405334473e-03 -2.784616649150848389e-01
3.567587137222290039e-01 -1.907743215560913086e-01 -2.589757442474365234e-01
-7.564858347177505493e-02 -2.305322140455245972e-02 4.378332197666168213e-01
3.525327742099761963e-01 -6.781714409589767456e-02 -1.576745659112930298e-01
3.324349597096443176e-02 -2.900471389293670654e-01 -2.128996700048446655e-01
-2.141608148813247681e-01 -2.595242261886596680e-01 -2.923825979232788086e-01
-4.536461830139160156e-01 -1.317705363035202026e-01 -1.669669151306152344e-01
-1.677592992782592773e-01 -8.434946089982986450e-02 5.112218856811523438e-01
-2.171125113964080811e-01 -8.457618206739425659e-02 -5.075385570526123047e-01
1.878605633974075317e-01 7.127359509468078613e-03 3.183837607502937317e-02
1.699910312891006470e-01 -3.044074773788452148e-02 4.243187904357910156e-01
1.409037858247756958e-01 -2.645380496978759766e-01 -3.206171989440917969e-01
-3.961042165756225586e-01 -1.799833178520202637e-01 -2.962420582771301270e-01
-1.807901449501514435e-02 1.555921137332916260e-02 2.576994299888610840e-01
-6.140480563044548035e-02 -2.293514758348464966e-01 4.489876627922058105e-01
-3.684837222099304199e-01 -2.251385450363159180e-01 -1.915542036294937134e-02
-1.882926672697067261e-01 -2.703769207000732422e-01 -2.486201822757720947e-01
-2.954529821872711182e-01 -2.323521077632904053e-01 2.003609836101531982e-01
-2.246276661753654480e-02 -2.976500391960144043e-01 -8.968310058116912842e-02
-2.564394176006317139e-01 -2.992093563079833984e-03 1.756037920713424683e-01
2.968810498714447021e-01 -2.212882637977600098e-01 3.676600754261016846e-01
-7.171282172203063965e-02 -5.994518101215362549e-02 5.253883600234985352e-01
5.447352677583694458e-02 -2.980417609214782715e-01 -7.893943786621093750e-02
1.955516040325164795e-01 5.433663725852966309e-03 1.065618917346000671e-01
-3.090055584907531738e-01 -1.435168385505676270e-01 3.913868665695190430e-01
-1.819277703762054443e-01 1.266705989837646484e-02 -1.484530568122863770e-01
-1.347016394138336182e-01 1.233409345149993896e-02 2.294882237911224365e-01
-7.165715843439102173e-02 -2.355471253395080566e-03 3.581599891185760498e-01
2.291427403688430786e-01 -6.066367030143737793e-03 1.943414658308029175e-01
1.968260854482650757e-01 -1.962527632713317871e-03 2.304092943668365479e-01
