1.430936902761459351e-02 7.967545986175537109e-01 1.640402376651763916e-01
2.005614340305328369e-02 6.097612380981445312e-01 -1.584028303623199463e-01
-1.471097171306610107e-01 6.980966925621032715e-01 3.958508372306823730e-01
-1.811386644840240479e-01 5.885241031646728516e-01 2.265797704458236694e-01
6.477928906679153442e-02 7.452369928359985352e-01 5.049003660678863525e-02
3.960555046796798706e-02 7.010698914527893066e-01 1.935297399759292603e-01
-7.659247517585754395e-02 6.121079921722412109e-01 2.950880229473114014e-01
-7.127027958631515503e-02 5.545361042022705078e-01 -5.452898517251014709e-02
-1.019145026803016663e-01 5.964178442955017090e-01 2.770557701587677002e-01
3.032536059617996216e-02 6.037858724594116211e-01 -2.486016228795051575e-02
-3.549480438232421875e-02 8.115105628967285156e-01 -1.753110289573669434e-01
-2.592725455760955811e-01 6.913264989852905273e-01 -1.754524558782577515e-02
-6.076243147253990173e-02 6.335527896881103516e-01 -2.937660217285156250e-01
-2.177936583757400513e-02 5.677770376205444336e-01 -2.277929335832595825e-02
-2.474503219127655029e-02 6.553806662559509277e-01 2.991580367088317871e-01
-1.380755901336669922e-01 5.865902900695800781e-01 -1.832489967346191406e-01
-2.487095594406127930e-01 7.575165629386901855e-01 1.979462802410125732e-01
-9.026236087083816528e-02 7.244627475738525391e-01 3.864789903163909912e-01
-6.620869040489196777e-02 7.260794639587402344e-01 -3.121124505996704102e-01
-3.985889256000518799e-02 8.379107713699340820e-01 -5.792597308754920959e-02
-1.222851872444152832e-01 7.836149334907531738e-01 -2.248901128768920898e-01
-2.018032670021057129e-01 7.186158895492553711e-01 -1.909693777561187744e-01
-1.957375705242156982e-01 8.115780949592590332e-01 2.073207050561904907e-01
2.481113374233245850e-02 6.223278045654296875e-01 1.301973164081573486e-01
-1.067962422966957092e-01 7.042423486709594727e-01 3.941569924354553223e-01
-1.607203483581542969e-01 7.792268991470336914e-01 -1.892154067754745483e-01
-4.805202782154083252e-02 5.852773189544677734e-01 -2.001537978649139404e-01
-1.323500275611877441e-01 7.649198174476623535e-01 3.723159134387969971e-01
4.561511427164077759e-02 7.599069476127624512e-01 1.358771175146102905e-01
-1.758518666028976440e-01 8.157265782356262207e-01 2.391871511936187744e-01
-2.433226108551025391e-01 6.844958066940307617e-01 2.829979658126831055e-01
-1.827238947153091431e-01 5.749994516372680664e-01 1.598000079393386841e-01
-1.783842146396636963e-01 5.904738903045654297e-01 -1.306134313344955444e-01
-1.084199398756027222e-01 8.260887861251831055e-01 2.543939054012298584e-01
-7.524253427982330322e-02 5.820701718330383301e-01 2.191243320703506470e-01
-5.656306073069572449e-02 6.605868935585021973e-01 -3.141649365425109863e-01
-2.514304220676422119e-01 6.825047135353088379e-01 2.558194398880004883e-01
-1.965578198432922363e-01 7.753583192825317383e-01 3.149222135543823242e-01
-9.194062650203704834e-02 6.748148202896118164e-01 3.781951665878295898e-01
-2.223948985338211060e-01 7.872407436370849609e-01 -1.116635650396347046e-02
-8.670340478420257568e-02 8.294538259506225586e-01 2.358193099498748779e-01
-2.223078012466430664e-01 6.026657819747924805e-01 1.795168220996856689e-01
5.463510751724243164e-04 5.802633166313171387e-01 -1.875780522823333740e-03
5.511546880006790161e-02 7.462983727455139160e-01 1.137883067131042480e-01
-2.167668640613555908e-01 5.879486799240112305e-01 5.149281024932861328e-02
-2.174659073352813721e-01 7.020564079284667969e-01 -1.640791296958923340e-01
-1.063111126422882080e-01 5.516086816787719727e-01 -3.774618729948997498e-02
-5.309870466589927673e-02 7.433347702026367188e-01 3.527099788188934326e-01
5.260493606328964233e-02 6.757372617721557617e-01 -1.874160766601562500e-01
-9.441160410642623901e-02 6.605828404426574707e-01 -3.095754384994506836e-01
-2.673136591911315918e-01 6.683422923088073730e-01 1.082352548837661743e-01
-2.012266963720321655e-02 7.894306778907775879e-01 -2.197594940662384033e-01
6.148342043161392212e-02 6.507618427276611328e-01 -8.072264492511749268e-02
-1.204376071691513062e-01 5.968264341354370117e-01 -2.229177951812744141e-01
-1.791820973157882690e-01 6.893262863159179688e-01 -2.391989529132843018e-01
-3.705491870641708374e-02 7.281834483146667480e-01 -3.066942393779754639e-01
-2.738576382398605347e-02 8.312144279479980469e-01 1.435515135526657104e-01
1.310072839260101318e-02 8.168143630027770996e-01 -4.291683062911033630e-02
-1.707737445831298828e-01 5.933707356452941895e-01 -1.538180559873580933e-01
-1.419782787561416626e-01 8.391463756561279297e-01 1.687273532152175903e-01
-2.424255907535552979e-01 6.578199267387390137e-01 -7.777898013591766357e-02
-1.481771469116210938e-01 6.158167719841003418e-01 3.201840817928314209e-01
-1.364939212799072266e-01 5.847563743591308594e-01 2.495332509279251099e-01
-4.457752034068107605e-02 6.720841526985168457e-01 3.386865258216857910e-01
-1.465529799461364746e-01 5.927286148071289062e-01 2.694024443626403809e-01
3.635979443788528442e-02 6.123850941658020020e-01 1.532704941928386688e-02
7.292795926332473755e-02 7.274784445762634277e-01 -2.225152030587196350e-02
-1.588390767574310303e-01 7.200049757957458496e-01 3.924137055873870850e-01
-1.703310757875442505e-01 6.139127016067504883e-01 -1.976430416107177734e-01
6.793630868196487427e-02 7.111869454383850098e-01 6.758442521095275879e-02
-2.234718799591064453e-01 7.306107282638549805e-01 3.228039741516113281e-01
-1.704230308532714844e-01 5.626192092895507812e-01 5.934819579124450684e-03
-1.271792948246002197e-01 8.377233147621154785e-01 1.975723356008529663e-01
-3.463566303253173828e-03 7.591560482978820801e-01 -2.559294998645782471e-01
4.450588673353195190e-02 7.277064323425292969e-01 1.750721186399459839e-01
-1.755892932415008545e-01 6.314198374748229980e-01 3.321456313133239746e-01
-7.529311627149581909e-02 5.527231693267822266e-01 3.994415700435638428e-02
-1.539923399686813354e-01 5.598153471946716309e-01 1.111982017755508423e-01
-6.592177599668502808e-02 8.446843624114990234e-01 1.336573064327239990e-01
-5.550221353769302368e-02 6.997188329696655273e-01 -3.211730420589447021e-01
5.850727111101150513e-02 6.693755388259887695e-01 9.030536562204360962e-02
5.314109474420547485e-02 6.936569809913635254e-01 1.421914845705032349e-01
2.830507606267929077e-02 6.585589647293090820e-01 1.932594180107116699e-01
4.397167861461639404e-01 -5.658080577850341797e-01 -8.095579594373703003e-02
4.558097124099731445e-01 -6.507213711738586426e-01 3.057314828038215637e-02
5.134965777397155762e-01 -4.267016947269439697e-01 -5.309138447046279907e-03
4.396665096282958984e-01 -5.818815231323242188e-01 -2.625569328665733337e-02
4.635995626449584961e-01 -5.428917407989501953e-01 -2.608975172042846680e-01
5.123917460441589355e-01 -4.531555175781250000e-01 1.065416559576988220e-01
5.021181106567382812e-01 -5.982377529144287109e-01 1.614874899387359619e-01
4.508275091648101807e-01 -4.858857989311218262e-01 -2.062256932258605957e-01
4.424308240413665771e-01 -5.008078813552856445e-01 1.251541972160339355e-01
5.179264545440673828e-01 -5.511214733123779297e-01 5.068228393793106079e-02
4.501481056213378906e-01 -4.552125036716461182e-01 1.522911489009857178e-01
4.580687582492828369e-01 -4.421558976173400879e-01 -2.079238146543502808e-01
4.526455998420715332e-01 -6.416579484939575195e-01 4.089783132076263428e-02
5.136017203330993652e-01 -5.134809017181396484e-01 -1.629400700330734253e-01
4.576767683029174805e-01 -5.262953042984008789e-01 2.274731248617172241e-01
4.633162617683410645e-01 -5.105612874031066895e-01 -2.642849385738372803e-01
4.416413605213165283e-01 -4.545021951198577881e-01 -6.416755169630050659e-02
4.366036355495452881e-01 -5.137772560119628906e-01 -2.146911062300205231e-02
5.131654739379882812e-01 -4.259478747844696045e-01 -4.371687769889831543e-02
4.668267369270324707e-01 -6.690616607666015625e-01 -1.850408501923084259e-03
5.180794596672058105e-01 -4.670950174331665039e-01 -6.179342418909072876e-02
5.134450793266296387e-01 -4.331538677215576172e-01 -7.666222006082534790e-02
4.455394744873046875e-01 -4.418318867683410645e-01 -1.056313440203666687e-01
5.080116391181945801e-01 -4.037279784679412842e-01 -4.733553156256675720e-02
4.898934066295623779e-01 -3.680593371391296387e-01 -6.223809719085693359e-02
4.825893640518188477e-01 -6.685246229171752930e-01 -6.236830353736877441e-02
5.172688961029052734e-01 -5.679315924644470215e-01 -4.647793248295783997e-02
4.801310598850250244e-01 -5.854533910751342773e-01 -2.533215880393981934e-01
4.655161798000335693e-01 -5.831409096717834473e-01 2.270255684852600098e-01
5.008797645568847656e-01 -4.322740137577056885e-01 1.643253415822982788e-01
4.407295286655426025e-01 -5.231075882911682129e-01 1.113505661487579346e-01
4.449511766433715820e-01 -5.129523873329162598e-01 -1.726085543632507324e-01
4.381641149520874023e-01 -4.902773201465606689e-01 4.016275703907012939e-02
4.447261095046997070e-01 -4.817107319831848145e-01 1.353285759687423706e-01
4.507566094398498535e-01 -6.078965067863464355e-01 -1.441400945186614990e-01
4.417619109153747559e-01 -5.669692754745483398e-01 -1.145702153444290161e-01
4.593594074249267578e-01 -3.850027620792388916e-01 -6.839827448129653931e-02
4.391963779926300049e-01 -5.387332439422607422e-01 8.535959571599960327e-02
4.495635926723480225e-01 -6.222858428955078125e-01 8.650589734315872192e-02
4.428626596927642822e-01 -6.015611886978149414e-01 -4.961431026458740234e-02
4.553327858448028564e-01 -6.340476870536804199e-01 1.082824170589447021e-01
5.120836496353149414e-01 -4.795171618461608887e-01 1.379557847976684570e-01
4.991702437400817871e-01 -3.872968554496765137e-01 6.390787661075592041e-02
5.157805681228637695e-01 -5.006766319274902344e-01 1.093126982450485229e-01
4.852020740509033203e-01 -6.430873274803161621e-01 1.471586972475051880e-01
5.191828608512878418e-01 -5.097191929817199707e-01 5.264944210648536682e-02
4.437900483608245850e-01 -5.896818041801452637e-01 9.418858587741851807e-02
4.479531943798065186e-01 -4.263759255409240723e-01 7.068908959627151489e-02
4.927722811698913574e-01 -4.955181777477264404e-01 -2.670445442199707031e-01
5.199065804481506348e-01 -4.926472306251525879e-01 -4.444396123290061951e-02
5.187733769416809082e-01 -5.101060271263122559e-01 -9.055078029632568359e-02
4.964924454689025879e-01 -6.533848047256469727e-01 -5.031933262944221497e-02
4.580613672733306885e-01 -5.619478225708007812e-01 -2.349981665611267090e-01
4.416443705558776855e-01 -4.481870532035827637e-01 -1.527892425656318665e-02
4.554268717765808105e-01 -5.501743555068969727e-01 2.141498327255249023e-01
4.435829520225524902e-01 -6.095502376556396484e-01 -9.513055905699729919e-03
4.637054204940795898e-01 -3.976259529590606689e-01 1.241721436381340027e-01
4.424112737178802490e-01 -6.014264225959777832e-01 -3.181946277618408203e-02
5.074883699417114258e-01 -6.121338605880737305e-01 -1.032590121030807495e-01
5.130609273910522461e-01 -4.496908187866210938e-01 -1.251618564128875732e-01
4.964805245399475098e-01 -6.521358489990234375e-01 4.852485284209251404e-02
5.008063316345214844e-01 -4.817672371864318848e-01 -2.379600554704666138e-01
5.060231685638427734e-01 -6.278223395347595215e-01 -5.608927831053733826e-02
4.455509483814239502e-01 -6.070220470428466797e-01 7.759159058332443237e-02
4.561846554279327393e-01 -4.114778339862823486e-01 1.151666715741157532e-01
4.369454681873321533e-01 -5.188959240913391113e-01 3.178682178258895874e-02
4.446746706962585449e-01 -5.539538264274597168e-01 1.451528072357177734e-01
4.540883898735046387e-01 -6.352967023849487305e-01 9.302775561809539795e-02
5.160369873046875000e-01 -5.100936889648437500e-01 -1.356790661811828613e-01
5.125417113304138184e-01 -5.013192892074584961e-01 1.442096233367919922e-01
4.835685491561889648e-01 -4.050148129463195801e-01 1.707138419151306152e-01
5.034394860267639160e-01 -5.378517508506774902e-01 -2.270628213882446289e-01
4.730701148509979248e-01 -3.897854089736938477e-01 1.336221396923065186e-01
5.038993954658508301e-01 -6.223749518394470215e-01 -1.129967868328094482e-01
4.435689449310302734e-01 -5.752755403518676758e-01 -1.271094530820846558e-01
5.069704055786132812e-01 -4.400751590728759766e-01 -1.702001690864562988e-01
4.490712285041809082e-01 -4.131276309490203857e-01 -5.422289296984672546e-02
5.184669494628906250e-01 -4.672243297100067139e-01 1.341127697378396988e-02
4.370420277118682861e-01 -4.986761808395385742e-01 1.060618087649345398e-04
5.139341950416564941e-01 -4.932138025760650635e-01 -1.566359698772430420e-01
4.509960711002349854e-01 -6.236653327941894531e-01 -1.081761643290519714e-01
5.027820467948913574e-01 -5.021468400955200195e-01 -2.347685396671295166e-01
4.368746280670166016e-01 -5.443361997604370117e-01 -1.915551349520683289e-02
4.959355592727661133e-01 -4.730114042758941650e-01 2.227488011121749878e-01
4.573208093643188477e-01 -6.283177733421325684e-01 -1.466128081083297729e-01
4.464663565158843994e-01 -4.473750591278076172e-01 1.061318442225456238e-01
4.882632493972778320e-01 -5.120622515678405762e-01 -2.771075665950775146e-01
4.907089471817016602e-01 -3.906399011611938477e-01 -1.592065691947937012e-01
4.956392645835876465e-01 -5.753366351127624512e-01 2.157689183950424194e-01
4.404248595237731934e-01 -4.592483639717102051e-01 1.702147722244262695e-02
5.195450186729431152e-01 -4.970485270023345947e-01 3.609398752450942993e-02
4.422786533832550049e-01 -4.552123546600341797e-01 -8.272147923707962036e-02
5.013957619667053223e-01 -5.819675326347351074e-01 1.855465322732925415e-01
4.494887292385101318e-01 -4.387189447879791260e-01 1.206525638699531555e-01
4.634511470794677734e-01 -3.958988785743713379e-01 -1.489189863204956055e-01
4.887820184230804443e-01 -6.373382210731506348e-01 -1.641318649053573608e-01
4.648002386093139648e-01 -6.508399844169616699e-01 1.130650416016578674e-01
5.119991898536682129e-01 -5.907050371170043945e-01 8.086960762739181519e-02
5.138021707534790039e-01 -5.962176918983459473e-01 -2.255807816982269287e-02
4.399792253971099854e-01 -4.654310643672943115e-01 -5.135573074221611023e-02
5.079648494720458984e-01 -5.911818742752075195e-01 1.282700002193450928e-01
4.373294711112976074e-01 -5.485416650772094727e-01 -4.075785726308822632e-02
4.374886453151702881e-01 -4.991423487663269043e-01 -5.068746954202651978e-02
4.404881298542022705e-01 -5.615826249122619629e-01 8.854537457227706909e-02
4.760263562202453613e-01 -6.399980783462524414e-01 -1.744458824396133423e-01
5.064096450805664062e-01 -5.689462423324584961e-01 -1.895819753408432007e-01
5.192051529884338379e-01 -4.741343259811401367e-01 -2.580168098211288452e-02
4.871139824390411377e-01 -6.674627065658569336e-01 -4.030992463231086731e-02
4.935014247894287109e-01 -4.311524629592895508e-01 -2.235457152128219604e-01
4.444937109947204590e-01 -4.580458700656890869e-01 -1.251346915960311890e-01
4.976712465286254883e-01 -3.761891424655914307e-01 -2.366097271442413330e-02
5.061148405075073242e-01 -3.999726474285125732e-01 -6.978681683540344238e-02
4.587560594081878662e-01 -4.952448308467864990e-01 -2.475333213806152344e-01
5.091316103935241699e-01 -6.116680502891540527e-01 -7.904573529958724976e-02
4.471790492534637451e-01 -5.462310314178466797e-01 1.692932695150375366e-01
5.031453967094421387e-01 -4.064694643020629883e-01 -1.330184638500213623e-01
5.145648717880249023e-01 -4.495635628700256348e-01 6.962430477142333984e-02
4.491567015647888184e-01 -5.705454945564270020e-01 -1.827486455440521240e-01
4.587010443210601807e-01 -6.276458501815795898e-01 1.459825038909912109e-01
4.398870170116424561e-01 -5.849329233169555664e-01 -8.167234249413013458e-03
5.014351606369018555e-01 -4.468181133270263672e-01 -2.112384736537933350e-01
4.521011114120483398e-01 -5.205127596855163574e-01 -2.215511798858642578e-01
5.113230347633361816e-01 -5.461509227752685547e-01 1.474963873624801636e-01
5.036233663558959961e-01 -3.896104693412780762e-01 -3.856037557125091553e-02
4.510860443115234375e-01 -5.367842316627502441e-01 1.966970562934875488e-01
4.386086761951446533e-01 -4.775940179824829102e-01 -4.052069410681724548e-02
5.184911489486694336e-01 -4.818611741065979004e-01 -7.931208610534667969e-02
4.655113220214843750e-01 -5.678774714469909668e-01 2.372619658708572388e-01
5.204465389251708984e-01 -5.077670812606811523e-01 -1.045146584510803223e-02
4.471698403358459473e-01 -4.421051144599914551e-01 -1.280667930841445923e-01
4.416997730731964111e-01 -5.756151676177978516e-01 8.836751431226730347e-02
5.144032239913940430e-01 -5.323062539100646973e-01 -1.494654268026351929e-01
4.826759397983551025e-01 -3.895974755287170410e-01 -1.716837584972381592e-01
5.092118978500366211e-01 -5.933827757835388184e-01 1.116004735231399536e-01
4.833788573741912842e-01 -6.573041081428527832e-01 1.085377708077430725e-01
5.148800015449523926e-01 -5.521872043609619141e-01 1.044901981949806213e-01
4.466704726219177246e-01 -5.944327712059020996e-01 1.202192083001136780e-01
4.621686935424804688e-01 -5.257533788681030273e-01 -2.608579695224761963e-01
5.025132894515991211e-01 -5.347395539283752441e-01 2.087693363428115845e-01
4.771697819232940674e-01 -3.665728271007537842e-01 -8.287020772695541382e-02
5.002018809318542480e-01 -6.473336219787597656e-01 1.013067457824945450e-02
4.391436278820037842e-01 -4.861404895782470703e-01 -7.993490248918533325e-02
5.107967257499694824e-01 -5.059866309165954590e-01 -1.873728483915328979e-01
4.632225334644317627e-01 -6.223667263984680176e-01 1.745613813400268555e-01
4.781461060047149658e-01 -3.624494373798370361e-01 6.467607803642749786e-03
4.791049957275390625e-01 -4.447276592254638672e-01 2.268511801958084106e-01
4.430137276649475098e-01 -4.733272492885589600e-01 -1.284138709306716919e-01
4.422810673713684082e-01 -5.603369474411010742e-01 -1.289193034172058105e-01
4.614815115928649902e-01 -3.904334902763366699e-01 -1.189046949148178101e-01
4.558552801609039307e-01 -4.299311637878417969e-01 -1.790824532508850098e-01
4.667461812496185303e-01 -4.030714035034179688e-01 -1.801863908767700195e-01
4.598043859004974365e-01 -5.639078021049499512e-01 2.243623435497283936e-01
4.876292347908020020e-01 -6.650940179824829102e-01 4.920182749629020691e-02
5.089354515075683594e-01 -4.420090913772583008e-01 1.242409870028495789e-01
4.835744500160217285e-01 -5.255302786827087402e-01 2.592601180076599121e-01
4.569957554340362549e-01 -5.724114775657653809e-01 2.090636789798736572e-01
5.054447650909423828e-01 -5.130327343940734863e-01 1.960033178329467773e-01
4.381598830223083496e-01 -5.591165423393249512e-01 3.824594616889953613e-02
4.427334368228912354e-01 -6.017202138900756836e-01 3.402085229754447937e-02
4.570396840572357178e-01 -4.213690757751464844e-01 1.434079855680465698e-01
5.184382796287536621e-01 -5.026845335960388184e-01 6.783245503902435303e-02
4.941628575325012207e-01 -3.822291195392608643e-01 8.088058978319168091e-02
5.173385143280029297e-01 -4.528502225875854492e-01 -1.924862340092658997e-02
5.176677703857421875e-01 -5.523075461387634277e-01 -7.940968126058578491e-02
5.126727223396301270e-01 -5.745747685432434082e-01 -1.258306652307510376e-01
5.002516508102416992e-01 -6.422338485717773438e-01 5.827866122126579285e-02
5.117059350013732910e-01 -6.055434346199035645e-01 2.723366767168045044e-02
4.402921497821807861e-01 -5.790527462959289551e-01 5.250361189246177673e-02
5.088989734649658203e-01 -4.139620065689086914e-01 -8.999216556549072266e-02
5.177292823791503906e-01 -5.600206851959228516e-01 3.537224978208541870e-02
5.034418702125549316e-01 -6.366934776306152344e-01 3.567092865705490112e-02
4.668799042701721191e-01 -3.817420601844787598e-01 8.732991665601730347e-02
5.048459172248840332e-01 -5.825685262680053711e-01 -1.845820844173431396e-01
4.606844782829284668e-01 -3.870083093643188477e-01 -9.724449366331100464e-02
5.037015676498413086e-01 -6.057096123695373535e-01 1.383489817380905151e-01
4.516570270061492920e-01 -5.518049597740173340e-01 1.953804194927215576e-01
5.169646739959716797e-01 -4.876971840858459473e-01 8.554113656282424927e-02
4.529949724674224854e-01 -4.977519512176513672e-01 2.026111632585525513e-01
4.989616870880126953e-01 -5.933553576469421387e-01 -2.031259685754776001e-01
4.567450284957885742e-01 -5.995344519615173340e-01 1.824285686016082764e-01
4.821151196956634521e-01 -4.669423401355743408e-01 2.436611205339431763e-01
4.365473985671997070e-01 -5.300263166427612305e-01 -2.061239257454872131e-02
4.647243916988372803e-01 -6.457551121711730957e-01 -1.376692652702331543e-01
4.943552911281585693e-01 -4.084930121898651123e-01 1.529448181390762329e-01
4.431415200233459473e-01 -5.191195011138916016e-01 -1.560972481966018677e-01
5.007712244987487793e-01 -3.839221596717834473e-01 1.836902275681495667e-02
4.921535849571228027e-01 -6.054694652557373047e-01 1.961583495140075684e-01
4.997618496417999268e-01 -6.093270182609558105e-01 -1.747951954603195190e-01
4.472523331642150879e-01 -6.076695919036865234e-01 9.957911819219589233e-02
4.460465610027313232e-01 -4.283199310302734375e-01 -6.691773980855941772e-02
4.599756002426147461e-01 -4.753222763538360596e-01 -2.435989230871200562e-01
4.533397257328033447e-01 -4.673665165901184082e-01 -2.087215185165405273e-01
5.191295742988586426e-01 -4.804702997207641602e-01 2.574677020311355591e-02
4.380727708339691162e-01 -5.182796120643615723e-01 6.567833572626113892e-02
5.110048651695251465e-01 -5.611252784729003906e-01 1.389192640781402588e-01
4.414958357810974121e-01 -5.271825194358825684e-01 -1.374671161174774170e-01
4.435517787933349609e-01 -5.166366100311279297e-01 1.423758119344711304e-01
4.373775124549865723e-01 -5.520105957984924316e-01 2.028850838541984558e-02
4.466048181056976318e-01 -6.201180219650268555e-01 4.346523806452751160e-02
4.383508265018463135e-01 -5.497742295265197754e-01 5.944534763693809509e-02
4.385356903076171875e-01 -4.829666018486022949e-01 -5.575082823634147644e-02
4.644396007061004639e-01 -4.023272395133972168e-01 1.393687874078750610e-01
4.614766836166381836e-01 -5.016169548034667969e-01 2.366781979799270630e-01
4.884990751743316650e-01 -3.649860620498657227e-01 -3.185784071683883667e-02
4.975824952125549316e-01 -4.856497645378112793e-01 -2.511935830116271973e-01
5.083403587341308594e-01 -6.201021671295166016e-01 3.262705728411674500e-02
4.479334652423858643e-01 -4.201194047927856445e-01 4.296714439988136292e-02
4.366706311702728271e-01 -5.224529504776000977e-01 -3.477772325277328491e-02
5.048717260360717773e-01 -4.460473656654357910e-01 -1.919445395469665527e-01
4.481913447380065918e-01 -4.883299767971038818e-01 -1.899446994066238403e-01
4.421402812004089355e-01 -4.837601184844970703e-01 1.082009151577949524e-01
4.592467844486236572e-01 -4.659132063388824463e-01 2.108565419912338257e-01
5.114952921867370605e-01 -4.192260503768920898e-01 -5.783693492412567139e-02
4.438929855823516846e-01 -5.506562590599060059e-01 -1.543437093496322632e-01
5.166128277778625488e-01 -5.699157118797302246e-01 -6.323778629302978516e-02
5.140144228935241699e-01 -4.310192167758941650e-01 1.198800001293420792e-02
4.791947305202484131e-01 -6.526818871498107910e-01 1.303730458021163940e-01
5.100144147872924805e-01 -4.409480094909667969e-01 -1.451551914215087891e-01
5.133793354034423828e-01 -5.320968031883239746e-01 1.348941326141357422e-01
4.621285796165466309e-01 -4.467280507087707520e-01 2.029341608285903931e-01
5.175419449806213379e-01 -4.756084680557250977e-01 -9.279216825962066650e-02
4.523135423660278320e-01 -5.376250147819519043e-01 -2.200562357902526855e-01
5.156015157699584961e-01 -5.632305145263671875e-01 -1.020512804388999939e-01
4.473685324192047119e-01 -5.889318585395812988e-01 -1.472969502210617065e-01
5.083624720573425293e-01 -5.235844850540161133e-01 1.779262274503707886e-01
4.907204210758209229e-01 -4.387035071849822998e-01 -2.386438399553298950e-01
4.686633646488189697e-01 -4.655858278274536133e-01 2.354569733142852783e-01
4.389941096305847168e-01 -4.707373976707458496e-01 1.722451299428939819e-03
4.462127089500427246e-01 -6.177523136138916016e-01 -5.630873888731002808e-02
4.786534309387207031e-01 -6.731607317924499512e-01 -1.937728002667427063e-02
5.010828971862792969e-01 -4.004483819007873535e-01 9.702633321285247803e-02
4.976808726787567139e-01 -4.898329973220825195e-01 2.250533103942871094e-01
4.612257778644561768e-01 -4.170672893524169922e-01 1.567885130643844604e-01
4.542821049690246582e-01 -4.632691740989685059e-01 1.867320686578750610e-01
5.056539773941040039e-01 -5.564967989921569824e-01 1.826736330986022949e-01
4.576742053031921387e-01 -4.132314324378967285e-01 1.298415809869766235e-01
4.582843482494354248e-01 -4.513637721538543701e-01 -2.188845723867416382e-01
4.710550010204315186e-01 -6.596511006355285645e-01 1.015541702508926392e-01
4.967913329601287842e-01 -6.279348134994506836e-01 1.376874744892120361e-01
4.724446833133697510e-01 -3.645049333572387695e-01 -3.177642077207565308e-02
4.498773217201232910e-01 -4.724526703357696533e-01 1.689359098672866821e-01
4.436827898025512695e-01 -4.475889503955841064e-01 6.581313908100128174e-02
4.969835877418518066e-01 -3.796709179878234863e-01 -8.121168613433837891e-02
4.884890019893646240e-01 -6.674102544784545898e-01 -9.213628247380256653e-03
5.101048946380615234e-01 -4.170362353324890137e-01 4.591481015086174011e-02
5.201600790023803711e-01 -5.293095707893371582e-01 -4.410732071846723557e-03
4.443369209766387939e-01 -6.047056317329406738e-01 -7.332955300807952881e-02
4.458220005035400391e-01 -5.350002050399780273e-01 -1.783995777368545532e-01
5.127096176147460938e-01 -4.468899369239807129e-01 9.198243916034698486e-02
4.810689687728881836e-01 -4.158004522323608398e-01 1.907065659761428833e-01
5.154107809066772461e-01 -4.509301781654357910e-01 -8.962500095367431641e-02
4.969691932201385498e-01 -6.537916660308837891e-01 -3.453396260738372803e-02
4.448452293872833252e-01 -5.699129104614257812e-01 -1.475570052862167358e-01
4.376071989536285400e-01 -5.288880467414855957e-01 -7.035901397466659546e-02
4.909029603004455566e-01 -6.587260961532592773e-01 6.664642691612243652e-02
4.728451669216156006e-01 -6.664921045303344727e-01 -8.106020838022232056e-02
4.545057415962219238e-01 -4.017773866653442383e-01 -9.520690888166427612e-02
4.950410425662994385e-01 -5.925852060317993164e-01 2.019110172986984253e-01
4.494690001010894775e-01 -4.093375205993652344e-01 -4.573192913085222244e-03
4.948214888572692871e-01 -6.478381752967834473e-01 -1.022360473871231079e-01
5.026089549064636230e-01 -6.301589608192443848e-01 8.428594470024108887e-02
4.383630454540252686e-01 -5.370081663131713867e-01 6.992403417825698853e-02
5.049287676811218262e-01 -4.602801203727722168e-01 1.747760474681854248e-01
4.617307484149932861e-01 -4.048663079738616943e-01 -1.629084348678588867e-01
4.640190601348876953e-01 -3.751008510589599609e-01 -5.481150746345520020e-02
4.743206799030303955e-01 -5.209612846374511719e-01 -2.820591330528259277e-01
4.632312357425689697e-01 -6.622679829597473145e-01 -5.363801866769790649e-02
5.148729085922241211e-01 -4.566979110240936279e-01 -1.112908422946929932e-01
5.107502341270446777e-01 -6.107747554779052734e-01 -4.082557559013366699e-02
4.511453509330749512e-01 -4.272902011871337891e-01 1.117155030369758606e-01
4.549108147621154785e-01 -4.255779683589935303e-01 -1.653198450803756714e-01
5.100595355033874512e-01 -4.556169211864471436e-01 1.332982480525970459e-01
4.384266734123229980e-01 -5.496214628219604492e-01 -7.562371343374252319e-02
4.959204196929931641e-01 -5.519396066665649414e-01 -2.502293288707733154e-01
4.778062701225280762e-01 -6.658509969711303711e-01 7.991416007280349731e-02
4.953028857707977295e-01 -5.039632916450500488e-01 2.363608032464981079e-01
4.549928903579711914e-01 -6.393680572509765625e-01 -9.537143260240554810e-02
4.439271986484527588e-01 -4.416793882846832275e-01 -7.489430904388427734e-02
5.102459192276000977e-01 -4.329202175140380859e-01 9.367140382528305054e-02
4.538946747779846191e-01 -3.957675695419311523e-01 -4.069473594427108765e-02
4.779018461704254150e-01 -6.508915424346923828e-01 -1.467012315988540649e-01
5.143645405769348145e-01 -5.901241302490234375e-01 2.781758457422256470e-02
4.383264183998107910e-01 -5.304497480392456055e-01 -8.723699301481246948e-02
4.765416383743286133e-01 -6.037981510162353516e-01 -2.344092875719070435e-01
4.647392034530639648e-01 -6.373627781867980957e-01 -1.598598510026931763e-01
5.083606243133544922e-01 -5.186461806297302246e-01 -2.043118625879287720e-01
4.834598302841186523e-01 -5.727561116218566895e-01 -2.615298926830291748e-01
5.148876309394836426e-01 -4.417332410812377930e-01 4.015612229704856873e-02
4.564016163349151611e-01 -4.888468384742736816e-01 2.143201678991317749e-01
4.503689706325531006e-01 -6.364244818687438965e-01 2.501856535673141479e-02
4.420550465583801270e-01 -4.462244212627410889e-01 8.109618909657001495e-03
5.152547359466552734e-01 -5.304746031761169434e-01 1.146533116698265076e-01
5.018209218978881836e-01 -5.971695184707641602e-01 -1.830530166625976562e-01
4.583062231540679932e-01 -5.443776845932006836e-01 2.270654588937759399e-01
5.060329437255859375e-01 -4.120648205280303955e-01 8.654937893152236938e-02
4.515909552574157715e-01 -6.002101898193359375e-01 -1.638543903827667236e-01
4.809019267559051514e-01 -4.207757115364074707e-01 -2.291142493486404419e-01
4.370369017124176025e-01 -5.381788015365600586e-01 2.950638160109519958e-02
4.960650503635406494e-01 -5.234308838844299316e-01 2.352552413940429688e-01
5.053805708885192871e-01 -4.063137173652648926e-01 -1.103570386767387390e-01
4.371181428432464600e-01 -5.220369100570678711e-01 -5.589168891310691833e-02
5.022481083869934082e-01 -6.230120658874511719e-01 -1.270148307085037231e-01
4.508488774299621582e-01 -6.114958524703979492e-01 1.272781789302825928e-01
5.193812251091003418e-01 -4.889978766441345215e-01 -6.220402568578720093e-02
4.377749562263488770e-01 -5.620445013046264648e-01 5.145864561200141907e-04
4.767917990684509277e-01 -3.741418123245239258e-01 -1.221380010247230530e-01
4.653627276420593262e-01 -5.936779975891113281e-01 2.174567729234695435e-01
5.166780948638916016e-01 -5.383275747299194336e-01 9.059603512287139893e-02
5.180560350418090820e-01 -5.106080174446105957e-01 -1.049365922808647156e-01
5.091360211372375488e-01 -4.087832868099212646e-01 1.991058513522148132e-02
4.564064145088195801e-01 -6.473746895790100098e-01 -7.368423044681549072e-02
4.442943632602691650e-01 -5.871779322624206543e-01 -1.172066330909729004e-01
5.086289644241333008e-01 -6.134111285209655762e-01 6.316594034433364868e-02
4.390221834182739258e-01 -5.261248350143432617e-01 -1.016901284456253052e-01
4.580652117729187012e-01 -5.186490416526794434e-01 -2.481060773134231567e-01
4.940489828586578369e-01 -6.246878504753112793e-01 1.583620309829711914e-01
5.129945874214172363e-01 -5.778639912605285645e-01 9.415729343891143799e-02
4.403956532478332520e-01 -4.629255831241607666e-01 3.483870998024940491e-02
5.198846459388732910e-01 -4.934951364994049072e-01 1.751517131924629211e-02
4.445997774600982666e-01 -4.331789612770080566e-01 -5.113404244184494019e-02
4.483005106449127197e-01 -6.042805910110473633e-01 -1.291287690401077271e-01
4.670570790767669678e-01 -4.561610221862792969e-01 2.250905036926269531e-01
4.497496783733367920e-01 -4.422584772109985352e-01 -1.545855849981307983e-01
5.145722031593322754e-01 -4.660373628139495850e-01 -1.291467100381851196e-01
5.194472074508666992e-01 -5.404087901115417480e-01 -4.415908455848693848e-02
4.500751495361328125e-01 -4.219417870044708252e-01 8.568963408470153809e-02
4.454566538333892822e-01 -6.029167771339416504e-01 -9.815121442079544067e-02
5.136318206787109375e-01 -5.863537788391113281e-01 -8.418750762939453125e-02
4.597567319869995117e-01 -6.501141190528869629e-01 8.584155142307281494e-02
4.503168761730194092e-01 -5.103734135627746582e-01 1.918898820877075195e-01
5.117325782775878906e-01 -4.309037327766418457e-01 -1.021745726466178894e-01
5.087555646896362305e-01 -4.234091043472290039e-01 -1.223434209823608398e-01
4.978981912136077881e-01 -5.316982269287109375e-01 -2.517015635967254639e-01
4.805177450180053711e-01 -4.883830547332763672e-01 2.552181482315063477e-01
5.089878439903259277e-01 -6.060812473297119141e-01 8.342669159173965454e-02
5.185741782188415527e-01 -5.468815565109252930e-01 -6.461547315120697021e-02
5.170086026191711426e-01 -5.206420421600341797e-01 9.376065433025360107e-02
5.045944452285766602e-01 -3.997333645820617676e-01 5.823818221688270569e-02
4.572435021400451660e-01 -3.879364430904388428e-01 2.118301391601562500e-02
4.681237936019897461e-01 -4.216881096363067627e-01 -2.165638506412506104e-01
4.692144691944122314e-01 -5.496199727058410645e-01 2.515462636947631836e-01
4.971414208412170410e-01 -3.756077289581298828e-01 -8.769016712903976440e-04
4.557078778743743896e-01 -4.801061153411865234e-01 -2.290247082710266113e-01
5.094499588012695312e-01 -4.227181673049926758e-01 7.730860263109207153e-02
4.475437998771667480e-01 -4.176746308803558350e-01 1.058940868824720383e-02
4.518500566482543945e-01 -5.763719081878662109e-01 1.811801195144653320e-01
5.023477673530578613e-01 -4.143723845481872559e-01 1.239375397562980652e-01
4.500172436237335205e-01 -6.348578929901123047e-01 -3.776959702372550964e-02
4.462840855121612549e-01 -4.906643629074096680e-01 1.560635715723037720e-01
5.141104459762573242e-01 -5.848512053489685059e-01 5.783858522772789001e-02
5.056558847427368164e-01 -6.262478232383728027e-01 5.740913376212120056e-02
5.070066452026367188e-01 -5.019211769104003906e-01 -2.127205282449722290e-01
5.108853578567504883e-01 -4.869223833084106445e-01 -1.819196343421936035e-01
4.673891067504882812e-01 -5.587536096572875977e-01 -2.624227404594421387e-01
4.811769723892211914e-01 -5.959465503692626953e-01 2.268989980220794678e-01
4.646632373332977295e-01 -6.198552846908569336e-01 -1.944053173065185547e-01
5.072335004806518555e-01 -5.465270280838012695e-01 -2.017076909542083740e-01
4.965874850749969482e-01 -5.818890929222106934e-01 -2.257700115442276001e-01
4.560989141464233398e-01 -3.890689611434936523e-01 -1.187486201524734497e-02
5.130085945129394531e-01 -5.488376617431640625e-01 1.294857263565063477e-01
4.914667010307312012e-01 -6.480967998504638672e-01 -1.225238367915153503e-01
5.180482268333435059e-01 -5.197563767433166504e-01 7.647398114204406738e-02
5.146307945251464844e-01 -5.863908529281616211e-01 -5.900201946496963501e-02
4.486910104751586914e-01 -5.752667188644409180e-01 1.617088913917541504e-01
4.514037966728210449e-01 -4.205002486705780029e-01 -1.238511949777603149e-01
5.025504827499389648e-01 -6.301294565200805664e-01 -1.005153283476829529e-01
4.417580366134643555e-01 -5.860208272933959961e-01 6.798525154590606689e-02
4.364843964576721191e-01 -5.280336141586303711e-01 -5.743406247347593307e-03
5.157217979431152344e-01 -5.724490880966186523e-01 -7.939556986093521118e-02
5.125303268432617188e-01 -5.853294730186462402e-01 -1.062626391649246216e-01
5.101485848426818848e-01 -6.150351166725158691e-01 -3.716517239809036255e-04
4.698618948459625244e-01 -5.330318212509155273e-01 -2.756784558296203613e-01
4.969393610954284668e-01 -6.487480401992797852e-01 -7.769463211297988892e-02
4.407017529010772705e-01 -4.857288300991058350e-01 -1.096700131893157959e-01
4.467247128486633301e-01 -4.524364173412322998e-01 -1.419726908206939697e-01
5.179989933967590332e-01 -5.641418099403381348e-01 -5.142724607139825821e-03
4.803884327411651611e-01 -5.463508367538452148e-01 -2.776482105255126953e-01
5.086238384246826172e-01 -5.916603803634643555e-01 -1.406471878290176392e-01
4.815703928470611572e-01 -3.686801791191101074e-01 -9.818871319293975830e-02
4.937136173248291016e-01 -5.992909073829650879e-01 -2.158391177654266357e-01
4.563434422016143799e-01 -4.038687944412231445e-01 -1.231792569160461426e-01
5.059649944305419922e-01 -6.307522058486938477e-01 1.133096124976873398e-02
4.556284248828887939e-01 -6.357264518737792969e-01 -1.143381223082542419e-01
4.384724497795104980e-01 -4.804635941982269287e-01 2.507061511278152466e-02
4.765821099281311035e-01 -4.342466890811920166e-01 2.152262181043624878e-01
4.392604231834411621e-01 -5.515877008438110352e-01 7.747393101453781128e-02
4.451963007450103760e-01 -4.819979667663574219e-01 -1.610263884067535400e-01
4.960419237613677979e-01 -5.660418272018432617e-01 -2.411455661058425903e-01
4.598064720630645752e-01 -3.976041376590728760e-01 1.011653989553451538e-01
4.430240690708160400e-01 -4.406945407390594482e-01 -3.879022970795631409e-02
4.605429768562316895e-01 -3.794507384300231934e-01 -2.501046657562255859e-02
5.045929551124572754e-01 -5.986630916595458984e-01 -1.624795794486999512e-01
5.037202239036560059e-01 -4.806100726127624512e-01 1.956971883773803711e-01
5.031340718269348145e-01 -5.732975602149963379e-01 -2.049956321716308594e-01
4.784227013587951660e-01 -3.830773532390594482e-01 -1.546085625886917114e-01
4.811737835407257080e-01 -6.188399195671081543e-01 -2.128271609544754028e-01
4.735241532325744629e-01 -3.635976612567901611e-01 -1.681089401245117188e-02
4.407449960708618164e-01 -5.904125571250915527e-01 1.815148070454597473e-02
5.187849998474121094e-01 -4.710443913936614990e-01 -4.380304738879203796e-02
4.676298797130584717e-01 -4.943206012248992920e-01 2.485228329896926880e-01
4.910688400268554688e-01 -4.093643724918365479e-01 -1.984135061502456665e-01
5.093366503715515137e-01 -4.930281639099121094e-01 -1.957629472017288208e-01
5.076606273651123047e-01 -4.750592112541198730e-01 -1.991757899522781372e-01
5.075327157974243164e-01 -4.008245468139648438e-01 -2.283789590001106262e-02
5.123377442359924316e-01 -5.448408722877502441e-01 -1.631059497594833374e-01
5.203197002410888672e-01 -5.151957869529724121e-01 7.455316372215747833e-03
4.567436873912811279e-01 -6.537822484970092773e-01 -2.245234139263629913e-02
4.499654173851013184e-01 -4.150178134441375732e-01 5.813131853938102722e-02
4.445032477378845215e-01 -5.312313437461853027e-01 1.514986753463745117e-01
4.737646579742431641e-01 -6.718661189079284668e-01 -3.888222575187683105e-02
4.397688508033752441e-01 -5.681068301200866699e-01 6.512523442506790161e-02
5.151036381721496582e-01 -4.475568532943725586e-01 5.416141077876091003e-02
4.919686615467071533e-01 -3.859112262725830078e-01 -1.409544348716735840e-01
4.654053449630737305e-01 -3.760263621807098389e-01 -8.034744858741760254e-02
5.004152655601501465e-01 -6.235928535461425781e-01 1.243967637419700623e-01
4.899521172046661377e-01 -3.660753965377807617e-01 -1.032433006912469864e-02
4.547280371189117432e-01 -4.025584161281585693e-01 7.227410376071929932e-02
4.482657909393310547e-01 -6.204483509063720703e-01 -8.398953080177307129e-02
4.605135023593902588e-01 -6.546630859375000000e-01 7.011438161134719849e-02
5.095167160034179688e-01 -6.131676435470581055e-01 -6.333125382661819458e-02
4.938242137432098389e-01 -4.001217782497406006e-01 -1.714847534894943237e-01
5.151636004447937012e-01 -5.730409622192382812e-01 6.780424714088439941e-02
5.156161785125732422e-01 -4.846258163452148438e-01 -1.327291280031204224e-01
4.579756557941436768e-01 -3.852687776088714600e-01 7.305751554667949677e-03
4.993993341922760010e-01 -5.146067738533020020e-01 2.238979637622833252e-01
4.608163535594940186e-01 -4.211869537830352783e-01 -1.907849609851837158e-01
4.491874575614929199e-01 -5.399150252342224121e-01 -2.012144774198532104e-01
4.712609350681304932e-01 -5.121045708656311035e-01 2.576396465301513672e-01
5.126377344131469727e-01 -5.955860018730163574e-01 -7.302542775869369507e-02
4.512625038623809814e-01 -5.926389098167419434e-01 1.605819016695022583e-01
4.773272871971130371e-01 -6.458736062049865723e-01 -1.605211347341537476e-01
5.017973184585571289e-01 -6.175050139427185059e-01 -1.449160128831863403e-01
4.376985430717468262e-01 -5.094103217124938965e-01 -6.936179101467132568e-02
5.134357810020446777e-01 -5.983486175537109375e-01 3.044012002646923065e-03
5.151183009147644043e-01 -4.686807990074157715e-01 9.368577599525451660e-02
4.508665204048156738e-01 -6.387886404991149902e-01 -2.076474577188491821e-02
4.446147382259368896e-01 -5.662910938262939453e-01 1.355101019144058228e-01
4.758337438106536865e-01 -3.638085126876831055e-01 -5.319806188344955444e-02
4.496344327926635742e-01 -6.298035383224487305e-01 5.629628524184226990e-02
4.469866752624511719e-01 -4.652178883552551270e-01 1.390747874975204468e-01
4.886714220046997070e-01 -4.548521935939788818e-01 -2.564072310924530029e-01
4.366175234317779541e-01 -5.130796432495117188e-01 4.589247517287731171e-03
4.981849789619445801e-01 -6.028810739517211914e-01 1.761702895164489746e-01
5.034149885177612305e-01 -5.542182922363281250e-01 1.966448277235031128e-01
5.204085111618041992e-01 -5.120711922645568848e-01 -2.769986167550086975e-02
4.403673410415649414e-01 -5.502695441246032715e-01 9.746075421571731567e-02
4.399741590023040771e-01 -5.814056396484375000e-01 3.395312279462814331e-02
5.112618803977966309e-01 -5.652318000793457031e-01 -1.545608192682266235e-01
4.403125345706939697e-01 -5.326327681541442871e-01 -1.207652613520622253e-01
4.930079579353332520e-01 -3.795956373214721680e-01 -1.126415655016899109e-01
4.390303790569305420e-01 -5.093098878860473633e-01 8.160756528377532959e-02
4.808170199394226074e-01 -5.763428807258605957e-01 2.432830482721328735e-01
5.087153315544128418e-01 -6.210464239120483398e-01 -1.769786328077316284e-02
5.014786124229431152e-01 -3.885239362716674805e-01 4.252468794584274292e-02
4.367901980876922607e-01 -5.401398539543151855e-01 1.056074257940053940e-02
4.570118486881256104e-01 -5.838465094566345215e-01 -2.136893272399902344e-01
4.420647025108337402e-01 -5.153507590293884277e-01 1.265825480222702026e-01
5.036704540252685547e-01 -5.850095152854919434e-01 1.693480908870697021e-01
4.936473071575164795e-01 -6.601330637931823730e-01 1.502800825983285904e-02
5.187025666236877441e-01 -4.677344560623168945e-01 -1.450207084417343140e-03
4.540446698665618896e-01 -4.009184241294860840e-01 5.524481460452079773e-02
4.489398896694183350e-01 -4.178630113601684570e-01 -7.978300750255584717e-02
5.103850364685058594e-01 -5.310884118080139160e-01 1.617929041385650635e-01
4.615185260772705078e-01 -6.498081684112548828e-01 -1.079337373375892639e-01
5.198438167572021484e-01 -5.274125337600708008e-01 -5.061800777912139893e-02
4.396589398384094238e-01 -5.468490719795227051e-01 -1.031384617090225220e-01
4.969084858894348145e-01 -6.548272371292114258e-01 -2.605213783681392670e-03
4.407947659492492676e-01 -5.398283004760742188e-01 1.093901321291923523e-01
5.166304111480712891e-01 -4.775608479976654053e-01 -1.119753122329711914e-01
4.716920256614685059e-01 -4.611434340476989746e-01 -2.628053426742553711e-01
5.024499297142028809e-01 -4.085217714309692383e-01 1.092007085680961609e-01
5.197380185127258301e-01 -5.227034091949462891e-01 3.285653889179229736e-02
4.466877877712249756e-01 -5.044052600860595703e-01 -1.851361542940139771e-01
5.005227327346801758e-01 -3.890540003776550293e-01 -9.434150904417037964e-02
5.102564692497253418e-01 -4.114097654819488525e-01 -2.517136745154857635e-03
5.183310508728027344e-01 -5.332831144332885742e-01 -8.995228260755538940e-02
5.195598602294921875e-01 -5.405851602554321289e-01 1.096337009221315384e-02
4.698361754417419434e-01 -6.669738292694091797e-01 5.983683839440345764e-02
5.194175839424133301e-01 -5.456671714782714844e-01 -2.105354517698287964e-02
4.741377234458923340e-01 -6.710919141769409180e-01 4.101289808750152588e-02
4.417575001716613770e-01 -5.587275028228759766e-01 1.100376918911933899e-01
4.583514928817749023e-01 -6.189504861831665039e-01 -1.717709898948669434e-01
5.057488083839416504e-01 -4.252083599567413330e-01 -1.551021039485931396e-01
4.477374553680419922e-01 -4.169426560401916504e-01 -3.855622559785842896e-02
4.438478946685791016e-01 -4.679541885852813721e-01 1.100161522626876831e-01
4.829417169094085693e-01 -5.544945001602172852e-01 2.533796131610870361e-01
5.149428844451904297e-01 -4.351412653923034668e-01 -2.688021585345268250e-02
4.484651982784271240e-01 -6.222801208496093750e-01 7.080733776092529297e-02
4.550428688526153564e-01 -4.060188531875610352e-01 8.890450745820999146e-02
5.048659443855285645e-01 -4.673137962818145752e-01 -2.110080718994140625e-01
4.860891103744506836e-01 -5.071751475334167480e-01 2.557204365730285645e-01
4.500401914119720459e-01 -5.056748986244201660e-01 -2.085376083850860596e-01
5.135715007781982422e-01 -5.961724519729614258e-01 -3.968671709299087524e-02
4.388566017150878906e-01 -5.085644721984863281e-01 -9.570497274398803711e-02
5.158042907714843750e-01 -4.822781682014465332e-01 9.841680526733398438e-02
5.111282467842102051e-01 -5.745717287063598633e-01 -1.436596512794494629e-01
4.876184165477752686e-01 -6.014490127563476562e-01 2.125015854835510254e-01
4.373308420181274414e-01 -4.962227940559387207e-01 -3.585578128695487976e-02
5.089631676673889160e-01 -5.512346625328063965e-01 -1.867979168891906738e-01
4.760078787803649902e-01 -6.606057882308959961e-01 -1.133223474025726318e-01
4.438595175743103027e-01 -8.021135330200195312e-01 -1.388937681913375854e-01
4.498853087425231934e-01 -7.562779188156127930e-01 5.264192074537277222e-02
4.756706953048706055e-01 -7.270953059196472168e-01 1.319642066955566406e-01
4.583012461662292480e-01 -8.410544395446777344e-01 -1.597464382648468018e-01
4.474862217903137207e-01 -7.841926813125610352e-01 8.601889759302139282e-02
5.026388764381408691e-01 -7.201701998710632324e-01 -6.740361452102661133e-02
4.457847774028778076e-01 -7.814734578132629395e-01 -1.634459197521209717e-01
4.724028408527374268e-01 -7.693300247192382812e-01 2.184489220380783081e-01
5.172439813613891602e-01 -7.572695016860961914e-01 -3.119286336004734039e-02
4.419733285903930664e-01 -7.998961806297302246e-01 -3.426040709018707275e-02
5.019434690475463867e-01 -8.305203318595886230e-01 3.674996644258499146e-02
4.466331601142883301e-01 -8.271393179893493652e-01 -8.420745283365249634e-02
4.824296534061431885e-01 -8.521347641944885254e-01 -7.964648306369781494e-02
4.508935809135437012e-01 -8.359223604202270508e-01 -1.138755306601524353e-02
5.149327516555786133e-01 -7.546463608741760254e-01 7.153179496526718140e-02
5.138123035430908203e-01 -7.450157999992370605e-01 5.747205018997192383e-02
4.562959372997283936e-01 -8.429416418075561523e-01 6.947081536054611206e-03
4.805203974246978760e-01 -7.954884171485900879e-01 -2.991673946380615234e-01
4.704725444316864014e-01 -8.105764389038085938e-01 1.951175928115844727e-01
4.571326076984405518e-01 -7.612497210502624512e-01 1.436902731657028198e-01
4.616855978965759277e-01 -7.462357282638549805e-01 -2.113052457571029663e-01
5.092667341232299805e-01 -7.278929352760314941e-01 -9.461969137191772461e-03
4.847443997859954834e-01 -7.175443172454833984e-01 9.601835906505584717e-02
4.561440646648406982e-01 -7.382665872573852539e-01 4.105406999588012695e-02
5.069726109504699707e-01 -7.326670885086059570e-01 -1.184766441583633423e-01
4.428820013999938965e-01 -8.028153181076049805e-01 -1.137310191988945007e-01
4.802286326885223389e-01 -8.502036333084106445e-01 3.208413720130920410e-02
4.724620580673217773e-01 -8.515374660491943359e-01 2.396581321954727173e-02
4.975293874740600586e-01 -7.248502969741821289e-01 1.177815645933151245e-01
5.007275938987731934e-01 -8.221736550331115723e-01 -1.735979765653610229e-01
4.697423577308654785e-01 -7.273519635200500488e-01 -1.655020713806152344e-01
5.164756178855895996e-01 -7.899330258369445801e-01 -4.550060257315635681e-02
4.949336051940917969e-01 -8.315361738204956055e-01 -1.766090840101242065e-01
4.503942728042602539e-01 -8.314298987388610840e-01 -1.390973478555679321e-01
4.538860917091369629e-01 -7.399635910987854004e-01 7.740449160337448120e-03
5.127224922180175781e-01 -7.365807294845581055e-01 -3.495358303189277649e-02
4.481880664825439453e-01 -8.120574951171875000e-01 -1.851952821016311646e-01
4.504389464855194092e-01 -8.357734680175781250e-01 -9.731845557689666748e-02
4.467452168464660645e-01 -8.263527154922485352e-01 -1.915733143687248230e-02
5.156102776527404785e-01 -7.518554925918579102e-01 -7.054438441991806030e-02
5.006629228591918945e-01 -7.326346635818481445e-01 -1.691422313451766968e-01
4.762674272060394287e-01 -7.317742705345153809e-01 1.537870615720748901e-01
5.106477141380310059e-01 -7.642072439193725586e-01 1.375958770513534546e-01
5.170433521270751953e-01 -7.579023838043212891e-01 2.383117005228996277e-02
