-2.197013497352600098e-01 3.591286838054656982e-01 -7.189288735389709473e-02
2.902534008026123047e-01 1.646479964256286621e-02 -3.217136263847351074e-01
2.212015390396118164e-01 -1.900528371334075928e-02 2.968186140060424805e-01
-2.308104932308197021e-02 4.696990549564361572e-01 -3.247257787734270096e-03
4.941972345113754272e-02 2.549687027931213379e-02 -5.126677155494689941e-01
2.935414016246795654e-02 4.402371644973754883e-01 -3.516322374343872070e-01
1.900783926248550415e-01 5.374590754508972168e-01 6.371112167835235596e-02
6.665523052215576172e-01 3.151744604110717773e-01 1.841759532690048218e-01
-1.405197083950042725e-01 3.815328478813171387e-01 2.394532263278961182e-01
-5.144368112087249756e-02 2.672673761844635010e-01 5.468393564224243164e-01
4.011484384536743164e-01 5.632030963897705078e-01 4.433298483490943909e-02
-1.153032034635543823e-01 3.245395123958587646e-01 -4.445104002952575684e-01
3.977242112159729004e-02 -1.999457180500030518e-02 -4.369104504585266113e-01
1.173454448580741882e-01 -8.613200485706329346e-02 9.061279892921447754e-02
-3.924028277397155762e-01 3.685419261455535889e-02 2.261228561401367188e-01
-1.395101249217987061e-01 -1.239115446805953979e-01 4.623448848724365234e-02
6.053314208984375000e-01 3.973712921142578125e-01 -3.397086262702941895e-01
5.332377552986145020e-01 3.753477036952972412e-01 4.306716620922088623e-01
5.793536305427551270e-01 5.138515830039978027e-01 -1.826477348804473877e-01
-4.060330986976623535e-01 9.778117388486862183e-02 -2.070198059082031250e-01
-1.664061844348907471e-01 3.128860294818878174e-01 -3.994430899620056152e-01
-1.936508119106292725e-01 -1.217345446348190308e-01 3.323211148381233215e-02
-3.135229647159576416e-02 -6.157289445400238037e-02 3.516833782196044922e-01
2.998025417327880859e-01 -1.712098717689514160e-03 -2.330691516399383545e-01
3.856878578662872314e-01 2.427447289228439331e-01 5.465908050537109375e-01
3.180591166019439697e-01 1.074130982160568237e-01 4.822230637073516846e-01
1.614841669797897339e-01 -1.361149549484252930e-02 -3.818418085575103760e-01
6.525395512580871582e-01 4.011126458644866943e-01 -2.479476928710937500e-01
4.669143259525299072e-01 1.109834387898445129e-01 -2.887598872184753418e-01
1.211125850677490234e-01 5.119990706443786621e-01 -1.665479838848114014e-01
5.834608078002929688e-01 2.504406869411468506e-01 -3.283144235610961914e-01
2.924878895282745361e-01 4.502299427986145020e-01 4.560160636901855469e-01
3.133594393730163574e-01 4.888604879379272461e-01 3.807249069213867188e-01
-1.389496624469757080e-01 2.132052779197692871e-01 5.220680236816406250e-01
1.891058534383773804e-01 4.931291937828063965e-01 3.202235400676727295e-01
3.457226455211639404e-01 5.403329133987426758e-01 -2.340541034936904907e-01
-1.579115688800811768e-01 2.951443791389465332e-01 4.213017821311950684e-01
-1.537111401557922363e-01 -7.409097254276275635e-02 -3.222758173942565918e-01
-2.707420587539672852e-01 1.187897175550460815e-01 -4.493182599544525146e-01
-2.115072309970855713e-01 -1.116706579923629761e-01 1.286724209785461426e-01
-3.562308549880981445e-01 5.748718976974487305e-03 -2.891685962677001953e-01
1.278397440910339355e-01 -7.446314394474029541e-02 1.728965044021606445e-01
2.517402172088623047e-01 6.200757622718811035e-02 -4.703612625598907471e-01
-3.580966889858245850e-01 1.822205930948257446e-01 2.342530786991119385e-01
3.458414077758789062e-01 7.729050517082214355e-02 -4.053958952426910400e-01
-7.552906870841979980e-03 1.707687377929687500e-01 5.984801054000854492e-01
-3.442851603031158447e-01 3.787842392921447754e-02 -3.366573452949523926e-01
5.717264115810394287e-02 4.790788292884826660e-01 2.217435091733932495e-01
6.306805610656738281e-01 4.910234808921813965e-01 1.358223259449005127e-01
3.957533240318298340e-01 5.314841270446777344e-01 -2.724879384040832520e-01
-1.946974098682403564e-01 -7.687671482563018799e-02 -2.984943389892578125e-01
4.024423062801361084e-01 5.212963819503784180e-01 2.910353243350982666e-01
3.014635741710662842e-01 5.443040728569030762e-01 -1.941282004117965698e-01
-2.709328830242156982e-01 2.612105011940002441e-01 2.974970042705535889e-01
4.842226505279541016e-01 1.777195632457733154e-01 -3.987661004066467285e-01
-4.235104322433471680e-01 6.815257668495178223e-02 -1.495212614536285400e-01
7.847133278846740723e-02 -5.621324479579925537e-02 -3.206456899642944336e-01
6.671628952026367188e-01 2.670551538467407227e-01 4.249753057956695557e-02
5.038819909095764160e-01 1.608414947986602783e-01 3.335740566253662109e-01
2.438019216060638428e-01 5.383300185203552246e-01 -1.812972128391265869e-01
4.880005419254302979e-01 5.019749402999877930e-01 -3.210257887840270996e-01
2.795445919036865234e-01 3.590907156467437744e-02 -3.903011679649353027e-01
-2.250026762485504150e-01 3.521513342857360840e-01 8.875779062509536743e-02
1.911832690238952637e-01 -6.714229285717010498e-02 1.571948174387216568e-03
3.275612592697143555e-01 6.255418062210083008e-03 2.048386782407760620e-01
-6.417450308799743652e-02 -1.403804123401641846e-02 4.541554749011993408e-01
-1.561546325683593750e-01 3.444831073284149170e-01 -3.463153541088104248e-01
-3.507384359836578369e-01 -6.475521624088287354e-02 1.275981366634368896e-01
2.057879865169525146e-01 2.940877974033355713e-01 -6.152334213256835938e-01
-1.265947818756103516e-01 3.895018100738525391e-01 -2.624661624431610107e-01
-7.469281554222106934e-02 3.688848018646240234e-02 5.177960991859436035e-01
-6.823800504207611084e-02 -1.093659251928329468e-01 -1.768725216388702393e-01
5.862957239151000977e-01 1.651910245418548584e-01 5.669024586677551270e-02
-4.084526896476745605e-01 -2.082556486129760742e-03 -1.465532183647155762e-01
-2.334144711494445801e-01 8.619758486747741699e-02 -4.823542535305023193e-01
1.636289954185485840e-01 -7.151009142398834229e-02 1.063658893108367920e-01
6.425316333770751953e-01 4.907284379005432129e-01 -1.016967594623565674e-01
-2.399356365203857422e-01 3.076707720756530762e-01 -2.727025151252746582e-01
-7.355162501335144043e-02 3.728314638137817383e-01 3.808360397815704346e-01
3.159292042255401611e-01 -1.454572379589080811e-02 8.230920881032943726e-02
4.095263779163360596e-01 4.052541851997375488e-01 4.931873679161071777e-01
-3.980662822723388672e-01 -2.397909760475158691e-02 1.173169240355491638e-01
2.213770449161529541e-01 5.261769294738769531e-01 -2.304688543081283569e-01
6.680734753608703613e-01 4.742793440818786621e-01 -1.941926032304763794e-02
6.322686076164245605e-01 4.835379719734191895e-01 -1.670402139425277710e-01
4.292661249637603760e-01 7.700942456722259521e-02 -2.641734778881072998e-01
2.111577242612838745e-01 5.369933843612670898e-01 -1.435139626264572144e-01
3.881832659244537354e-01 1.891483962535858154e-01 5.138407349586486816e-01
-1.735773682594299316e-01 2.213355451822280884e-01 -5.043349266052246094e-01
3.069982528686523438e-01 5.517681241035461426e-01 1.259024739265441895e-01
-4.171304404735565186e-02 3.913325369358062744e-01 -3.973034322261810303e-01
2.335570156574249268e-01 8.036567270755767822e-02 5.065122842788696289e-01
7.524394989013671875e-02 -9.182216227054595947e-02 -1.438758373260498047e-01
5.722118616104125977e-01 2.030449807643890381e-01 -2.747360467910766602e-01
3.496092855930328369e-01 3.880180716514587402e-01 5.276061296463012695e-01
6.651390790939331055e-01 2.886723875999450684e-01 1.454188674688339233e-01
2.701956331729888916e-01 5.249118804931640625e-01 -2.733431458473205566e-01
-3.442470431327819824e-01 -8.163152635097503662e-02 1.936240121722221375e-02
1.652338802814483643e-01 5.328321456909179688e-01 -5.649560689926147461e-02
-1.299879550933837891e-01 -3.347896039485931396e-02 -4.199309945106506348e-01
6.819268465042114258e-01 3.597604334354400635e-01 -1.648228615522384644e-01
5.302426815032958984e-01 1.747771054506301880e-01 -3.118218183517456055e-01
-2.978164255619049072e-01 -4.916436970233917236e-02 2.709009945392608643e-01
4.199619889259338379e-01 2.264913767576217651e-01 5.138846635818481445e-01
-3.690748214721679688e-01 8.548802137374877930e-02 2.889767885208129883e-01
4.095462858676910400e-01 4.673013687133789062e-01 4.140715003013610840e-01
3.004269599914550781e-01 5.581771731376647949e-01 2.349461615085601807e-02
1.808750927448272705e-01 1.309038698673248291e-02 -4.306052029132843018e-01
3.082700669765472412e-01 -1.954576373100280762e-02 -5.798706412315368652e-02
6.028009653091430664e-01 3.089213669300079346e-01 -3.433524072170257568e-01
-1.922234296798706055e-01 -1.206232160329818726e-01 -6.683716922998428345e-02
3.598104715347290039e-01 5.624622106552124023e-03 -6.095829606056213379e-02
-1.453152000904083252e-01 4.075880050659179688e-01 -5.179524794220924377e-02
4.912135303020477295e-01 5.469993948936462402e-01 -1.513808518648147583e-01
2.336829602718353271e-01 4.689821600914001465e-02 4.533159732818603516e-01
4.197120070457458496e-01 5.451943874359130859e-01 1.926715373992919922e-01
1.309491395950317383e-01 5.024430751800537109e-01 -2.432100474834442139e-01
-3.450024425983428955e-01 5.299592018127441406e-02 3.275575637817382812e-01
3.292837738990783691e-02 6.592641770839691162e-02 -5.625272989273071289e-01
4.350864589214324951e-01 5.635793507099151611e-02 -1.450561583042144775e-01
5.190292596817016602e-01 2.264222949743270874e-01 4.059506356716156006e-01
-1.465286910533905029e-01 -8.178640902042388916e-02 2.931852042675018311e-01
2.027942240238189697e-01 5.017876625061035156e-01 -3.190804123878479004e-01
3.157800137996673584e-01 4.528979063034057617e-01 -4.670686721801757812e-01
-2.644379436969757080e-01 -4.872368276119232178e-02 3.078569173812866211e-01
3.545108437538146973e-01 4.569024145603179932e-01 4.431399703025817871e-01
-1.165503114461898804e-01 -1.179324835538864136e-01 -1.283821761608123779e-01
4.579125642776489258e-01 2.597316205501556396e-01 -5.042983293533325195e-01
2.959231138229370117e-01 1.947283297777175903e-01 -5.836212038993835449e-01
5.862736701965332031e-01 1.878202557563781738e-01 1.880738288164138794e-01
-2.905831336975097656e-01 -8.194310963153839111e-02 1.839718371629714966e-01
5.340349674224853516e-01 1.535803973674774170e-01 -2.489219456911087036e-01
-3.892038464546203613e-01 1.818697452545166016e-01 -1.311433464288711548e-01
5.594826489686965942e-02 5.001458525657653809e-01 -4.906542226672172546e-02
6.422463655471801758e-01 2.333200722932815552e-01 -8.490994572639465332e-02
-3.108214735984802246e-01 -7.397048175334930420e-02 -1.927639991044998169e-01
1.827767044305801392e-01 -6.754235923290252686e-02 -7.898175716400146484e-02
-1.618713438510894775e-01 3.892818093299865723e-01 1.299409717321395874e-01
6.560776233673095703e-01 2.642046809196472168e-01 -1.285759359598159790e-01
-2.291183471679687500e-01 1.527474820613861084e-01 -4.861056804656982422e-01
-4.666380584239959717e-02 1.056732833385467529e-01 -5.839871168136596680e-01
4.831100404262542725e-01 1.075391918420791626e-01 -2.367120087146759033e-01
2.079453170299530029e-01 -3.591333329677581787e-02 -2.495531737804412842e-01
-2.957088053226470947e-01 2.711155414581298828e-01 -2.275439500808715820e-01
5.215505361557006836e-01 1.066038534045219421e-01 1.741958409547805786e-02
5.576122999191284180e-01 4.761031270027160645e-01 3.018643558025360107e-01
-2.640830874443054199e-01 2.136963605880737305e-01 -4.033918082714080811e-01
5.593289136886596680e-01 4.990843534469604492e-01 -2.602639198303222656e-01
3.558467030525207520e-01 5.103627443313598633e-01 3.277493417263031006e-01
1.787658333778381348e-01 1.139462292194366455e-01 -5.762361288070678711e-01
1.424870193004608154e-01 -5.852986872196197510e-02 2.406776994466781616e-01
5.619077086448669434e-01 4.004203081130981445e-01 3.871928751468658447e-01
-2.028523683547973633e-01 -8.673597872257232666e-02 2.539240121841430664e-01
2.504300475120544434e-01 -4.485230147838592529e-02 -4.000791907310485840e-02
4.708143770694732666e-01 5.540944933891296387e-01 1.061593890190124512e-01
5.415388345718383789e-01 1.460820436477661133e-01 1.980270892381668091e-01
3.634535670280456543e-01 2.876906096935272217e-02 2.254487574100494385e-01
2.732508182525634766e-01 -3.311546146869659424e-02 -8.768639713525772095e-02
-1.625320315361022949e-01 3.599578738212585449e-01 -2.888913750648498535e-01
5.423873066902160645e-01 2.870654761791229248e-01 4.193394482135772705e-01
5.093209743499755859e-01 3.889851570129394531e-01 -4.543701410293579102e-01
2.606721222400665283e-01 5.254504680633544922e-01 2.473895698785781860e-01
5.657306313514709473e-01 1.635972559452056885e-01 -1.780428588390350342e-01
-8.096508681774139404e-02 -6.900654733180999756e-02 -3.444121778011322021e-01
4.990315139293670654e-01 1.315074265003204346e-01 2.727530896663665771e-01
5.019892454147338867e-01 2.913611531257629395e-01 -4.734731614589691162e-01
2.617478668689727783e-01 4.241676926612854004e-01 -5.088745951652526855e-01
2.668797671794891357e-01 3.163535892963409424e-01 5.885871648788452148e-01
-5.508525669574737549e-02 1.899473071098327637e-01 5.806261301040649414e-01
5.921877622604370117e-01 4.439834058284759521e-01 3.088660836219787598e-01
1.138870567083358765e-01 1.099835112690925598e-01 5.817073583602905273e-01
3.458145856857299805e-01 4.160602390766143799e-02 -3.129673004150390625e-01
-1.805439293384552002e-01 1.785766333341598511e-01 -5.213913321495056152e-01
1.968657076358795166e-01 5.345057249069213867e-01 1.189925298094749451e-01
-2.460702955722808838e-01 2.597516179084777832e-01 3.486521244049072266e-01
-7.790608704090118408e-02 -1.203700155019760132e-01 7.699442654848098755e-02
-3.257909119129180908e-01 1.821559220552444458e-01 -3.316417634487152100e-01
-1.286005973815917969e-02 -1.045929938554763794e-01 1.651522815227508545e-01
-7.538989186286926270e-02 4.413368105888366699e-01 8.941628038883209229e-02
-9.312367439270019531e-02 -1.228884011507034302e-01 -5.339833348989486694e-02
-1.487425565719604492e-01 -1.006380468606948853e-01 2.229862064123153687e-01
-2.414567172527313232e-01 1.951930075883865356e-01 -4.509994983673095703e-01
3.705006837844848633e-01 4.307804703712463379e-01 -4.909862577915191650e-01
-2.853914797306060791e-01 3.098729848861694336e-01 1.273942366242408752e-02
5.632209181785583496e-01 1.427840590476989746e-01 -4.944068193435668945e-02
5.234159827232360840e-01 5.250325798988342285e-01 -2.222491204738616943e-01
4.358449280261993408e-01 4.695941507816314697e-02 -3.413663012906908989e-03
1.527701914310455322e-01 4.840822219848632812e-01 -3.402302265167236328e-01
-1.925938725471496582e-01 1.723349839448928833e-01 4.970293045043945312e-01
-1.825812458992004395e-01 -5.697371065616607666e-02 3.457878828048706055e-01
-1.821866035461425781e-01 -1.088915318250656128e-01 1.689437776803970337e-01
1.589429974555969238e-01 4.154281020164489746e-01 -4.988957643508911133e-01
-2.425032854080200195e-01 -3.002932667732238770e-02 3.608065843582153320e-01
-4.671005904674530029e-02 8.735609054565429688e-02 5.629238486289978027e-01
1.662397086620330811e-01 -5.350215733051300049e-02 -2.325739860534667969e-01
-7.918630540370941162e-02 2.738154232501983643e-01 -5.398576855659484863e-01
4.348887205123901367e-01 4.999919533729553223e-01 3.400952517986297607e-01
1.682371646165847778e-02 4.799595475196838379e-01 1.131446287035942078e-01
-2.180841565132141113e-01 2.946396172046661377e-01 -3.522169589996337891e-01
2.348492741584777832e-01 2.340525537729263306e-01 -6.181403398513793945e-01
3.123279809951782227e-01 4.896349310874938965e-01 -3.947403430938720703e-01
6.678602695465087891e-01 4.048584103584289551e-01 1.982703208923339844e-01
4.518009722232818604e-01 9.762417525053024292e-02 2.801751494407653809e-01
2.855970859527587891e-01 -2.064757049083709717e-02 -1.584708392620086670e-01
4.430407881736755371e-01 1.804934442043304443e-01 4.523171186447143555e-01
4.691463708877563477e-01 5.317861437797546387e-01 2.294397503137588501e-01
4.091065526008605957e-01 5.515939593315124512e-01 -1.746353060007095337e-01
4.727637469768524170e-01 1.162607818841934204e-01 -7.027821987867355347e-02
-3.234802484512329102e-01 -2.557953894138336182e-01 -4.170984625816345215e-01
1.211914122104644775e-01 -5.285131931304931641e-02 5.502840280532836914e-01
7.657933235168457031e-02 5.492089688777923584e-02 3.838124573230743408e-01
1.622054278850555420e-01 -4.092530012130737305e-01 -5.009120106697082520e-01
-6.110967695713043213e-02 4.676757752895355225e-02 3.072765767574310303e-01
5.316960439085960388e-02 -5.778957009315490723e-01 1.106721311807632446e-01
5.953341722488403320e-01 -1.030378788709640503e-01 3.424704670906066895e-01
5.603039264678955078e-01 1.100485026836395264e-02 -2.828437387943267822e-01
-2.669931650161743164e-01 -6.064414978027343750e-03 -1.200185790657997131e-01
4.999568164348602295e-01 -9.420821070671081543e-02 4.524959027767181396e-01
3.718180954456329346e-01 -3.946242332458496094e-01 4.251155853271484375e-01
2.892220020294189453e-01 -4.452521800994873047e-01 4.099864959716796875e-01
1.937089860439300537e-01 1.500000506639480591e-01 -6.463786214590072632e-02
3.673336505889892578e-01 -2.999030947685241699e-01 -5.069093704223632812e-01
2.832579016685485840e-01 8.514954149723052979e-02 -3.635505735874176025e-01
-5.704826116561889648e-02 -3.185405731201171875e-01 -5.774526596069335938e-01
-4.300210475921630859e-01 -4.306743741035461426e-01 6.120170466601848602e-03
3.902134299278259277e-02 -3.688092827796936035e-01 5.760906338691711426e-01
-1.496009528636932373e-03 -4.369739294052124023e-01 -4.872573316097259521e-01
-1.978802680969238281e-02 -4.639707207679748535e-01 -4.478653073310852051e-01
5.117137432098388672e-01 7.849819958209991455e-02 -1.990062147378921509e-01
-2.060246467590332031e-02 -3.571909666061401367e-01 5.766584873199462891e-01
1.162783280014991760e-01 1.432237178087234497e-01 -4.922177642583847046e-03
2.624168992042541504e-04 -1.933422386646270752e-01 6.074070334434509277e-01
5.654315948486328125e-01 4.470397531986236572e-02 -1.997637301683425903e-01
-4.291573166847229004e-01 -1.707736551761627197e-01 7.544509321451187134e-02
5.245984792709350586e-01 -3.449265956878662109e-01 -2.712773680686950684e-01
6.172315478324890137e-01 -4.524081945419311523e-02 -2.559411823749542236e-01
6.571553349494934082e-01 -1.424890756607055664e-01 -2.061047106981277466e-01
4.810035228729248047e-03 -5.807710886001586914e-01 1.109622791409492493e-01
-4.666008353233337402e-01 -3.044686913490295410e-01 -8.857375383377075195e-02
-3.735253214836120605e-02 -5.811644792556762695e-01 -7.458624243736267090e-02
3.457057774066925049e-01 -2.589770555496215820e-01 -5.456094741821289062e-01
4.807584881782531738e-01 -4.374089241027832031e-01 -6.168722640722990036e-03
1.851797103881835938e-01 1.428679972887039185e-01 1.133761852979660034e-01
-1.231612116098403931e-01 -1.791062504053115845e-01 -5.611159801483154297e-01
-3.774419128894805908e-01 -1.481755375862121582e-01 2.270444184541702271e-01
-1.172056645154953003e-01 -5.470047593116760254e-01 -2.365987598896026611e-01
6.875833868980407715e-01 -1.683056205511093140e-01 -3.910992294549942017e-02
5.121076107025146484e-01 -5.488823354244232178e-02 4.163060784339904785e-01
5.708187818527221680e-03 -5.840937495231628418e-01 -1.841762289404869080e-02
2.952334284782409668e-01 3.588758409023284912e-02 4.364925324916839600e-01
-3.407318294048309326e-01 -1.262244582176208496e-01 2.738828957080841064e-01
6.813965439796447754e-01 -6.756699085235595703e-02 -4.757377877831459045e-02
2.954728901386260986e-01 -2.809761762619018555e-01 -5.602898001670837402e-01
2.774725854396820068e-01 -3.211863040924072266e-01 5.632758736610412598e-01
-2.332817614078521729e-01 -4.263388514518737793e-01 -4.141606092453002930e-01
6.271883249282836914e-01 -2.345602214336395264e-01 2.466242462396621704e-01
-4.664199352264404297e-01 -2.547133266925811768e-01 1.968585327267646790e-02
4.811103641986846924e-01 -3.290683925151824951e-01 3.960772454738616943e-01
5.345218181610107422e-01 1.958914101123809814e-02 3.015528023242950439e-01
2.354584336280822754e-01 -5.160909891128540039e-01 2.731619477272033691e-01
4.484518170356750488e-01 -1.095787435770034790e-01 5.006478428840637207e-01
6.525059342384338379e-01 -2.636310756206512451e-01 -3.212581202387809753e-02
3.235186338424682617e-01 -5.159609913825988770e-01 -4.729727283120155334e-02
-1.079003810882568359e-01 -4.060575366020202637e-02 4.401026070117950439e-01
-4.079908728599548340e-01 -4.518681764602661133e-01 -6.660348176956176758e-02
-7.714430987834930420e-02 -3.543199300765991211e-01 5.642477273941040039e-01
5.041147768497467041e-02 8.611719310283660889e-02 -3.171827793121337891e-01
3.173727989196777344e-01 1.206856518983840942e-01 -2.490950673818588257e-01
5.288233757019042969e-01 -2.980026602745056152e-02 -3.761618137359619141e-01
2.814813256263732910e-01 -4.749680757522583008e-01 -3.150866627693176270e-01
5.178014636039733887e-01 9.954510629177093506e-02 -4.983645305037498474e-02
5.797659754753112793e-01 -2.349949181079864502e-01 -3.239291906356811523e-01
-3.778373599052429199e-01 -1.077758818864822388e-01 -1.395458877086639404e-01
-3.987318277359008789e-01 -1.246228292584419250e-01 7.159794867038726807e-02
-1.492381691932678223e-01 -9.134125709533691406e-02 -4.889308810234069824e-01
-1.906130909919738770e-01 -4.979691505432128906e-01 3.510207235813140869e-01
1.613253355026245117e-01 -4.274505376815795898e-01 5.047451853752136230e-01
-4.576858878135681152e-01 -2.241780012845993042e-01 -4.101055487990379333e-02
5.388131737709045410e-01 -8.773455023765563965e-02 -4.039289355278015137e-01
8.784921467304229736e-02 -5.300210714340209961e-01 -2.939249873161315918e-01
2.427887916564941406e-01 -9.444038569927215576e-02 -5.823569893836975098e-01
4.379548132419586182e-01 9.489698708057403564e-02 -2.483424693346023560e-01
1.658601164817810059e-01 1.090214103460311890e-01 -2.989654839038848877e-01
9.757947921752929688e-02 -5.039696097373962402e-01 -3.600365817546844482e-01
9.703171998262405396e-02 -4.757743477821350098e-01 4.488212466239929199e-01
-8.263829350471496582e-02 -2.409032285213470459e-01 5.881876349449157715e-01
1.810502111911773682e-01 -5.614567995071411133e-01 4.710950702428817749e-02
-4.486281275749206543e-01 -2.248587310314178467e-01 1.101175695657730103e-01
-6.967870891094207764e-02 -1.324222981929779053e-01 5.555516481399536133e-01
-2.747545838356018066e-01 -4.613786935806274414e-03 -1.403189636766910553e-02
-4.541203379631042480e-01 -2.196989357471466064e-01 5.474467203021049500e-02
2.256153523921966553e-01 -2.065632343292236328e-01 6.145838499069213867e-01
3.552254736423492432e-01 1.407203525304794312e-01 -1.100312694907188416e-01
-1.060819625854492188e-02 7.355247437953948975e-02 -3.072573244571685791e-01
1.471266746520996094e-01 -5.535332560539245605e-01 1.994848847389221191e-01
-1.759785413742065430e-02 -2.568435370922088623e-01 6.090142726898193359e-01
6.099992394447326660e-01 -2.826780378818511963e-01 2.204394787549972534e-01
-2.985502183437347412e-01 -5.326517224311828613e-01 2.807045588269829750e-03
5.735315084457397461e-01 -1.414290368556976318e-01 3.840878307819366455e-01
1.034578904509544373e-01 -5.569906830787658691e-01 2.194324731826782227e-01
4.010996967554092407e-02 -2.372415959835052490e-01 6.205791234970092773e-01
2.387756109237670898e-01 1.392032355070114136e-01 -1.811548024415969849e-01
-4.511700272560119629e-01 -3.110390901565551758e-01 1.615329533815383911e-01
-3.384755551815032959e-01 -8.243633806705474854e-02 -2.024593502283096313e-01
5.955833196640014648e-01 -1.897025108337402344e-02 2.681931853294372559e-01
3.735460937023162842e-01 1.024543195962905884e-01 2.612507939338684082e-01
1.372185498476028442e-01 -5.172159075736999512e-01 3.448593616485595703e-01
-1.653891205787658691e-01 -5.492839217185974121e-01 -1.960432380437850952e-01
-3.095097839832305908e-01 -2.996917366981506348e-01 4.296071231365203857e-01
3.638566434383392334e-01 -4.823398590087890625e-01 2.099522650241851807e-01
3.477647900581359863e-01 -1.870693415403366089e-01 -5.644041299819946289e-01
-3.119213879108428955e-02 1.000274866819381714e-01 -1.640664339065551758e-01
1.644141376018524170e-01 -2.624188661575317383e-01 6.189473271369934082e-01
-1.280361264944076538e-01 -4.052980244159698486e-01 5.099759101867675781e-01
-4.087867736816406250e-01 -3.457403779029846191e-01 2.674020826816558838e-01
5.470211505889892578e-01 -3.569841384887695312e-01 2.221172153949737549e-01
-3.258211612701416016e-01 -4.580837488174438477e-01 -2.694652378559112549e-01
-1.542333066463470459e-01 -1.475915908813476562e-01 -5.286180377006530762e-01
6.310382485389709473e-01 2.316683530807495117e-04 1.404421925544738770e-01
-1.128585636615753174e-02 -4.848785400390625000e-01 4.405145943164825439e-01
-1.030007898807525635e-01 3.680495917797088623e-02 -3.166552782058715820e-01
4.805447757244110107e-01 -4.037600457668304443e-01 -2.135960161685943604e-01
6.803112626075744629e-01 -1.729454696178436279e-01 -9.547610580921173096e-02
2.802178263664245605e-01 -5.327290296554565430e-01 -3.093413449823856354e-02
-2.121933698654174805e-01 2.804672718048095703e-02 8.971355110406875610e-02
6.788513660430908203e-01 -2.081594467163085938e-01 3.360416740179061890e-02
3.027873933315277100e-01 -4.818437099456787109e-01 3.098671138286590576e-01
-2.165590822696685791e-01 -1.913011223077774048e-01 4.949676692485809326e-01
-2.142035961151123047e-01 -4.284207224845886230e-01 4.396658241748809814e-01
6.535902619361877441e-01 -1.180320978164672852e-02 6.733373552560806274e-02
4.322628676891326904e-01 -4.465889334678649902e-01 2.088478207588195801e-01
4.996977448463439941e-01 -2.267918437719345093e-01 -4.385885894298553467e-01
6.857182383537292480e-01 -8.415761590003967285e-02 5.789408087730407715e-02
3.258727192878723145e-01 1.445235162973403931e-01 8.298534154891967773e-02
-1.639772653579711914e-01 -5.618502497673034668e-01 1.634323745965957642e-01
-1.314598917961120605e-01 5.403824150562286377e-02 -2.110711485147476196e-01
-1.321151554584503174e-01 -1.692451238632202148e-01 5.436102747917175293e-01
-3.184284865856170654e-01 -3.544582128524780273e-01 -4.000610709190368652e-01
-3.141352832317352295e-01 -4.992216825485229492e-01 -1.819512248039245605e-01
1.343271434307098389e-01 -3.429140150547027588e-02 -5.469496250152587891e-01
1.058927401900291443e-01 -4.323637485504150391e-01 5.114670991897583008e-01
-3.784383833408355713e-01 -3.682462573051452637e-01 -3.085894882678985596e-01
4.169574677944183350e-01 -2.521414756774902344e-01 -5.014294385910034180e-01
4.975467920303344727e-01 -8.922204375267028809e-03 3.845967650413513184e-01
1.755678802728652954e-01 6.122486293315887451e-02 -4.197175800800323486e-01
2.821918725967407227e-01 -5.121120214462280273e-01 2.266419380903244019e-01
-5.031615495681762695e-02 -5.417425036430358887e-01 3.065219521522521973e-01
3.013781607151031494e-01 1.502131968736648560e-01 2.815339341759681702e-02
-1.677952408790588379e-01 4.941566288471221924e-02 1.062621772289276123e-01
-2.754226028919219971e-01 -1.171338856220245361e-01 3.698512613773345947e-01
-2.552433907985687256e-01 -3.352717757225036621e-01 -4.704285860061645508e-01
5.530637130141258240e-02 -4.960407018661499023e-01 4.184001386165618896e-01
3.777074515819549561e-01 1.208295375108718872e-01 -2.099320590496063232e-01
5.619504451751708984e-01 -2.112829536199569702e-01 -3.686638474464416504e-01
6.045768260955810547e-01 3.649865090847015381e-02 -1.108821779489517212e-01
4.869510233402252197e-01 -4.234699606895446777e-01 1.479873657226562500e-01
-2.052110135555267334e-01 -1.622432172298431396e-01 -4.998020529747009277e-01
-7.972949743270874023e-02 -4.594719111919403076e-01 -4.447679519653320312e-01
2.940303981304168701e-01 -1.250986456871032715e-01 5.818023085594177246e-01
-3.716669380664825439e-01 -4.042603969573974609e-01 2.891691923141479492e-01
5.851188302040100098e-01 -3.876765072345733643e-02 -3.083381652832031250e-01
-1.733096241950988770e-01 -1.839945912361145020e-01 5.243914723396301270e-01
8.304046094417572021e-02 7.500593364238739014e-02 -3.656992912292480469e-01
1.272189766168594360e-01 -2.026396989822387695e-01 6.245900392532348633e-01
-1.380586922168731689e-01 -4.771697521209716797e-01 4.192181229591369629e-01
5.057679414749145508e-01 1.008228510618209839e-01 8.323118090629577637e-02
3.564479947090148926e-01 -3.870494365692138672e-01 -4.199348688125610352e-01
-2.809149026870727539e-02 -1.826417893171310425e-01 -6.001948118209838867e-01
-2.827585041522979736e-01 -1.487913727760314941e-02 7.086583226919174194e-02
5.508239269256591797e-01 -2.650831043720245361e-01 3.681877255439758301e-01
2.845225632190704346e-01 -2.596798837184906006e-01 5.898877978324890137e-01
3.965377807617187500e-03 8.843661844730377197e-02 2.402375638484954834e-01
1.787430346012115479e-01 1.500791460275650024e-01 -4.868452437222003937e-03
8.778383582830429077e-02 3.821386396884918213e-02 -4.439032375812530518e-01
-2.956018149852752686e-01 -4.432110786437988281e-01 3.474754095077514648e-01
-1.469803750514984131e-01 -3.650374114513397217e-01 5.305472612380981445e-01
1.754993796348571777e-01 1.313632875680923462e-01 -2.114633619785308838e-01
-1.861211359500885010e-01 -3.754631280899047852e-01 5.030734539031982422e-01
2.812563478946685791e-01 1.448102444410324097e-01 1.090033128857612610e-01
7.431034743785858154e-02 -5.553348660469055176e-01 -2.067921310663223267e-01
-1.514305472373962402e-01 -5.737925767898559570e-01 -4.574607685208320618e-02
-4.266026616096496582e-01 -2.257257103919982910e-01 2.011961489915847778e-01
3.725556433200836182e-01 2.894853055477142334e-02 4.202679097652435303e-01
2.808430790901184082e-01 -1.943071037530899048e-01 6.000444293022155762e-01
-6.427337229251861572e-02 -4.879883527755737305e-01 -4.011886715888977051e-01
-4.195412993431091309e-01 -3.259057998657226562e-01 -2.547660470008850098e-01
6.523625850677490234e-01 -1.768833249807357788e-01 2.257958501577377319e-01
3.205415606498718262e-01 -3.434878289699554443e-01 5.241647958755493164e-01
2.636047005653381348e-01 -2.514563500881195068e-02 5.206256508827209473e-01
-4.049006104469299316e-02 -5.849739909172058105e-01 -5.331700202077627182e-03
-2.761847972869873047e-01 -1.674867570400238037e-01 -4.351930916309356689e-01
-3.688930273056030273e-01 -2.151775956153869629e-01 -3.373557627201080322e-01
4.049526751041412354e-01 -1.999180018901824951e-01 5.420277118682861328e-01
2.740704268217086792e-02 -5.725077986717224121e-01 1.724208146333694458e-01
2.489291727542877197e-01 1.527286618947982788e-01 -2.375335991382598877e-02
3.263357281684875488e-01 9.946919977664947510e-02 -3.140157759189605713e-01
-2.913138866424560547e-01 -1.240407153964042664e-01 -3.754912614822387695e-01
2.678765952587127686e-01 9.919096529483795166e-02 3.092892467975616455e-01
-2.672156095504760742e-01 -1.482457071542739868e-01 4.147441685199737549e-01
4.622901380062103271e-01 5.421821773052215576e-02 -3.266052901744842529e-01
-3.409047722816467285e-01 -1.741894185543060303e-01 -3.531526625156402588e-01
-8.062186837196350098e-02 -5.720258355140686035e-01 1.696631014347076416e-01
2.397284209728240967e-01 4.082037508487701416e-02 4.370100796222686768e-01
-9.621188044548034668e-02 -5.817604064941406250e-01 5.497884377837181091e-02
-3.470095396041870117e-01 -4.977664947509765625e-01 -9.921135008335113525e-02
-9.799160063266754150e-03 5.737765133380889893e-02 -3.534574806690216064e-01
-1.415486037731170654e-01 2.476522326469421387e-02 2.709572613239288330e-01
-1.800858676433563232e-01 -3.995555639266967773e-01 -4.762024879455566406e-01
6.456263363361358643e-02 -4.059140682220458984e-01 5.450988411903381348e-01
2.181009054183959961e-01 -2.192990034818649292e-01 -6.076346635818481445e-01
-1.853808462619781494e-01 -1.988555490970611572e-02 3.242723941802978516e-01
2.880107760429382324e-01 -5.313216447830200195e-01 3.175136819481849670e-02
-6.874279677867889404e-02 2.378562092781066895e-02 3.568716645240783691e-01
-4.711801409721374512e-01 -3.198349773883819580e-01 1.523585245013237000e-02
3.985967040061950684e-01 -3.203160762786865234e-01 4.900400340557098389e-01
-4.546830058097839355e-02 6.273239850997924805e-04 4.204266965389251709e-01
-1.037515252828598022e-01 -5.107829570770263672e-01 -3.442935645580291748e-01
-4.447177052497863770e-01 -4.010272622108459473e-01 6.690424680709838867e-02
2.921018004417419434e-01 -7.132259011268615723e-02 5.536554455757141113e-01
2.941308021545410156e-01 -7.133066654205322266e-03 -5.054822564125061035e-01
4.071319401264190674e-01 -3.610066771507263184e-01 4.386667609214782715e-01
1.851011216640472412e-01 -4.718661308288574219e-01 4.254542589187622070e-01
-2.314737141132354736e-01 -5.443416833877563477e-01 1.640540808439254761e-01
6.361424922943115234e-01 -1.976191550493240356e-01 -2.367058247327804565e-01
-3.323801159858703613e-01 -2.329213023185729980e-01 3.911343216896057129e-01
1.712585985660552979e-01 -1.641745865345001221e-01 -6.149688363075256348e-01
1.129922196269035339e-01 -4.594914317131042480e-01 -4.431078135967254639e-01
-1.979221701622009277e-01 -5.417357087135314941e-01 2.226343005895614624e-01
2.152306735515594482e-01 1.196949332952499390e-01 -2.701645791530609131e-01
2.164143025875091553e-01 -5.003523230552673340e-01 3.410102427005767822e-01
4.570802152156829834e-01 -3.843056559562683105e-01 3.407254517078399658e-01
2.009140253067016602e-01 1.172982901334762573e-01 2.509318292140960693e-01
2.052683532238006592e-01 -1.766125857830047607e-02 5.186131596565246582e-01
4.147262573242187500e-01 1.198770850896835327e-01 -1.741943359375000000e-01
4.367279410362243652e-01 9.317953884601593018e-02 2.393052428960800171e-01
6.403387188911437988e-01 -2.708714604377746582e-01 1.271594315767288208e-01
-2.059971690177917480e-01 -8.511836826801300049e-02 -4.318858385086059570e-01
3.087176084518432617e-01 -3.165211975574493408e-01 -5.303251743316650391e-01
4.586089253425598145e-01 -4.464818835258483887e-01 1.156795099377632141e-01
2.677564620971679688e-01 1.497534662485122681e-01 6.225260719656944275e-02
-1.291858404874801636e-02 -9.113059937953948975e-02 5.495289564132690430e-01
-4.421278834342956543e-01 -2.681614160537719727e-01 1.851815879344940186e-01
-4.279072284698486328e-01 -4.190317988395690918e-01 1.097498387098312378e-01
-3.362661600112915039e-01 -1.850474327802658081e-01 3.549889028072357178e-01
-4.945857822895050049e-02 -5.628617405891418457e-01 2.284558564424514771e-01
3.278673887252807617e-01 -2.898538112640380859e-02 5.082421302795410156e-01
-1.051795780658721924e-01 -5.779833197593688965e-01 1.025230363011360168e-01
4.213542342185974121e-01 -3.754545450210571289e-01 -3.719091415405273438e-01
-3.786725103855133057e-01 -1.323914229869842529e-01 -2.115973085165023804e-01
4.442124962806701660e-01 -1.828884482383728027e-01 -5.037716031074523926e-01
2.556527256965637207e-01 2.093143761157989502e-02 -4.808157086372375488e-01
7.768917828798294067e-02 1.126302331686019897e-01 2.104594707489013672e-01
1.353952288627624512e-01 1.070996075868606567e-01 2.677409052848815918e-01
5.556703209877014160e-01 3.384624421596527100e-02 2.409024238586425781e-01
4.246500134468078613e-01 -2.898558974266052246e-01 -4.699523150920867920e-01
-2.533432543277740479e-01 -2.987965941429138184e-02 2.357131540775299072e-01
-1.285389065742492676e-01 7.376328110694885254e-03 3.333213031291961670e-01
2.197912484407424927e-01 -4.853273034095764160e-01 -3.414111435413360596e-01
4.829051196575164795e-01 -1.300628036260604858e-01 -4.719554483890533447e-01
-1.126668304204940796e-01 -3.752243518829345703e-01 -5.266076326370239258e-01
1.992175281047821045e-01 9.519089758396148682e-02 3.209518790245056152e-01
3.342368453741073608e-02 -2.078897356986999512e-01 -6.166771650314331055e-01
6.809223294258117676e-01 -1.077119633555412292e-01 1.242927089333534241e-01
2.080592513084411621e-02 1.083896011114120483e-01 1.693562269210815430e-01
-4.151785969734191895e-01 -3.834484815597534180e-01 2.214577794075012207e-01
-7.230040431022644043e-02 -5.338459610939025879e-01 -2.945264875888824463e-01
-6.481769680976867676e-02 -9.205363690853118896e-02 -5.413279533386230469e-01
4.792642295360565186e-01 -1.565813422203063965e-01 4.877931177616119385e-01
1.460244059562683105e-01 -3.431298136711120605e-01 -5.691480636596679688e-01
-3.863436579704284668e-01 -1.035860851407051086e-01 -3.726982325315475464e-02
-1.877188384532928467e-01 -3.317297399044036865e-01 5.239946246147155762e-01
-4.037836194038391113e-02 -3.314329683780670166e-02 4.748997986316680908e-01
4.081475436687469482e-01 -4.712868928909301758e-01 1.474797576665878296e-01
8.443877100944519043e-03 -2.536669373512268066e-01 -6.103870868682861328e-01
3.454237580299377441e-01 -3.645472228527069092e-02 -5.148009061813354492e-01
-2.870926856994628906e-01 -4.863162636756896973e-01 -2.622116804122924805e-01
5.096167325973510742e-01 -1.968587487936019897e-01 4.564987719058990479e-01
-2.804618477821350098e-01 -1.058132946491241455e-02 -7.140399515628814697e-02
-5.917327105998992920e-02 1.014597862958908081e-01 6.352971540763974190e-04
3.266853690147399902e-01 -4.887555837631225586e-01 2.531277239322662354e-01
1.569205671548843384e-01 -5.297532677650451660e-01 -2.569287121295928955e-01
-1.614446938037872314e-01 -4.356718659400939941e-01 4.639331698417663574e-01
3.723433911800384521e-01 -4.899458885192871094e-01 -1.000011265277862549e-01
3.521309494972229004e-01 -2.531126141548156738e-03 -4.802176952362060547e-01
2.842135727405548096e-02 -5.759549140930175781e-01 -1.087123826146125793e-01
-2.821035683155059814e-01 -5.388914942741394043e-01 5.075752735137939453e-02
3.754998147487640381e-01 1.021502763032913208e-01 -2.798420488834381104e-01
-4.555847644805908203e-01 -3.619239330291748047e-01 -1.021079197525978088e-01
1.991471797227859497e-01 1.462852507829666138e-01 -1.196328252553939819e-01
-3.272611200809478760e-01 -4.869241714477539062e-01 2.127476334571838379e-01
6.657275557518005371e-01 -2.158222198486328125e-01 1.327808052301406860e-01
4.690828025341033936e-01 -3.558251559734344482e-01 -3.431611657142639160e-01
5.718512535095214844e-01 -2.493332326412200928e-02 3.153922855854034424e-01
3.107248246669769287e-02 3.265769779682159424e-02 4.077086746692657471e-01
5.868456363677978516e-01 -9.819166362285614014e-02 -3.445191085338592529e-01
-2.913229763507843018e-01 -2.287703007459640503e-01 -4.481275379657745361e-01
1.997964531183242798e-01 -4.409818053245544434e-01 4.714982807636260986e-01
2.132197022438049316e-01 1.005041748285293579e-01 -3.316085934638977051e-01
-2.469558119773864746e-01 -3.417378962039947510e-01 4.783571064472198486e-01
4.353551566600799561e-01 -2.347216308116912842e-01 5.127565264701843262e-01
-2.374913990497589111e-01 -1.264539361000061035e-01 -4.437003433704376221e-01
-3.438330292701721191e-01 -4.516729116439819336e-01 2.657733261585235596e-01
4.310545921325683594e-01 -4.605438113212585449e-01 -9.413131326436996460e-02
-2.588156163692474365e-01 -1.824602037668228149e-01 4.507750570774078369e-01
1.745026707649230957e-01 2.807858586311340332e-02 4.571107029914855957e-01
6.453203558921813965e-01 4.800975322723388672e-03 1.831283606588840485e-02
5.924756526947021484e-01 -3.199788331985473633e-01 -1.548195928335189819e-01
-1.893765330314636230e-01 -4.847956299781799316e-01 -3.561241626739501953e-01
4.694927483797073364e-02 -1.506472527980804443e-01 -6.081702113151550293e-01
-4.831548035144805908e-02 8.625601232051849365e-02 -2.119717001914978027e-01
4.452983140945434570e-01 -4.448798596858978271e-01 -1.407179981470108032e-01
-4.699281454086303711e-01 -3.243325948715209961e-01 -4.055923223495483398e-02
6.474559903144836426e-01 -2.744685709476470947e-01 3.024555183947086334e-02
-4.033195376396179199e-01 -4.598684906959533691e-01 5.148590728640556335e-02
-1.506060361862182617e-02 -4.218388199806213379e-01 5.253270864486694336e-01
-1.788272261619567871e-01 5.107082426548004150e-02 2.438809722661972046e-02
5.005899071693420410e-01 8.234320580959320068e-02 1.924725621938705444e-01
-3.807398676872253418e-01 -1.278203129768371582e-01 1.717193126678466797e-01
-1.792044639587402344e-01 2.455501258373260498e-02 2.060724794864654541e-01
-1.647475063800811768e-01 -5.299073457717895508e-01 -2.651333510875701904e-01
3.071799278259277344e-01 -4.827654361724853516e-01 -2.635582089424133301e-01
1.090624108910560608e-01 -5.580820441246032715e-01 -1.706932932138442993e-01
3.874143958091735840e-01 -2.661594748497009277e-01 5.343946814537048340e-01
3.830428123474121094e-01 -4.599263072013854980e-01 2.626172006130218506e-01
-4.629613757133483887e-01 -3.005559444427490234e-01 1.061879098415374756e-01
6.295584142208099365e-03 -1.357903182506561279e-01 5.864992141723632812e-01
2.535169124603271484e-01 -5.105149149894714355e-01 -2.340684533119201660e-01
3.914426565170288086e-01 -4.260121583938598633e-01 -3.091495335102081299e-01
-2.890367805957794189e-01 -3.822289407253265381e-02 1.741375327110290527e-01
-3.431297540664672852e-01 -1.320849061012268066e-01 -2.988807857036590576e-01
-1.075801700353622437e-01 -4.426197111606597900e-01 4.796607196331024170e-01
3.142217397689819336e-01 6.114126741886138916e-02 3.874278068542480469e-01
1.664331108331680298e-01 -5.605433583259582520e-01 1.176820248365402222e-01
4.872845411300659180e-01 -6.732408702373504639e-02 -4.459173977375030518e-01
4.542087316513061523e-01 1.032419055700302124e-01 1.810188740491867065e-01
3.091008961200714111e-01 -4.958572387695312500e-01 -2.137987613677978516e-01
1.290115863084793091e-01 -2.985733151435852051e-01 -5.987130999565124512e-01
-1.530465483665466309e-02 -5.083240866661071777e-01 -3.659814298152923584e-01
-1.874940991401672363e-01 -5.640352368354797363e-01 -8.071998506784439087e-02
-2.884643077850341797e-01 -5.815064907073974609e-02 -2.646402120590209961e-01
-2.769325673580169678e-01 -4.246463775634765625e-01 3.910467922687530518e-01
-2.313738763332366943e-01 -5.297347307205200195e-01 -2.041240781545639038e-01
-2.297558486461639404e-01 2.228286862373352051e-02 -7.375894486904144287e-02
1.143949702382087708e-01 1.333932131528854370e-01 -1.589570939540863037e-01
5.933304876089096069e-02 1.257921010255813599e-01 1.115894392132759094e-01
2.723377943038940430e-01 -3.525552153587341309e-01 -5.181005597114562988e-01
9.275357425212860107e-02 1.363143175840377808e-01 6.844119727611541748e-02
6.296948194503784180e-01 -9.442269802093505859e-03 -1.694997996091842651e-01
6.723780930042266846e-02 -1.952061057090759277e-02 -5.203231573104858398e-01
-9.731090068817138672e-02 5.800066888332366943e-02 -2.558388411998748779e-01
-3.022758662700653076e-02 -4.930783808231353760e-02 -5.180721282958984375e-01
-2.328329086303710938e-01 -2.928574383258819580e-01 5.018133521080017090e-01
4.211770296096801758e-01 -4.718568325042724609e-01 -2.988695539534091949e-02
-3.650721311569213867e-01 -2.856493890285491943e-01 3.574799895286560059e-01
6.747725009918212891e-01 -7.391455769538879395e-02 -1.106333434581756592e-01
-2.279925048351287842e-01 -1.018202006816864014e-01 4.091726243495941162e-01
6.911662817001342773e-01 -1.554772555828094482e-01 7.433724123984575272e-03
2.632185518741607666e-01 -5.303624868392944336e-01 1.587226539850234985e-01
6.462182402610778809e-01 1.745030283927917480e-03 -4.343099519610404968e-02
-2.039870321750640869e-01 -2.180414646863937378e-01 -5.222396850585937500e-01
-1.719436943531036377e-01 -4.707729816436767578e-02 -4.145069122314453125e-01
1.917767822742462158e-01 -5.330634713172912598e-01 2.524840831756591797e-01
6.360876560211181641e-01 -1.215744540095329285e-01 -2.601294517517089844e-01
3.397825062274932861e-01 -2.529655396938323975e-01 5.675585269927978516e-01
-3.674747049808502197e-01 -3.602579236030578613e-01 3.344126343727111816e-01
2.102986723184585571e-02 -3.982995152473449707e-01 -5.320339798927307129e-01
1.405998766422271729e-01 -5.651948451995849609e-01 -8.108892291784286499e-02
5.218948125839233398e-01 -4.038733243942260742e-01 1.041739284992218018e-01
5.527110099792480469e-01 7.621945440769195557e-02 9.169659763574600220e-02
1.871965974569320679e-01 1.481466144323348999e-01 5.939283221960067749e-02
1.443071067333221436e-01 -5.184997320175170898e-01 -3.015144467353820801e-01
5.556713342666625977e-01 -3.657803535461425781e-01 1.607665121555328369e-01
8.345172554254531860e-02 -5.450514554977416992e-01 2.814636826515197754e-01
4.196193516254425049e-01 -4.179314374923706055e-01 3.236308991909027100e-01
4.758994281291961670e-01 -4.202826023101806641e-01 2.021696567535400391e-01
-1.685301065444946289e-01 -7.889813184738159180e-02 4.406331777572631836e-01
-3.690571486949920654e-01 -8.794705569744110107e-02 5.586571991443634033e-02
2.016299962997436523e-01 -9.902428090572357178e-02 5.865358710289001465e-01
4.001595973968505859e-01 5.968798696994781494e-02 3.519625365734100342e-01
-2.767333388328552246e-01 -5.351203083992004395e-01 -9.351445734500885010e-02
2.783906459808349609e-01 -4.138089418411254883e-01 4.696232974529266357e-01
3.957123160362243652e-01 1.115060001611709595e-01 2.130580395460128784e-01
1.533767879009246826e-01 2.293069660663604736e-02 -4.813418984413146973e-01
-3.487957715988159180e-01 -1.023622751235961914e-01 2.042825520038604736e-01
-2.116706371307373047e-01 -3.370617628097534180e-01 -5.012328624725341797e-01
3.063576817512512207e-01 1.502953320741653442e-01 -4.216047748923301697e-02
-3.940673470497131348e-01 -4.411636888980865479e-01 1.764347702264785767e-01
3.526741862297058105e-01 -4.587618112564086914e-01 -2.760764658451080322e-01
6.043941974639892578e-01 -3.317495882511138916e-01 -1.232906617224216461e-02
-3.394815027713775635e-01 -3.406575322151184082e-01 3.838849663734436035e-01
6.784847378730773926e-01 -1.545014083385467529e-01 1.397213786840438843e-01
-4.342759847640991211e-01 -3.582947850227355957e-01 -1.941713690757751465e-01
-8.549982309341430664e-02 -5.602532029151916504e-01 -1.970061212778091431e-01
3.166903555393218994e-02 1.259529143571853638e-01 -7.224958389997482300e-02
5.240049362182617188e-01 2.530720829963684082e-02 -3.108079731464385986e-01
3.236950039863586426e-01 -5.054095983505249023e-01 -1.386468261480331421e-01
2.315225005149841309e-01 -1.552892476320266724e-01 -6.040862202644348145e-01
-1.234690397977828979e-01 -1.878379285335540771e-02 3.916724026203155518e-01
-2.633756399154663086e-01 -5.023559927940368652e-01 2.715994119644165039e-01
2.137368917465209961e-01 -3.922110795974731445e-02 -5.505042076110839844e-01
3.103592991828918457e-01 -8.371798694133758545e-02 -5.587502717971801758e-01
8.812442421913146973e-02 -5.732281804084777832e-01 -8.181200921535491943e-02
6.206093356013298035e-02 1.276565641164779663e-01 -1.325398981571197510e-01
-4.025158286094665527e-02 -4.576833844184875488e-01 4.785268902778625488e-01
5.341614484786987305e-01 -1.303521096706390381e-01 4.308405220508575439e-01
2.595764398574829102e-02 -4.612527787685394287e-01 4.793193042278289795e-01
-2.199450731277465820e-01 -2.717311382293701172e-01 -5.142188072204589844e-01
5.781047344207763672e-01 -3.548640608787536621e-01 9.954535216093063354e-02
-2.319171726703643799e-01 -5.447485446929931641e-01 -1.353585720062255859e-01
-3.298037946224212646e-01 -3.949628472328186035e-01 -3.543896973133087158e-01
2.162980735301971436e-01 -4.559551775455474854e-01 -4.065429866313934326e-01
-4.344950318336486816e-01 -1.934677064418792725e-01 -1.342890262603759766e-01
3.286376297473907471e-01 -5.144967436790466309e-01 8.052549511194229126e-02
5.746382474899291992e-01 6.504274904727935791e-02 -7.967960834503173828e-02
4.401789903640747070e-01 1.279815882444381714e-01 2.114229276776313782e-02
3.744879662990570068e-01 -4.934959411621093750e-01 9.747450053691864014e-02
1.340391933917999268e-01 9.177593886852264404e-02 -3.415790200233459473e-01
2.820042371749877930e-01 1.414036005735397339e-01 -1.605215221643447876e-01
4.574802219867706299e-01 -5.395665764808654785e-03 4.146612286567687988e-01
2.047123908996582031e-01 8.095721900463104248e-02 -3.804413080215454102e-01
-1.094076037406921387e-01 -4.156184792518615723e-01 -4.911451041698455811e-01
-2.531558871269226074e-01 -2.114186584949493408e-01 -4.806405603885650635e-01
-3.787273466587066650e-01 -4.588882029056549072e-01 -1.603354960680007935e-01
5.249646902084350586e-01 -3.533754944801330566e-01 2.847770154476165771e-01
4.078356623649597168e-01 -6.202353537082672119e-02 5.002062320709228516e-01
-2.595902085304260254e-01 -3.837837576866149902e-01 -4.360078275203704834e-01
-7.229915261268615723e-02 9.223429858684539795e-02 -1.163089275360107422e-01
