-1.308185905218124390e-01 -1.099407970905303955e-01 -1.207084432244300842e-01
-3.538800030946731567e-02 -5.613159388303756714e-03 8.397771418094635010e-02
-1.517429500818252563e-01 -1.202644854784011841e-01 -7.958087325096130371e-02
-9.150324761867523193e-02 -1.177400425076484680e-01 -9.477012604475021362e-02
-9.265305101871490479e-02 -2.220809459686279297e-02 1.043008565902709961e-01
-7.612412422895431519e-02 -1.210171729326248169e-01 5.295367911458015442e-02
-1.003290861845016479e-01 -7.257544249296188354e-02 -1.620639860630035400e-01
7.294546067714691162e-02 -5.857897177338600159e-02 -5.969922617077827454e-02
-7.439166307449340820e-03 -9.742209315299987793e-02 8.860038220882415771e-02
5.127321928739547729e-02 -4.058584570884704590e-03 -5.087995156645774841e-02
4.702828824520111084e-02 -8.101984113454818726e-02 -3.084938228130340576e-02
-1.170330867171287537e-02 -4.289672151207923889e-02 1.803228259086608887e-01
-1.581920683383941650e-01 -9.796267747879028320e-02 -1.190545335412025452e-01
-1.047976091504096985e-01 -2.019620686769485474e-02 1.255173329263925552e-02
-1.022353619337081909e-01 -5.796051397919654846e-02 1.810788363218307495e-01
3.182329237461090088e-03 -1.776491478085517883e-02 1.470502465963363647e-01
5.195350199937820435e-02 -7.858152687549591064e-02 1.198694109916687012e-02
-5.282679200172424316e-02 -1.185730397701263428e-01 -2.872487530112266541e-02
-1.022381335496902466e-01 -1.172308176755905151e-01 1.019057705998420715e-01
-1.315173208713531494e-01 -9.992489963769912720e-02 -1.367837190628051758e-01
-2.676587551832199097e-03 -1.558940857648849487e-03 8.161769062280654907e-02
-3.428969532251358032e-02 -7.335595041513442993e-02 -1.677929013967514038e-01
-1.799262315034866333e-02 -1.103975996375083923e-02 -8.852057904005050659e-02
2.244904637336730957e-02 -1.709260791540145874e-02 -1.129017472267150879e-01
5.486534535884857178e-02 -5.524009466171264648e-04 4.716559126973152161e-02
-9.569799154996871948e-02 -3.481564670801162720e-02 -1.085399016737937927e-01
9.043091535568237305e-02 -4.161671921610832214e-02 -3.590103983879089355e-02
-1.115444228053092957e-01 -1.283860206604003906e-01 6.338396575301885605e-03
1.481278240680694580e-02 -7.896994054317474365e-02 1.225373223423957825e-01
-4.256847128272056580e-02 -4.942372441291809082e-03 -1.840014383196830750e-02
-1.539623290300369263e-01 -8.908214420080184937e-02 -1.264687329530715942e-01
-3.157317265868186951e-02 -2.124574035406112671e-03 4.898452758789062500e-02
-1.208633482456207275e-01 -1.073343828320503235e-01 -1.293499171733856201e-01
-7.969527691602706909e-02 -2.086775004863739014e-02 1.181352436542510986e-01
-1.192746907472610474e-01 -1.266332864761352539e-01 -4.945579543709754944e-02
-5.848501250147819519e-02 -1.213149353861808777e-02 9.932662546634674072e-02
-7.050402462482452393e-02 -6.452845782041549683e-02 -1.697286665439605713e-01
-1.600118279457092285e-01 -1.027498394250869751e-01 1.325438171625137329e-01
5.186814069747924805e-02 -7.700614631175994873e-02 3.505400940775871277e-02
-1.219734475016593933e-01 -1.146354973316192627e-01 -1.109985485672950745e-01
-4.723003506660461426e-02 -1.144835129380226135e-01 5.591680854558944702e-02
-1.605685353279113770e-01 -1.243348419666290283e-01 5.957937240600585938e-02
7.887263596057891846e-02 -1.090729236602783203e-02 -3.897734358906745911e-02
-2.677447907626628876e-02 -1.026669442653656006e-01 9.585304558277130127e-02
-6.692535430192947388e-02 -1.150357127189636230e-01 8.488851785659790039e-02
-5.152523517608642578e-03 1.758113503456115723e-04 -2.244280278682708740e-02
9.288173913955688477e-02 -1.728659123182296753e-02 1.463225577026605606e-02
-1.214022710919380188e-01 -4.707479849457740784e-02 -1.118943020701408386e-01
-1.803324222564697266e-01 -1.166334748268127441e-01 -5.957701429724693298e-02
-5.546908453106880188e-02 -3.725093603134155273e-02 -1.456646770238876343e-01
5.445521324872970581e-02 -7.009610533714294434e-02 -7.603400200605392456e-02
3.538613021373748779e-02 -6.014686450362205505e-02 1.347826719284057617e-01
-1.369025930762290955e-02 -1.077309697866439819e-01 1.303252857178449631e-02
-1.816347390413284302e-01 -1.040623486042022705e-01 1.075785011053085327e-01
-5.084749311208724976e-03 -2.754127234220504761e-02 1.657998561859130859e-01
-6.693850457668304443e-02 -1.050590872764587402e-01 1.291921436786651611e-01
3.789640963077545166e-02 -7.357247173786163330e-03 1.046123281121253967e-01
-5.989546328783035278e-02 -6.251161545515060425e-02 1.910336613655090332e-01
-1.440914422273635864e-01 -9.640142321586608887e-02 1.518479883670806885e-01
-1.062078773975372314e-01 -4.673806950449943542e-02 -1.285415142774581909e-01
1.579000055789947510e-02 -7.259632647037506104e-02 1.370801031589508057e-01
7.640077173709869385e-02 -5.946866050362586975e-02 3.170315921306610107e-02
-1.878083944320678711e-01 -6.517829000949859619e-02 5.490569770336151123e-02
-1.974928528070449829e-01 -7.255876809358596802e-02 2.547907084226608276e-02
5.077143013477325439e-02 -6.504455953836441040e-02 -1.009854450821876526e-01
-1.336939260363578796e-02 -1.079081445932388306e-01 8.657267317175865173e-04
-1.540763825178146362e-01 -1.280325502157211304e-01 -2.237361669540405273e-02
7.876271009445190430e-02 -4.726812988519668579e-02 7.164807617664337158e-02
-2.604291215538978577e-02 -9.895765781402587891e-02 -1.165580227971076965e-01
1.652817428112030029e-02 -8.314698934555053711e-03 -8.548226207494735718e-02
-9.554785490036010742e-02 -1.141899377107620239e-01 1.120780035853385925e-01
4.534260928630828857e-02 -2.645152062177658081e-02 -1.192464604973793030e-01
-2.040975689888000488e-01 -8.103717118501663208e-02 1.652691327035427094e-02
6.475198268890380859e-02 -1.871463283896446228e-02 -8.742583543062210083e-02
-3.447644412517547607e-03 -7.352073490619659424e-02 1.559791266918182373e-01
-1.127172857522964478e-01 -2.764048054814338684e-02 9.386168420314788818e-02
-4.525448381900787354e-02 -1.025474220514297485e-01 1.198184862732887268e-01
-2.788927033543586731e-02 -4.788826778531074524e-02 -1.651799678802490234e-01
-9.366992861032485962e-02 -1.263968050479888916e-01 9.685888886451721191e-03
-1.136815398931503296e-01 -1.241167411208152771e-01 6.768830120563507080e-02
1.276402175426483154e-02 -5.783779174089431763e-02 -1.542581319808959961e-01
-5.226608365774154663e-03 -1.023845151066780090e-01 4.868048056960105896e-02
-9.944890439510345459e-02 -7.442875206470489502e-02 1.846893876791000366e-01
7.526069879531860352e-03 -9.927414357662200928e-02 -3.972499817609786987e-02
-1.738599538803100586e-01 -1.003850996494293213e-01 1.227425411343574524e-01
-1.657789945602416992e-01 -6.533586233854293823e-02 1.249718815088272095e-01
-7.022328674793243408e-02 -1.021122038364410400e-01 -1.383135616779327393e-01
-2.216959372162818909e-02 -3.628243505954742432e-02 -1.527380049228668213e-01
8.029690384864807129e-02 -8.362211287021636963e-03 3.706616163253784180e-02
-2.089057415723800659e-01 -9.386605024337768555e-02 3.136155754327774048e-02
6.823088228702545166e-02 -2.908604964613914490e-02 -9.766092151403427124e-02
-1.817366331815719604e-01 -5.862700939178466797e-02 3.285511583089828491e-02
-8.254165947437286377e-02 -4.511006921529769897e-02 1.781156063079833984e-01
-1.321973204612731934e-01 -8.744781464338302612e-02 1.665685474872589111e-01
-1.006854102015495300e-01 -1.203329041600227356e-01 8.489690721035003662e-02
-3.746211156249046326e-02 -1.506657525897026062e-02 -9.335474669933319092e-02
-5.760577321052551270e-02 -1.823979243636131287e-02 -8.898317068815231323e-02
5.804499983787536621e-02 -3.027252852916717529e-03 -3.580931574106216431e-02
8.339105546474456787e-02 -8.696969598531723022e-03 1.585759595036506653e-02
-2.769821695983409882e-02 -4.807874560356140137e-03 -4.411034286022186279e-02
-8.069086819887161255e-03 -2.488618716597557068e-02 -1.336287409067153931e-01
-1.820862442255020142e-01 -1.237629577517509460e-01 6.562100723385810852e-03
6.480029970407485962e-02 -5.878382921218872070e-02 -8.474048227071762085e-02
-4.954861104488372803e-02 -9.465584158897399902e-02 -1.460967510938644409e-01
-7.948528975248336792e-02 -1.173159331083297729e-01 8.525917679071426392e-02
-1.651851236820220947e-01 -1.203264594078063965e-01 -6.696984171867370605e-02
-3.813947737216949463e-02 -1.929321885108947754e-02 1.463994681835174561e-01
-6.581953167915344238e-02 -1.085765287280082703e-02 7.495430111885070801e-02
-8.257226645946502686e-02 -1.248833090066909790e-01 2.835819032043218613e-03
-4.448412358760833740e-02 -8.484538644552230835e-03 9.393131732940673828e-02
2.576339244842529297e-02 8.463710546493530273e-04 -3.001110628247261047e-02
-8.872729539871215820e-02 -1.239196509122848511e-01 -4.897658899426460266e-02
1.923761516809463501e-02 2.249188721179962158e-03 -1.249238383024930954e-02
-1.240100115537643433e-01 -2.871889248490333557e-02 -1.356092561036348343e-02
1.998902857303619385e-02 -8.797222375869750977e-02 -8.619377762079238892e-02
-1.509826779365539551e-01 -1.238840520381927490e-01 -6.256011873483657837e-02
4.839919507503509521e-02 -2.544734627008438110e-02 1.326800435781478882e-01
-1.210246607661247253e-01 -3.255235403776168823e-02 1.033851578831672668e-01
-8.852198719978332520e-02 -1.147932410240173340e-01 -1.063047721982002258e-01
4.985608160495758057e-03 -9.413897246122360229e-02 7.994093745946884155e-02
-1.475877761840820312e-01 -6.518445163965225220e-02 -1.153110116720199585e-01
6.660424172878265381e-02 -3.356792032718658447e-02 1.124399080872535706e-01
6.453305482864379883e-03 -9.126063436269760132e-03 1.221818178892135620e-01
-1.219939440488815308e-03 -5.519263446331024170e-02 1.743714660406112671e-01
5.391884595155715942e-02 -5.991043895483016968e-02 1.045348569750785828e-01
1.674779504537582397e-02 -9.472113102674484253e-02 -4.889545962214469910e-02
5.618720501661300659e-02 -7.358703017234802246e-02 -5.003134533762931824e-02
3.932072222232818604e-02 -8.422839641571044922e-02 3.393147513270378113e-02
-2.473701536655426025e-02 -4.507973790168762207e-04 2.380520477890968323e-02
7.990002632141113281e-03 -8.544891327619552612e-02 1.125453785061836243e-01
-1.724460870027542114e-01 -7.795702666044235229e-02 -9.562084078788757324e-02
-5.041027441620826721e-02 -1.755265891551971436e-02 1.338960528373718262e-01
-5.759968981146812439e-02 -1.190109550952911377e-01 3.165204823017120361e-02
-1.059223338961601257e-02 -4.957877099514007568e-03 -6.125096604228019714e-02
-1.302042752504348755e-01 -8.867631852626800537e-02 -1.457507461309432983e-01
8.725605905055999756e-02 -1.145540177822113037e-02 -5.503604188561439514e-04
4.723240435123443604e-02 -7.769785821437835693e-02 5.234109982848167419e-02
-3.802854940295219421e-02 -9.557177126407623291e-02 -1.372951865196228027e-01
-6.097926944494247437e-02 -1.088058948516845703e-02 -3.961559012532234192e-02
-7.226893305778503418e-02 -5.362738296389579773e-02 1.887805461883544922e-01
-4.136484861373901367e-02 -2.690925821661949158e-02 -1.295705437660217285e-01
-1.993034780025482178e-01 -7.725569605827331543e-02 5.246649309992790222e-02
3.633052110671997070e-02 -5.056742578744888306e-02 1.451714038848876953e-01
-1.967850625514984131e-01 -1.167402938008308411e-01 2.652596682310104370e-02
-2.001810222864151001e-01 -8.858226984739303589e-02 -4.164358228445053101e-02
-1.342180073261260986e-01 -1.292821764945983887e-01 1.391847431659698486e-02
3.153708577156066895e-02 1.906417310237884521e-03 5.036518350243568420e-02
-1.949275881052017212e-01 -8.802179992198944092e-02 9.199899435043334961e-02
-9.883384406566619873e-02 -1.861099526286125183e-02 -3.743814304471015930e-04
-1.504890918731689453e-01 -1.116019636392593384e-01 1.197307556867599487e-01
4.598208516836166382e-02 -7.234949618577957153e-03 -7.082550227642059326e-02
-2.041058614850044250e-02 -1.089996770024299622e-01 3.127560764551162720e-02
-4.855081439018249512e-03 -9.017326682806015015e-02 1.154922172427177429e-01
-7.611119002103805542e-02 -1.109182164072990417e-01 1.138567477464675903e-01
3.047101199626922607e-03 -8.234321326017379761e-02 1.294009983539581299e-01
-1.620894670486450195e-01 -1.188488304615020752e-01 8.806849271059036255e-02
8.403229713439941406e-02 -4.416363686323165894e-02 6.049408763647079468e-02
-1.157185584306716919e-01 -5.786536633968353271e-02 -1.395213603973388672e-01
4.190132766962051392e-02 -6.170470640063285828e-02 1.223862692713737488e-01
-3.414662554860115051e-02 -1.094566211104393005e-01 -7.713802903890609741e-02
-1.297238320112228394e-01 -1.143265813589096069e-01 1.177997738122940063e-01
-9.717455506324768066e-02 -1.222433745861053467e-01 6.966532021760940552e-02
-1.658693552017211914e-01 -8.466593176126480103e-02 1.413710564374923706e-01
1.825097203254699707e-02 -9.542202204465866089e-02 -2.903673052787780762e-02
-8.894030749797821045e-02 -1.095996052026748657e-01 1.262631118297576904e-01
-5.084089934825897217e-04 -1.030379012227058411e-01 1.463475450873374939e-02
-7.918804883956909180e-02 -1.584259048104286194e-02 8.847001194953918457e-02
-1.514001190662384033e-01 -1.288821399211883545e-01 1.029472891241312027e-02
6.199117004871368408e-02 -1.217147335410118103e-02 -7.382029294967651367e-02
5.276452749967575073e-03 -2.492462471127510071e-02 1.594627499580383301e-01
-5.245003476738929749e-02 -2.600460872054100037e-02 -1.209653094410896301e-01
-6.515713036060333252e-02 -9.804029017686843872e-03 -1.667505875229835510e-02
7.087506353855133057e-02 -3.048166632652282715e-03 1.651251129806041718e-02
6.822063028812408447e-02 -6.771235167980194092e-02 1.348138414323329926e-02
3.402909636497497559e-02 -8.632458746433258057e-02 -5.137067660689353943e-02
-2.484516426920890808e-02 -3.031550720334053040e-02 1.717639118432998657e-01
-1.128842234611511230e-01 -1.283947527408599854e-01 -1.424117665737867355e-02
-4.660140722990036011e-03 -9.221321344375610352e-02 -1.134080514311790466e-01
-3.078784793615341187e-03 -1.680050045251846313e-02 -1.137657165527343750e-01
1.811837404966354370e-02 -8.959136903285980225e-02 7.324749976396560669e-02
-1.730279922485351562e-01 -5.842148140072822571e-02 8.678955584764480591e-02
-7.823805510997772217e-02 -1.193352639675140381e-01 7.045099884271621704e-02
9.084939956665039062e-02 -3.366975113749504089e-02 -4.603362083435058594e-02
-3.533758968114852905e-02 -1.114657223224639893e-01 5.448061600327491760e-02
5.247561633586883545e-02 -9.310577064752578735e-03 9.845641255378723145e-02
-1.646881550550460815e-01 -5.009308457374572754e-02 7.160925120115280151e-02
-1.148012205958366394e-01 -2.430238947272300720e-02 -8.109388872981071472e-04
6.540386378765106201e-02 -5.666919797658920288e-02 8.633516728878021240e-02
3.072686493396759033e-02 -7.627650350332260132e-02 1.038547083735466003e-01
-8.686953783035278320e-02 -3.977554291486740112e-02 1.676475405693054199e-01
8.555963635444641113e-03 -8.871629834175109863e-02 9.897397458553314209e-02
6.455422937870025635e-02 -7.600333541631698608e-03 -5.270992964506149292e-02
-2.706829458475112915e-03 1.767635345458984375e-03 1.446209847927093506e-03
-1.938875764608383179e-02 -6.470072269439697266e-02 1.783186942338943481e-01
-1.258917748928070068e-01 -5.143449828028678894e-02 1.554606556892395020e-01
9.270519018173217773e-03 -6.774100661277770996e-02 1.533326357603073120e-01
-9.465165436267852783e-02 -3.759765625000000000e-02 1.574411690235137939e-01
-1.484254151582717896e-01 -4.581741243600845337e-02 1.028621792793273926e-01
-4.490215331315994263e-03 -2.573199570178985596e-03 -4.897041246294975281e-02
-1.518783867359161377e-01 -4.761967808008193970e-02 -5.620638653635978699e-02
-5.963430181145668030e-02 -1.718135923147201538e-02 1.246828883886337280e-01
-1.795956045389175415e-01 -8.096710592508316040e-02 -8.599863946437835693e-02
-1.614597737789154053e-01 -7.825994491577148438e-02 -1.130709275603294373e-01
-1.823727339506149292e-01 -7.085366547107696533e-02 -5.988753959536552429e-02
-2.074770331382751465e-01 -1.060619354248046875e-01 4.299864172935485840e-03
-1.073878258466720581e-01 -3.792917728424072266e-02 -1.038249954581260681e-01
8.641354739665985107e-02 -5.132906883955001831e-02 -1.202199514955282211e-02
-1.443594098091125488e-01 -1.220671534538269043e-01 8.288419246673583984e-02
1.651082187891006470e-03 2.424083650112152100e-03 2.546236664056777954e-02
-7.137705385684967041e-02 -8.891487121582031250e-02 1.698976159095764160e-01
-1.107847392559051514e-01 -5.457074940204620361e-02 1.730053573846817017e-01
1.307820528745651245e-02 -3.362657874822616577e-02 -1.451055705547332764e-01
-1.375191658735275269e-01 -5.159561336040496826e-02 1.415658891201019287e-01
-3.207183629274368286e-02 -1.129337251186370850e-01 2.417947724461555481e-02
-1.431284248828887939e-01 -7.885656505823135376e-02 1.630398780107498169e-01
-7.455305010080337524e-02 -1.121906936168670654e-02 1.845430582761764526e-03
-3.345064073801040649e-02 -7.315434515476226807e-03 -5.598972365260124207e-02
-2.408212050795555115e-02 -7.468740642070770264e-02 1.699132472276687622e-01
-5.387424305081367493e-02 -6.383147090673446655e-03 5.050051584839820862e-02
-4.513811692595481873e-02 -8.874316513538360596e-02 1.586209088563919067e-01
-1.451999843120574951e-01 -4.177408665418624878e-02 -4.352821037173271179e-02
-1.112645789980888367e-01 -3.887718170881271362e-02 1.437392234802246094e-01
-1.158293709158897400e-02 -8.427696675062179565e-02 1.414055973291397095e-01
-2.770682796835899353e-02 -1.118697971105575562e-01 -3.118103370070457458e-02
1.899085938930511475e-02 -6.118431687355041504e-03 1.085954084992408752e-01
-1.805256605148315430e-01 -1.112871170043945312e-01 -7.442215085029602051e-02
2.565978467464447021e-02 3.209792077541351318e-03 1.455550454556941986e-02
-1.307605803012847900e-01 -6.457415223121643066e-02 1.673359125852584839e-01
-2.077236026525497437e-01 -9.110990166664123535e-02 -4.382779821753501892e-03
-4.497084766626358032e-02 -1.897814124822616577e-02 -1.031647920608520508e-01
-1.874230802059173584e-01 -7.178056240081787109e-02 8.732658624649047852e-02
7.332544028759002686e-02 -9.979315102100372314e-03 6.810551881790161133e-02
1.390452682971954346e-02 -3.489565104246139526e-03 9.705516695976257324e-02
-1.038816124200820923e-01 -4.419562593102455139e-02 1.631731390953063965e-01
-1.776565611362457275e-01 -7.650116831064224243e-02 1.199006140232086182e-01
-1.206510141491889954e-01 -1.035975813865661621e-01 1.474895179271697998e-01
9.574624896049499512e-02 -3.372750431299209595e-02 1.571385934948921204e-02
-4.156330600380897522e-02 -1.072972565889358521e-01 -1.006879583001136780e-01
-3.231763094663619995e-02 -8.319712430238723755e-02 1.613564044237136841e-01
9.838439524173736572e-03 8.233934640884399414e-04 6.547860056161880493e-02
-1.001908257603645325e-01 -2.241166681051254272e-02 8.889459073543548584e-02
-1.537416875362396240e-02 -1.514703035354614258e-04 5.372286587953567505e-02
8.439949154853820801e-02 -2.024100348353385925e-02 6.772776693105697632e-02
-5.990367382764816284e-02 -1.083766818046569824e-01 -1.140429377555847168e-01
-1.202915832400321960e-01 -1.198523640632629395e-01 9.526990354061126709e-02
-7.781195640563964844e-02 -7.028328627347946167e-02 1.890186816453933716e-01
-6.767076998949050903e-02 -1.181632503867149353e-01 6.416989117860794067e-02
-6.062169373035430908e-02 -1.435975730419158936e-02 -6.534617394208908081e-02
-4.239343479275703430e-02 -1.088974326848983765e-01 8.692763000726699829e-02
-1.065532490611076355e-02 -1.064249128103256226e-01 -3.189468756318092346e-02
4.526259750127792358e-02 -8.083061873912811279e-02 -4.562073200941085815e-02
-2.693558484315872192e-02 -1.933907717466354370e-02 -1.148039326071739197e-01
-1.916217952966690063e-01 -9.974904358386993408e-02 -6.917916238307952881e-02
-1.305480897426605225e-01 -3.057501092553138733e-02 1.041867770254611969e-03
-7.718128710985183716e-02 -1.148909330368041992e-02 2.626551315188407898e-02
-1.143061369657516479e-02 -6.824357807636260986e-02 1.699276715517044067e-01
6.425161659717559814e-02 -6.544484943151473999e-02 5.741660669445991516e-02
-1.525518894195556641e-01 -1.265752017498016357e-01 -4.182658717036247253e-02
-1.147046089172363281e-01 -3.147586807608604431e-02 -6.478451192378997803e-02
5.860173702239990234e-02 -2.990970015525817871e-02 1.236857771873474121e-01
-1.576237976551055908e-01 -4.716395586729049683e-02 8.135927468538284302e-02
7.805366814136505127e-02 -2.125720307230949402e-02 -7.144141197204589844e-02
-8.412384986877441406e-02 -8.775581419467926025e-02 1.741899251937866211e-01
-5.586206912994384766e-03 -4.404967650771141052e-02 -1.598003655672073364e-01
-1.323578357696533203e-01 -1.175775378942489624e-01 1.056588739156723022e-01
-1.645924150943756104e-01 -1.103983521461486816e-01 1.134441569447517395e-01
-1.502177119255065918e-02 -1.535589247941970825e-02 -1.064232513308525085e-01
9.232081472873687744e-02 -3.974234312772750854e-02 2.982101589441299438e-02
-7.921364158391952515e-03 -3.552187234163284302e-02 -1.516389995813369751e-01
-5.160743743181228638e-02 -5.330529063940048218e-03 3.232051804661750793e-02
-9.215359389781951904e-02 -1.089101582765579224e-01 -1.269161552190780640e-01
2.923516929149627686e-02 3.664270043373107910e-04 6.795555353164672852e-02
-1.034327447414398193e-01 -1.959891617298126221e-02 2.970462292432785034e-02
-1.897568553686141968e-01 -1.180300489068031311e-01 -3.097680583596229553e-02
3.416297584772109985e-02 -8.857901394367218018e-02 -2.335204742848873138e-03
-9.727291762828826904e-04 -9.907442331314086914e-02 -7.344741374254226685e-02
-1.432462632656097412e-01 -3.789513185620307922e-02 -2.015397697687149048e-02
-4.476165026426315308e-02 -5.224291235208511353e-02 -1.675694584846496582e-01
5.573759973049163818e-02 -2.861205115914344788e-02 -1.125441640615463257e-01
9.279070794582366943e-02 -2.656463161110877991e-02 4.350887611508369446e-02
8.897210657596588135e-02 -3.935953229665756226e-02 5.052785575389862061e-02
-5.677056685090065002e-02 -6.468068808317184448e-02 -1.719110310077667236e-01
-4.755396768450737000e-02 -1.086661592125892639e-02 -6.189456954598426819e-02
-8.966229856014251709e-02 -1.197543442249298096e-01 -8.295513689517974854e-02
-1.206175088882446289e-01 -8.135303854942321777e-02 1.752919852733612061e-01
-1.544324904680252075e-01 -6.127626821398735046e-02 -9.709053486585617065e-02
2.226202189922332764e-02 -7.741896808147430420e-02 -1.192092075943946838e-01
5.618627369403839111e-02 -5.270802229642868042e-02 1.142284125089645386e-01
-1.329505741596221924e-01 -1.032189279794692993e-01 1.457635015249252319e-01
3.492172807455062866e-03 -8.152488619089126587e-02 -1.332293748855590820e-01
-1.007937267422676086e-01 -1.241877675056457520e-01 5.723037943243980408e-02
7.606631517410278320e-02 -5.737517029047012329e-02 4.696424677968025208e-02
-1.428934633731842041e-01 -3.585218265652656555e-02 9.012176655232906342e-03
-1.675634384155273438e-01 -4.974890500307083130e-02 4.980186372995376587e-02
-2.249387279152870178e-02 -1.861914992332458496e-03 -2.223441749811172485e-02
-1.004840582609176636e-01 -2.524588629603385925e-02 -5.977878347039222717e-02
6.475067883729934692e-02 -4.798483848571777344e-02 -1.025791987776756287e-01
-8.255457878112792969e-02 -1.421539857983589172e-02 -1.257627923041582108e-02
-1.974190771579742432e-02 -1.086852103471755981e-01 -4.404401034116744995e-02
6.772115826606750488e-03 -8.779869973659515381e-02 -1.118838563561439514e-01
-1.941833943128585815e-01 -1.176458299160003662e-01 -1.494942139834165573e-02
-1.001166105270385742e-01 -1.244041174650192261e-01 -5.774496868252754211e-02
7.490970194339752197e-02 -2.917681261897087097e-02 -8.698929101228713989e-02
-5.796102806925773621e-02 -2.418246120214462280e-02 1.503311991691589355e-01
2.048607170581817627e-02 -5.138265714049339294e-02 1.604691296815872192e-01
-8.945702016353607178e-02 -1.259306967258453369e-01 -8.737367577850818634e-03
-6.617772579193115234e-02 -3.010360524058341980e-02 -1.228952333331108093e-01
3.200748562812805176e-02 -4.554291069507598877e-02 -1.425102204084396362e-01
-1.459419727325439453e-01 -1.171159297227859497e-01 1.041827574372291565e-01
-1.747501790523529053e-01 -5.579929798841476440e-02 -1.717905327677726746e-02
-3.020886331796646118e-03 -9.271502494812011719e-05 6.812688708305358887e-02
-1.528593301773071289e-01 -4.177086800336837769e-02 5.711665749549865723e-02
-1.602123826742172241e-01 -1.273394972085952759e-01 2.956654876470565796e-02
-5.088030919432640076e-02 -1.180018782615661621e-01 2.155359461903572083e-02
5.584673583507537842e-02 -4.267766326665878296e-02 -1.187126561999320984e-01
-1.036737263202667236e-01 -2.300134301185607910e-02 -3.531052917242050171e-02
-1.056880503892898560e-01 -9.274704754352569580e-02 -1.540134102106094360e-01
-3.521694242954254150e-02 -8.262427151203155518e-02 -1.593237668275833130e-01
9.323020279407501221e-02 -1.957664638757705688e-02 -1.585783064365386963e-02
-4.352412372827529907e-02 -3.632884472608566284e-03 2.103986963629722595e-02
-6.361575424671173096e-02 -1.087301671504974365e-01 1.128383353352546692e-01
-1.007430106401443481e-01 -1.157993227243423462e-01 -1.064437851309776306e-01
-4.056864604353904724e-02 -7.687015086412429810e-02 1.759333461523056030e-01
5.598530173301696777e-02 -1.657113805413246155e-02 1.125426888465881348e-01
9.479983150959014893e-02 -2.643405646085739136e-02 3.099257871508598328e-02
9.390242397785186768e-02 -4.028009623289108276e-02 5.570892244577407837e-04
2.630004286766052246e-02 -7.254899293184280396e-02 1.224824264645576477e-01
-1.410748362541198730e-01 -1.286265552043914795e-01 -2.599279582500457764e-02
8.090956509113311768e-02 -3.365667909383773804e-02 8.337081968784332275e-02
-8.422602713108062744e-02 -8.651562780141830444e-02 -1.631253659725189209e-01
-1.654826402664184570e-01 -5.220820754766464233e-02 -3.608595579862594604e-02
-1.964007690548896790e-02 -1.093127951025962830e-02 1.252274215221405029e-01
-1.027342453598976135e-01 -2.857776358723640442e-02 -7.364571839570999146e-02
-2.087810486555099487e-01 -1.031452715396881104e-01 1.952756755053997040e-02
-3.644021973013877869e-02 -1.058700308203697205e-02 1.144295036792755127e-01
-1.923915445804595947e-01 -7.847211509943008423e-02 -4.919662699103355408e-02
-4.365153238177299500e-02 -6.505935639142990112e-02 -1.720804274082183838e-01
-1.891380697488784790e-01 -8.650848269462585449e-02 -7.153986394405364990e-02
-1.416485607624053955e-01 -1.293397843837738037e-01 -6.174919195473194122e-03
-2.007412537932395935e-02 -5.985717102885246277e-02 -1.685147434473037720e-01
4.351623356342315674e-03 -9.985341131687164307e-02 3.697971254587173462e-02
-2.280156314373016357e-02 -4.677618294954299927e-02 1.847559362649917603e-01
8.955413103103637695e-02 -1.449894160032272339e-02 2.798826247453689575e-02
-8.703240007162094116e-02 -1.495400071144104004e-02 5.155242234468460083e-02
4.280013591051101685e-02 1.718677580356597900e-03 -7.948414422571659088e-03
-4.786185547709465027e-02 -1.161731928586959839e-01 3.934096172451972961e-02
4.135191440582275391e-02 -3.256852179765701294e-02 1.441717147827148438e-01
-1.359958201646804810e-03 1.771725714206695557e-03 4.232955351471900940e-02
-1.324511170387268066e-01 -4.441370069980621338e-02 1.301975697278976440e-01
-5.792272090911865234e-02 -1.006027609109878540e-01 -1.367449462413787842e-01
-2.226419746875762939e-03 -1.014413833618164062e-01 -5.817062035202980042e-02
-1.631197929382324219e-01 -7.147910445928573608e-02 1.382121145725250244e-01
-6.286471337080001831e-02 -1.184971034526824951e-01 5.218936130404472351e-02
-3.704107180237770081e-02 -2.653777599334716797e-03 6.915567442774772644e-03
5.906352400779724121e-02 3.969669342041015625e-05 1.804067939519882202e-02
2.136686444282531738e-02 -1.267503947019577026e-02 1.296730637550354004e-01
-5.655954778194427490e-02 -4.946168884634971619e-02 1.887676715850830078e-01
3.144049644470214844e-02 -8.946985751390457153e-02 -2.658591419458389282e-02
4.100068658590316772e-02 -7.812362164258956909e-02 -7.953424006700515747e-02
2.485116571187973022e-02 -7.023589313030242920e-02 -1.308430582284927368e-01
-6.907150894403457642e-02 -1.943729445338249207e-02 -8.110992610454559326e-02
-7.276687026023864746e-02 -1.003822833299636841e-01 1.464221626520156860e-01
-1.715928316116333008e-03 -1.249420270323753357e-02 1.337032616138458252e-01
3.581033647060394287e-02 -6.726326048374176025e-02 -1.216540709137916565e-01
-1.419411599636077881e-01 -3.532101213932037354e-02 3.845658153295516968e-02
6.407439708709716797e-02 -5.194725468754768372e-02 1.000901609659194946e-01
4.153376072645187378e-02 -1.156926900148391724e-02 -8.953121304512023926e-02
-8.882220089435577393e-02 -1.234018430113792419e-01 4.969194158911705017e-02
1.490362733602523804e-02 -9.692542254924774170e-02 1.521452702581882477e-02
-1.770491600036621094e-01 -5.625212192535400391e-02 -5.278938449919223785e-03
1.432550698518753052e-02 -9.501057118177413940e-02 4.541380330920219421e-02
-2.786621451377868652e-03 -5.942301824688911438e-02 -1.624186187982559204e-01
3.745021671056747437e-02 -7.178097963333129883e-02 -1.092112362384796143e-01
-1.081259697675704956e-01 -1.091269105672836304e-01 -1.273984313011169434e-01
-9.794504195451736450e-02 -1.267706751823425293e-01 -2.072785794734954834e-02
4.390358924865722656e-03 -1.015105918049812317e-01 -1.556392479687929153e-02
-6.494140625000000000e-02 -9.431205689907073975e-02 -1.523490250110626221e-01
-1.627388000488281250e-01 -6.018887832760810852e-02 -7.796238362789154053e-02
6.630040705204010010e-03 2.727843821048736572e-03 1.328065618872642517e-02
-1.273520886898040771e-01 -1.221839487552642822e-01 -8.086807280778884888e-02
-1.062296330928802490e-01 -1.227619275450706482e-01 -7.419539242982864380e-02
-3.370972722768783569e-02 -1.128520369529724121e-01 -4.390219226479530334e-02
9.547583758831024170e-02 -3.232675418257713318e-02 -1.841767877340316772e-02
-1.956154257059097290e-01 -7.288711518049240112e-02 -1.210806425660848618e-02
8.625601232051849365e-02 -3.375928103923797607e-02 -6.250621378421783447e-02
-1.278005689382553101e-01 -3.006704524159431458e-02 6.019404903054237366e-02
-7.236842066049575806e-02 -1.108099669218063354e-01 -1.133636087179183960e-01
1.158379763364791870e-02 -1.461488753557205200e-02 1.378244608640670776e-01
-6.343322247266769409e-02 -1.193352490663528442e-01 -5.238547548651695251e-02
-1.183799132704734802e-01 -1.159793883562088013e-01 1.117560043931007385e-01
-1.192554682493209839e-01 -1.280437558889389038e-01 -3.190181776881217957e-02
-1.182657629251480103e-01 -1.277324557304382324e-01 3.456759825348854065e-02
-6.843992322683334351e-02 -1.719000935554504395e-02 1.148864924907684326e-01
6.682686507701873779e-03 -6.936123967170715332e-02 -1.499787569046020508e-01
7.336720824241638184e-02 -4.011861979961395264e-03 2.784255892038345337e-03
-1.294713616371154785e-01 -2.993021905422210693e-02 4.497835412621498108e-02
-3.506436944007873535e-02 -1.145243644714355469e-01 -1.084148045629262924e-02
-3.641361370682716370e-02 -1.397927105426788330e-02 1.293421089649200439e-01
-1.312353610992431641e-01 -3.399762511253356934e-02 -3.566583618521690369e-02
-2.947467565536499023e-02 -1.128906309604644775e-01 3.448662348091602325e-03
-6.719803065061569214e-02 -1.215644404292106628e-01 2.206506580114364624e-02
-1.634720861911773682e-01 -1.045996546745300293e-01 -1.073172912001609802e-01
-8.030802011489868164e-02 -2.808197960257530212e-02 1.449462771415710449e-01
-1.914247125387191772e-01 -1.063578575849533081e-01 8.699702471494674683e-02
2.180454879999160767e-02 -2.593226730823516846e-03 -5.675863847136497498e-02
-5.872596800327301025e-02 -1.202925145626068115e-01 -1.585081219673156738e-02
2.533393353223800659e-02 -8.837211877107620239e-02 -6.921334564685821533e-02
3.401630371809005737e-02 -2.528820186853408813e-03 -5.364627763628959656e-02
-2.758161723613739014e-02 -6.241757422685623169e-03 9.715668857097625732e-02
7.630059123039245605e-02 -6.079716980457305908e-02 1.956317760050296783e-02
-8.116722851991653442e-02 -2.242663502693176270e-02 -7.886712253093719482e-02
-1.889024674892425537e-02 -1.506872475147247314e-03 6.665486097335815430e-02
-1.292159557342529297e-01 -3.900743648409843445e-02 -7.101174443960189819e-02
-1.807124763727188110e-01 -1.203209012746810913e-01 -4.213275015354156494e-02
-6.119636446237564087e-02 -8.356267213821411133e-02 -1.653248220682144165e-01
-1.857418715953826904e-01 -6.632802635431289673e-02 -3.049134835600852966e-02
-1.850401312112808228e-01 -8.115971088409423828e-02 1.100364327430725098e-01
-5.427467450499534607e-02 -1.104598864912986755e-01 -1.002176553010940552e-01
-1.622741222381591797e-01 -4.582189023494720459e-02 3.234616667032241821e-02
-7.292594015598297119e-02 -3.519558906555175781e-02 1.674153208732604980e-01
-3.931507468223571777e-02 -1.112049818038940430e-01 6.607282906770706177e-02
-6.685428321361541748e-02 -9.645551443099975586e-03 5.546441674232482910e-02
1.399067789316177368e-02 -9.772191941738128662e-02 -5.652029067277908325e-04
-1.327885389328002930e-01 -1.261062473058700562e-01 -5.571213737130165100e-02
4.895890504121780396e-02 -5.832348763942718506e-02 -1.166147515177726746e-01
-1.958744972944259644e-01 -1.176918745040893555e-01 -3.044698387384414673e-04
2.647671848535537720e-02 -2.247535809874534607e-02 1.466035991907119751e-01
-1.452278643846511841e-01 -4.842724651098251343e-02 1.201957613229751587e-01
1.992916315793991089e-02 -8.240535855293273926e-02 1.027232557535171509e-01
-1.413889676332473755e-01 -4.809947311878204346e-02 -8.287188410758972168e-02
-8.704110234975814819e-02 -4.499323666095733643e-02 -1.414901316165924072e-01
-1.272358894348144531e-01 -1.293020993471145630e-01 -5.840117111802101135e-03
-2.203487977385520935e-02 -9.720122814178466797e-02 1.131326407194137573e-01
-1.765747815370559692e-01 -5.790533870458602905e-02 6.913076341152191162e-02
8.690290153026580811e-02 -5.099391192197799683e-02 2.209590747952461243e-04
-8.638922870159149170e-02 -1.816288754343986511e-02 -4.260221496224403381e-02
-2.006011158227920532e-01 -1.146080791950225830e-01 1.499065570533275604e-02
7.498976588249206543e-02 -7.078591734170913696e-03 4.882794246077537537e-02
-1.090649962425231934e-01 -8.028290420770645142e-02 1.796439737081527710e-01
-8.531014621257781982e-02 8.739925920963287354e-03 6.316527724266052246e-03
-4.169208556413650513e-02 1.312600970268249512e-01 -6.396097689867019653e-02
-1.189345344901084900e-01 -3.326609730720520020e-03 5.320094525814056396e-02
-1.244148612022399902e-01 4.759509488940238953e-02 -1.299869716167449951e-01
-1.292007565498352051e-01 1.540598869323730469e-01 5.844169482588768005e-02
-1.200382709503173828e-01 2.209618687629699707e-04 6.369391083717346191e-02
-5.911707505583763123e-02 8.015500009059906006e-02 9.325512498617172241e-02
-1.033278852701187134e-01 7.105380296707153320e-02 1.315130740404129028e-01
-4.709270596504211426e-02 8.124334365129470825e-02 -5.864088982343673706e-02
-1.614183336496353149e-01 8.035617321729660034e-02 -8.973630517721176147e-02
-1.671390086412429810e-01 1.050542593002319336e-01 -2.359119802713394165e-02
-1.293630748987197876e-01 8.539741486310958862e-02 1.248149499297142029e-01
-1.472418308258056641e-01 1.419723629951477051e-01 -2.676910907030105591e-02
-1.658436059951782227e-01 9.898301213979721069e-02 4.050071537494659424e-02
-1.531165242195129395e-01 8.316651731729507446e-02 9.470854699611663818e-02
-6.177763268351554871e-02 1.141590699553489685e-01 -1.097501665353775024e-01
-5.696366727352142334e-02 5.703141167759895325e-02 5.749808996915817261e-02
-1.090414896607398987e-01 1.801343709230422974e-01 1.452736649662256241e-02
-7.050776481628417969e-02 2.484724670648574829e-02 6.563378497958183289e-03
-1.458659917116165161e-01 1.082430407404899597e-01 -1.026398614048957825e-01
-1.264957636594772339e-01 1.627008616924285889e-01 3.891570121049880981e-02
-5.938345938920974731e-02 1.062999144196510315e-01 1.053342074155807495e-01
-5.710015445947647095e-02 7.360607385635375977e-02 8.263850957155227661e-02
-7.593283802270889282e-02 6.712197512388229370e-02 1.113592535257339478e-01
-3.897236287593841553e-02 8.717074990272521973e-02 -1.028028875589370728e-02
-8.327761292457580566e-02 1.726016998291015625e-01 7.726503908634185791e-02
-3.923053294420242310e-02 1.581248193979263306e-01 3.141727298498153687e-02
-9.126536548137664795e-02 1.001495942473411560e-01 1.323062777519226074e-01
-6.322056800127029419e-02 5.412725359201431274e-02 7.331385463476181030e-02
-5.952084809541702271e-02 5.820401385426521301e-02 -7.026202976703643799e-02
-6.622102111577987671e-02 6.351651251316070557e-02 9.274991601705551147e-02
-1.593120992183685303e-01 1.234894245862960815e-01 -6.787899881601333618e-03
-1.605422347784042358e-01 1.189213693141937256e-01 -2.966627478599548340e-02
-7.516207545995712280e-02 5.437500774860382080e-02 -1.023485511541366577e-01
-1.789348125457763672e-01 5.539503321051597595e-02 -4.053872544318437576e-04
-4.365583881735801697e-02 1.612840592861175537e-01 4.651948437094688416e-02
-1.642147451639175415e-01 2.341613173484802246e-03 -3.766725584864616394e-02
-8.747603744268417358e-02 1.871771812438964844e-01 -3.220910951495170593e-02
-1.255705952644348145e-01 1.617463231086730957e-01 -5.288271233439445496e-02
-1.570520997047424316e-01 4.284262657165527344e-03 -6.352635473012924194e-02
-1.135226935148239136e-01 -1.786358654499053955e-03 -6.133865192532539368e-02
-1.441654860973358154e-01 1.467012017965316772e-01 1.377746928483247757e-02
-1.306600123643875122e-01 -8.283458650112152100e-03 -5.388400703668594360e-02
-4.942040145397186279e-02 9.159068763256072998e-02 7.800747454166412354e-02
-1.120067089796066284e-01 2.525003254413604736e-02 1.022320985794067383e-01
-5.201277136802673340e-02 5.686131864786148071e-02 -2.956651151180267334e-02
-9.064337611198425293e-02 1.965641230344772339e-02 7.215233147144317627e-02
-1.323104053735733032e-01 1.089253351092338562e-01 -1.216769069433212280e-01
-1.085386201739311218e-01 1.307225674390792847e-01 -1.240686923265457153e-01
-4.593187198042869568e-02 1.616483628749847412e-01 -5.120326578617095947e-02
-1.774812936782836914e-01 5.847735330462455750e-02 1.903996244072914124e-02
-6.862363219261169434e-02 8.830516040325164795e-02 -1.153432577848434448e-01
-9.544345736503601074e-02 1.290100216865539551e-01 -1.278912574052810669e-01
-1.441121548414230347e-01 -1.260752975940704346e-02 1.438563782721757889e-02
-1.601839214563369751e-01 1.016673222184181213e-01 -7.343951612710952759e-02
-5.122286081314086914e-02 1.779787838459014893e-01 2.952073141932487488e-02
-1.109396144747734070e-01 4.772365093231201172e-03 6.749267131090164185e-02
-5.234525725245475769e-02 1.411505043506622314e-01 8.776667714118957520e-02
-1.180029287934303284e-01 1.745615005493164062e-01 -1.027108170092105865e-02
-1.689760088920593262e-01 9.700349718332290649e-02 -3.651915863156318665e-02
-1.410182565450668335e-01 1.472878903150558472e-01 -4.355007782578468323e-02
-6.420743465423583984e-02 5.438133329153060913e-02 -7.844410091638565063e-02
-1.357971280813217163e-01 5.155441537499427795e-02 1.168506219983100891e-01
-7.144728302955627441e-02 2.670112252235412598e-02 -3.505084291100502014e-02
-1.771274954080581665e-01 6.872583925724029541e-02 8.415742777287960052e-03
-8.886666595935821533e-02 1.462571471929550171e-01 1.117036193609237671e-01
-1.673705577850341797e-01 9.817175567150115967e-03 3.120117262005805969e-02
-9.337563067674636841e-02 1.863635033369064331e-01 2.512081339955329895e-02
-1.076080128550529480e-01 1.787118613719940186e-01 3.200976550579071045e-02
-9.204018115997314453e-02 1.829192340373992920e-01 -4.753182455897331238e-02
-8.191259950399398804e-02 1.229686960577964783e-01 1.245190724730491638e-01
-1.715970933437347412e-01 1.059670001268386841e-02 -2.067185938358306885e-02
-1.580977588891983032e-01 1.287787407636642456e-02 6.237268075346946716e-02
-1.627765297889709473e-01 1.122605800628662109e-01 -3.809654712677001953e-02
-6.906068325042724609e-02 3.772623836994171143e-02 -6.142129376530647278e-02
-4.860646650195121765e-02 8.370498567819595337e-02 -6.766952574253082275e-02
-1.377577185630798340e-01 2.353180944919586182e-02 9.772855788469314575e-02
-8.802147209644317627e-02 7.639005780220031738e-03 -2.732451260089874268e-02
-1.714701950550079346e-01 9.256677329540252686e-02 -2.454863861203193665e-02
-1.502144932746887207e-01 1.160712763667106628e-01 7.334306836128234863e-02
-1.351909488439559937e-01 9.231720119714736938e-02 -1.270525604486465454e-01
-5.441389232873916626e-02 1.823328733444213867e-01 2.044470235705375671e-02
-1.470199078321456909e-01 7.826629281044006348e-02 1.066598668694496155e-01
-1.670202910900115967e-01 9.136252105236053467e-03 -4.587396234273910522e-02
-1.343713104724884033e-01 1.543994843959808350e-01 3.895203396677970886e-02
-7.985325902700424194e-02 1.434291154146194458e-01 -1.145712584257125854e-01
-6.168351694941520691e-02 1.854380816221237183e-01 2.781198173761367798e-02
-4.997802153229713440e-02 1.723507642745971680e-01 -4.171071201562881470e-02
-4.881932213902473450e-02 1.205511763691902161e-01 -8.541400730609893799e-02
-9.828552603721618652e-02 1.473667472600936890e-01 1.086647287011146545e-01
-4.359943792223930359e-02 1.464497894048690796e-01 -6.198887154459953308e-02
-4.062233865261077881e-02 1.458021849393844604e-01 5.499518662691116333e-02
-1.493735313415527344e-01 1.360953897237777710e-01 -4.136092215776443481e-02
-5.200934037566184998e-02 6.408818066120147705e-02 -5.114794149994850159e-02
-1.168560907244682312e-01 1.745203435420989990e-01 -2.302197739481925964e-02
-3.874549269676208496e-02 9.991367161273956299e-02 -4.007010534405708313e-02
-1.511690616607666016e-01 1.147028133273124695e-01 -8.328746259212493896e-02
-1.685714125633239746e-01 2.210481464862823486e-02 -6.243767961859703064e-02
-3.340986371040344238e-02 1.207127273082733154e-01 1.832842826843261719e-02
-1.241412609815597534e-01 -1.086749881505966187e-02 -3.821392729878425598e-02
-8.047999441623687744e-02 1.676886826753616333e-01 -8.731421083211898804e-02
-5.361162871122360229e-02 1.174361482262611389e-01 9.641492366790771484e-02
-1.397635936737060547e-01 1.512753963470458984e-01 -3.114216402173042297e-02
-6.811892986297607422e-02 1.144322305917739868e-01 -1.178927421569824219e-01
-3.501464426517486572e-02 1.031723171472549438e-01 1.572209410369396210e-03
-1.745091378688812256e-01 2.543225884437561035e-02 -4.055168852210044861e-02
-5.721721798181533813e-02 1.855393052101135254e-01 4.184145946055650711e-04
-4.942281544208526611e-02 1.773873269557952881e-01 -2.118882536888122559e-02
-1.699957847595214844e-01 6.850945949554443359e-02 5.583245307207107544e-02
-1.644340008497238159e-01 1.060101687908172607e-01 3.306244686245918274e-02
-8.320346474647521973e-02 9.829066693782806396e-02 -1.320970356464385986e-01
-1.397102177143096924e-01 1.166194677352905273e-02 8.276775479316711426e-02
-1.323235034942626953e-01 1.377612054347991943e-01 -9.183653444051742554e-02
-5.880224704742431641e-02 9.165446460247039795e-02 -1.003130748867988586e-01
-1.133672371506690979e-01 1.687238216400146484e-01 -6.190356984734535217e-02
-9.013862162828445435e-02 5.738887935876846313e-02 1.188712865114212036e-01
-8.409631252288818359e-02 8.936555683612823486e-02 1.283605545759201050e-01
-8.296774327754974365e-02 5.227852240204811096e-02 -1.119907796382904053e-01
-1.603313088417053223e-01 7.554100453853607178e-02 8.219549059867858887e-02
-1.343729496002197266e-01 4.732530191540718079e-02 -1.263865530490875244e-01
-1.355497092008590698e-01 1.288696527481079102e-01 8.998903632164001465e-02
-1.441375464200973511e-01 -6.664976477622985840e-03 4.212129488587379456e-02
-1.179913207888603210e-01 4.237899929285049438e-02 1.188419163227081299e-01
-1.199705228209495544e-01 3.965793550014495850e-02 -1.255949288606643677e-01
-3.978358954191207886e-02 8.419346064329147339e-02 1.005002669990062714e-02
-1.712674349546432495e-01 9.065733104944229126e-02 2.052158489823341370e-02
-1.629870980978012085e-01 1.068544685840606689e-01 -5.218696594238281250e-02
-5.734065175056457520e-02 1.567291468381881714e-01 8.329483866691589355e-02
-1.246103420853614807e-01 9.284855425357818604e-02 -1.350165903568267822e-01
-1.271405965089797974e-01 1.574323177337646484e-01 -6.207057088613510132e-02
-1.719613969326019287e-01 1.041221618652343750e-02 -5.770867224782705307e-03
-6.141483411192893982e-02 1.298641115427017212e-01 1.060800254344940186e-01
-1.091539263725280762e-01 1.632467210292816162e-01 7.712252438068389893e-02
-1.541312336921691895e-01 7.708218693733215332e-02 -1.069233864545822144e-01
-1.472181379795074463e-01 1.132826954126358032e-01 -9.473177790641784668e-02
-1.492427438497543335e-01 1.134201884269714355e-04 -6.698998808860778809e-02
-3.324684500694274902e-02 1.341407895088195801e-01 1.688505336642265320e-02
-4.359262809157371521e-02 8.349131792783737183e-02 -4.461776092648506165e-02
-4.017880558967590332e-02 1.043703258037567139e-01 5.429267138242721558e-02
-1.570596992969512939e-01 8.877033740282058716e-02 8.304712176322937012e-02
-1.398678421974182129e-01 1.528505235910415649e-01 -1.554128248244524002e-02
-9.616698324680328369e-02 1.778845638036727905e-01 5.751383304595947266e-02
-1.604057252407073975e-01 1.204183995723724365e-01 9.936572052538394928e-03
-1.253270059823989868e-01 1.347097754478454590e-02 8.970326185226440430e-02
-7.595586776733398438e-02 1.422295719385147095e-01 1.119535490870475769e-01
-7.053367048501968384e-02 2.628009021282196045e-02 -2.560783550143241882e-02
-7.633344084024429321e-02 2.487728744745254517e-02 4.800625145435333252e-02
-3.702384233474731445e-02 1.491433531045913696e-01 -3.090075030922889709e-02
-4.590557143092155457e-02 1.707327514886856079e-01 -3.052689507603645325e-02
-1.605089604854583740e-01 5.779735743999481201e-02 8.520530909299850464e-02
-1.151052564382553101e-01 1.560231447219848633e-01 8.268698304891586304e-02
-5.082083866000175476e-02 1.602268517017364502e-01 -6.617477536201477051e-02
-1.115443333983421326e-01 -8.612021803855895996e-03 -2.298543229699134827e-02
-8.028281480073928833e-02 1.835132539272308350e-01 5.044864863157272339e-02
-3.968869894742965698e-02 1.368478089570999146e-01 -5.463111028075218201e-02
-1.703539043664932251e-01 8.596361428499221802e-02 -5.095396563410758972e-02
-1.646883040666580200e-01 5.427510291337966919e-02 7.535775750875473022e-02
-1.256681829690933228e-01 1.653612256050109863e-01 -3.655457869172096252e-02
-3.268481791019439697e-02 1.250520944595336914e-01 1.744925975799560547e-03
-1.518398821353912354e-01 8.678232133388519287e-02 -1.069349646568298340e-01
-1.014627739787101746e-01 1.080963313579559326e-01 -1.371954828500747681e-01
-5.395879596471786499e-02 5.647221952676773071e-02 -4.227994009852409363e-02
-5.583337694406509399e-02 1.683462262153625488e-01 6.539367884397506714e-02
-1.501439511775970459e-01 1.331886053085327148e-01 3.756836429238319397e-02
-4.842773079872131348e-02 1.449571698904037476e-01 7.768715173006057739e-02
-1.641561090946197510e-01 9.454246610403060913e-02 5.555704981088638306e-02
-1.469258368015289307e-01 6.417388468980789185e-02 -1.195154413580894470e-01
-1.393836289644241333e-01 7.226862013339996338e-03 -8.805733174085617065e-02
-1.402768194675445557e-01 1.420741826295852661e-01 5.474177002906799316e-02
-6.765942275524139404e-02 5.639030411839485168e-02 -8.986660093069076538e-02
-1.386436671018600464e-01 1.528307199478149414e-01 2.135294675827026367e-02
-9.670130908489227295e-02 1.711351275444030762e-01 7.406391203403472900e-02
-1.521174758672714233e-01 7.940754294395446777e-04 5.129437893629074097e-02
-7.649157941341400146e-02 8.900437504053115845e-02 -1.251025348901748657e-01
-1.175484508275985718e-01 -1.167228072881698608e-02 -1.378864794969558716e-02
-1.694132387638092041e-01 7.934125512838363647e-02 5.038259923458099365e-02
-1.494661271572113037e-01 1.223840042948722839e-01 6.579553335905075073e-02
-1.662406325340270996e-01 9.511222690343856812e-02 -5.822027474641799927e-02
-1.029427796602249146e-01 1.145049929618835449e-03 -5.221839621663093567e-02
-9.408253431320190430e-02 9.928213059902191162e-02 -1.375444382429122925e-01
-1.704093664884567261e-01 2.949082478880882263e-02 4.893310740590095520e-02
-1.784117817878723145e-01 5.259286239743232727e-02 -2.756064012646675110e-02
-4.871423915028572083e-02 6.091228127479553223e-02 -1.159233599901199341e-02
-1.591515839099884033e-01 3.897654265165328979e-02 8.341907709836959839e-02
