1.963669657707214355e-01 3.109925799071788788e-02 3.502317070960998535e-01
2.012540400028228760e-01 9.773158282041549683e-02 9.985145926475524902e-02
4.029643833637237549e-01 2.759646996855735779e-02 4.578622877597808838e-01
6.457873582839965820e-01 9.595308452844619751e-02 -2.656345367431640625e-01
8.410854935646057129e-01 8.345240354537963867e-02 -2.743547558784484863e-01
9.128853082656860352e-01 8.257966488599777222e-02 -1.321494281291961670e-01
4.791968464851379395e-01 9.110776335000991821e-02 -3.845472633838653564e-01
5.013923048973083496e-01 6.237387657165527344e-03 -1.614440232515335083e-01
9.575780630111694336e-01 7.813043147325515747e-02 4.484052211046218872e-02
3.210126161575317383e-01 7.391184568405151367e-02 -4.757590591907501221e-01
5.699019432067871094e-01 3.482699394226074219e-03 3.828560467809438705e-03
4.240837395191192627e-01 2.127432450652122498e-02 4.081355035305023193e-01
3.667007684707641602e-01 1.002781018614768982e-01 2.247035503387451172e-01
5.137253403663635254e-01 1.674551144242286682e-02 -3.721825182437896729e-01
7.021781802177429199e-01 2.305254340171813965e-02 4.110110104084014893e-01
3.868519067764282227e-01 9.835822880268096924e-02 -2.618412375450134277e-01
2.374230325222015381e-01 3.635977208614349365e-02 4.294192194938659668e-01
2.879951000213623047e-01 9.072367846965789795e-02 -3.291470110416412354e-01
5.807568430900573730e-01 3.599841147661209106e-03 -3.969093039631843567e-02
6.602095365524291992e-01 3.898366168141365051e-02 -5.226039290428161621e-01
8.683158159255981445e-01 7.691513001918792725e-02 2.979853451251983643e-01
7.791218757629394531e-01 1.787221431732177734e-02 3.113197982311248779e-01
8.752143979072570801e-01 3.487519174814224243e-02 3.716261088848114014e-01
7.514666914939880371e-01 2.383168414235115051e-02 3.930719196796417236e-01
9.534829258918762207e-01 6.427443772554397583e-02 2.720243632793426514e-01
1.020123362541198730e+00 4.394810646772384644e-02 1.764232665300369263e-01
4.098734259605407715e-01 1.013965159654617310e-01 2.104484140872955322e-01
9.740773439407348633e-01 7.250347733497619629e-02 -1.634959429502487183e-01
6.616804599761962891e-01 1.406465470790863037e-02 -3.313492536544799805e-01
8.319991827011108398e-02 3.564232587814331055e-02 2.172689884901046753e-01
1.257309913635253906e-01 2.599066868424415588e-02 -1.051352471113204956e-01
2.781721353530883789e-01 7.127524167299270630e-02 4.864217936992645264e-01
7.143225073814392090e-01 8.451652526855468750e-02 -3.852925300598144531e-01
6.112288236618041992e-01 1.315823197364807129e-02 3.255537450313568115e-01
4.495551586151123047e-01 5.962979048490524292e-03 1.144400089979171753e-01
2.468520104885101318e-01 1.762492582201957703e-02 -1.880309581756591797e-01
6.341576576232910156e-02 3.327627480030059814e-02 8.718951046466827393e-02
3.707841932773590088e-01 7.890131324529647827e-03 8.594352751970291138e-02
1.089749336242675781e-01 9.040229022502899170e-02 -7.161707431077957153e-02
4.032653570175170898e-01 1.809609308838844299e-02 -3.501448035240173340e-01
4.174146056175231934e-01 8.371566236019134521e-02 -4.475765824317932129e-01
6.181773543357849121e-01 2.245270460844039917e-02 -4.343011379241943359e-01
2.255336046218872070e-01 1.859540864825248718e-02 1.972237527370452881e-01
3.093669414520263672e-01 1.096482202410697937e-02 1.096044555306434631e-01
9.864168167114257812e-01 2.463916689157485962e-02 1.794426888227462769e-02
7.324692606925964355e-01 1.376171037554740906e-02 2.854942977428436279e-01
5.026646852493286133e-01 1.045709177851676941e-01 -6.929837912321090698e-02
5.571632385253906250e-01 2.974119596183300018e-02 -4.907880723476409912e-01
9.906804561614990234e-02 3.102204576134681702e-02 1.799435317516326904e-01
7.648758888244628906e-01 3.391059860587120056e-02 -4.652389585971832275e-01
8.178977966308593750e-01 1.088639348745346069e-02 1.249298974871635437e-01
6.068242788314819336e-01 3.756910562515258789e-03 5.136191472411155701e-02
4.199509620666503906e-01 6.967969238758087158e-03 -1.157843321561813354e-01
7.531949281692504883e-01 5.331699177622795105e-02 -5.113946199417114258e-01
2.086533904075622559e-01 1.681970059871673584e-02 -4.597918316721916199e-02
3.924009799957275391e-01 3.286616131663322449e-02 -4.765084981918334961e-01
8.729242086410522461e-01 8.734706044197082520e-02 8.820413798093795776e-02
2.419242858886718750e-01 9.270033240318298340e-02 2.886436879634857178e-01
5.701853632926940918e-01 2.959776297211647034e-02 4.904729723930358887e-01
5.474796295166015625e-01 1.034939214587211609e-01 -1.078554019331932068e-01
2.762593030929565430e-01 1.056542694568634033e-01 5.712576210498809814e-03
5.211348533630371094e-01 2.824364416301250458e-02 -3.226437866687774658e-01
5.026713013648986816e-02 1.695665717124938965e-02 4.558767676353454590e-01
4.921095371246337891e-01 9.348502755165100098e-02 -4.674685001373291016e-01
3.624788522720336914e-01 1.291495561599731445e-02 2.318778634071350098e-01
2.723337709903717041e-01 8.817863464355468750e-02 -7.087199687957763672e-01
-8.711192011833190918e-02 8.015520870685577393e-02 -2.421867847442626953e-02
5.910023450851440430e-01 3.094260580837726593e-02 5.785429477691650391e-02
2.225971668958663940e-01 2.644304372370243073e-02 -7.141868472099304199e-01
-6.018096208572387695e-02 2.448356524109840393e-02 3.970162868499755859e-01
3.094842135906219482e-01 4.665002226829528809e-02 9.699111580848693848e-01
2.686569392681121826e-01 1.723847538232803345e-02 5.776560306549072266e-01
5.273278355598449707e-01 9.969215840101242065e-02 2.687518894672393799e-01
1.474491953849792480e-01 8.833892643451690674e-02 6.608378887176513672e-01
8.238089084625244141e-02 6.598913669586181641e-02 -8.336106538772583008e-01
7.031820416450500488e-01 6.635160744190216064e-02 -5.025910213589668274e-02
-9.463638067245483398e-03 2.105203643441200256e-02 -4.420747160911560059e-01
-1.022390723228454590e-01 3.918437659740447998e-02 4.938099682331085205e-01
6.599532067775726318e-02 1.851426064968109131e-02 -4.956387877464294434e-01
5.115052461624145508e-01 1.017247065901756287e-01 -3.832369670271873474e-02
6.875470280647277832e-01 7.927644252777099609e-02 4.931120201945304871e-03
1.455773711204528809e-01 8.905619382858276367e-03 -1.159791648387908936e-01
6.949431896209716797e-01 7.712699472904205322e-02 7.996724545955657959e-02
2.086052298545837402e-01 1.591975986957550049e-02 -4.843860864639282227e-01
2.194624096155166626e-01 1.329730078577995300e-02 4.605501294136047363e-01
2.288204729557037354e-01 1.955455914139747620e-02 -5.773589015007019043e-01
-5.262851715087890625e-03 1.564607024192810059e-02 2.604511380195617676e-01
5.464078187942504883e-01 9.639687836170196533e-02 -2.483880072832107544e-01
3.582798242568969727e-01 3.176057338714599609e-02 8.163398504257202148e-01
4.431885480880737305e-01 1.047443598508834839e-01 8.704314008355140686e-03
2.587131261825561523e-01 1.052468791604042053e-01 8.702826499938964844e-02
-5.239152908325195312e-02 1.717633754014968872e-02 -6.483571231365203857e-02
-6.422317028045654297e-02 6.858053803443908691e-02 -5.565322041511535645e-01
2.613428831100463867e-01 1.397950202226638794e-02 4.709864258766174316e-01
4.672539830207824707e-01 9.906250238418579102e-02 -3.444297611713409424e-01
1.273396611213684082e-01 1.003468632698059082e-01 8.444435894489288330e-02
4.045774936676025391e-01 1.026640832424163818e-01 3.694395720958709717e-01
5.217335820198059082e-01 4.304963722825050354e-02 -6.125081181526184082e-01
5.523543357849121094e-01 2.873012423515319824e-02 -1.941321194171905518e-01
4.182767570018768311e-01 9.532718360424041748e-02 -5.188472867012023926e-01
4.474928081035614014e-01 1.701780036091804504e-02 -1.533968746662139893e-02
1.682460308074951172e-03 1.415658742189407349e-02 -1.762682795524597168e-01
1.375024020671844482e-02 9.195685386657714844e-02 -1.097324192523956299e-01
3.300482332706451416e-01 9.940373897552490234e-02 -4.521669149398803711e-01
6.028064489364624023e-01 4.579108953475952148e-02 5.865809321403503418e-01
5.349860787391662598e-01 2.429971471428871155e-02 3.670062869787216187e-02
1.647388041019439697e-01 8.427996188402175903e-03 1.219116002321243286e-01
4.086416959762573242e-01 9.351882338523864746e-02 6.622785329818725586e-01
2.276012301445007324e-01 1.063235476613044739e-02 -2.522328197956085205e-01
5.907222032546997070e-01 9.125682711601257324e-02 4.135992527008056641e-01
2.995735406875610352e-02 3.497902303934097290e-02 7.466554641723632812e-01
5.474659204483032227e-01 3.527678549289703369e-02 5.725107192993164062e-01
2.283819764852523804e-01 9.147061407566070557e-02 -6.338620781898498535e-01
9.542027115821838379e-02 9.225338697433471680e-02 -4.512806534767150879e-01
3.469429910182952881e-02 7.872417569160461426e-02 -6.410874128341674805e-01
-5.826237797737121582e-02 2.263723686337471008e-02 3.508867919445037842e-01
2.657111883163452148e-01 1.018264591693878174e-01 3.938393294811248779e-01
3.671140968799591064e-02 1.124357059597969055e-02 3.043894469738006592e-02
-2.907440066337585449e-02 1.514728739857673645e-02 3.824470192193984985e-02
3.404304385185241699e-01 8.618254959583282471e-02 -7.321333885192871094e-01
-5.769464373588562012e-02 2.900854498147964478e-02 -5.050107836723327637e-01
1.891728341579437256e-01 9.518647193908691406e-02 -5.117158889770507812e-01
2.110455483198165894e-01 2.653296105563640594e-02 7.825239896774291992e-01
9.201775491237640381e-02 9.353608638048171997e-02 -3.972868025302886963e-01
3.937897086143493652e-01 2.197195217013359070e-02 -4.711524844169616699e-01
3.789207637310028076e-01 3.661246970295906067e-02 -7.562289237976074219e-01
2.217510491609573364e-01 1.746554672718048096e-02 -5.258547067642211914e-01
4.374475777149200439e-02 1.123356819152832031e-02 -8.691324293613433838e-02
-4.068112373352050781e-02 8.646032959222793579e-02 -6.009235605597496033e-02
1.043127775192260742e-01 9.916508197784423828e-02 2.903814800083637238e-02
2.575300633907318115e-02 1.442808657884597778e-02 -2.789287269115447998e-01
2.299193739891052246e-01 9.825901687145233154e-02 5.002659559249877930e-01
5.782493352890014648e-01 7.681749761104583740e-02 -5.506083965301513672e-01
-1.687982678413391113e-02 1.963581144809722900e-02 -3.817837834358215332e-01
6.369292736053466797e-01 3.826815262436866760e-02 7.888343930244445801e-02
1.184961944818496704e-01 1.082309707999229431e-02 -2.488537579774856567e-01
6.200895309448242188e-01 9.265202283859252930e-02 1.476405113935470581e-01
4.768314957618713379e-01 1.925541833043098450e-02 1.612087190151214600e-01
1.943284869194030762e-01 1.033027395606040955e-01 1.082474738359451294e-01
4.066803455352783203e-01 1.433819532394409180e-02 1.534499041736125946e-02
3.997207880020141602e-01 1.719773188233375549e-02 -2.817729711532592773e-01
2.716429531574249268e-01 6.632562726736068726e-02 9.774492979049682617e-01
4.854738116264343262e-01 5.746674537658691406e-02 8.909693956375122070e-01
1.763674914836883545e-01 1.011665761470794678e-01 -2.317809015512466431e-01
3.437956571578979492e-01 7.999184727668762207e-02 8.854581713676452637e-01
6.201325058937072754e-01 3.684480860829353333e-02 -1.008881777524948120e-01
1.759119033813476562e-01 8.521152287721633911e-02 7.512433528900146484e-01
-1.349746286869049072e-01 3.260549902915954590e-02 -2.812245488166809082e-01
6.059755086898803711e-01 3.620100393891334534e-02 -1.868204027414321899e-01
3.655295968055725098e-01 1.833656430244445801e-02 -4.081600308418273926e-01
2.332079410552978516e-02 8.870205283164978027e-02 3.672314286231994629e-01
9.262339770793914795e-02 3.221453353762626648e-02 7.920863628387451172e-01
3.371763229370117188e-01 9.769693017005920410e-02 -5.033010840415954590e-01
1.632435023784637451e-01 9.424100816249847412e-02 5.381909012794494629e-01
6.768782138824462891e-01 6.074784696102142334e-02 -2.544333338737487793e-01
-1.250272691249847412e-01 4.780227690935134888e-02 4.541873931884765625e-01
5.489192008972167969e-01 7.669417560100555420e-02 -6.137002706527709961e-01
5.483040809631347656e-01 9.920705854892730713e-02 1.883185058832168579e-01
2.217993140220642090e-02 7.325650751590728760e-02 6.944984793663024902e-01
-7.399445772171020508e-02 8.104546368122100830e-02 -1.774795204401016235e-01
2.228289991617202759e-01 2.347675710916519165e-02 -6.625217199325561523e-01
8.109188079833984375e-02 8.691086620092391968e-02 5.802084207534790039e-01
3.381301164627075195e-01 2.421266213059425354e-02 7.030305266380310059e-01
8.070771396160125732e-02 9.691748768091201782e-02 1.640900075435638428e-01
2.021906375885009766e-01 8.518759161233901978e-03 1.464776545763015747e-01
3.794171810150146484e-01 1.059078276157379150e-01 -1.981241628527641296e-02
3.138066828250885010e-02 2.966716699302196503e-02 6.892414689064025879e-01
3.440049886703491211e-01 1.797032356262207031e-02 5.344982147216796875e-01
2.577563822269439697e-01 1.255835965275764465e-02 -3.300262689590454102e-01
3.929393291473388672e-01 1.862758398056030273e-02 4.769353270530700684e-01
5.791249275207519531e-01 8.620329946279525757e-02 5.693349838256835938e-01
-6.519621610641479492e-02 7.870607823133468628e-02 3.232093155384063721e-01
3.733359575271606445e-01 1.054907143115997314e-01 -1.050029993057250977e-01
5.558555126190185547e-01 2.709700725972652435e-02 2.057116031646728516e-01
2.954296171665191650e-01 2.633601613342761993e-02 7.685756683349609375e-01
3.733026683330535889e-01 1.012486815452575684e-01 4.524106383323669434e-01
1.356707066297531128e-01 1.009353995323181152e-01 -6.109729409217834473e-03
-4.391074180603027344e-02 8.600170910358428955e-02 5.529554560780525208e-02
3.369591832160949707e-01 1.031495034694671631e-01 -2.974226772785186768e-01
-9.482374787330627441e-02 6.689802557229995728e-02 -4.782274961471557617e-01
5.194270610809326172e-02 8.979624509811401367e-02 4.268386960029602051e-01
1.207050830125808716e-01 3.716529533267021179e-02 8.621354103088378906e-01
4.420251846313476562e-01 3.300258517265319824e-02 -6.248059272766113281e-01
2.517963945865631104e-01 1.081869378685951233e-02 3.212894797325134277e-01
4.382028579711914062e-01 2.563004195690155029e-02 -4.820754528045654297e-01
-3.373441100120544434e-02 2.936046943068504333e-02 -5.647351145744323730e-01
4.097028672695159912e-01 1.568771153688430786e-02 2.695998549461364746e-01
2.183271050453186035e-01 2.361264079809188843e-02 7.340688109397888184e-01
4.982704818248748779e-01 2.737485244870185852e-02 -3.744134008884429932e-01
3.693093657493591309e-01 1.044854745268821716e-01 2.823799550533294678e-01
1.990671455860137939e-02 2.093683928251266479e-02 5.124805569648742676e-01
-1.724869310855865479e-01 4.071931168437004089e-02 9.572074562311172485e-02
-5.603745579719543457e-02 6.657636165618896484e-02 5.846920609474182129e-01
5.862889289855957031e-01 5.633980035781860352e-02 7.208076715469360352e-01
1.922075748443603516e-01 1.520823314785957336e-02 5.286822319030761719e-01
9.716425836086273193e-02 1.177905127406120300e-02 3.199186325073242188e-01
3.645961582660675049e-01 1.612409949302673340e-02 4.303214550018310547e-01
-1.975920796394348145e-02 6.543327867984771729e-02 6.856645345687866211e-01
1.082678437232971191e-01 1.811562851071357727e-02 5.648942589759826660e-01
6.208734512329101562e-01 7.988989353179931641e-02 -4.001644253730773926e-01
3.346117436885833740e-01 2.468061447143554688e-02 -6.175935864448547363e-01
1.505476832389831543e-01 9.194958955049514771e-03 2.088714540004730225e-01
1.827470511198043823e-01 9.682816267013549805e-02 4.859915375709533691e-01
6.902583837509155273e-01 6.705149263143539429e-02 -1.786854863166809082e-01
2.526582181453704834e-01 1.881767064332962036e-02 6.271070241928100586e-01
3.133028447628021240e-01 3.311271965503692627e-02 -7.694140672683715820e-01
2.228163331747055054e-01 9.957934916019439697e-02 4.417307674884796143e-01
4.571991860866546631e-01 8.081462234258651733e-02 -7.132242918014526367e-01
4.922567307949066162e-02 8.326055109500885010e-02 -5.873455405235290527e-01
1.739954948425292969e-02 1.631200313568115234e-02 -3.446228206157684326e-01
4.912629127502441406e-01 1.029634028673171997e-01 1.131915673613548279e-02
1.060606837272644043e-01 9.108398854732513428e-02 5.248040556907653809e-01
4.342240095138549805e-02 6.045318022370338440e-02 -8.166411519050598145e-01
-3.748154640197753906e-02 1.891818270087242126e-02 2.937213182449340820e-01
5.727261304855346680e-01 9.567849338054656982e-02 -1.714119911193847656e-01
4.327106475830078125e-01 1.027039960026741028e-01 -2.372151464223861694e-01
6.004050970077514648e-01 8.675366640090942383e-02 -3.537542521953582764e-01
2.946190536022186279e-01 1.047792732715606689e-01 2.378642112016677856e-01
4.113939404487609863e-01 1.054710447788238525e-01 9.735175967216491699e-02
2.943269908428192139e-02 8.855579793453216553e-02 -3.980008065700531006e-01
6.308242082595825195e-01 3.982024639844894409e-02 -1.492874622344970703e-01
5.315954685211181641e-01 9.764912724494934082e-02 3.681601583957672119e-01
4.239595532417297363e-01 4.325103387236595154e-02 -7.716270685195922852e-01
-2.163290977478027344e-02 3.353497013449668884e-02 6.456563472747802734e-01
4.545181393623352051e-01 1.042864918708801270e-01 1.252536028623580933e-01
2.593943774700164795e-01 7.842513918876647949e-02 -8.316504955291748047e-01
4.467101693153381348e-01 3.882386907935142517e-02 -6.975831985473632812e-01
-2.947032451629638672e-03 9.002093970775604248e-02 1.381958574056625366e-01
2.446775138378143311e-02 3.091131709516048431e-02 -6.793080568313598633e-01
-1.511699557304382324e-01 3.323753923177719116e-02 -1.664644628763198853e-01
3.727713227272033691e-01 1.265285536646842957e-02 -1.101821288466453552e-02
6.378062963485717773e-01 9.044146537780761719e-02 8.917012810707092285e-02
3.634254634380340576e-02 4.210802540183067322e-02 8.063488006591796875e-01
1.884302496910095215e-02 7.951875776052474976e-02 5.941433310508728027e-01
-1.601432859897613525e-01 6.099013239145278931e-02 1.543094217777252197e-01
4.895197749137878418e-01 4.219513013958930969e-02 -6.655791997909545898e-01
3.619071245193481445e-01 4.004471749067306519e-02 9.063082933425903320e-01
2.714601457118988037e-01 3.208233788609504700e-02 8.579205870628356934e-01
3.353188037872314453e-01 1.602261140942573547e-02 -3.750793039798736572e-01
3.105832934379577637e-01 8.969482779502868652e-02 7.536427974700927734e-01
4.346509575843811035e-01 1.032580807805061340e-01 2.957912683486938477e-01
7.534278929233551025e-02 3.167014569044113159e-02 -7.402772903442382812e-01
3.938884139060974121e-01 9.353764355182647705e-02 -5.792317986488342285e-01
3.117642700672149658e-01 9.185358881950378418e-02 -6.442013382911682129e-01
4.388101696968078613e-01 3.860262036323547363e-02 8.264130353927612305e-01
1.074469089508056641e-02 9.188665449619293213e-02 6.332327425479888916e-02
-1.589009165763854980e-02 7.293485850095748901e-02 -6.230211257934570312e-01
2.170179337263107300e-01 1.235220208764076233e-02 -3.494278192520141602e-01
1.746028661727905273e-01 2.756033837795257568e-02 -7.325733900070190430e-01
3.594197630882263184e-01 2.305285260081291199e-02 6.575978398323059082e-01
7.771474123001098633e-02 9.038466215133666992e-02 4.800733625888824463e-01
-1.008776724338531494e-01 4.827202111482620239e-02 5.402262210845947266e-01
1.263980865478515625e-01 5.827326327562332153e-02 9.275714755058288574e-01
4.855996668338775635e-01 1.973561570048332214e-02 3.558358177542686462e-02
3.531971573829650879e-01 1.166310533881187439e-02 5.183650180697441101e-02
1.038777530193328857e-01 5.750771611928939819e-02 -8.809591531753540039e-01
2.860114574432373047e-01 8.236244320869445801e-02 8.562102913856506348e-01
1.609063297510147095e-01 9.780127555131912231e-03 2.678475081920623779e-01
5.359481573104858398e-01 5.829946324229240417e-02 -6.849686503410339355e-01
2.917727231979370117e-01 1.001176238059997559e-02 -8.357402682304382324e-02
3.207195997238159180e-01 1.028560250997543335e-01 3.809092640876770020e-01
2.941315770149230957e-01 1.392207667231559753e-02 4.408069849014282227e-01
2.799310088157653809e-01 9.320870041847229004e-03 8.593881130218505859e-02
6.199412345886230469e-01 8.196201175451278687e-02 5.260528922080993652e-01
6.184493303298950195e-01 4.216428473591804504e-02 4.618972837924957275e-01
2.687969803810119629e-01 1.043751463294029236e-02 -1.876428723335266113e-01
1.712740361690521240e-01 9.766062349081039429e-02 4.347084462642669678e-01
5.959572792053222656e-01 3.295699506998062134e-02 2.638265192508697510e-01
1.840899884700775146e-01 1.031329631805419922e-01 6.599022075533866882e-03
4.395693540573120117e-02 2.421683073043823242e-02 6.218346953392028809e-01
3.167955279350280762e-01 6.577302515506744385e-02 -9.020349979400634766e-01
-5.494126677513122559e-02 2.510970458388328552e-02 -4.325224757194519043e-01
3.042924702167510986e-01 1.018450260162353516e-01 4.221633374691009521e-01
4.110338091850280762e-01 8.781540393829345703e-02 7.658513188362121582e-01
6.699253320693969727e-01 5.782195180654525757e-02 4.474551081657409668e-01
6.085302233695983887e-01 8.707691729068756104e-02 4.648908078670501709e-01
8.384254574775695801e-02 1.149116083979606628e-02 2.781400978565216064e-01
5.536037087440490723e-01 2.649411000311374664e-02 -5.153644829988479614e-03
-9.398078918457031250e-02 7.518343627452850342e-02 2.720238268375396729e-01
6.506961584091186523e-02 2.023440971970558167e-02 -5.384186506271362305e-01
4.532029032707214355e-01 2.901775017380714417e-02 -5.302789807319641113e-01
-7.959896326065063477e-02 1.976757496595382690e-02 -2.920520678162574768e-02
3.748191595077514648e-01 1.058527678251266479e-01 1.260770857334136963e-01
-6.990343332290649414e-02 5.148658901453018188e-02 -6.449552774429321289e-01
3.415101170539855957e-01 2.944658696651458740e-02 -6.961759328842163086e-01
1.758539974689483643e-01 9.061675518751144409e-03 -1.522371023893356323e-01
5.421289205551147461e-01 9.178882837295532227e-02 5.352953076362609863e-01
2.308521419763565063e-01 8.431799709796905518e-03 6.316877156496047974e-02
-6.393867731094360352e-02 7.525172829627990723e-02 -4.448689818382263184e-01
2.954910695552825928e-01 1.236818358302116394e-02 3.621015548706054688e-01
5.575034022331237793e-01 4.099278897047042847e-02 6.482486724853515625e-01
1.287130117416381836e-01 1.365076750516891479e-02 -3.946222960948944092e-01
5.249339342117309570e-01 1.012425869703292847e-01 8.580672740936279297e-02
4.140955209732055664e-02 9.205320477485656738e-02 2.924267351627349854e-01
3.652374148368835449e-01 1.046011298894882202e-01 -1.966790407896041870e-01
9.513539075851440430e-02 9.527631103992462158e-03 -8.285243809223175049e-02
4.131259918212890625e-01 1.503506675362586975e-02 1.776772290468215942e-01
6.543163061141967773e-01 8.504641056060791016e-02 -1.345234960317611694e-01
2.634539604187011719e-01 1.029353737831115723e-01 3.320178389549255371e-01
4.191137552261352539e-01 8.611793071031570435e-02 -6.875075697898864746e-01
4.090271592140197754e-01 7.964236289262771606e-02 8.682053685188293457e-01
-1.416563093662261963e-01 5.527423694729804993e-02 3.635495007038116455e-01
4.745271205902099609e-01 1.883146911859512329e-02 9.099617600440979004e-02
3.321021199226379395e-01 1.285886391997337341e-02 -2.228882759809494019e-01
4.718686044216156006e-01 8.993062376976013184e-02 -5.712484717369079590e-01
5.948178768157958984e-01 3.844916820526123047e-02 -3.184688687324523926e-01
6.065674424171447754e-01 9.306497871875762939e-02 2.571073174476623535e-01
1.231184601783752441e-01 1.238134875893592834e-02 3.842228949069976807e-01
3.572044968605041504e-01 1.038044691085815430e-01 -2.547767162322998047e-01
2.213461250066757202e-01 1.036089211702346802e-01 -1.530596017837524414e-01
7.145830988883972168e-02 9.592577069997787476e-02 -1.897111386060714722e-01
-6.805479526519775391e-03 6.244051828980445862e-02 7.331601977348327637e-01
3.947609663009643555e-01 2.587706595659255981e-02 -5.664356350898742676e-01
5.708232522010803223e-01 9.662500023841857910e-02 -1.248923242092132568e-01
1.451617330312728882e-01 2.007859200239181519e-02 6.400144696235656738e-01
3.762102723121643066e-01 1.051212996244430542e-01 2.240553200244903564e-01
6.565448641777038574e-02 1.011742651462554932e-02 -1.177337765693664551e-02
1.451104283332824707e-01 9.714537858963012695e-02 4.000536203384399414e-01
-1.096501052379608154e-01 7.390218973159790039e-02 -2.357445508241653442e-01
1.389192938804626465e-01 3.146956115961074829e-02 8.199913501739501953e-01
1.300467550754547119e-01 1.194686815142631531e-02 -3.214417695999145508e-01
-7.408374547958374023e-02 2.902615815401077271e-02 4.515143334865570068e-01
1.657026559114456177e-01 1.051740348339080811e-02 -2.613512277603149414e-01
3.412210047245025635e-01 1.982205361127853394e-02 -4.933363795280456543e-01
7.671906054019927979e-02 1.819023117423057556e-02 5.317917466163635254e-01
4.525894820690155029e-01 1.894205808639526367e-02 -1.788160800933837891e-01
-8.488774299621582031e-03 1.384246721863746643e-02 7.740280032157897949e-02
5.307894945144653320e-01 9.124524891376495361e-02 -4.450471699237823486e-01
-1.032226681709289551e-01 7.561223208904266357e-02 1.813303232192993164e-01
5.569421052932739258e-01 8.277875185012817383e-02 6.704056262969970703e-01
4.094136357307434082e-01 1.857304200530052185e-02 4.371069073677062988e-01
5.882363319396972656e-01 9.618721902370452881e-02 -7.079377770423889160e-03
3.080621659755706787e-01 1.054281294345855713e-01 1.860911995172500610e-01
-1.164593994617462158e-01 6.347697973251342773e-02 4.054971635341644287e-01
5.971726179122924805e-01 5.005109310150146484e-02 -4.951525330543518066e-01
5.176575779914855957e-01 3.408417105674743652e-02 6.271219253540039062e-01
1.503349244594573975e-01 1.063062250614166260e-02 3.173248767852783203e-01
3.943443894386291504e-01 1.002018973231315613e-01 -3.954964280128479004e-01
4.104433357715606689e-01 2.090916410088539124e-02 -4.044989049434661865e-01
-1.776175796985626221e-01 5.479435622692108154e-02 2.876479178667068481e-02
6.139458715915679932e-02 7.138684391975402832e-02 7.824268937110900879e-01
3.166365623474121094e-01 1.060205399990081787e-01 -2.842505648732185364e-02
1.561447829008102417e-01 1.016058772802352905e-01 -9.924395382404327393e-02
3.570731878280639648e-01 8.918280899524688721e-02 7.624485492706298828e-01
6.127063035964965820e-01 7.180432975292205811e-02 6.499179005622863770e-01
3.531989157199859619e-01 9.194235503673553467e-02 -6.330052614212036133e-01
2.251809090375900269e-01 9.342677891254425049e-03 -1.557946354150772095e-01
3.653958737850189209e-01 1.246843114495277405e-02 1.560100913047790527e-01
1.447839736938476562e-01 2.692304551601409912e-02 7.642707824707031250e-01
-9.322306513786315918e-02 2.826303057372570038e-02 -3.803235292434692383e-01
3.978360891342163086e-01 4.998316988348960876e-02 -8.417116999626159668e-01
1.476109325885772705e-01 7.991713285446166992e-02 7.987120151519775391e-01
4.764651656150817871e-01 2.235162630677223206e-02 -2.626468539237976074e-01
2.509204149246215820e-01 1.041783541440963745e-01 2.193139940500259399e-01
1.393804848194122314e-01 9.607020765542984009e-03 -1.816214472055435181e-01
2.435131818056106567e-01 7.747428864240646362e-02 8.952335715293884277e-01
6.107921600341796875e-01 8.824789524078369141e-02 -2.789453268051147461e-01
4.025030136108398438e-02 7.949011772871017456e-02 6.422663927078247070e-01
6.945927739143371582e-01 5.766837671399116516e-02 2.630575299263000488e-01
2.323587834835052490e-01 4.139925166964530945e-02 -8.766665458679199219e-01
5.142298340797424316e-02 2.566990256309509277e-02 -6.333537101745605469e-01
1.017631888389587402e-01 2.315208688378334045e-02 6.698155999183654785e-01
3.706041872501373291e-01 1.060806959867477417e-01 5.371697247028350830e-02
3.845493793487548828e-01 5.093276873230934143e-02 9.590774178504943848e-01
1.798316091299057007e-01 1.798396557569503784e-02 -5.454459190368652344e-01
1.987316757440567017e-01 1.031923294067382812e-01 1.534427106380462646e-01
6.112247109413146973e-01 3.460026532411575317e-02 2.128957211971282959e-01
-3.860697150230407715e-02 2.594697289168834686e-02 4.939983785152435303e-01
1.171130985021591187e-01 9.656000137329101562e-02 -3.338692188262939453e-01
2.396142482757568359e-02 1.228980347514152527e-02 1.315740048885345459e-01
-2.384525537490844727e-02 8.594945073127746582e-02 2.605383396148681641e-01
2.006979286670684814e-01 1.437736675143241882e-02 -4.351728856563568115e-01
4.650362730026245117e-01 1.967743784189224243e-02 2.968725860118865967e-01
2.223762124776840210e-01 3.943537920713424683e-02 9.270996451377868652e-01
-9.308835864067077637e-02 2.452777326107025146e-02 2.566352784633636475e-01
1.327160000801086426e-01 1.002420485019683838e-01 1.510863006114959717e-01
4.974195659160614014e-01 2.725298702716827393e-02 5.122398734092712402e-01
4.186705946922302246e-01 2.357672899961471558e-02 5.878479480743408203e-01
5.325318574905395508e-01 9.423685073852539062e-02 -3.645698428153991699e-01
4.046022891998291016e-01 9.749034047126770020e-02 5.653347373008728027e-01
3.331138193607330322e-02 2.170835435390472412e-02 5.543917417526245117e-01
8.276762068271636963e-02 9.740765392780303955e-02 1.207545399665832520e-01
2.486305236816406250e-01 9.370059520006179810e-02 6.467344760894775391e-01
-2.202376723289489746e-02 5.703010410070419312e-02 -7.323898673057556152e-01
2.276243269443511963e-01 9.363952279090881348e-02 -5.848365426063537598e-01
-1.451102495193481445e-01 3.983454778790473938e-02 3.177630603313446045e-01
3.848548233509063721e-02 1.128163933753967285e-02 7.743329554796218872e-02
2.906173765659332275e-01 1.012600809335708618e-01 -3.791688084602355957e-01
-3.666031360626220703e-02 2.927971072494983673e-02 5.578327178955078125e-01
3.269523084163665771e-01 9.695543348789215088e-02 5.971341133117675781e-01
4.172917008399963379e-01 1.684247702360153198e-02 3.221066594123840332e-01
4.297845363616943359e-01 1.004884913563728333e-01 4.441623091697692871e-01
-1.249576807022094727e-01 2.602748759090900421e-02 -1.258623227477073669e-02
1.965675055980682373e-01 1.732195913791656494e-02 5.917979478836059570e-01
4.186055064201354980e-02 9.472591429948806763e-02 -3.347996994853019714e-02
1.078695058822631836e-01 8.393270522356033325e-02 -6.682069897651672363e-01
3.250865042209625244e-01 1.362413167953491211e-02 -2.841771543025970459e-01
4.268647432327270508e-01 1.562685891985893250e-02 1.341929286718368530e-01
-5.728408694267272949e-02 8.274200558662414551e-02 1.990999132394790649e-01
3.309079706668853760e-01 9.458769857883453369e-02 6.571618914604187012e-01
5.849241018295288086e-01 3.237740695476531982e-02 3.209021985530853271e-01
3.922934830188751221e-01 1.501420512795448303e-02 -1.754377782344818115e-01
5.475620627403259277e-01 9.399343281984329224e-02 4.611304104328155518e-01
4.676486849784851074e-01 7.991776615381240845e-02 8.235636353492736816e-01
1.264244616031646729e-01 1.336073502898216248e-02 4.294548630714416504e-01
1.755983531475067139e-01 9.807495772838592529e-02 -3.940967619419097900e-01
8.919794857501983643e-02 8.520998805761337280e-02 6.324322819709777832e-01
-4.237025976181030273e-03 9.055773168802261353e-02 -2.690234407782554626e-02
-3.811350464820861816e-02 1.642167195677757263e-02 -1.288073807954788208e-01
2.967627346515655518e-01 7.493413239717483521e-02 9.308853149414062500e-01
4.350859820842742920e-01 1.038419082760810852e-01 -1.534009128808975220e-01
5.553241968154907227e-01 9.844236075878143311e-02 -8.438970148563385010e-02
6.197587251663208008e-01 3.843377530574798584e-02 3.455918729305267334e-01
6.356609463691711426e-01 3.861000761389732361e-02 -2.418220043182373047e-02
5.614104270935058594e-01 3.965332359075546265e-02 -4.653074741363525391e-01
2.649554908275604248e-01 9.014103561639785767e-03 -6.663352251052856445e-03
5.694594383239746094e-01 3.798351809382438660e-02 -4.076838195323944092e-01
2.647152543067932129e-02 8.421445637941360474e-02 -5.162478089332580566e-01
2.712934017181396484e-01 8.770973980426788330e-02 7.763910889625549316e-01
5.088667273521423340e-01 9.011183679103851318e-02 -5.111449956893920898e-01
4.725947380065917969e-01 9.695643186569213867e-02 5.155555605888366699e-01
5.385437011718750000e-01 5.078036710619926453e-02 7.880451083183288574e-01
3.272303342819213867e-01 9.946229308843612671e-02 5.212586522102355957e-01
-5.695411562919616699e-02 3.645410388708114624e-02 -6.053923964500427246e-01
5.255286693572998047e-01 3.227654099464416504e-02 -4.230923354625701904e-01
-7.775002717971801758e-02 7.837449014186859131e-02 -2.872605323791503906e-01
5.624350905418395996e-01 9.853449463844299316e-02 1.289683133363723755e-01
1.392760872840881348e-02 8.386569470167160034e-02 4.872722625732421875e-01
7.499423623085021973e-02 7.470533996820449829e-02 -7.548282742500305176e-01
-9.301197528839111328e-02 3.195245563983917236e-02 -4.536229074001312256e-01
6.402891874313354492e-01 8.435422182083129883e-02 3.991748094558715820e-01
4.288848638534545898e-01 1.047903299331665039e-01 1.633324772119522095e-01
1.823702603578567505e-01 8.007047325372695923e-02 8.295249938964843750e-01
4.934413433074951172e-01 9.938345849514007568e-02 -2.761688530445098877e-01
4.141651988029479980e-01 1.546525582671165466e-02 2.244339585304260254e-01
4.779799580574035645e-01 1.035938411951065063e-01 5.749339237809181213e-02
-9.384101629257202148e-02 7.417949289083480835e-02 -3.345692753791809082e-01
8.272349834442138672e-03 2.901624143123626709e-02 -6.317558884620666504e-01
2.832254171371459961e-01 9.764465689659118652e-02 -5.033156275749206543e-01
3.975015580654144287e-01 8.354198932647705078e-02 -7.370277643203735352e-01
4.962869882583618164e-01 3.492951765656471252e-02 6.887634992599487305e-01
4.675532877445220947e-01 1.034195795655250549e-01 -8.671942353248596191e-02
1.733772158622741699e-01 4.547050595283508301e-02 9.444082379341125488e-01
1.519850790500640869e-01 1.728164777159690857e-02 5.752478837966918945e-01
1.427337825298309326e-01 2.057822793722152710e-02 -5.999410152435302734e-01
1.921448111534118652e-01 8.072117716073989868e-02 -7.872198820114135742e-01
1.193910539150238037e-01 9.887333214282989502e-02 -1.974839121103286743e-01
6.728761196136474609e-01 8.299967646598815918e-02 1.971523314714431763e-01
3.463579118251800537e-01 1.243354380130767822e-02 -1.451436430215835571e-01
3.125973045825958252e-01 1.132382452487945557e-02 2.559950649738311768e-01
-1.194442808628082275e-01 7.335726171731948853e-02 -1.599464416503906250e-01
1.308898925781250000e-01 3.234080225229263306e-02 -7.818310260772705078e-01
6.359136104583740234e-02 1.478753238916397095e-02 4.022834599018096924e-01
1.467559784650802612e-01 8.013662695884704590e-02 -7.643402218818664551e-01
6.000544130802154541e-02 1.719482243061065674e-02 -4.500990211963653564e-01
-3.233253955841064453e-04 2.068532258272171021e-02 4.638643264770507812e-01
-2.372264862060546875e-03 8.392113447189331055e-02 -4.420522451400756836e-01
6.876598596572875977e-01 6.880861520767211914e-02 3.657183051109313965e-01
-2.458515763282775879e-02 1.541024819016456604e-02 1.396922022104263306e-01
2.338939160108566284e-01 9.732568264007568359e-02 -4.881272912025451660e-01
2.701568603515625000e-01 3.161825984716415405e-02 -7.737017869949340820e-01
5.267301797866821289e-01 2.770219184458255768e-02 -2.800492048263549805e-01
-1.379400491714477539e-03 2.655748277902603149e-02 5.878985524177551270e-01
-6.072893738746643066e-02 7.346101850271224976e-02 4.717717468738555908e-01
5.450119972229003906e-01 3.258793056011199951e-02 -3.661078214645385742e-01
2.706279158592224121e-01 9.603962302207946777e-02 -5.445504784584045410e-01
6.261955499649047852e-01 3.654024377465248108e-02 1.516638398170471191e-01
6.634559631347656250e-01 6.129929423332214355e-02 4.976079165935516357e-01
3.081116080284118652e-01 1.049070954322814941e-01 -1.759910583496093750e-01
-6.131201982498168945e-02 8.344311267137527466e-02 -1.232631057500839233e-01
4.412342309951782227e-01 1.924916356801986694e-02 3.739210963249206543e-01
7.941722869873046875e-02 9.616047888994216919e-02 2.237802743911743164e-01
5.020185112953186035e-01 2.217580378055572510e-02 2.558860480785369873e-01
1.019948571920394897e-01 8.914437890052795410e-02 -5.522881746292114258e-01
-1.775082051753997803e-01 4.403391480445861816e-02 -1.192462146282196045e-01
4.059901833534240723e-01 1.925058290362358093e-02 -3.550102710723876953e-01
2.080347836017608643e-01 3.230462968349456787e-02 -7.959939241409301758e-01
3.090933859348297119e-01 1.054114475846290588e-01 -1.251948475837707520e-01
3.395417630672454834e-01 1.827696710824966431e-02 -4.489305317401885986e-01
4.856552481651306152e-01 9.229642152786254883e-02 6.189225912094116211e-01
-1.137895882129669189e-01 7.535296678543090820e-02 -7.670584321022033691e-02
-1.191879808902740479e-01 7.318924367427825928e-02 1.380915343761444092e-01
2.271902263164520264e-01 9.682857245206832886e-02 5.441479682922363281e-01
2.523894309997558594e-01 8.902899920940399170e-03 1.243229359388351440e-01
-1.022890210151672363e-01 4.236224293708801270e-02 -5.368627905845642090e-01
5.313829183578491211e-01 2.463370561599731445e-02 -7.631205022335052490e-02
2.034665346145629883e-01 9.401366114616394043e-02 5.984630584716796875e-01
2.832420170307159424e-01 9.553971886634826660e-02 6.215536594390869141e-01
2.116841822862625122e-01 4.768413305282592773e-02 9.683115482330322266e-01
1.072921752929687500e-01 9.162154048681259155e-03 1.100428700447082520e-01
5.653043985366821289e-01 3.166760504245758057e-02 4.046360254287719727e-01
5.073982477188110352e-02 9.292419254779815674e-02 -2.872064113616943359e-01
1.574662327766418457e-01 9.131313860416412354e-02 -5.784921050071716309e-01
1.345319002866744995e-01 8.462657779455184937e-02 7.133957743644714355e-01
2.896538376808166504e-01 2.645690180361270905e-02 -6.873583197593688965e-01
1.869778037071228027e-01 3.573502972722053528e-02 8.870440721511840820e-01
-6.354320049285888672e-02 1.945368945598602295e-02 -1.896376162767410278e-01
4.548633396625518799e-01 3.376143798232078552e-02 7.408276796340942383e-01
1.555738449096679688e-01 8.571349829435348511e-02 -6.897693872451782227e-01
-6.198444962501525879e-02 8.211998641490936279e-02 -2.204050868749618530e-01
3.492792248725891113e-01 1.307108625769615173e-02 2.933935225009918213e-01
2.396800518035888672e-01 9.052097797393798828e-03 -1.020342111587524414e-01
4.779644608497619629e-01 3.384983539581298828e-02 -5.729699730873107910e-01
4.048016965389251709e-01 1.446742191910743713e-02 -4.265856370329856873e-02
3.309113085269927979e-01 1.021278351545333862e-01 -3.477189540863037109e-01
2.693867087364196777e-01 1.512943953275680542e-02 -4.250199496746063232e-01
2.888182103633880615e-01 9.800301492214202881e-02 5.552930235862731934e-01
5.257010459899902344e-03 8.493052423000335693e-02 4.297627508640289307e-01
-6.329962611198425293e-02 2.080082893371582031e-02 -2.640638053417205811e-01
1.012733578681945801e-02 1.265072450041770935e-02 -4.350036755204200745e-02
2.506576478481292725e-01 1.017167270183563232e-01 -3.318558931350708008e-01
3.982667028903961182e-01 3.037780709564685822e-02 7.594834566116333008e-01
-4.398941993713378906e-03 8.691888302564620972e-02 -3.308022320270538330e-01
-2.718156576156616211e-02 1.705749332904815674e-02 -2.393331974744796753e-01
-5.993217229843139648e-02 2.187817916274070740e-02 -3.219718635082244873e-01
2.057436257600784302e-01 1.037726700305938721e-01 -5.555230751633644104e-02
-3.225925564765930176e-02 6.317403167486190796e-02 -6.845761537551879883e-01
2.179866880178451538e-01 1.119793578982353210e-02 3.637754023075103760e-01
1.173394471406936646e-01 1.953786984086036682e-02 -5.646581649780273438e-01
2.785056829452514648e-01 5.424968153238296509e-02 -9.213000535964965820e-01
2.259322106838226318e-01 1.000342890620231628e-01 -3.825806081295013428e-01
6.495949625968933105e-02 1.114603132009506226e-02 2.028671801090240479e-01
2.238858044147491455e-01 1.041272357106208801e-01 -9.539110958576202393e-02
-4.328727722167968750e-03 1.486063003540039062e-02 2.151593565940856934e-01
-9.486505389213562012e-02 2.366843447089195251e-02 -2.211671620607376099e-01
3.471224308013916016e-01 9.423444420099258423e-02 -5.876655578613281250e-01
1.191401481628417969e-02 1.618860289454460144e-02 3.434401750564575195e-01
6.608685255050659180e-01 4.459690302610397339e-02 2.354335337877273560e-01
2.508778274059295654e-01 1.007398590445518494e-02 2.684410810470581055e-01
5.095180869102478027e-01 2.431381121277809143e-02 3.512504398822784424e-01
7.848180830478668213e-02 6.083739921450614929e-02 8.719177842140197754e-01
-1.434907317161560059e-02 1.983816549181938171e-02 4.040938913822174072e-01
4.197959899902343750e-01 9.840731322765350342e-02 -4.323322176933288574e-01
3.994430303573608398e-01 1.016535088419914246e-01 -3.332789540290832520e-01
2.083599865436553955e-01 1.026627421379089355e-01 2.437023669481277466e-01
2.074151635169982910e-01 5.000844225287437439e-02 -9.172267317771911621e-01
2.570268511772155762e-01 1.164560392498970032e-02 -2.839004695415496826e-01
5.534819364547729492e-01 4.647827893495559692e-02 -5.776784420013427734e-01
-1.697512865066528320e-01 4.492934048175811768e-02 -2.289852350950241089e-01
5.106546878814697266e-01 2.248091250658035278e-02 2.096006274223327637e-01
4.466406404972076416e-01 5.729543790221214294e-02 -8.145383596420288086e-01
5.093697905540466309e-01 2.454695105552673340e-02 -2.211808711290359497e-01
2.333672046661376953e-01 8.301542699337005615e-02 -7.753945589065551758e-01
5.661869645118713379e-01 9.837253391742706299e-02 7.219319045543670654e-02
4.033561944961547852e-01 7.298847287893295288e-02 9.232150316238403320e-01
7.868026196956634521e-02 7.955171167850494385e-02 7.119948267936706543e-01
5.096915960311889648e-01 5.586911365389823914e-02 -7.240777015686035156e-01
1.522483527660369873e-01 9.984516352415084839e-02 2.765631973743438721e-01
4.913715124130249023e-01 2.946469560265541077e-02 -4.518944621086120605e-01
3.289717733860015869e-01 1.083116978406906128e-02 1.138446182012557983e-01
6.503133177757263184e-01 5.056701228022575378e-02 -2.951016426086425781e-01
5.704421997070312500e-01 3.007017262279987335e-02 -1.432223916053771973e-01
8.722324669361114502e-02 9.598006308078765869e-02 2.743370234966278076e-01
4.630078971385955811e-01 1.877253502607345581e-02 -1.013684868812561035e-01
3.008471131324768066e-01 1.990102604031562805e-02 6.317182183265686035e-01
4.907270371913909912e-01 1.025929674506187439e-01 1.779307425022125244e-01
1.675359308719635010e-01 4.203489422798156738e-02 -8.758676052093505859e-01
4.506746530532836914e-01 2.802974730730056763e-02 6.402549147605895996e-01
-1.203247308731079102e-01 2.591417357325553894e-02 -1.233890056610107422e-01
4.991914033889770508e-01 2.586426585912704468e-02 4.604276716709136963e-01
4.102529287338256836e-01 -1.414938867092132568e-01 1.193793565034866333e-01
6.459022760391235352e-01 -1.856549382209777832e-01 -5.402505397796630859e-01
6.597259640693664551e-01 -4.853853583335876465e-02 7.330619096755981445e-01
5.449391007423400879e-01 -5.305126309394836426e-02 7.222567200660705566e-01
4.165236949920654297e-01 -7.981312274932861328e-02 1.226091682910919189e-01
7.751732468605041504e-01 -6.220411509275436401e-02 3.932311534881591797e-01
4.989957511425018311e-01 -1.477919965982437134e-01 7.446973323822021484e-01
5.522018074989318848e-01 4.586364328861236572e-02 1.198177412152290344e-01
7.004158496856689453e-01 -2.803046703338623047e-01 -1.638540774583816528e-01
7.810576558113098145e-01 -1.564476937055587769e-01 -2.103990167379379272e-01
7.954883575439453125e-01 -7.676669210195541382e-02 1.921748369932174683e-01
4.525049924850463867e-01 -2.401439696550369263e-01 3.133705258369445801e-01
7.831213474273681641e-01 -7.873634994029998779e-02 -1.237685233354568481e-01
7.261763811111450195e-01 -2.026949822902679443e-02 4.720482826232910156e-01
4.877910614013671875e-01 -7.004797458648681641e-03 -2.563763260841369629e-01
5.208104252815246582e-01 -2.848998308181762695e-01 4.840604662895202637e-01
6.602302193641662598e-01 3.101934492588043213e-02 -1.813804656267166138e-01
5.180159807205200195e-01 -6.943613290786743164e-03 -3.611243367195129395e-01
6.290954351425170898e-01 1.358518004417419434e-02 5.170285701751708984e-01
6.751075983047485352e-01 -3.186146020889282227e-01 1.717113852500915527e-01
4.905500710010528564e-01 7.208287715911865234e-03 -1.759424656629562378e-01
6.095768213272094727e-01 9.042993187904357910e-03 5.496445894241333008e-01
5.838747620582580566e-01 -2.079050242900848389e-01 8.454185724258422852e-01
5.245917439460754395e-01 1.983022689819335938e-02 -2.352841645479202271e-01
5.909332633018493652e-01 -3.055924773216247559e-01 5.312548279762268066e-01
6.364569664001464844e-01 -2.202987670898437500e-04 5.830667018890380859e-01
4.242061972618103027e-01 -1.437840312719345093e-01 3.895775973796844482e-01
7.751799821853637695e-01 -4.754688590764999390e-02 -4.264765977859497070e-02
4.172574877738952637e-01 -8.404196798801422119e-02 -1.013320684432983398e-02
4.379599988460540771e-01 -1.635928153991699219e-01 -2.252985686063766479e-01
5.830851793289184570e-01 2.730993926525115967e-02 -2.913871407508850098e-01
5.949276685714721680e-01 -4.008684307336807251e-02 7.335730791091918945e-01
7.467393875122070312e-01 -9.095743298530578613e-03 -1.140455901622772217e-02
6.357508897781372070e-01 -3.127507567405700684e-01 4.881858825683593750e-01
4.534680247306823730e-01 -1.365788280963897705e-02 1.506131738424301147e-01
7.743611335754394531e-01 -2.299286574125289917e-01 -5.931000411510467529e-02
7.423399090766906738e-01 -1.015037298202514648e-02 2.924638390541076660e-01
7.366896271705627441e-01 -2.656686007976531982e-01 -1.035305857658386230e-01
4.800379276275634766e-01 -2.686688005924224854e-01 3.438807427883148193e-01
4.356932640075683594e-01 -2.217147201299667358e-01 1.875086277723312378e-01
4.456864595413208008e-01 -2.142356336116790771e-02 5.044543743133544922e-02
7.712810039520263672e-01 -3.360323607921600342e-02 1.560576111078262329e-01
7.939146757125854492e-01 -1.061065793037414551e-01 -9.350907802581787109e-02
4.863798916339874268e-01 -2.012089043855667114e-01 -3.638724088668823242e-01
5.743930935859680176e-01 -2.932910919189453125e-01 5.880646109580993652e-01
4.867286086082458496e-01 -2.687602043151855469e-01 4.063655138015747070e-01
5.770742893218994141e-01 -3.087540566921234131e-01 4.805808067321777344e-01
4.986168444156646729e-01 2.435770630836486816e-02 -5.745843052864074707e-03
4.474025368690490723e-01 -2.100511640310287476e-01 -1.464038938283920288e-01
6.491312384605407715e-01 -2.101323604583740234e-01 -4.953184723854064941e-01
7.172727584838867188e-01 -4.487901926040649414e-03 -2.150053828954696655e-01
5.234853625297546387e-01 1.638776063919067383e-02 3.875297009944915771e-01
5.060318112373352051e-01 -4.274168610572814941e-02 6.155535578727722168e-01
5.892324447631835938e-01 -3.213331103324890137e-01 3.462788462638854980e-01
6.511658430099487305e-01 -3.179804682731628418e-01 4.081504344940185547e-01
4.429637193679809570e-01 -1.541822552680969238e-01 5.234050750732421875e-01
8.082521557807922363e-01 -1.704236567020416260e-01 2.067856043577194214e-01
4.610188007354736328e-01 -2.338915020227432251e-01 -1.217915266752243042e-01
4.668634533882141113e-01 9.727030992507934570e-04 1.245297417044639587e-01
6.043777465820312500e-01 5.118536949157714844e-02 1.317043155431747437e-01
7.500879764556884766e-01 -2.747323215007781982e-01 3.451676368713378906e-01
6.450200676918029785e-01 -1.056140363216400146e-01 -5.857106447219848633e-01
6.220421791076660156e-01 -1.356519460678100586e-01 -5.981226563453674316e-01
4.770956933498382568e-01 -2.240338474512100220e-01 -2.581961750984191895e-01
4.651697278022766113e-01 -4.654762893915176392e-02 4.771417975425720215e-01
4.938601553440093994e-01 -2.307948470115661621e-01 -2.981936931610107422e-01
6.120640635490417480e-01 -2.354374229907989502e-01 -4.519162774085998535e-01
7.742365002632141113e-01 -2.014722973108291626e-01 5.489163398742675781e-01
5.501149296760559082e-01 -7.506042718887329102e-03 5.821201801300048828e-01
7.134525179862976074e-01 -2.842361927032470703e-01 -8.837059140205383301e-02
5.950230956077575684e-01 4.956130683422088623e-02 -5.777090787887573242e-02
7.855008244514465332e-01 -2.038112282752990723e-01 -8.106386661529541016e-02
4.365782737731933594e-01 -3.764969855546951294e-02 -1.956129074096679688e-02
7.907288074493408203e-01 -1.196778118610382080e-01 4.568471908569335938e-01
