2.287179380655288696e-01 -9.841343760490417480e-01 9.711883962154388428e-02
-1.634128764271736145e-02 -1.061385750770568848e+00 3.373930603265762329e-02
2.101482357829809189e-03 -7.080369591712951660e-01 -8.969318866729736328e-02
-7.638633996248245239e-02 -1.041120171546936035e+00 -1.448956131935119629e-01
-1.660665720701217651e-01 -1.021974205970764160e+00 -1.091956794261932373e-01
-2.496970891952514648e-01 -7.676621079444885254e-01 1.383651494979858398e-01
2.863731384277343750e-01 -8.660331368446350098e-01 1.128260493278503418e-01
-1.013313755393028259e-01 -7.176448106765747070e-01 2.204485684633255005e-01
2.730529606342315674e-01 -9.581046104431152344e-01 5.164500325918197632e-03
1.210081800818443298e-01 -9.022726416587829590e-01 2.713793218135833740e-01
1.064793765544891357e-01 -9.720822572708129883e-01 2.194447219371795654e-01
-1.906663924455642700e-01 -7.952120304107666016e-01 2.343486547470092773e-01
-1.919830143451690674e-01 -7.234981656074523926e-01 -3.925100341439247131e-02
-2.967359423637390137e-01 -8.146425485610961914e-01 7.018220424652099609e-02
2.066522687673568726e-01 -9.959462881088256836e-01 1.058963388204574585e-01
1.149889528751373291e-01 -9.392541646957397461e-01 2.491274476051330566e-01
1.845075488090515137e-01 -7.761887907981872559e-01 2.234257608652114868e-01
-1.916104108095169067e-01 -1.014818906784057617e+00 2.920098975300788879e-02
9.381993860006332397e-02 -8.032624721527099609e-01 2.912917137145996094e-01
1.651422828435897827e-01 -8.935032486915588379e-01 2.547045350074768066e-01
9.741365164518356323e-02 -7.091453671455383301e-01 -4.859675467014312744e-02
2.119963765144348145e-01 -7.401001453399658203e-01 7.644891738891601562e-02
2.665929794311523438e-01 -9.126908183097839355e-01 1.388707011938095093e-01
-1.744382530450820923e-01 -7.238888144493103027e-01 -6.295786052942276001e-02
-2.500073909759521484e-01 -8.947667479515075684e-01 1.641676872968673706e-01
1.221852526068687439e-01 -1.041779994964599609e+00 -1.090336740016937256e-01
-1.945283710956573486e-01 -7.670791149139404297e-01 2.132582515478134155e-01
1.874314546585083008e-01 -7.857705950736999512e-01 -1.182902157306671143e-01
2.703689336776733398e-01 -8.051016926765441895e-01 1.048046424984931946e-01
1.870892047882080078e-01 -7.636520862579345703e-01 -8.382095396518707275e-02
2.079108804464340210e-01 -8.210662603378295898e-01 2.291061580181121826e-01
-1.031824573874473572e-01 -1.049540638923645020e+00 -8.689926564693450928e-02
-1.956000030040740967e-01 -7.583985924720764160e-01 -1.136708110570907593e-01
-1.559168547391891479e-01 -1.036148548126220703e+00 -1.650007814168930054e-02
-2.246720641851425171e-01 -9.931633472442626953e-01 3.626026213169097900e-02
2.085527181625366211e-01 -9.130431413650512695e-01 2.130548804998397827e-01
-2.273163199424743652e-01 -8.726466894149780273e-01 2.026607692241668701e-01
2.967718243598937988e-01 -8.813247084617614746e-01 6.217867881059646606e-02
6.356501579284667969e-02 -1.035028219223022461e+00 1.249231100082397461e-01
6.551978737115859985e-02 -7.378515601158142090e-01 2.565398812294006348e-01
4.649647697806358337e-02 -1.026953101158142090e+00 -1.850520521402359009e-01
1.758601516485214233e-01 -1.013553380966186523e+00 -1.204507350921630859e-01
1.025154739618301392e-01 -9.831593036651611328e-01 -2.147328555583953857e-01
-7.617101818323135376e-02 -7.406292557716369629e-01 -1.479785293340682983e-01
2.926787436008453369e-01 -9.065336585044860840e-01 -1.229053363204002380e-02
-1.335334181785583496e-01 -9.535803198814392090e-01 2.149504423141479492e-01
-1.820620894432067871e-01 -8.202367424964904785e-01 -1.908362954854965210e-01
-1.190146058797836304e-01 -1.007243871688842773e+00 1.448659598827362061e-01
1.153497993946075439e-01 -8.328745961189270020e-01 2.890814542770385742e-01
2.896454036235809326e-01 -8.765835762023925781e-01 -3.174500539898872375e-02
-1.942628920078277588e-01 -7.332746982574462891e-01 1.686697453260421753e-01
-1.011927127838134766e-01 -9.732912778854370117e-01 -2.296225726604461670e-01
-2.292328625917434692e-01 -9.951655864715576172e-01 2.271458506584167480e-04
-2.068080902099609375e-01 -7.174904942512512207e-01 2.797536551952362061e-02
1.292946338653564453e-01 -1.051247358322143555e+00 -1.685898751020431519e-02
2.375355660915374756e-01 -7.630462646484375000e-01 1.008821576833724976e-01
-1.813389509916305542e-01 -7.065544724464416504e-01 1.897227391600608826e-02
1.872094720602035522e-01 -7.993964552879333496e-01 2.381908148527145386e-01
2.142668068408966064e-01 -9.346877932548522949e-01 1.905837208032608032e-01
1.436467915773391724e-01 -1.037123441696166992e+00 -9.806942939758300781e-02
5.027693230658769608e-03 -9.894731640815734863e-01 2.131287455558776855e-01
2.392389923334121704e-01 -9.490652680397033691e-01 -1.201984286308288574e-01
2.618559598922729492e-01 -7.868780493736267090e-01 8.042278140783309937e-02
2.137623131275177002e-01 -1.009543657302856445e+00 -5.483651161193847656e-02
2.042182683944702148e-01 -7.568572163581848145e-01 1.726644933223724365e-01
-5.155574530363082886e-02 -1.063169717788696289e+00 -1.855350658297538757e-02
1.690100319683551788e-02 -8.410612940788269043e-01 -2.443823218345642090e-01
3.778114914894104004e-02 -6.958084106445312500e-01 1.928801089525222778e-01
-3.054364211857318878e-02 -8.529484272003173828e-01 3.046754300594329834e-01
1.067739203572273254e-01 -8.451553583145141602e-01 -2.222723215818405151e-01
9.782598912715911865e-02 -9.132305979728698730e-01 -2.420759797096252441e-01
3.933361917734146118e-02 -1.066355705261230469e+00 -4.352974146604537964e-02
-4.970230162143707275e-02 -1.061874270439147949e+00 -7.084162533283233643e-02
-2.988675236701965332e-02 -7.766301035881042480e-01 2.938421666622161865e-01
-2.066180258989334106e-01 -9.928687214851379395e-01 -1.226331293582916260e-01
-2.319781929254531860e-01 -8.007450699806213379e-01 -1.330943852663040161e-01
-4.006340354681015015e-02 -7.420936822891235352e-01 2.686257660388946533e-01
1.715418547391891479e-01 -9.247622489929199219e-01 2.327384799718856812e-01
7.687249686568975449e-03 -8.976876735687255859e-01 2.929952740669250488e-01
-2.363765388727188110e-01 -9.738991260528564453e-01 -1.073378920555114746e-01
-1.191803291440010071e-01 -7.239610552787780762e-01 -1.041020154953002930e-01
6.394612789154052734e-02 -9.712085127830505371e-01 -2.363857328891754150e-01
1.131244972348213196e-01 -7.238836884498596191e-01 -7.501788437366485596e-02
-2.540130866691470146e-03 -7.336315512657165527e-01 -1.405954062938690186e-01
-2.130184769630432129e-01 -9.957996010780334473e-01 5.799994245171546936e-02
-2.077329158782958984e-01 -8.855653405189514160e-01 -1.979112029075622559e-01
1.167429015040397644e-01 -7.006675601005554199e-01 7.095411419868469238e-03
2.914053201675415039e-01 -8.397707343101501465e-01 2.936046384274959564e-02
3.900012001395225525e-02 -7.192161083221435547e-01 2.393802553415298462e-01
1.756826788187026978e-01 -1.024218082427978516e+00 -9.145732223987579346e-02
2.676561474800109863e-01 -8.440271019935607910e-01 1.547502428293228149e-01
-2.898498624563217163e-02 -1.041090250015258789e+00 1.097005158662796021e-01
1.000987961888313293e-01 -8.817124366760253906e-01 -2.382038533687591553e-01
1.669434271752834320e-02 -1.056057214736938477e+00 6.558269262313842773e-02
2.308965921401977539e-01 -7.547461390495300293e-01 5.337102711200714111e-02
2.435695193707942963e-02 -6.862334012985229492e-01 -1.616858318448066711e-02
1.166151389479637146e-01 -7.497768402099609375e-01 -1.234803348779678345e-01
-2.501695454120635986e-01 -7.594751715660095215e-01 -3.666371107101440430e-02
1.611124873161315918e-01 -8.703745603561401367e-01 2.646847069263458252e-01
6.886956840753555298e-02 -6.871518492698669434e-01 1.409796476364135742e-01
2.209777534008026123e-01 -7.842546105384826660e-01 1.883864104747772217e-01
2.568076848983764648e-01 -7.941899299621582031e-01 -1.756222173571586609e-02
-1.896747052669525146e-01 -1.009929060935974121e+00 5.673476681113243103e-02
1.471664309501647949e-01 -9.450942873954772949e-01 2.299572974443435669e-01
-1.021239534020423889e-01 -7.341260910034179688e-01 2.427259981632232666e-01
1.947733163833618164e-01 -9.707277417182922363e-01 -1.592582762241363525e-01
1.052338778972625732e-01 -7.029067277908325195e-01 -1.933873072266578674e-02
8.209508657455444336e-02 -8.297839760780334473e-01 2.992548346519470215e-01
-1.842216551303863525e-01 -9.868350625038146973e-01 1.266420930624008179e-01
-1.565046161413192749e-01 -7.169592380523681641e-01 1.791521310806274414e-01
6.143056973814964294e-02 -7.107595801353454590e-01 -7.700110971927642822e-02
1.800121963024139404e-01 -7.473634481430053711e-01 -5.884715169668197632e-02
-1.206688508391380310e-01 -9.825944304466247559e-01 -2.141009122133255005e-01
2.002259641885757446e-01 -8.806020617485046387e-01 -1.768474429845809937e-01
1.821646243333816528e-01 -7.312637567520141602e-01 1.467534601688385010e-01
-1.390695571899414062e-02 -8.409594297409057617e-01 -2.466537952423095703e-01
5.926084145903587341e-02 -6.969667673110961914e-01 -3.807067498564720154e-02
1.232065483927726746e-01 -7.233668565750122070e-01 2.044725269079208374e-01
2.939482927322387695e-01 -9.130900502204895020e-01 1.610800437629222870e-02
-4.530815780162811279e-02 -1.037123084068298340e+00 -1.671719700098037720e-01
-2.129266858100891113e-01 -8.470050692558288574e-01 -1.839889585971832275e-01
3.899415954947471619e-02 -7.724707722663879395e-01 2.906229496002197266e-01
-1.197858825325965881e-01 -8.253175616264343262e-01 2.828791439533233643e-01
-1.093912795186042786e-01 -7.871266603469848633e-01 2.787354290485382080e-01
9.858635812997817993e-02 -7.122497558593750000e-01 2.001611739397048950e-01
6.584458798170089722e-02 -6.827849149703979492e-01 1.127327755093574524e-01
2.815863490104675293e-01 -8.891901373863220215e-01 1.216192170977592468e-01
-2.669493667781352997e-02 -9.846579432487487793e-01 -2.370067536830902100e-01
1.222023591399192810e-01 -1.042967915534973145e+00 6.531677395105361938e-02
1.434932500123977661e-01 -1.043600320816040039e+00 2.870197221636772156e-02
-2.800810635089874268e-01 -9.438849687576293945e-01 -3.432692587375640869e-02
-1.901182532310485840e-01 -8.425545096397399902e-01 2.422398328781127930e-01
2.468756586313247681e-02 -1.049316883087158203e+00 9.061855077743530273e-02
-9.533627331256866455e-02 -7.105684876441955566e-01 -8.483362942934036255e-02
4.499010369181632996e-02 -1.066000819206237793e+00 -1.759822666645050049e-02
1.917635649442672729e-01 -9.928808212280273438e-01 1.324018836021423340e-01
-1.120080612599849701e-02 -6.789140701293945312e-01 9.158926084637641907e-03
1.096572261303663254e-03 -1.060984253883361816e+00 -1.015002503991127014e-01
-1.427923291921615601e-01 -1.038350462913513184e+00 -7.757972925901412964e-02
-3.041460812091827393e-01 -8.489016294479370117e-01 -3.413397818803787231e-02
-2.638906538486480713e-01 -7.909457683563232422e-01 -7.481168955564498901e-02
6.104216352105140686e-02 -6.936154961585998535e-01 1.749422699213027954e-01
-2.274352759122848511e-01 -9.215663075447082520e-01 1.702257841825485229e-01
-1.585036218166351318e-01 -1.009435296058654785e+00 -1.519991010427474976e-01
1.346703022718429565e-01 -1.026645898818969727e+00 -1.379970461130142212e-01
-7.843542098999023438e-02 -8.806056380271911621e-01 2.878483533859252930e-01
-1.957891881465911865e-01 -8.642358183860778809e-01 -2.030574828386306763e-01
1.596852391958236694e-01 -9.158531427383422852e-01 -2.106316834688186646e-01
-1.257036328315734863e-01 -1.038264274597167969e+00 -1.099044084548950195e-01
-2.443205006420612335e-02 -6.733865737915039062e-01 9.043875336647033691e-02
1.242326423525810242e-01 -1.001105308532714844e+00 -1.863159537315368652e-01
1.815415620803833008e-01 -1.018436670303344727e+00 7.933698594570159912e-02
1.949626505374908447e-01 -7.639988064765930176e-01 1.978427320718765259e-01
-2.184916883707046509e-01 -8.330150842666625977e-01 2.183045595884323120e-01
-2.646908164024353027e-01 -7.656531929969787598e-01 -1.193220168352127075e-02
1.113415509462356567e-01 -7.712084054946899414e-01 -1.573929190635681152e-01
2.558006346225738525e-01 -9.794756770133972168e-01 3.054479137063026428e-03
-7.552167773246765137e-02 -1.058663725852966309e+00 -6.072942912578582764e-02
1.558413356542587280e-01 -7.590317130088806152e-01 -1.085553616285324097e-01
1.778444498777389526e-01 -8.017367720603942871e-01 -1.462518423795700073e-01
-1.298284623771905899e-03 -9.293649196624755859e-01 -2.611258924007415771e-01
-5.156233161687850952e-02 -7.981876730918884277e-01 -2.175135910511016846e-01
-2.316919714212417603e-01 -7.554822564125061035e-01 -6.381720304489135742e-02
2.169367223978042603e-01 -9.772176146507263184e-01 -1.249181479215621948e-01
-2.759564220905303955e-01 -8.198603987693786621e-01 1.373192518949508667e-01
5.409682542085647583e-02 -6.792286634445190430e-01 8.408406376838684082e-02
3.709782287478446960e-02 -8.045714497566223145e-01 3.035716414451599121e-01
-2.429580539464950562e-01 -8.589618206024169922e-01 1.894935965538024902e-01
2.418760806322097778e-01 -7.760980129241943359e-01 1.329645812511444092e-01
-1.649768799543380737e-01 -1.032537698745727539e+00 -3.935712575912475586e-02
8.523948490619659424e-02 -7.779757976531982422e-01 -1.778069436550140381e-01
-8.984457701444625854e-02 -1.015816211700439453e+00 -1.892417371273040771e-01
1.517689786851406097e-03 -1.044625163078308105e+00 1.051162406802177429e-01
-1.151658073067665100e-01 -1.023477196693420410e+00 1.107834205031394958e-01
-2.769351564347743988e-02 -7.217780351638793945e-01 2.472363710403442383e-01
-2.988138794898986816e-01 -8.363983035087585449e-01 8.284196257591247559e-02
-6.534244120121002197e-02 -7.249999046325683594e-01 2.445915192365646362e-01
-1.160105019807815552e-01 2.265010178089141846e-01 9.013190120458602905e-02
-4.687235951423645020e-01 6.581036448478698730e-01 1.150306910276412964e-01
2.254599183797836304e-01 6.897410154342651367e-01 -5.316931009292602539e-02
3.354420065879821777e-01 5.319086909294128418e-01 2.632371708750724792e-02
-1.194441765546798706e-01 6.852858066558837891e-01 3.315462172031402588e-01
5.033095180988311768e-02 3.009841442108154297e-01 1.922413706779479980e-01
-6.425252556800842285e-01 2.765114307403564453e-01 2.195146530866622925e-01
1.999935954809188843e-01 6.661749482154846191e-01 -2.247246056795120239e-01
-7.062386274337768555e-01 4.843767285346984863e-01 -9.333024919033050537e-02
-4.523498415946960449e-01 6.500284671783447266e-01 2.150471061468124390e-01
-6.271117329597473145e-01 5.762659907341003418e-01 1.134547498077154160e-02
-1.575844585895538330e-01 2.145090997219085693e-01 -1.109196916222572327e-01
-5.046728253364562988e-01 6.194038391113281250e-01 -1.730896532535552979e-01
-1.525425314903259277e-01 7.309380769729614258e-01 1.343843042850494385e-01
1.257527917623519897e-01 3.427609205245971680e-01 -2.717764079570770264e-01
-7.275831103324890137e-01 3.418342471122741699e-01 -1.153327897191047668e-01
-2.379412651062011719e-01 7.169947624206542969e-01 -1.099135354161262512e-01
4.965279996395111084e-02 2.854731678962707520e-01 1.248976141214370728e-01
1.895807683467864990e-02 4.215596318244934082e-01 4.318889379501342773e-01
-4.742656946182250977e-01 3.009451329708099365e-01 3.918479979038238525e-01
1.127908378839492798e-01 3.655965924263000488e-01 2.755023539066314697e-01
-5.890808105468750000e-01 2.957351207733154297e-01 3.176702558994293213e-01
-5.935596823692321777e-01 2.220994383096694946e-01 -1.885952614247798920e-02
-4.074251353740692139e-01 1.944120824337005615e-01 7.134012877941131592e-02
-1.354266554117202759e-01 2.155212461948394775e-01 -1.383398845791816711e-02
-6.206973195075988770e-01 5.397840142250061035e-01 -1.869327127933502197e-01
2.065394371747970581e-01 3.545074760913848877e-01 -3.088145516812801361e-02
-3.302742838859558105e-01 6.446444988250732422e-01 3.591490387916564941e-01
-6.299824118614196777e-01 5.559828877449035645e-01 1.963420510292053223e-01
-1.707079708576202393e-01 6.784305572509765625e-01 -3.089838027954101562e-01
-6.762552261352539062e-01 4.266627132892608643e-01 -2.383062243461608887e-01
-7.264645695686340332e-01 4.741409122943878174e-01 1.053666844964027405e-01
-3.131085038185119629e-01 2.076359093189239502e-01 1.630466580390930176e-01
-5.122676491737365723e-01 2.817091047763824463e-01 -3.303435742855072021e-01
-4.797749519348144531e-01 6.464715003967285156e-01 -9.821800887584686279e-02
-7.492654919624328613e-01 3.392751216888427734e-01 1.818780228495597839e-02
-4.035407602787017822e-01 6.635189056396484375e-01 -1.677505671977996826e-01
-2.981840670108795166e-01 1.955789327621459961e-01 5.934283137321472168e-02
-2.328274250030517578e-01 2.233442217111587524e-01 2.012097537517547607e-01
1.889791339635848999e-01 6.505320668220520020e-01 2.476680576801300049e-01
-3.717156648635864258e-01 5.883530378341674805e-01 4.344292879104614258e-01
-3.061388432979583740e-01 3.410394787788391113e-01 4.651331603527069092e-01
-3.740028738975524902e-01 6.343684196472167969e-01 3.533166050910949707e-01
8.487795293331146240e-02 6.659320592880249023e-01 -3.196992874145507812e-01
-1.847443580627441406e-01 7.337016463279724121e-01 1.389118935912847519e-02
-5.145459771156311035e-01 6.387627124786376953e-01 -2.883981913328170776e-02
-4.757548570632934570e-01 2.322227060794830322e-01 2.459778487682342529e-01
1.815690845251083374e-01 4.361126720905303955e-01 2.944868505001068115e-01
-3.076868057250976562e-01 6.966338157653808594e-01 2.033197134733200073e-01
-2.052660286426544189e-02 6.936624050140380859e-01 2.992283999919891357e-01
3.615777194499969482e-02 5.488634705543518066e-01 -4.716355502605438232e-01
-1.794051826000213623e-01 7.194999456405639648e-01 -1.528061479330062866e-01
2.317969352006912231e-01 6.725170612335205078e-01 1.208858713507652283e-01
-7.370375394821166992e-01 3.802682459354400635e-01 1.787794828414916992e-01
5.885958671569824219e-06 7.225897312164306641e-01 1.928847730159759521e-01
-6.463397741317749023e-01 2.632001042366027832e-01 -1.401364356279373169e-01
-4.738911390304565430e-01 1.965933740139007568e-01 1.853214204311370850e-02
-6.458353996276855469e-02 3.890656530857086182e-01 4.509783089160919189e-01
-6.245679259300231934e-01 5.680460333824157715e-01 -7.774797081947326660e-02
3.258530497550964355e-01 5.176575183868408203e-01 -1.410815119743347168e-01
2.863451838493347168e-01 6.077960729598999023e-01 -2.041100263595581055e-01
1.652852445840835571e-01 5.311355590820312500e-01 3.621475100517272949e-01
-6.486415863037109375e-01 4.766515493392944336e-01 3.144324719905853271e-01
-5.671237707138061523e-01 5.740687251091003418e-01 -2.029078602790832520e-01
1.367480903863906860e-01 3.724147081375122070e-01 -3.239093124866485596e-01
-1.799576580524444580e-01 4.557425379753112793e-01 -5.266015529632568359e-01
-6.648495793342590332e-02 2.680166363716125488e-01 -2.872652709484100342e-01
-7.139486074447631836e-02 5.310908555984497070e-01 -5.050870776176452637e-01
-5.720952749252319336e-01 5.495894551277160645e-01 3.233802318572998047e-01
-1.481756567955017090e-02 6.547982692718505859e-01 -3.716143667697906494e-01
-1.316299438476562500e-01 2.607507407665252686e-01 -3.138823807239532471e-01
2.730110287666320801e-01 4.577746689319610596e-01 -2.332148700952529907e-01
-4.306183457374572754e-01 5.875198245048522949e-01 4.006321430206298828e-01
-3.009723126888275146e-01 5.915324091911315918e-01 -4.200179278850555420e-01
-1.017846390604972839e-01 3.862861394882202148e-01 -4.936228692531585693e-01
2.564918994903564453e-01 4.287914633750915527e-01 1.452143788337707520e-01
-3.345013260841369629e-01 2.669192552566528320e-01 -3.706420660018920898e-01
-4.366240501403808594e-01 6.736334562301635742e-01 2.970813401043415070e-02
-4.533091783523559570e-01 2.339992672204971313e-01 -2.627587020397186279e-01
-2.349436879158020020e-01 7.050877809524536133e-01 -1.827783882617950439e-01
-5.242313742637634277e-01 2.097440958023071289e-01 -9.599921852350234985e-02
6.226509809494018555e-03 7.316929697990417480e-01 1.381103545427322388e-01
2.730879187583923340e-02 2.631793022155761719e-01 -7.058417052030563354e-02
-9.354934096336364746e-03 2.513982057571411133e-01 -9.367821365594863892e-02
-7.086457610130310059e-01 3.066083192825317383e-01 1.594988703727722168e-01
-1.576698571443557739e-01 3.263605833053588867e-01 4.179454743862152100e-01
2.676188945770263672e-02 7.348955869674682617e-01 9.630960971117019653e-02
-2.192109227180480957e-01 7.038301825523376465e-01 2.466400712728500366e-01
-4.430962502956390381e-01 6.641110181808471680e-01 -7.931214570999145508e-02
-7.292032241821289062e-01 4.757740795612335205e-01 5.443528667092323303e-02
2.501387000083923340e-01 6.759071350097656250e-01 3.299300000071525574e-02
2.662618160247802734e-01 5.804146528244018555e-01 -2.727506160736083984e-01
3.122268915176391602e-01 5.836952328681945801e-01 1.143840476870536804e-01
2.768853306770324707e-01 5.194576382637023926e-01 2.105895280838012695e-01
-6.021953225135803223e-01 4.711575210094451904e-01 -3.149217367172241211e-01
-3.299283981323242188e-01 5.037319660186767578e-01 -4.878459572792053223e-01
-8.396075665950775146e-02 3.398033380508422852e-01 4.031955003738403320e-01
-4.604238271713256836e-02 2.382837980985641479e-01 -5.557493492960929871e-02
1.142194867134094238e-02 2.998659014701843262e-01 -3.053417801856994629e-01
1.199891418218612671e-01 3.176576495170593262e-01 1.166349574923515320e-01
-4.523500800132751465e-02 6.734908819198608398e-01 -3.377407491207122803e-01
-4.917739033699035645e-01 5.392554998397827148e-01 4.187592267990112305e-01
1.886334568262100220e-01 7.036870718002319336e-01 -6.983027607202529907e-02
-3.653488159179687500e-01 2.655636966228485107e-01 3.535565137863159180e-01
-1.097162663936614990e-01 3.384273648262023926e-01 -4.505381286144256592e-01
8.259384334087371826e-02 6.632772684097290039e-01 3.184830546379089355e-01
-5.635628104209899902e-01 4.412495493888854980e-01 -3.728056550025939941e-01
2.825927734375000000e-01 6.551873683929443359e-01 -3.434194950386881828e-03
-5.306950211524963379e-01 2.870514988899230957e-01 3.447542488574981689e-01
1.374411731958389282e-01 6.756643056869506836e-01 2.505870163440704346e-01
-2.520062625408172607e-01 2.030284702777862549e-01 9.375850111246109009e-02
-9.493288397789001465e-02 7.159968018531799316e-01 2.364245355129241943e-01
-1.831355690956115723e-01 7.017453312873840332e-01 -2.316285371780395508e-01
-4.605065584182739258e-01 5.027486085891723633e-01 4.679615795612335205e-01
2.531541585922241211e-01 5.747902393341064453e-01 2.469085305929183960e-01
2.068208605051040649e-01 5.481902360916137695e-01 -3.641941845417022705e-01
-4.604199528694152832e-02 2.855698466300964355e-01 2.659145295619964600e-01
-1.422193646430969238e-01 5.204470157623291016e-01 5.150873064994812012e-01
-6.980919241905212402e-01 3.942877352237701416e-01 -2.083554863929748535e-01
-5.087929964065551758e-01 6.358644962310791016e-01 1.582278162240982056e-01
2.146463245153427124e-01 3.731509447097778320e-01 8.883106708526611328e-02
-2.670230865478515625e-01 6.973359584808349609e-01 2.409420311450958252e-01
-7.213314771652221680e-01 3.694489002227783203e-01 2.169212847948074341e-01
-4.328010082244873047e-01 6.439020633697509766e-01 -2.023230493068695068e-01
-3.809149861335754395e-01 1.924310624599456787e-01 -7.273343205451965332e-02
-6.316150426864624023e-01 4.835831820964813232e-01 -2.629431188106536865e-01
-2.331000864505767822e-01 4.492439925670623779e-01 -5.235219597816467285e-01
2.849664688110351562e-01 5.130500197410583496e-01 -2.563636600971221924e-01
1.389008015394210815e-01 6.309581995010375977e-01 3.265698552131652832e-01
-4.155470132827758789e-01 2.098269164562225342e-01 -1.911301463842391968e-01
-7.559984326362609863e-01 3.910860121250152588e-01 8.768179267644882202e-02
-5.227297544479370117e-01 2.068516910076141357e-01 7.429580390453338623e-02
-1.832664161920547485e-01 2.774785459041595459e-01 3.409576416015625000e-01
-7.216918468475341797e-01 4.454063475131988525e-01 1.950606554746627808e-01
2.630902528762817383e-01 5.259953737258911133e-01 -2.974922060966491699e-01
-3.259719014167785645e-01 7.058389186859130859e-01 -2.559062838554382324e-02
3.235435485839843750e-01 4.968352913856506348e-01 4.917909204959869385e-02
3.196833729743957520e-01 6.093845367431640625e-01 -7.919344305992126465e-02
-4.223626852035522461e-02 3.023954033851623535e-01 -3.586370050907135010e-01
-6.286877989768981934e-01 4.203125238418579102e-01 -3.096108138561248779e-01
-7.237024903297424316e-01 3.025661110877990723e-01 7.904463261365890503e-02
-7.524263858795166016e-01 3.663549423217773438e-01 -3.423404693603515625e-02
-2.485827803611755371e-01 1.972633600234985352e-01 -2.972580865025520325e-02
-5.363101959228515625e-01 4.690113663673400879e-01 4.367657601833343506e-01
-2.858801186084747314e-01 2.257312387228012085e-01 2.351861149072647095e-01
-8.719657361507415771e-02 5.750919580459594727e-01 -4.784188270568847656e-01
2.750975489616394043e-01 4.276676774024963379e-01 7.919082045555114746e-02
5.940206348896026611e-02 7.324472665786743164e-01 -7.389584928750991821e-02
1.627316325902938843e-01 7.030734419822692871e-01 1.259756088256835938e-01
-4.234069585800170898e-01 2.624673843383789062e-01 3.402384519577026367e-01
-5.718473792076110840e-01 4.740437567234039307e-01 4.056928455829620361e-01
5.681209266185760498e-02 5.338323116302490234e-01 4.430890381336212158e-01
2.857292890548706055e-01 6.457903385162353516e-01 5.785814672708511353e-02
-6.837288141250610352e-01 5.216625928878784180e-01 1.367636620998382568e-01
-1.315102875232696533e-01 2.439680546522140503e-01 -2.580257654190063477e-01
2.954654693603515625e-01 5.681322216987609863e-01 1.709293276071548462e-01
6.902618706226348877e-02 7.180793285369873047e-01 1.713536232709884644e-01
-1.463380157947540283e-01 2.939006686210632324e-01 3.577723801136016846e-01
1.373598724603652954e-01 4.439938366413116455e-01 -4.087628126144409180e-01
2.564943432807922363e-01 4.001252949237823486e-01 3.901630640029907227e-02
-6.753647327423095703e-02 3.141447305679321289e-01 3.502488434314727783e-01
-7.119502425193786621e-01 3.594855666160583496e-01 -1.717410981655120850e-01
-5.271798968315124512e-01 2.370279133319854736e-01 2.310841232538223267e-01
-3.346527218818664551e-01 6.962252855300903320e-01 1.651403307914733887e-01
-1.340530812740325928e-01 7.384837865829467773e-01 4.860305413603782654e-02
-3.951796591281890869e-01 2.113171815872192383e-01 1.895991861820220947e-01
-3.540263175964355469e-01 6.591421365737915039e-01 3.048116266727447510e-01
-4.642578363418579102e-01 2.925969362258911133e-01 -3.732855916023254395e-01
-6.597639322280883789e-01 3.561176061630249023e-01 -2.622284889221191406e-01
-7.468193769454956055e-01 4.229950904846191406e-01 1.219221055507659912e-01
-2.890974283218383789e-01 7.141170501708984375e-01 9.157448261976242065e-02
-2.994533181190490723e-01 7.069979906082153320e-01 1.463373601436614990e-01
-4.261810779571533203e-01 6.688830852508544922e-01 1.624161005020141602e-01
-1.477954536676406860e-01 6.343070268630981445e-01 -4.045893847942352295e-01
-6.938061714172363281e-01 4.513359963893890381e-01 -1.853769123554229736e-01
-4.767056107521057129e-01 2.028620839118957520e-01 1.035418361425399780e-01
-6.870831251144409180e-01 5.256482958793640137e-01 3.443165449425578117e-03
-5.110211372375488281e-01 2.603558897972106934e-01 -2.928216457366943359e-01
-8.429771661758422852e-02 4.442255795001983643e-01 4.951879382133483887e-01
-4.270721971988677979e-02 7.180147171020507812e-01 -2.039790004491806030e-01
-1.139838621020317078e-01 2.696241140365600586e-01 2.799940705299377441e-01
-3.910360336303710938e-01 6.887578964233398438e-01 6.051992252469062805e-02
9.410889446735382080e-02 7.209775447845458984e-01 1.290269494056701660e-01
1.474234312772750854e-01 7.138165235519409180e-01 -9.544298797845840454e-02
4.965625703334808350e-02 3.091937303543090820e-01 -2.867045104503631592e-01
-4.112440645694732666e-01 5.565599799156188965e-01 -4.028209149837493896e-01
-2.391275465488433838e-01 6.900656819343566895e-01 -2.405122518539428711e-01
2.842558920383453369e-02 7.385569810867309570e-01 -2.290007658302783966e-02
-9.720228612422943115e-02 7.153249979019165039e-01 -2.099691182374954224e-01
-3.213275671005249023e-01 6.779146194458007812e-01 2.714968919754028320e-01
-4.752286076545715332e-01 6.560686826705932617e-01 -3.122058697044849396e-02
-6.394819021224975586e-01 2.411831170320510864e-01 -3.456778451800346375e-02
-5.157888531684875488e-01 3.222917914390563965e-01 -3.775447607040405273e-01
-2.998565733432769775e-01 6.899154186248779297e-01 -1.885321587324142456e-01
-7.299143075942993164e-01 4.410854876041412354e-01 -9.614096581935882568e-02
1.552769392728805542e-01 3.692364394664764404e-01 2.197585701942443848e-01
-4.790443181991577148e-01 4.852621257305145264e-01 -4.200966358184814453e-01
-5.793049335479736328e-01 3.241681456565856934e-01 -3.302792012691497803e-01
-5.979403257369995117e-01 4.114583134651184082e-01 -3.460538983345031738e-01
-5.958352684974670410e-01 5.914046168327331543e-01 -5.460640415549278259e-02
-7.037217617034912109e-01 4.869557619094848633e-01 1.768593639135360718e-01
1.071635335683822632e-01 7.084213495254516602e-01 -1.817817986011505127e-01
6.255440413951873779e-02 5.790258646011352539e-01 4.233587682247161865e-01
-1.884497702121734619e-02 7.417777776718139648e-01 1.194709446281194687e-02
6.220306456089019775e-02 3.689164519309997559e-01 3.383398056030273438e-01
-3.708291649818420410e-01 3.355975747108459473e-01 4.567439854145050049e-01
-4.759602248668670654e-02 6.457102894783020020e-01 3.999190926551818848e-01
-5.075625181198120117e-01 5.731837153434753418e-01 3.580715954303741455e-01
1.290143579244613647e-01 4.542092680931091309e-01 3.698126077651977539e-01
-3.516449332237243652e-01 4.251300692558288574e-01 5.144918560981750488e-01
-7.403156161308288574e-01 3.422392010688781738e-01 -6.739219278097152710e-02
-3.984705209732055664e-01 5.905521512031555176e-01 -3.640697896480560303e-01
-5.350863337516784668e-01 3.182809352874755859e-01 3.857830166816711426e-01
2.412133663892745972e-01 6.357887983322143555e-01 -2.369040250778198242e-01
1.356596797704696655e-01 6.962916254997253418e-01 1.935440748929977417e-01
-3.560155332088470459e-01 2.302666157484054565e-01 2.632663249969482422e-01
-1.873180270195007324e-02 5.525572299957275391e-01 4.733506441116333008e-01
-5.267872810363769531e-01 6.269592046737670898e-01 -8.110532909631729126e-02
-1.058976650238037109e-01 6.113619804382324219e-01 4.529337882995605469e-01
1.883313059806823730e-03 3.496807813644409180e-01 3.610299825668334961e-01
-3.531776070594787598e-01 3.659448027610778809e-01 -4.793342947959899902e-01
-1.087285280227661133e-01 2.542831897735595703e-01 2.262531667947769165e-01
-8.051864802837371826e-02 2.427054941654205322e-01 1.394625157117843628e-01
-6.116499304771423340e-01 3.552536666393280029e-01 3.643712699413299561e-01
6.487086415290832520e-03 6.919186115264892578e-01 -2.860081791877746582e-01
-2.885571718215942383e-01 4.761118590831756592e-01 -5.108658671379089355e-01
-3.686351776123046875e-01 6.413147449493408203e-01 -2.837243080139160156e-01
-1.275142878293991089e-01 2.192923128604888916e-01 3.940597176551818848e-02
-1.476135849952697754e-01 3.040232658386230469e-01 -4.140853881835937500e-01
2.932839989662170410e-01 5.557199716567993164e-01 -2.391362339258193970e-01
-4.269101023674011230e-01 3.605205416679382324e-01 4.679707288742065430e-01
2.312845736742019653e-01 6.823863983154296875e-01 7.097025215625762939e-02
2.038940042257308960e-01 4.309975206851959229e-01 2.557399272918701172e-01
2.467825263738632202e-01 4.031434655189514160e-01 9.894465655088424683e-02
-2.139030992984771729e-01 7.265940904617309570e-01 -5.661920458078384399e-02
-2.317230999469757080e-01 2.002582550048828125e-01 -6.760509312152862549e-02
4.828993976116180420e-02 7.145889997482299805e-01 -1.957417875528335571e-01
2.967784404754638672e-01 4.780414402484893799e-01 -1.994147598743438721e-01
-5.753195881843566895e-01 3.337603211402893066e-01 3.761934936046600342e-01
-3.169849514961242676e-01 2.008221149444580078e-01 1.212556213140487671e-01
-6.976025700569152832e-01 5.150802135467529297e-01 7.636991888284683228e-02
2.178612798452377319e-01 4.448184967041015625e-01 -3.189932405948638916e-01
-1.579868495464324951e-01 6.608709692955017090e-01 -3.536741733551025391e-01
-6.895943880081176758e-01 4.889034032821655273e-01 -1.372663080692291260e-01
-3.364022076129913330e-02 3.732573390007019043e-01 -4.594314396381378174e-01
3.298875689506530762e-01 5.859889388084411621e-01 2.803083509206771851e-02
6.425751745700836182e-02 5.730870962142944336e-01 -4.466103911399841309e-01
-4.625588059425354004e-01 3.809824287891387939e-01 4.693447947502136230e-01
-6.503646969795227051e-01 2.473980784416198730e-01 7.394770532846450806e-02
-3.191937506198883057e-01 5.468366146087646484e-01 -4.616659879684448242e-01
-2.723010778427124023e-01 7.055123448371887207e-01 -1.413839757442474365e-01
1.035942584276199341e-01 5.246602296829223633e-01 -4.492524266242980957e-01
-7.506732642650604248e-02 7.251390218734741211e-01 1.955238878726959229e-01
1.716643720865249634e-01 7.016814947128295898e-01 -1.306561082601547241e-01
-5.289567708969116211e-01 5.481911301612854004e-01 -3.103060126304626465e-01
1.376357227563858032e-01 3.178009688854217529e-01 5.603078007698059082e-02
-1.324283480644226074e-01 7.378015518188476562e-01 -3.106003440916538239e-02
-5.689338445663452148e-01 4.353849589824676514e-01 4.209900498390197754e-01
3.396815657615661621e-01 5.409463047981262207e-01 -2.290120162069797516e-02
-5.461023449897766113e-01 5.843828916549682617e-01 2.860259115695953369e-01
-5.607690215110778809e-01 5.496747493743896484e-01 -2.675607204437255859e-01
3.175378441810607910e-01 4.773604869842529297e-01 -1.086405813694000244e-01
-2.426657825708389282e-01 2.057848870754241943e-01 -1.472097039222717285e-01
2.039665728807449341e-01 3.880089223384857178e-01 -2.469850778579711914e-01
-7.415605187416076660e-01 3.875713646411895752e-01 -9.588675200939178467e-02
-5.393731594085693359e-02 5.943438410758972168e-01 4.591701626777648926e-01
1.118485480546951294e-01 2.995879054069519043e-01 -7.201128453016281128e-02
-1.385245323181152344e-01 2.153834104537963867e-01 -6.196067109704017639e-02
-2.003739029169082642e-01 2.110549211502075195e-01 -1.465031057596206665e-01
-1.966874897480010986e-01 5.403721332550048828e-01 -4.992101490497589111e-01
-4.613408446311950684e-01 3.227360248565673828e-01 -4.086634814739227295e-01
-3.947848677635192871e-01 3.973211348056793213e-01 4.969183504581451416e-01
-5.593606233596801758e-01 3.458346724510192871e-01 -3.640874922275543213e-01
-4.625324010848999023e-01 5.441929697990417480e-01 -3.798179924488067627e-01
-2.354343831539154053e-01 7.233549356460571289e-01 1.043950915336608887e-01
-1.522066891193389893e-01 5.974712371826171875e-01 -4.541453123092651367e-01
-3.840420842170715332e-01 6.894878745079040527e-01 -2.525487728416919708e-02
-7.478063702583312988e-01 4.370622634887695312e-01 7.559815794229507446e-02
1.710042804479598999e-01 3.617120981216430664e-01 -2.432593405246734619e-01
3.232145309448242188e-01 5.901906490325927734e-01 -1.186526715755462646e-01
-4.442163109779357910e-01 4.728333652019500732e-01 -4.490566551685333252e-01
-1.764458417892456055e-02 4.298074543476104736e-01 4.588742256164550781e-01
2.210434526205062866e-01 3.910043835639953613e-01 1.379529833793640137e-01
-2.255082130432128906e-01 3.499651551246643066e-01 -4.823256731033325195e-01
-1.082921996712684631e-01 2.930539548397064209e-01 -3.786241412162780762e-01
3.010718226432800293e-01 4.438717365264892578e-01 -6.357230991125106812e-02
-4.719700813293457031e-01 2.534539699554443359e-01 3.061257302761077881e-01
-4.785169363021850586e-01 2.232317626476287842e-01 -2.130511850118637085e-01
-6.547806859016418457e-01 4.005787670612335205e-01 -2.787651717662811279e-01
-4.992575049400329590e-01 6.233248710632324219e-01 2.424076646566390991e-01
2.665550112724304199e-01 4.788504838943481445e-01 -2.712602019309997559e-01
1.048050969839096069e-01 4.065732657909393311e-01 3.483576774597167969e-01
-4.071263670921325684e-01 2.277607023715972900e-01 2.521903216838836670e-01
-4.847103357315063477e-01 6.034392714500427246e-01 3.215058743953704834e-01
-9.113118052482604980e-03 6.154472827911376953e-01 4.264371395111083984e-01
-6.509855985641479492e-01 2.805514335632324219e-01 -1.802820265293121338e-01
-2.284728735685348511e-01 6.374383568763732910e-01 4.130269885063171387e-01
-6.503130793571472168e-01 3.156931698322296143e-01 2.835090756416320801e-01
-3.041841983795166016e-01 2.308705449104309082e-01 -2.838925421237945557e-01
-5.511423945426940918e-01 2.889769375324249268e-01 -3.128006756305694580e-01
7.174272835254669189e-02 6.939814686775207520e-01 2.564604878425598145e-01
-4.331896901130676270e-01 3.674805462360382080e-01 -4.526089727878570557e-01
-7.555592656135559082e-01 4.010223150253295898e-01 -1.196862384676933289e-02
7.899224758148193359e-03 6.739966869354248047e-01 -3.295370936393737793e-01
-1.017086431384086609e-01 5.517876744270324707e-01 4.969744384288787842e-01
-6.272071599960327148e-01 2.441517412662506104e-01 1.287937164306640625e-01
-3.566834032535552979e-01 5.012855529785156250e-01 5.093632340431213379e-01
1.825080364942550659e-01 3.542397022247314453e-01 -1.882214248180389404e-01
-2.527726292610168457e-01 5.548602938652038574e-01 -4.769634306430816650e-01
1.288755238056182861e-02 7.225127220153808594e-01 -1.739844977855682373e-01
-6.247614622116088867e-01 2.860844135284423828e-01 2.648246288299560547e-01
-1.514735370874404907e-01 3.525388836860656738e-01 4.492777287960052490e-01
1.045875400304794312e-01 7.287572622299194336e-01 4.570292308926582336e-03
-2.460386306047439575e-01 7.154848575592041016e-01 1.619051992893218994e-01
1.409282535314559937e-01 6.493258476257324219e-01 -3.178407847881317139e-01
-5.946774482727050781e-01 5.381124019622802734e-01 -2.383033484220504761e-01
-5.642237067222595215e-01 2.622227370738983154e-01 2.726758420467376709e-01
-2.673078477382659912e-01 6.851817965507507324e-01 2.868192195892333984e-01
2.432402819395065308e-01 4.975301325321197510e-01 2.589852511882781982e-01
2.413701862096786499e-01 3.827291429042816162e-01 3.360522445291280746e-03
-2.692308723926544189e-01 2.231477349996566772e-01 -2.512340545654296875e-01
2.852481603622436523e-02 4.128807187080383301e-01 -4.623590707778930664e-01
-4.985806941986083984e-01 2.183611541986465454e-01 1.795571893453598022e-01
-5.965158939361572266e-01 2.902264893054962158e-01 -2.722352743148803711e-01
-3.868923783302307129e-01 4.494670331478118896e-01 5.103958249092102051e-01
-4.533896446228027344e-01 2.048262655735015869e-01 -1.434337645769119263e-01
-3.198489546775817871e-03 3.235760331153869629e-01 -3.727668225765228271e-01
-1.805082410573959351e-01 6.180084347724914551e-01 4.476431310176849365e-01
-1.836318075656890869e-01 2.071155607700347900e-01 1.719606481492519379e-02
-4.436345398426055908e-02 7.383283376693725586e-01 -7.573907822370529175e-02
2.270252257585525513e-01 5.621088147163391113e-01 2.890213727951049805e-01
5.602906644344329834e-02 2.863041460514068604e-01 -1.847363263368606567e-01
2.682811617851257324e-01 4.076337218284606934e-01 -8.726795017719268799e-02
1.919990032911300659e-01 3.488731086254119873e-01 3.814278915524482727e-02
-3.885142505168914795e-02 5.010244250297546387e-01 4.905559122562408447e-01
-5.213414132595062256e-02 7.361025810241699219e-01 1.235300675034523010e-01
-7.446007132530212402e-01 4.177841544151306152e-01 -6.554523110389709473e-02
2.955142259597778320e-01 6.304337382316589355e-01 -1.250401884317398071e-01
-4.253079295158386230e-01 5.376927852630615234e-01 4.618974924087524414e-01
-2.957236766815185547e-01 2.915751934051513672e-01 3.987346589565277100e-01
7.122211158275604248e-02 4.905243813991546631e-01 4.325602054595947266e-01
-6.766572594642639160e-01 2.633649110794067383e-01 -4.708651080727577209e-02
-4.079654812812805176e-01 6.738967895507812500e-01 -1.019397825002670288e-01
-1.368105113506317139e-01 6.990542411804199219e-01 2.918576300144195557e-01
-1.422191709280014038e-01 6.321231722831726074e-01 4.300107955932617188e-01
-5.878314375877380371e-03 2.533289790153503418e-01 3.777133673429489136e-02
-4.398449957370758057e-01 6.279814839363098145e-01 -2.441527545452117920e-01
1.242546588182449341e-01 3.277607560157775879e-01 -2.255239635705947876e-01
-2.925756871700286865e-01 6.597462892532348633e-01 -2.959999442100524902e-01
2.564150094985961914e-01 6.581495404243469238e-01 -1.470846831798553467e-01
2.195788174867630005e-01 4.815682768821716309e-01 -3.452177345752716064e-01
-3.750622272491455078e-01 6.875125169754028320e-01 -7.969530671834945679e-02
-2.202904671430587769e-01 6.256984472274780273e-01 -4.008892178535461426e-01
-1.965368092060089111e-01 7.279764413833618164e-01 1.170752048492431641e-01
-3.260911107063293457e-01 6.644734740257263184e-01 -2.563239336013793945e-01
1.883298605680465698e-01 6.994469761848449707e-01 9.080382436513900757e-02
1.325031369924545288e-01 4.020525813102722168e-01 3.123506903648376465e-01
1.174047440290451050e-01 5.240362286567687988e-01 4.033685326576232910e-01
-1.078445017337799072e-01 7.250723838806152344e-01 -1.602185964584350586e-01
-3.547198474407196045e-01 1.980218291282653809e-01 -1.342817395925521851e-01
1.861479431390762329e-01 3.642826974391937256e-01 1.406850814819335938e-01
2.375077158212661743e-01 5.249906182289123535e-01 -3.335357606410980225e-01
-3.281015455722808838e-01 6.040052175521850586e-01 -3.881717324256896973e-01
-1.531339138746261597e-01 2.315641194581985474e-01 1.746381670236587524e-01
-6.656465530395507812e-01 2.723691165447235107e-01 1.645778268575668335e-01
-5.448645949363708496e-01 6.263347268104553223e-01 6.095487624406814575e-02
-1.975762099027633667e-01 2.505200803279876709e-01 -3.171353340148925781e-01
-2.708019614219665527e-01 3.610470890998840332e-01 4.824032783508300781e-01
-3.177892863750457764e-01 4.913021326065063477e-01 5.206019878387451172e-01
-1.941285282373428345e-01 2.205550223588943481e-01 -2.022066712379455566e-01
1.387871354818344116e-01 7.187393903732299805e-01 6.122372671961784363e-02
-1.483804285526275635e-01 6.923435926437377930e-01 -2.772447168827056885e-01
-5.016551613807678223e-01 4.213205575942993164e-01 -4.260528981685638428e-01
1.419290453195571899e-01 3.145340979099273682e-01 -3.352345526218414307e-02
1.382872611284255981e-01 5.614162683486938477e-01 -4.146154224872589111e-01
7.109607756137847900e-02 7.333203554153442383e-01 4.431144520640373230e-02
1.540975719690322876e-01 5.977966189384460449e-01 -3.771363794803619385e-01
2.202574759721755981e-01 6.862739324569702148e-01 -1.082053333520889282e-01
2.113601565361022949e-02 5.616808533668518066e-01 4.530713260173797607e-01
-3.739222288131713867e-01 4.489792883396148682e-01 -4.896681606769561768e-01
1.622874289751052856e-01 3.940019607543945312e-01 2.602443397045135498e-01
-3.358214497566223145e-01 2.207166552543640137e-01 -2.504661977291107178e-01
3.206947445869445801e-01 5.237500667572021484e-01 9.773370623588562012e-02
-3.417657315731048584e-02 2.540296316146850586e-01 -1.866007000207901001e-01
-6.010715365409851074e-01 5.913755297660827637e-01 1.087477654218673706e-01
-2.851847410202026367e-01 2.156202793121337891e-01 1.929901242256164551e-01
-6.555919647216796875e-01 4.945292472839355469e-01 -2.067454904317855835e-01
-4.538279771804809570e-01 6.448664665222167969e-01 -1.644051373004913330e-01
-5.926491618156433105e-01 5.130184888839721680e-01 3.510410189628601074e-01
-2.581514716148376465e-01 6.518938541412353516e-01 -3.354883491992950439e-01
-1.621625125408172607e-01 2.751125693321228027e-01 -3.645100593566894531e-01
-5.473085641860961914e-01 5.045638084411621094e-01 -3.461638391017913818e-01
-2.478477358818054199e-01 2.934767603874206543e-01 3.938256800174713135e-01
-6.195955276489257812e-01 5.573934912681579590e-01 -1.389479637145996094e-01
-3.829298019409179688e-01 2.513835132122039795e-01 -3.310058116912841797e-01
-3.898749649524688721e-01 5.019992589950561523e-01 -4.632825553417205811e-01
-1.526910662651062012e-01 3.333360552787780762e-01 -4.562688171863555908e-01
-3.772976398468017578e-01 6.630395650863647461e-01 -2.069744616746902466e-01
-2.684842646121978760e-01 3.108075261116027832e-01 4.249619841575622559e-01
-6.967955827713012695e-01 3.958009481430053711e-01 2.744952738285064697e-01
-6.612914800643920898e-01 5.197125077247619629e-01 -1.416185349225997925e-01
-4.239484667778015137e-01 4.274707734584808350e-01 -4.700672030448913574e-01
-2.599436044692993164e-01 1.966382563114166260e-01 1.696256548166275024e-02
2.033365815877914429e-01 3.571344614028930664e-01 -1.223099231719970703e-01
-2.532401382923126221e-01 2.364647835493087769e-01 -2.932067811489105225e-01
-2.011823356151580811e-01 2.064914703369140625e-01 5.636689066886901855e-02
-6.434364914894104004e-01 5.594013929367065430e-01 -4.145997390151023865e-02
-5.368159413337707520e-01 5.308553576469421387e-01 3.900029659271240234e-01
-6.859039664268493652e-01 2.838789820671081543e-01 -1.123537197709083557e-01
-2.448888123035430908e-01 5.997582674026489258e-01 4.619091749191284180e-01
2.991434931755065918e-01 4.415951967239379883e-01 -1.172609161585569382e-02
-9.830559790134429932e-02 2.305076867341995239e-01 -1.442446261644363403e-01
-4.015487432479858398e-01 3.142397999763488770e-01 -4.241649508476257324e-01
-1.438129693269729614e-01 5.728431940078735352e-01 4.905629158020019531e-01
-1.076636314392089844e-01 3.862113356590270996e-01 4.670396149158477783e-01
-3.553321361541748047e-01 4.059204757213592529e-01 -4.943043589591979980e-01
-3.318013548851013184e-01 2.464459091424942017e-01 -3.269985318183898926e-01
-4.042418897151947021e-01 2.833366990089416504e-01 3.829363882541656494e-01
-4.892126917839050293e-01 3.557867705821990967e-01 -4.182619452476501465e-01
-3.238158524036407471e-01 2.176191806793212891e-01 2.134623080492019653e-01
-6.271178126335144043e-01 2.553844451904296875e-01 1.793474107980728149e-01
-3.439237475395202637e-01 6.781134009361267090e-01 -1.882998794317245483e-01
-2.139972895383834839e-01 6.483941078186035156e-01 -3.621894717216491699e-01
-6.211712956428527832e-01 3.660033345222473145e-01 -3.152710795402526855e-01
-5.248758196830749512e-01 3.596298396587371826e-01 -3.976826965808868408e-01
-7.875624299049377441e-02 2.309607267379760742e-01 -9.514676779508590698e-02
3.476896882057189941e-02 6.861312985420227051e-01 2.973846495151519775e-01
-6.908096075057983398e-01 2.788237035274505615e-01 1.186625957489013672e-01
-5.791193246841430664e-01 2.249466925859451294e-01 -1.011066958308219910e-01
-7.004454731941223145e-03 2.507211565971374512e-01 -5.782547406852245331e-03
-3.714016973972320557e-01 2.333569228649139404e-01 -2.879139482975006104e-01
3.703016042709350586e-02 2.718441486358642578e-01 -1.371804326772689819e-01
1.057303696870803833e-01 7.272577285766601562e-01 -4.695020616054534912e-02
-5.514595508575439453e-01 6.221151351928710938e-01 7.380812894552946091e-05
1.782020777463912964e-01 4.008955955505371094e-01 -3.172411918640136719e-01
-2.506245672702789307e-02 3.663921356201171875e-01 4.042119085788726807e-01
2.229411154985427856e-01 6.588279604911804199e-01 1.818797737360000610e-01
-1.783885061740875244e-02 2.535142302513122559e-01 8.189415186643600464e-02
5.346865952014923096e-02 2.771069407463073730e-01 5.310344696044921875e-02
-1.905295997858047485e-01 2.298394143581390381e-01 2.003854662179946899e-01
-1.587731093168258667e-01 2.487717568874359131e-01 2.489483356475830078e-01
-4.270357489585876465e-01 6.745401620864868164e-01 -3.386902436614036560e-02
-4.617221355438232422e-01 4.570930898189544678e-01 4.833320677280426025e-01
3.624291718006134033e-02 6.245256066322326660e-01 -4.060846865177154541e-01
-1.311284601688385010e-01 7.060977816581726074e-01 -2.369942367076873779e-01
-5.882679224014282227e-01 5.895855426788330078e-01 -9.601839631795883179e-02
-2.892908155918121338e-01 7.159600257873535156e-01 3.306508064270019531e-02
-6.788496673107147217e-02 7.420110702514648438e-01 2.936004847288131714e-02
2.165177017450332642e-01 5.009869337081909180e-01 2.991202771663665771e-01
8.109952509403228760e-02 4.719315171241760254e-01 -4.610995352268218994e-01
-4.790830016136169434e-01 2.031679153442382812e-01 -1.074695512652397156e-01
