6.853189468383789062e-01 -4.514833539724349976e-02 -8.271442353725433350e-02
4.746777415275573730e-01 -4.933363944292068481e-02 5.058458447456359863e-02
6.608887910842895508e-01 -2.088680304586887360e-02 -1.226115748286247253e-01
7.232249975204467773e-01 9.585766494274139404e-02 -1.260833721607923508e-02
4.667588770389556885e-01 9.887965768575668335e-02 1.027486845850944519e-02
5.612189173698425293e-01 -4.462991654872894287e-02 9.237344563007354736e-02
4.342133402824401855e-01 1.145381666719913483e-02 1.023196130990982056e-01
7.108135223388671875e-01 7.966919243335723877e-02 -8.823903650045394897e-02
3.604383468627929688e-01 6.365600973367691040e-02 1.322524435818195343e-02
6.139780282974243164e-01 9.716697037220001221e-02 -8.118358999490737915e-02
5.074080228805541992e-01 1.058965846896171570e-01 -1.655030623078346252e-02
4.880895912647247314e-01 -1.771843992173671722e-02 -1.233275458216667175e-01
6.781485676765441895e-01 -2.759541757404804230e-02 1.137666106224060059e-01
3.272834122180938721e-01 1.206018123775720596e-02 -2.352768927812576294e-02
6.767330169677734375e-01 1.025911197066307068e-01 -2.791493758559226990e-02
7.809023857116699219e-01 -2.654386684298515320e-03 9.981580823659896851e-02
6.150475144386291504e-01 -3.052569366991519928e-02 -1.186015307903289795e-01
5.198389887809753418e-01 -4.713353514671325684e-02 -8.630852401256561279e-02
5.842867493629455566e-01 -4.207126796245574951e-02 9.943050146102905273e-02
5.557120442390441895e-01 4.109909385442733765e-02 1.293378025293350220e-01
5.001336336135864258e-01 -3.886578977108001709e-02 8.647434413433074951e-02
5.066370964050292969e-01 -4.877103865146636963e-02 6.912191212177276611e-02
4.865767061710357666e-01 3.424445539712905884e-02 -1.420697569847106934e-01
4.785292148590087891e-01 1.021544262766838074e-01 -2.884995564818382263e-02
6.268253922462463379e-01 4.551633447408676147e-02 -1.427602618932723999e-01
5.776619911193847656e-01 1.078664734959602356e-01 1.264103502035140991e-02
5.084737539291381836e-01 -5.672700703144073486e-02 -5.355762690305709839e-02
6.350022554397583008e-01 -5.312508344650268555e-02 -7.709480077028274536e-02
6.862214207649230957e-01 8.003997616469860077e-03 -1.344846338033676147e-01
4.997052252292633057e-01 -5.934033542871475220e-02 -3.350675106048583984e-02
7.862824201583862305e-01 7.584419101476669312e-02 -3.234855085611343384e-02
8.563376069068908691e-01 2.813143655657768250e-03 1.309342868626117706e-02
6.480425000190734863e-01 2.380448207259178162e-02 1.362459212541580200e-01
4.909405112266540527e-01 -5.333238840103149414e-02 -5.781444534659385681e-02
6.993749737739562988e-01 -5.485260486602783203e-02 -5.108429864048957825e-02
6.112506985664367676e-01 8.220124989748001099e-02 9.245489537715911865e-02
4.281223416328430176e-01 -4.515043646097183228e-02 1.858083717525005341e-02
6.136991381645202637e-01 9.088268131017684937e-02 7.568118721246719360e-02
6.246486306190490723e-01 1.040235832333564758e-01 3.202238306403160095e-02
5.686842203140258789e-01 -6.280335783958435059e-02 4.460731893777847290e-02
5.783271193504333496e-01 6.573167443275451660e-02 -1.335127949714660645e-01
6.948862671852111816e-01 2.331865951418876648e-02 -1.344330310821533203e-01
5.255085825920104980e-01 -3.031119517982006073e-02 -1.161679476499557495e-01
7.886349558830261230e-01 -2.724657021462917328e-02 -5.939879268407821655e-02
6.220079660415649414e-01 -4.305523633956909180e-02 9.919282793998718262e-02
5.397905707359313965e-01 1.082193925976753235e-01 -9.820334613323211670e-03
6.986182332038879395e-01 4.369676113128662109e-02 1.222070902585983276e-01
3.674601316452026367e-01 2.139407955110073090e-02 -9.370090067386627197e-02
5.094124078750610352e-01 1.639343798160552979e-03 -1.408896148204803467e-01
3.654242753982543945e-01 -4.387874156236648560e-03 -7.511403411626815796e-02
6.753963828086853027e-01 -3.760159015655517578e-02 1.021850109100341797e-01
5.178710818290710449e-01 -6.314735114574432373e-02 -1.677061803638935089e-02
6.964586377143859863e-01 9.008869528770446777e-02 5.841271206736564636e-02
6.695106625556945801e-01 -4.246068745851516724e-02 -9.243156015872955322e-02
5.024918317794799805e-01 9.204511344432830811e-02 5.830205604434013367e-02
7.661284208297729492e-01 5.853537470102310181e-02 8.568443357944488525e-02
7.883859872817993164e-01 -3.739865869283676147e-02 4.618154466152191162e-02
4.188607931137084961e-01 3.395636379718780518e-02 -1.224663406610488892e-01
6.792541742324829102e-01 3.074702993035316467e-02 -1.377125829458236694e-01
8.324573636054992676e-01 -2.207607589662075043e-02 8.449412882328033447e-03
3.368250131607055664e-01 4.921434819698333740e-02 -3.438127227127552032e-03
6.840842366218566895e-01 -6.351208686828613281e-02 -1.181512698531150818e-02
5.142877697944641113e-01 1.042777672410011292e-01 1.591671444475650787e-02
4.925144314765930176e-01 6.353057920932769775e-02 1.016086116433143616e-01
6.535046696662902832e-01 -4.970666021108627319e-02 -8.166462182998657227e-02
4.388915896415710449e-01 5.138328298926353455e-02 9.341049194335937500e-02
3.470748662948608398e-01 5.984804779291152954e-02 -2.036347240209579468e-02
8.350688219070434570e-01 2.263158746063709259e-02 6.370100378990173340e-02
4.417006671428680420e-01 3.753545135259628296e-02 -1.300621926784515381e-01
3.590160310268402100e-01 4.851938784122467041e-02 -7.637120038270950317e-02
4.847110211849212646e-01 9.277530759572982788e-02 4.895200207829475403e-02
4.501016139984130859e-01 -3.327336907386779785e-02 -8.963621407747268677e-02
6.477059125900268555e-01 6.697125732898712158e-02 1.106574609875679016e-01
3.263685107231140137e-01 2.626946568489074707e-02 -5.162619054317474365e-04
6.475928425788879395e-01 -5.994115769863128662e-02 -5.352813750505447388e-02
3.937906324863433838e-01 7.569428533315658569e-02 2.780346013605594635e-02
7.187325954437255859e-01 -2.347453869879245758e-02 -1.041415110230445862e-01
5.315304994583129883e-01 1.012744531035423279e-01 -6.787318736314773560e-02
5.802541375160217285e-01 8.012987673282623291e-03 1.362166404724121094e-01
4.482119679450988770e-01 9.732335060834884644e-02 -2.386257983744144440e-02
6.411132812500000000e-01 4.969149082899093628e-02 -1.388166993856430054e-01
6.307841539382934570e-01 9.503497183322906494e-02 -8.351403474807739258e-02
4.065150916576385498e-01 3.529841080307960510e-02 8.658327907323837280e-02
6.315031051635742188e-01 -6.760857254266738892e-02 -5.657576490193605423e-03
5.061400532722473145e-01 7.315392792224884033e-02 9.401107579469680786e-02
6.633226275444030762e-01 2.802007272839546204e-02 1.340519040822982788e-01
4.267299771308898926e-01 7.255639880895614624e-02 6.248230114579200745e-02
7.337912917137145996e-01 6.860490888357162476e-02 -9.454333037137985229e-02
4.767690598964691162e-01 6.218067556619644165e-02 -1.262916922569274902e-01
5.468927621841430664e-01 -2.499542571604251862e-02 -1.248904913663864136e-01
3.497390151023864746e-01 2.159661240875720978e-02 -7.732222974300384521e-02
6.639834046363830566e-01 9.220492094755172729e-02 6.432814896106719971e-02
8.148800134658813477e-01 2.836268953979015350e-02 8.037005364894866943e-02
6.657811403274536133e-01 -4.446537792682647705e-02 9.296757727861404419e-02
6.838030815124511719e-01 1.023359224200248718e-01 1.024485565721988678e-03
4.442269802093505859e-01 5.115512758493423462e-04 1.032249480485916138e-01
3.422814905643463135e-01 1.353360898792743683e-02 -6.484694778919219971e-02
7.985847592353820801e-01 -3.574994206428527832e-02 -2.368555031716823578e-02
5.158634185791015625e-01 6.160496920347213745e-02 -1.338224709033966064e-01
7.052599191665649414e-01 -6.122919917106628418e-02 1.465531811118125916e-02
7.344212532043457031e-01 -2.563867531716823578e-02 -9.527087956666946411e-02
5.636692047119140625e-01 5.725119262933731079e-03 1.343445330858230591e-01
4.721769690513610840e-01 -2.993506006896495819e-02 -1.041235029697418213e-01
7.590705156326293945e-01 -2.162069641053676605e-02 -8.807115256786346436e-02
3.811730742454528809e-01 5.844751745462417603e-02 5.032397061586380005e-02
4.371825456619262695e-01 5.335758626461029053e-02 -1.211920827627182007e-01
7.735030651092529297e-01 -2.296237461268901825e-02 -7.770653814077377319e-02
6.548880934715270996e-01 8.263012766838073730e-02 -1.032740399241447449e-01
3.952811062335968018e-01 4.842996597290039062e-02 7.203556597232818604e-02
7.633649110794067383e-01 3.646808117628097534e-02 1.062317788600921631e-01
5.434567928314208984e-01 3.263305127620697021e-02 1.309103518724441528e-01
4.412167370319366455e-01 -2.254356630146503448e-02 8.380483090877532959e-02
7.526364922523498535e-01 8.277606219053268433e-02 -5.164009705185890198e-02
7.328524589538574219e-01 -4.213675856590270996e-02 -6.837802380323410034e-02
7.978936433792114258e-01 4.889009147882461548e-02 7.711901515722274780e-02
7.912502288818359375e-01 6.010826677083969116e-02 -6.763920187950134277e-02
7.521295547485351562e-01 -5.186101794242858887e-02 -1.370258070528507233e-02
5.650264620780944824e-01 -1.198519207537174225e-02 -1.374621093273162842e-01
8.125755786895751953e-01 -2.245406247675418854e-02 5.623268708586692810e-02
3.573288023471832275e-01 6.330674886703491211e-02 -4.570954293012619019e-02
6.102417111396789551e-01 3.202399984002113342e-02 -1.482047438621520996e-01
6.298887729644775391e-01 -8.188530802726745605e-03 1.321475952863693237e-01
6.965164542198181152e-01 8.424072712659835815e-02 7.324548810720443726e-02
4.372402429580688477e-01 -3.868006169795989990e-02 5.326823517680168152e-02
4.587643146514892578e-01 7.565353810787200928e-02 -1.057066097855567932e-01
5.851015448570251465e-01 1.092296317219734192e-01 -1.824806444346904755e-02
4.594821333885192871e-01 3.828350454568862915e-04 -1.297677755355834961e-01
7.023033499717712402e-01 4.025839641690254211e-02 -1.291683465242385864e-01
4.585623741149902344e-01 -5.427525937557220459e-02 -8.253571577370166779e-04
6.260025501251220703e-01 -1.816857606172561646e-03 -1.410633027553558350e-01
4.725124835968017578e-01 -5.674625188112258911e-02 5.343613680452108383e-03
6.486530303955078125e-01 -6.506108492612838745e-02 3.155544027686119080e-02
3.712664842605590820e-01 7.315648347139358521e-02 -5.375418812036514282e-03
8.301202654838562012e-01 5.233349651098251343e-02 3.443574905395507812e-02
4.297376871109008789e-01 -2.239648811519145966e-02 -9.735321998596191406e-02
4.277941584587097168e-01 9.162590652704238892e-02 -4.014734923839569092e-02
4.965476393699645996e-01 2.407507225871086121e-02 1.236421763896942139e-01
5.255259871482849121e-01 -5.668233335018157959e-02 5.410250648856163025e-02
4.782223105430603027e-01 9.425912052392959595e-02 -7.348875701427459717e-02
4.877279102802276611e-01 -3.331271559000015259e-02 -1.038124114274978638e-01
5.524370074272155762e-01 1.085164472460746765e-01 -2.594945393502712250e-02
7.254580855369567871e-01 -5.102813988924026489e-02 -4.820201545953750610e-02
4.452254474163055420e-01 6.999364495277404785e-02 -1.083463728427886963e-01
5.800849795341491699e-01 -4.645869880914688110e-02 -9.529866278171539307e-02
3.266802132129669189e-01 2.115500904619693756e-02 -3.546132892370223999e-02
5.324956774711608887e-01 -3.934658318758010864e-02 -1.038919612765312195e-01
3.363530039787292480e-01 7.276994176208972931e-03 -4.832673445343971252e-02
6.189471483230590820e-01 -6.734803318977355957e-02 1.953361555933952332e-02
6.646049618721008301e-01 -6.574046611785888672e-02 1.076860539615154266e-02
4.381486177444458008e-01 -1.076395623385906219e-02 9.375598281621932983e-02
5.683687329292297363e-01 5.084953829646110535e-02 1.252023279666900635e-01
6.609791517257690430e-01 1.683981716632843018e-02 -1.416691094636917114e-01
5.370952486991882324e-01 -6.532668322324752808e-02 4.389747511595487595e-03
4.736061394214630127e-01 -1.888349466025829315e-02 -1.184533685445785522e-01
3.903275728225708008e-01 8.141128718852996826e-02 -8.637903258204460144e-03
4.395259022712707520e-01 -4.951883852481842041e-02 7.139811757951974869e-03
6.291924118995666504e-01 -6.298338621854782104e-02 4.794153198599815369e-02
3.821502327919006348e-01 7.750552892684936523e-02 -3.702671080827713013e-02
7.477458715438842773e-01 5.708310753107070923e-02 -1.007585376501083374e-01
6.305400133132934570e-01 -2.423712052404880524e-02 -1.240280121564865112e-01
3.790636956691741943e-01 -2.402550913393497467e-02 2.808830328285694122e-02
7.389833927154541016e-01 2.579776756465435028e-02 -1.198130548000335693e-01
8.245508074760437012e-01 5.005168914794921875e-02 -4.594626650214195251e-02
6.214805841445922852e-01 1.068328917026519775e-01 1.443297602236270905e-02
4.274812638759613037e-01 9.268169105052947998e-02 -9.954078122973442078e-03
4.223915338516235352e-01 -3.509294986724853516e-02 4.965534061193466187e-02
3.951116800308227539e-01 8.156391233205795288e-02 -4.315127432346343994e-02
6.469281315803527832e-01 -6.264507025480270386e-02 4.635709524154663086e-02
4.802683889865875244e-01 -5.671904236078262329e-02 2.106545679271221161e-02
3.746213912963867188e-01 6.786344945430755615e-02 2.486820891499519348e-02
6.426596045494079590e-01 -1.346132718026638031e-02 -1.318673938512802124e-01
6.339476108551025391e-01 6.283503025770187378e-02 -1.310925334692001343e-01
7.494681477546691895e-01 7.736751437187194824e-02 -6.949531286954879761e-02
3.694389462471008301e-01 6.336441636085510254e-02 -6.607498973608016968e-02
5.302770733833312988e-01 -6.168889999389648438e-02 3.447634354233741760e-02
4.651664495468139648e-01 -3.162198513746261597e-02 8.352182060480117798e-02
5.244745016098022461e-01 5.085545778274536133e-02 -1.417520493268966675e-01
5.443406105041503906e-01 1.008942648768424988e-01 4.369283467531204224e-02
7.605056762695312500e-01 8.658400923013687134e-02 9.197253733873367310e-03
6.521162390708923340e-01 5.209077149629592896e-02 1.238275170326232910e-01
5.398914217948913574e-01 3.635051101446151733e-02 -1.481968909502029419e-01
6.744501590728759766e-01 -5.002135038375854492e-02 8.021212369203567505e-02
5.125612020492553711e-01 1.058143898844718933e-01 -3.138417750597000122e-02
7.019431591033935547e-01 -5.578827112913131714e-02 5.404992029070854187e-02
8.031060695648193359e-01 -3.555016219615936279e-02 2.803528122603893280e-02
5.616375207901000977e-01 -2.560758776962757111e-02 1.169559955596923828e-01
4.137981235980987549e-01 8.928872644901275635e-02 -1.819529384374618530e-02
5.346359014511108398e-01 6.468948721885681152e-02 1.096821278333663940e-01
8.038014769554138184e-01 -1.135387830436229706e-02 7.966141402721405029e-02
4.906291663646697998e-01 -6.319461390376091003e-03 1.161945462226867676e-01
5.384088158607482910e-01 -6.991192698478698730e-03 -1.394013911485671997e-01
5.577348470687866211e-01 5.298178642988204956e-02 -1.426183432340621948e-01
7.409090995788574219e-01 9.033505618572235107e-02 -3.098284080624580383e-02
5.841659307479858398e-01 -1.604934595525264740e-02 1.267890185117721558e-01
4.628517031669616699e-01 4.354552924633026123e-02 -1.342654526233673096e-01
6.589578390121459961e-01 -5.975112318992614746e-03 1.313366889953613281e-01
3.815963864326477051e-01 -1.119071431457996368e-02 -8.124458789825439453e-02
6.947413682937622070e-01 1.000599488615989685e-01 1.205812394618988037e-02
4.750316739082336426e-01 -2.495367079973220825e-04 1.142875924706459045e-01
7.447882890701293945e-01 2.901779673993587494e-02 1.163842305541038513e-01
7.659546732902526855e-01 8.531617373228073120e-02 -1.100761536508798599e-02
5.163104534149169922e-01 6.205582618713378906e-02 1.088271364569664001e-01
3.817743659019470215e-01 -1.961513049900531769e-02 4.257076233625411987e-02
7.251793146133422852e-01 -2.660994417965412140e-02 1.037075519561767578e-01
7.741618156433105469e-01 -4.526475816965103149e-02 -1.885856129229068756e-02
8.053637742996215820e-01 7.109461724758148193e-02 -9.043170139193534851e-04
8.011645078659057617e-01 -3.792286664247512817e-02 5.399734247475862503e-03
6.433312296867370605e-01 -5.663746595382690430e-02 6.898338347673416138e-02
7.658899426460266113e-01 -4.547985643148422241e-02 4.292581975460052490e-02
4.019834995269775391e-01 1.596940681338310242e-03 8.196979016065597534e-02
5.999832749366760254e-01 7.085303775966167450e-03 -1.467312425374984741e-01
7.230671644210815430e-01 -5.850476026535034180e-02 -4.065934568643569946e-03
7.518309354782104492e-01 6.013637036085128784e-02 9.089896082878112793e-02
6.136735677719116211e-01 1.005302071571350098e-01 4.879988729953765869e-02
6.370216608047485352e-01 1.140767429023981094e-02 -1.444812119007110596e-01
5.284946560859680176e-01 1.003948226571083069e-01 4.126165434718132019e-02
6.867896914482116699e-01 -5.975949764251708984e-02 4.495577886700630188e-02
4.098210930824279785e-01 5.701506137847900391e-02 7.330979406833648682e-02
5.366590619087219238e-01 -5.971492826938629150e-02 -5.265030264854431152e-02
3.322153687477111816e-01 4.115462303161621094e-02 -3.979273140430450439e-02
5.886872410774230957e-01 5.664088577032089233e-02 -1.400782763957977295e-01
5.246409177780151367e-01 2.186200767755508423e-02 -1.480370461940765381e-01
5.950432419776916504e-01 8.672630041837692261e-02 -1.062868237495422363e-01
6.779968142509460449e-01 -4.627788439393043518e-03 -1.310800611972808838e-01
7.577266693115234375e-01 -3.793520852923393250e-03 1.097177192568778992e-01
4.169590473175048828e-01 8.698125928640365601e-02 -5.139216780662536621e-02
5.706407427787780762e-01 9.905840456485748291e-02 -7.943917810916900635e-02
5.806589722633361816e-01 9.667880088090896606e-02 6.168077513575553894e-02
6.843870878219604492e-01 -5.694665759801864624e-02 -5.110735446214675903e-02
7.287954092025756836e-01 1.271974854171276093e-02 -1.229418218135833740e-01
5.561151504516601562e-01 -8.176801726222038269e-03 1.285712420940399170e-01
5.474182367324829102e-01 1.076678261160850525e-01 6.572522688657045364e-03
8.064767718315124512e-01 6.815580278635025024e-02 -2.629519812762737274e-02
5.512191653251647949e-01 5.626787245273590088e-02 1.195470690727233887e-01
6.249107718467712402e-01 2.391824312508106232e-02 1.373636424541473389e-01
7.861754894256591797e-01 1.602465100586414337e-02 -9.656316041946411133e-02
3.804146647453308105e-01 2.582559734582901001e-02 7.236835360527038574e-02
6.370140910148620605e-01 7.886414974927902222e-02 -1.129686832427978516e-01
5.173649191856384277e-01 3.956682235002517700e-02 1.241043359041213989e-01
7.592198848724365234e-01 -4.554462432861328125e-02 -3.866619616746902466e-02
6.030023097991943359e-01 -6.632076948881149292e-02 3.003002889454364777e-02
8.111091852188110352e-01 -2.897373028099536896e-02 -2.804672159254550934e-02
7.753212451934814453e-01 6.269461661577224731e-02 -7.699804008007049561e-02
8.319272398948669434e-01 4.321064427495002747e-02 5.023797601461410522e-02
3.692631125450134277e-01 4.624160006642341614e-03 -8.767715096473693848e-02
5.671690106391906738e-01 1.091062575578689575e-01 -7.101973518729209900e-03
8.585062026977539062e-01 2.539184316992759705e-02 9.401502087712287903e-03
4.229733049869537354e-01 1.578569784760475159e-02 -1.236242055892944336e-01
8.435875177383422852e-01 -3.857566043734550476e-03 -3.002132847905158997e-02
4.200485348701477051e-01 4.223235324025154114e-02 9.055467694997787476e-02
4.876298904418945312e-01 9.165725857019424438e-02 -8.482617139816284180e-02
6.768013834953308105e-01 4.368404299020767212e-02 1.261374801397323608e-01
6.083297133445739746e-01 -6.310003250837326050e-02 4.850549623370170593e-02
4.672552049160003662e-01 8.908081799745559692e-02 -8.316745609045028687e-02
6.085342168807983398e-01 -3.945212066173553467e-02 -1.068296357989311218e-01
5.280601978302001953e-01 -8.376430720090866089e-03 1.239970177412033081e-01
7.168945074081420898e-01 3.248628973960876465e-02 1.233441978693008423e-01
4.370421171188354492e-01 -3.202396631240844727e-02 6.736377626657485962e-02
4.684333205223083496e-01 -4.054011404514312744e-02 -8.339904248714447021e-02
6.620081663131713867e-01 -5.573224276304244995e-02 -6.372167915105819702e-02
7.665346860885620117e-01 8.181729912757873535e-02 3.140163421630859375e-02
6.307191848754882812e-01 9.621748328208923340e-02 6.038263812661170959e-02
5.891380310058593750e-01 -2.607138268649578094e-02 -1.249886676669120789e-01
4.300613403320312500e-01 -3.167714178562164307e-02 -8.166163414716720581e-02
4.117037951946258545e-01 -2.808226086199283600e-02 -7.631123065948486328e-02
3.872093260288238525e-01 5.050811171531677246e-02 -9.840401262044906616e-02
3.555135726928710938e-01 -1.678108610212802887e-02 -2.593418210744857788e-02
5.233806371688842773e-01 2.531272172927856445e-02 1.292428523302078247e-01
4.123801589012145996e-01 6.917875260114669800e-02 5.874162539839744568e-02
6.657395362854003906e-01 -5.955836921930313110e-02 -4.902784153819084167e-02
6.332217454910278320e-01 -4.720906168222427368e-02 -9.064916521310806274e-02
7.394512891769409180e-01 -2.802400104701519012e-02 9.699887782335281372e-02
4.808506965637207031e-01 5.062246322631835938e-02 -1.352150738239288330e-01
5.275336503982543945e-01 8.096446841955184937e-02 -1.139436960220336914e-01
6.793773770332336426e-01 7.887345738708972931e-03 1.329459100961685181e-01
5.767047405242919922e-01 -5.437235534191131592e-02 7.438115775585174561e-02
6.668135523796081543e-01 -6.434912979602813721e-02 -2.126987650990486145e-02
4.385614097118377686e-01 -1.194052398204803467e-03 -1.220801696181297302e-01
4.230873584747314453e-01 -7.526330649852752686e-03 8.851342648267745972e-02
3.583911657333374023e-01 5.164941400289535522e-02 3.554742410778999329e-02
7.621232271194458008e-01 1.065298914909362793e-03 -1.050529927015304565e-01
5.797277688980102539e-01 4.482527449727058411e-02 -1.464480459690093994e-01
4.470071196556091309e-01 -5.179362744092941284e-02 -1.174724288284778595e-02
7.495967745780944824e-01 6.839809566736221313e-02 -8.601341396570205688e-02
7.117510437965393066e-01 7.775183767080307007e-02 8.075509965419769287e-02
6.682870388031005859e-01 5.648805946111679077e-02 1.183702945709228516e-01
6.842469573020935059e-01 -3.304214775562286377e-02 -1.033661887049674988e-01
7.213109731674194336e-01 -5.539219081401824951e-02 -3.314532712101936340e-02
5.125924944877624512e-01 8.744623512029647827e-03 1.268338561058044434e-01
6.516501307487487793e-01 6.486296653747558594e-02 -1.261985301971435547e-01
7.115299701690673828e-01 6.452034227550029755e-03 1.268720477819442749e-01
5.851635932922363281e-01 1.030387058854103088e-01 4.055400937795639038e-02
6.397358179092407227e-01 6.006794981658458710e-03 1.364220678806304932e-01
7.336198091506958008e-01 8.324175328016281128e-02 -6.690649688243865967e-02
7.888100147247314453e-01 -4.222883284091949463e-02 -2.605789573863148689e-03
-6.544214487075805664e-02 -2.607479691505432129e-02 -2.591909468173980713e-01
2.242144495248794556e-01 -3.189249709248542786e-02 -7.951793074607849121e-02
-1.392461210489273071e-01 -7.008500397205352783e-04 -1.466370522975921631e-01
1.231568455696105957e-01 -6.761972606182098389e-02 -2.307951897382736206e-01
2.091607749462127686e-01 -4.386019706726074219e-02 1.502973735332489014e-01
6.933886557817459106e-02 4.951557517051696777e-02 -1.558592766523361206e-01
1.933832913637161255e-01 -8.447891473770141602e-02 -3.868949413299560547e-02
1.974563449621200562e-01 -1.426178775727748871e-02 1.627571582794189453e-01
-9.521941840648651123e-02 -6.399624049663543701e-02 -1.155705377459526062e-01
3.917481005191802979e-02 -9.054865688085556030e-02 -1.723587810993194580e-01
-1.002844125032424927e-01 -2.459516748785972595e-02 -2.162381112575531006e-01
-1.114611476659774780e-01 -6.802606396377086639e-03 -2.080141901969909668e-01
7.955634593963623047e-02 5.564196407794952393e-02 8.265532553195953369e-02
1.197627745568752289e-02 6.342518329620361328e-02 -9.191970527172088623e-02
1.058497428894042969e-01 -6.761434674263000488e-02 -2.415207326412200928e-01
1.454230397939682007e-03 -8.525668084621429443e-02 1.925551742315292358e-01
1.330480575561523438e-01 -4.679111391305923462e-02 -2.552616596221923828e-01
1.705406159162521362e-01 -1.357699930667877197e-02 2.180735468864440918e-01
1.363440752029418945e-01 -1.018316075205802917e-01 -4.603857174515724182e-02
4.001643881201744080e-02 4.350486397743225098e-02 2.024293392896652222e-01
-8.560380339622497559e-02 2.756858617067337036e-02 -2.085681259632110596e-01
-4.029078409075737000e-02 -8.686027675867080688e-02 -1.039581000804901123e-01
-7.012659311294555664e-02 -7.825331389904022217e-02 -9.346566349267959595e-02
-1.028538197278976440e-01 1.887543126940727234e-02 1.992676854133605957e-01
1.408664882183074951e-01 -7.405498623847961426e-02 2.175737023353576660e-01
1.964297145605087280e-01 -6.356152892112731934e-02 1.549693793058395386e-01
1.497473865747451782e-01 -8.641938865184783936e-02 -1.438562273979187012e-01
5.763918161392211914e-02 -1.041386947035789490e-01 -8.100189268589019775e-02
9.255640208721160889e-02 3.586042672395706177e-02 1.948079466819763184e-01
1.869200617074966431e-01 2.007341757416725159e-02 -2.003094740211963654e-02
1.751967519521713257e-01 -8.232420310378074646e-03 -1.950023472309112549e-01
1.020769923925399780e-01 5.152036994695663452e-02 -7.596474140882492065e-02
1.542519181966781616e-01 -8.334338665008544922e-02 1.712394058704376221e-01
8.904841542243957520e-02 4.420251399278640747e-02 1.582385152578353882e-01
-8.892995119094848633e-02 5.784410238265991211e-02 -8.480263873934745789e-03
-1.446734219789505005e-01 -2.877872437238693237e-02 -9.284455329179763794e-02
-2.411375567317008972e-02 6.644461303949356079e-02 -3.679540008306503296e-02
-1.368946582078933716e-02 6.437749415636062622e-02 7.349149137735366821e-02
-1.297795325517654419e-01 1.667394861578941345e-02 -1.537636816501617432e-01
2.189302444458007812e-01 -6.732170283794403076e-02 4.030296206474304199e-02
1.000310480594635010e-01 -9.409115463495254517e-02 1.725700497627258301e-01
-9.145992994308471680e-02 -6.141824647784233093e-02 -1.399481743574142456e-01
1.501143425703048706e-01 6.224099546670913696e-03 -2.108986675739288330e-01
5.895587056875228882e-02 -4.362905025482177734e-02 -2.929094135761260986e-01
1.843522191047668457e-01 1.226556301116943359e-02 1.153643578290939331e-01
-3.958256915211677551e-02 -9.138557314872741699e-02 7.370376586914062500e-02
2.060280367732048035e-02 -7.026480138301849365e-02 2.563954889774322510e-01
9.091552346944808960e-02 -4.150107502937316895e-03 2.894037961959838867e-01
-1.502638757228851318e-01 -3.317778185009956360e-02 -2.196918986737728119e-02
-1.530649140477180481e-02 4.956288635730743408e-02 1.814527809619903564e-01
1.614673584699630737e-01 -9.069339185953140259e-02 -9.889005124568939209e-02
-6.057852879166603088e-02 -2.003405988216400146e-02 2.726543843746185303e-01
2.316555976867675781e-01 -4.529231414198875427e-02 1.718039810657501221e-02
5.205411463975906372e-02 6.304062157869338989e-02 2.843920700252056122e-02
8.706882596015930176e-02 2.643094956874847412e-02 2.332106381654739380e-01
3.983826935291290283e-02 6.437837332487106323e-02 -3.947543352842330933e-02
-4.530159011483192444e-02 -3.979714959859848022e-02 -2.626129686832427979e-01
-1.495541185140609741e-01 2.200852334499359131e-02 6.142126396298408508e-02
-5.886809155344963074e-02 6.090983748435974121e-02 -7.891620695590972900e-02
-1.433177143335342407e-01 3.309851139783859253e-02 -7.594897877424955368e-03
4.188754409551620483e-02 7.482364773750305176e-03 2.930929362773895264e-01
1.661532819271087646e-01 -4.902521148324012756e-02 -2.169197201728820801e-01
1.349546760320663452e-01 -9.882517158985137939e-02 1.075841709971427917e-01
1.611123383045196533e-01 2.999111264944076538e-02 -8.183858543634414673e-02
1.298499554395675659e-01 -1.042799875140190125e-01 -1.352286338806152344e-02
2.712530829012393951e-02 -8.322186022996902466e-02 -2.004211544990539551e-01
-2.743373066186904907e-02 -9.313869476318359375e-02 9.272307902574539185e-02
-5.298171192407608032e-03 -4.741222411394119263e-02 -2.777293324470520020e-01
4.675218835473060608e-03 -1.006719619035720825e-01 -5.756695568561553955e-02
-1.285042166709899902e-01 -1.080892980098724365e-03 -1.740898638963699341e-01
1.489851772785186768e-01 -4.373933002352714539e-02 2.552694082260131836e-01
-7.126823067665100098e-02 4.041339457035064697e-02 1.823344379663467407e-01
2.600840479135513306e-02 -9.987451136112213135e-02 -1.012792661786079407e-01
-1.325574889779090881e-02 6.466062366962432861e-02 -7.915344089269638062e-02
1.030563265085220337e-01 -4.972863942384719849e-02 -2.725278139114379883e-01
7.091249525547027588e-02 -8.300656080245971680e-02 2.270666658878326416e-01
-2.513097971677780151e-02 -4.970942437648773193e-02 2.733823955059051514e-01
5.133954435586929321e-02 6.359370797872543335e-02 -9.459029883146286011e-03
-9.161740541458129883e-02 -4.482719674706459045e-02 -1.961273699998855591e-01
7.208365201950073242e-02 2.012480795383453369e-02 -2.597792446613311768e-01
6.082851439714431763e-03 -1.020962819457054138e-01 5.496304482221603394e-02
1.527137868106365204e-02 -8.967639505863189697e-02 1.821132749319076538e-01
-6.523415446281433105e-02 -5.746772885322570801e-02 2.155877798795700073e-01
5.703948438167572021e-02 2.686385437846183777e-02 -2.520650029182434082e-01
2.006404399871826172e-01 -6.110798567533493042e-02 -1.331018060445785522e-01
-8.140224218368530273e-02 -7.930502295494079590e-02 -1.177738048136234283e-02
6.550160050392150879e-02 3.115887194871902466e-02 -2.359916567802429199e-01
1.680671125650405884e-01 3.043793886899948120e-02 -2.158409729599952698e-02
1.222481727600097656e-01 8.709199726581573486e-03 -2.420223355293273926e-01
1.649803481996059418e-02 6.649444997310638428e-02 -2.769852057099342346e-02
2.719383314251899719e-02 -5.837776884436607361e-02 -2.704244256019592285e-01
1.480871438980102539e-01 3.915548697113990784e-02 2.446162700653076172e-02
1.134332120418548584e-01 -1.059511974453926086e-01 -2.488353289663791656e-02
-8.299593627452850342e-02 -1.124829240143299103e-02 -2.476944178342819214e-01
8.384267240762710571e-02 -1.079924330115318298e-01 -1.477967388927936554e-02
-4.503220319747924805e-03 -8.919271826744079590e-02 -1.474387496709823608e-01
2.023797631263732910e-01 -6.492990255355834961e-02 1.351999193429946899e-01
3.821722418069839478e-02 -1.067558154463768005e-01 2.378846891224384308e-02
6.020648032426834106e-02 5.547927320003509521e-02 -1.245281398296356201e-01
-7.080197334289550781e-02 -8.359146118164062500e-02 3.053769003599882126e-03
-1.268307119607925415e-02 -9.599481523036956787e-02 -7.882225513458251953e-02
8.885091543197631836e-02 -3.396699577569961548e-02 -2.917754054069519043e-01
-3.631239011883735657e-02 -8.475433290004730225e-02 1.453508734703063965e-01
-6.365176290273666382e-03 6.304841488599777222e-02 -9.993586689233779907e-02
8.349654078483581543e-02 -6.796322762966156006e-02 -2.495696097612380981e-01
1.973006129264831543e-01 -8.413534611463546753e-02 -4.017645027488470078e-03
-1.557639837265014648e-01 1.246836781501770020e-02 -6.236513704061508179e-02
9.826129302382469177e-03 -9.502760320901870728e-02 1.439779251813888550e-01
1.730092763900756836e-01 -6.491442024707794189e-02 -1.812840849161148071e-01
1.174448430538177490e-01 -3.709249943494796753e-02 2.853640615940093994e-01
-4.746651276946067810e-02 -9.106091409921646118e-02 2.739248983561992645e-02
1.855552792549133301e-01 2.121704071760177612e-02 1.238687895238399506e-03
1.130951195955276489e-01 5.012717097997665405e-02 -4.941208660602569580e-02
2.567816525697708130e-03 6.109999120235443115e-02 -1.185033842921257019e-01
1.079667508602142334e-01 1.948598027229309082e-02 -2.332631349563598633e-01
-1.421113163232803345e-01 1.729518175125122070e-02 1.130310148000717163e-01
5.091824382543563843e-02 -5.484201759099960327e-02 -2.790491580963134766e-01
-3.826057538390159607e-02 3.565929085016250610e-02 2.239068299531936646e-01
-5.651061609387397766e-02 6.257086992263793945e-02 4.951345920562744141e-02
-1.574632376432418823e-01 1.263332366943359375e-02 4.485027119517326355e-02
1.181885898113250732e-01 -9.796248376369476318e-02 -1.141725331544876099e-01
1.296667307615280151e-01 4.392005503177642822e-04 2.523706257343292236e-01
7.567521929740905762e-02 3.675996884703636169e-02 2.072781622409820557e-01
7.980577647686004639e-02 -5.686483159661293030e-02 2.857563495635986328e-01
1.419491469860076904e-01 3.806886449456214905e-02 -8.442869037389755249e-02
5.418334528803825378e-02 -1.057066470384597778e-01 -5.804588645696640015e-02
2.167547047138214111e-01 -7.856252603232860565e-03 -5.453401431441307068e-02
9.755927324295043945e-02 -1.067626178264617920e-01 -3.526967763900756836e-02
-8.288133144378662109e-02 -7.592871785163879395e-02 7.969541102647781372e-02
-2.120476216077804565e-03 6.659424304962158203e-02 -4.403464496135711670e-02
3.664829209446907043e-02 5.997005850076675415e-02 1.031659916043281555e-01
1.599538922309875488e-01 1.738157495856285095e-02 -1.597760766744613647e-01
3.571976348757743835e-02 -1.031047329306602478e-01 -7.695610076189041138e-02
-4.458719864487648010e-02 6.546680629253387451e-02 -5.475546699017286301e-03
1.695873737335205078e-01 -9.061110764741897583e-02 -7.882646471261978149e-02
-1.910850405693054199e-03 -6.764331459999084473e-02 2.517769932746887207e-01
1.727320626378059387e-02 -1.035660654306411743e-01 -3.705672174692153931e-02
2.233536094427108765e-01 -6.047457084059715271e-02 -3.482136502861976624e-02
-1.018777787685394287e-01 -6.784241646528244019e-02 6.773279607295989990e-02
-1.280141919851303101e-01 -1.943232305347919464e-02 1.708533167839050293e-01
2.245860248804092407e-01 -3.795740008354187012e-02 9.267918765544891357e-02
-1.272202879190444946e-01 -4.548900574445724487e-02 -1.011559590697288513e-01
-1.146364808082580566e-01 -2.791278809309005737e-02 1.912837028503417969e-01
-4.216850176453590393e-02 6.048361957073211670e-02 -1.065771430730819702e-01
6.473951786756515503e-02 5.855233967304229736e-02 -8.602759242057800293e-02
4.480731859803199768e-02 -1.072576567530632019e-01 -1.660547684878110886e-03
-1.089001074433326721e-02 -9.979123622179031372e-02 3.301499038934707642e-02
-8.855479955673217773e-02 -7.086743414402008057e-02 1.039023026823997498e-01
-6.114360317587852478e-02 6.313189119100570679e-02 1.866610534489154816e-02
-9.553888440132141113e-02 1.316842064261436462e-02 2.189062684774398804e-01
1.436825990676879883e-01 2.098483592271804810e-02 1.806868016719818115e-01
9.668146073818206787e-02 5.103994160890579224e-02 9.271287918090820312e-02
1.829738914966583252e-02 -9.323639422655105591e-02 -1.449145972728729248e-01
1.216665059328079224e-01 3.528892993927001953e-02 1.560195684432983398e-01
-4.279243573546409607e-02 -5.397520959377288818e-03 2.852052450180053711e-01
4.604014754295349121e-02 -1.027325466275215149e-01 1.116881147027015686e-01
-6.119956448674201965e-02 -7.681630551815032959e-02 1.436096876859664917e-01
-8.379641175270080566e-02 -7.620187103748321533e-02 -5.667853355407714844e-02
2.016998827457427979e-01 -7.892256975173950195e-02 6.786616891622543335e-02
1.350636631250381470e-01 3.740250319242477417e-02 -1.139982417225837708e-01
1.174413263797760010e-01 -8.942897617816925049e-02 -1.641946434974670410e-01
-4.619001224637031555e-02 -8.717853575944900513e-02 -8.503036201000213623e-02
-1.550649851560592651e-02 6.710471957921981812e-02 -1.981562562286853790e-02
-4.040447250008583069e-02 -5.595549196004867554e-02 -2.371800541877746582e-01
2.026577889919281006e-01 7.341200485825538635e-03 -4.679998755455017090e-02
4.744217544794082642e-02 -9.586029686033725739e-03 -3.040046691894531250e-01
1.703144609928131104e-01 -3.135236352682113647e-02 2.310612201690673828e-01
-7.170817255973815918e-02 2.131575718522071838e-02 -2.356695830821990967e-01
1.405961066484451294e-01 -9.455796331167221069e-03 -2.477462738752365112e-01
-1.099325716495513916e-03 -5.929918959736824036e-02 -2.582252323627471924e-01
-1.378974169492721558e-01 -9.911265224218368530e-04 1.507267355918884277e-01
2.131211012601852417e-01 -5.871705710887908936e-02 1.160011738538742065e-01
-3.619582578539848328e-02 6.601914018392562866e-02 1.431079767644405365e-02
-1.567920446395874023e-01 1.540407910943031311e-02 -4.036521539092063904e-02
6.630885601043701172e-02 4.223651438951492310e-02 1.919404417276382446e-01
1.715543568134307861e-01 2.327459678053855896e-02 9.431274235248565674e-02
-1.617190539836883545e-01 -5.255958996713161469e-03 3.393480181694030762e-02
9.510647505521774292e-02 1.112639531493186951e-02 -2.621186375617980957e-01
-6.242126598954200745e-02 5.772767215967178345e-02 -1.061306223273277283e-01
7.224173098802566528e-02 -1.035595387220382690e-01 1.126183941960334778e-01
-1.115325391292572021e-01 2.853946387767791748e-02 -1.665582209825515747e-01
-1.469816565513610840e-01 -6.586942821741104126e-03 1.224089860916137695e-01
3.351955115795135498e-02 -8.495621383190155029e-02 2.141123414039611816e-01
-1.001408100128173828e-01 -6.926245242357254028e-02 -4.765917733311653137e-02
3.825086355209350586e-02 6.123215705156326294e-02 -9.591104090213775635e-02
1.090909242630004883e-01 -1.005088612437248230e-01 1.247781887650489807e-01
-7.073423266410827637e-02 -7.617304474115371704e-02 1.231561228632926941e-01
9.644557535648345947e-02 -9.559689462184906006e-02 -1.447370648384094238e-01
1.715189814567565918e-01 2.156943455338478088e-02 -1.054924204945564270e-01
1.445988565683364868e-01 -5.049612373113632202e-02 -2.406862676143646240e-01
-8.027119934558868408e-02 3.181220218539237976e-02 1.998636424541473389e-01
-2.425258234143257141e-02 -4.504436254501342773e-02 -2.707332372665405273e-01
6.886390596628189087e-02 -2.804314531385898590e-02 -3.008390665054321289e-01
1.733197867870330811e-01 -9.260771423578262329e-02 -4.369150847196578979e-02
7.481797039508819580e-02 -1.037484854459762573e-01 -8.842206001281738281e-02
1.610951870679855347e-01 3.212152794003486633e-02 -5.676968395709991455e-02
3.904226422309875488e-02 6.332226097583770752e-02 -6.541994959115982056e-02
-1.701015606522560120e-02 -8.911167085170745850e-02 -1.313457787036895752e-01
-4.035519436001777649e-02 5.010938644409179688e-02 -1.750836521387100220e-01
-4.480135813355445862e-02 1.629216596484184265e-02 2.625708580017089844e-01
1.447594016790390015e-01 3.987829014658927917e-02 -4.259088262915611267e-02
1.002161800861358643e-01 -1.076488271355628967e-01 1.351923681795597076e-02
3.909711912274360657e-02 -1.056059598922729492e-01 -4.263102263212203979e-02
1.196862906217575073e-01 -5.408161133527755737e-02 2.712490856647491455e-01
4.047252982854843140e-02 -7.353979349136352539e-02 2.537080645561218262e-01
2.226537913084030151e-01 -1.113011874258518219e-02 6.684532854706048965e-04
-8.109074085950851440e-03 6.286215037107467651e-02 9.274619817733764648e-02
5.816001817584037781e-02 1.946720108389854431e-02 2.677786648273468018e-01
3.192756325006484985e-03 6.721455603837966919e-02 -6.887467112392187119e-03
7.458321005105972290e-02 6.000636518001556396e-02 -8.532783016562461853e-03
1.104674786329269409e-01 -1.048966124653816223e-01 -5.210843682289123535e-02
1.317900270223617554e-01 -1.041954904794692993e-01 2.668809890747070312e-02
2.193762063980102539e-01 -1.562593318521976471e-02 -7.326550036668777466e-02
-1.326403021812438965e-01 -5.056274682283401489e-02 2.768478915095329285e-02
-7.518313825130462646e-02 -5.980136245489120483e-02 1.925908923149108887e-01
8.556677401065826416e-02 4.912047088146209717e-02 1.315270215272903442e-01
-9.312558174133300781e-02 -6.871934235095977783e-02 -9.008938819169998169e-02
-1.511043757200241089e-01 -1.159298978745937347e-02 1.027967855334281921e-01
1.222863495349884033e-01 -1.019469574093818665e-01 -7.353150844573974609e-02
1.673912554979324341e-01 5.166901275515556335e-03 -1.828317493200302124e-01
-3.323123231530189514e-02 6.458759307861328125e-02 -6.645166128873825073e-02
1.558621674776077271e-01 -4.658071324229240417e-03 2.278932929039001465e-01
-1.062207818031311035e-01 5.205060541629791260e-02 2.597124502062797546e-02
1.829403340816497803e-01 -4.451607167720794678e-02 -1.949825435876846313e-01
7.752282917499542236e-02 5.723999440670013428e-02 -7.270903140306472778e-02
-1.040531694889068604e-01 4.058957472443580627e-02 -1.385130435228347778e-01
6.022960692644119263e-02 5.837190151214599609e-02 8.965856581926345825e-02
2.053408622741699219e-01 -7.395014166831970215e-02 8.645192533731460571e-02
-1.060489416122436523e-01 5.266263335943222046e-02 3.296193666756153107e-03
-1.122525334358215332e-01 -4.593019187450408936e-02 -1.487179547548294067e-01
1.900423914194107056e-01 -8.305376768112182617e-02 -6.986271589994430542e-02
2.217569947242736816e-01 -1.300619915127754211e-02 5.057332292199134827e-02
-1.010143309831619263e-01 -6.149100512266159058e-02 1.233655065298080444e-01
1.279936581850051880e-01 4.408759623765945435e-02 6.980615109205245972e-02
4.407246410846710205e-02 -6.389918178319931030e-02 2.765537500381469727e-01
-9.815423190593719482e-02 5.230990797281265259e-02 6.491976231336593628e-02
-1.246054619550704956e-01 -1.064065843820571899e-03 1.830402016639709473e-01
-1.204601675271987915e-01 3.453965485095977783e-02 1.202584058046340942e-01
1.093760132789611816e-01 -8.750059455633163452e-02 1.981913149356842041e-01
1.859376281499862671e-01 -6.008375808596611023e-02 1.850523203611373901e-01
3.859132528305053711e-03 6.661885976791381836e-02 3.108615800738334656e-02
-7.753579318523406982e-02 -2.367334067821502686e-02 2.534011304378509521e-01
1.690444536507129669e-02 -8.660635352134704590e-02 -1.801118105649948120e-01
-2.156015112996101379e-02 4.521833360195159912e-02 1.984516978263854980e-01
7.401648163795471191e-02 -1.071463897824287415e-01 -4.075051099061965942e-02
-5.130835995078086853e-02 2.659216150641441345e-02 2.390715628862380981e-01
9.255363047122955322e-02 3.793071955442428589e-02 -1.886530965566635132e-01
1.052969694137573242e-01 4.344105720520019531e-02 -1.409499794244766235e-01
-2.058182284235954285e-02 -8.221933245658874512e-02 -1.669259518384933472e-01
1.925824731588363647e-01 -6.010278314352035522e-02 -1.549347788095474243e-01
6.831329315900802612e-03 -7.915810495615005493e-02 -2.052363753318786621e-01
-2.079217880964279175e-02 -9.769720584154129028e-02 -1.524314284324645996e-02
-1.301329880952835083e-01 -4.871812462806701660e-02 -6.609025597572326660e-02
-9.309035539627075195e-02 4.813268035650253296e-02 1.132849752902984619e-01
-1.802283525466918945e-02 -9.225570410490036011e-02 -1.052923128008842468e-01
-4.867294803261756897e-02 -4.104486480355262756e-02 2.667825818061828613e-01
-6.448355317115783691e-02 -8.561477810144424438e-02 2.945570833981037140e-02
-2.438339591026306152e-02 5.993255227804183960e-02 -1.238403469324111938e-01
1.446276903152465820e-03 2.611676603555679321e-02 -2.633244395256042480e-01
9.237965196371078491e-02 -7.475200295448303223e-02 2.471375912427902222e-01
4.904406890273094177e-02 -8.307914435863494873e-02 2.256805151700973511e-01
-1.127303689718246460e-01 4.440902173519134521e-02 -9.442484378814697266e-02
1.958653330802917480e-01 1.405027508735656738e-02 2.559192292392253876e-02
-1.585313677787780762e-01 -1.311378180980682373e-02 -5.301816388964653015e-02
2.476784214377403259e-02 -9.123051166534423828e-02 -1.614648550748825073e-01
2.127265185117721558e-02 6.504204869270324707e-02 5.164179205894470215e-02
1.302313208580017090e-01 -9.903308004140853882e-02 -9.084718674421310425e-02
4.728212952613830566e-04 6.552339345216751099e-02 5.697438120841979980e-02
1.125770956277847290e-01 4.649330675601959229e-02 -1.005049794912338257e-01
7.398254424333572388e-02 -9.099613875150680542e-02 1.950013488531112671e-01
-1.484319269657135010e-01 -3.200772777199745178e-02 -5.451318994164466858e-02
-6.088457629084587097e-02 -4.458738118410110474e-02 2.490860521793365479e-01
-1.702848821878433228e-03 -8.995076268911361694e-02 1.644642651081085205e-01
-6.492047011852264404e-02 4.419910907745361328e-02 -1.808227449655532837e-01
1.297030895948410034e-01 2.355303987860679626e-02 -1.940557658672332764e-01
1.621338278055191040e-01 -9.719458222389221191e-02 4.641985520720481873e-02
1.897701472043991089e-01 -2.154622040688991547e-02 -1.816544979810714722e-01
2.395743317902088165e-02 -6.621727347373962402e-02 -2.526824474334716797e-01
-3.023017570376396179e-02 -6.448151916265487671e-02 2.379396706819534302e-01
2.232424169778823853e-01 -2.255842275917530060e-02 8.034524321556091309e-02
1.982356458902359009e-01 -2.779259160161018372e-02 -1.666390299797058105e-01
-2.060231938958168030e-02 -5.586894229054450989e-02 -2.537265717983245850e-01
2.314075231552124023e-01 -4.314004257321357727e-02 -1.854364387691020966e-02
1.055205762386322021e-01 4.134594649076461792e-02 1.501383930444717407e-01
3.404217213392257690e-02 5.415389686822891235e-02 -1.573583781719207764e-01
1.169463992118835449e-02 -7.784318178892135620e-02 2.296038866043090820e-01
-1.407257467508316040e-02 -9.446313232183456421e-02 1.115095987915992737e-01
8.605702221393585205e-02 -9.339673072099685669e-02 -1.607498973608016968e-01
1.579382121562957764e-01 -7.711330056190490723e-02 -1.697328090667724609e-01
1.350036114454269409e-01 3.454000130295753479e-02 -1.338001191616058350e-01
1.464055776596069336e-01 -2.076854184269905090e-02 2.576692104339599609e-01
1.970413327217102051e-01 -6.992805004119873047e-02 -1.165145933628082275e-01
-1.397964656352996826e-01 2.410214394330978394e-02 -1.048141196370124817e-01
-1.318354159593582153e-01 -3.047904558479785919e-02 -1.375302672386169434e-01
-6.050769612193107605e-02 -8.459834754467010498e-02 7.889389991760253906e-02
1.795482486486434937e-01 3.603108227252960205e-03 1.647305339574813843e-01
-9.533421695232391357e-02 -5.688044801354408264e-02 1.614035516977310181e-01
3.631914407014846802e-02 6.195991486310958862e-02 8.134654909372329712e-02
8.989422023296356201e-02 -7.611854374408721924e-02 -2.267776280641555786e-01
1.352104991674423218e-01 -1.025179475545883179e-01 6.036858260631561279e-02
1.275200098752975464e-01 4.620679467916488647e-02 -3.814938664436340332e-02
1.533757150173187256e-01 2.627871558070182800e-02 1.351871341466903687e-01
2.129428088665008545e-03 -1.021196320652961731e-01 -1.298184506595134735e-02
-1.310215741395950317e-01 -5.001733824610710144e-02 -4.714467748999595642e-02
-1.619744300842285156e-01 5.116023123264312744e-03 1.390966586768627167e-02
-8.826974779367446899e-03 -9.212658554315567017e-02 1.406530737876892090e-01
-2.194775640964508057e-02 -9.655810892581939697e-02 5.971492081880569458e-02
2.136067599058151245e-01 -8.639291860163211823e-03 8.743686974048614502e-02
6.633302569389343262e-02 -7.624159753322601318e-02 2.483086436986923218e-01
7.086390256881713867e-02 6.055963039398193359e-02 1.228538155555725098e-02
2.256934791803359985e-01 -5.978802591562271118e-02 -6.076069083064794540e-03
1.071832478046417236e-01 3.531207516789436340e-02 1.791097670793533325e-01
-1.332757472991943359e-01 3.941812366247177124e-02 2.574460953474044800e-02
3.175319731235504150e-02 -9.548864513635635376e-02 1.602281033992767334e-01
-1.163181811571121216e-01 -4.886066168546676636e-02 -1.256771683692932129e-01
1.761046200990676880e-01 -7.639826834201812744e-02 -1.421017050743103027e-01
-5.028564482927322388e-03 1.760801672935485840e-02 2.767532169818878174e-01
-1.799868419766426086e-02 4.950940608978271484e-02 -1.877860426902770996e-01
1.021962165832519531e-01 -1.072773039340972900e-01 3.443544730544090271e-02
-3.110288456082344055e-02 -3.079550340771675110e-02 2.902549207210540771e-01
9.057575464248657227e-02 5.680741369724273682e-02 1.335758017376065254e-03
-8.550700545310974121e-02 -7.689343392848968506e-02 -3.278532251715660095e-02
-7.129819691181182861e-02 6.171865016222000122e-02 -7.932649925351142883e-03
-6.952218711376190186e-02 -7.966165244579315186e-02 9.792093187570571899e-02
-1.557326763868331909e-01 -8.258509449660778046e-03 8.175475150346755981e-02
-7.293133437633514404e-02 -6.788121163845062256e-02 1.652117222547531128e-01
5.351372063159942627e-03 5.094276368618011475e-02 1.769022494554519653e-01
-9.189788997173309326e-02 8.530125021934509277e-03 -2.301005870103836060e-01
-1.088839620351791382e-01 -6.639637798070907593e-02 -6.931400392204523087e-03
1.558629721403121948e-01 -2.587529271841049194e-02 -2.393761426210403442e-01
1.082894206047058105e-01 -1.892108097672462463e-02 2.901338934898376465e-01
-6.397975981235504150e-02 5.308620631694793701e-02 1.297363191843032837e-01
6.341982632875442505e-03 4.565742611885070801e-02 2.010601162910461426e-01
1.877951174974441528e-01 1.273439824581146240e-02 -9.533033519983291626e-02
