-3.110213577747344971e-01 -3.568491339683532715e-01 -1.277783811092376709e-01
-3.006854951381683350e-01 -3.647353053092956543e-01 -2.508095800876617432e-01
-2.026820182800292969e-01 -4.737764894962310791e-01 4.654227197170257568e-02
-3.171758651733398438e-01 -3.724934458732604980e-01 4.923248291015625000e-02
-3.065187036991119385e-01 -3.464336991310119629e-01 -7.224136590957641602e-02
-2.370977401733398438e-01 -3.487202525138854980e-01 -2.159849107265472412e-01
-2.262900471687316895e-01 -5.156176090240478516e-01 -2.491600811481475830e-01
-2.413461208343505859e-01 -5.410329699516296387e-01 -7.996217906475067139e-02
-2.812896370887756348e-01 -5.284799337387084961e-01 5.824487656354904175e-02
-3.154812157154083252e-01 -3.612605631351470947e-01 -8.443309366703033447e-02
-2.151360213756561279e-01 -4.834962189197540283e-01 1.242944374680519104e-01
-3.086770772933959961e-01 -3.488187193870544434e-01 -4.168794676661491394e-02
-2.202427238225936890e-01 -3.467381596565246582e-01 1.242743209004402161e-01
-3.139785230159759521e-01 -3.702597916126251221e-01 -1.876458376646041870e-01
-2.851609289646148682e-01 -3.258951306343078613e-01 3.296685963869094849e-02
-2.340481877326965332e-01 -3.854978978633880615e-01 -3.164570927619934082e-01
-2.803685963153839111e-01 -4.697345793247222900e-01 2.322607040405273438e-01
-3.188847005367279053e-01 -5.064436197280883789e-01 -1.956542432308197021e-01
-2.993099689483642578e-01 -4.292407929897308350e-01 2.231295108795166016e-01
-2.145005017518997192e-01 -3.620728254318237305e-01 -1.495855450630187988e-01
-2.176555097103118896e-01 -4.613700807094573975e-01 1.906820833683013916e-01
-3.153689503669738770e-01 -5.143378973007202148e-01 -9.894995391368865967e-02
-2.036319226026535034e-01 -4.856417179107666016e-01 -1.296053826808929443e-02
-3.286202847957611084e-01 -4.082908034324645996e-01 -1.713931262493133545e-01
-2.193861305713653564e-01 -3.981550335884094238e-01 2.362611591815948486e-01
-2.154833078384399414e-01 -3.782042860984802246e-01 1.972944736480712891e-01
-2.781303524971008301e-01 -4.052877724170684814e-01 -3.953729569911956787e-01
-2.913492918014526367e-01 -3.863715231418609619e-01 2.372791171073913574e-01
-2.023834735155105591e-01 -4.781547188758850098e-01 -1.450633257627487183e-01
-2.149745225906372070e-01 -3.799535036087036133e-01 -2.189067900180816650e-01
-2.731906175613403320e-01 -4.502589702606201172e-01 2.683135867118835449e-01
-2.862597405910491943e-01 -3.614768385887145996e-01 2.144921720027923584e-01
-2.097921669483184814e-01 -4.403927922248840332e-01 1.818866431713104248e-01
-1.964378058910369873e-01 -3.954126536846160889e-01 1.051852107048034668e-02
-3.233378529548645020e-01 -3.792082369327545166e-01 -8.394747972488403320e-02
-2.063490152359008789e-01 -4.896683990955352783e-01 -1.571803390979766846e-01
-1.948059797286987305e-01 -4.057161808013916016e-01 -1.571386680006980896e-02
-1.977894306182861328e-01 -4.538707733154296875e-01 -1.392324268817901611e-01
-2.851008176803588867e-01 -3.363358676433563232e-01 -1.707580983638763428e-01
-2.354985028505325317e-01 -3.279603123664855957e-01 9.320469945669174194e-02
-2.372433841228485107e-01 -3.663519024848937988e-01 -2.785170078277587891e-01
-2.619609534740447998e-01 -4.930610656738281250e-01 2.041954696178436279e-01
-2.374192923307418823e-01 -5.323830246925354004e-01 -2.292189002037048340e-01
-2.711060643196105957e-01 -5.363910794258117676e-01 3.212167322635650635e-02
-2.074424922466278076e-01 -4.233695566654205322e-01 1.802532076835632324e-01
-2.155651450157165527e-01 -5.046573877334594727e-01 3.295001387596130371e-02
-2.450195401906967163e-01 -4.108417034149169922e-01 2.944356799125671387e-01
-2.199014425277709961e-01 -3.517652451992034912e-01 1.478861868381500244e-01
-2.936280965805053711e-01 -4.953462481498718262e-01 1.460619270801544189e-01
-3.304656147956848145e-01 -4.529143273830413818e-01 -2.182430028915405273e-02
-3.099082112312316895e-01 -4.077333807945251465e-01 1.755364239215850830e-01
-2.670555710792541504e-01 -5.401394963264465332e-01 9.563222527503967285e-03
-3.222018778324127197e-01 -4.983752071857452393e-01 -7.784066349267959595e-02
-3.085610866546630859e-01 -4.516224265098571777e-01 1.683495640754699707e-01
-3.233734071254730225e-01 -3.847230672836303711e-01 -1.466163992881774902e-01
-3.291562199592590332e-01 -4.417883455753326416e-01 -2.259300053119659424e-01
-2.308266460895538330e-01 -3.502618372440338135e-01 1.964191794395446777e-01
-2.244447171688079834e-01 -4.557232856750488281e-01 -3.472458422183990479e-01
-2.724863290786743164e-01 -3.204060792922973633e-01 -5.938079953193664551e-02
-2.186380028724670410e-01 -3.432496488094329834e-01 7.858764380216598511e-02
-2.917093932628631592e-01 -3.759858012199401855e-01 2.231633365154266357e-01
-2.766175568103790283e-01 -5.454597473144531250e-01 -2.249640226364135742e-01
-2.930691838264465332e-01 -4.017348885536193848e-01 2.430261075496673584e-01
-2.071999758481979370e-01 -3.656464815139770508e-01 8.860727399587631226e-02
-2.664751708507537842e-01 -4.909276068210601807e-01 -4.143738150596618652e-01
-2.092520594596862793e-01 -3.680412769317626953e-01 1.260991096496582031e-01
-2.696354985237121582e-01 -5.489316582679748535e-01 -9.726688265800476074e-02
-2.456666976213455200e-01 -5.321029424667358398e-01 -2.748324573040008545e-01
-2.459354996681213379e-01 -5.402879118919372559e-01 -2.166649401187896729e-01
-2.531799972057342529e-01 -3.245196044445037842e-01 -1.174820363521575928e-01
-2.726430594921112061e-01 -5.419102907180786133e-01 -1.101943850517272949e-02
-2.964661717414855957e-01 -4.726187884807586670e-01 1.870257556438446045e-01
-2.797520756721496582e-01 -4.885649085044860840e-01 1.971883475780487061e-01
-2.228728532791137695e-01 -4.260808229446411133e-01 2.484944462776184082e-01
-2.396275699138641357e-01 -3.531409502029418945e-01 -2.416243851184844971e-01
-2.199299335479736328e-01 -3.669494390487670898e-01 -2.079399824142456055e-01
-2.213625311851501465e-01 -4.086564481258392334e-01 -3.092175722122192383e-01
-2.099392116069793701e-01 -3.568528592586517334e-01 6.797028332948684692e-02
-3.081768155097961426e-01 -3.646934330463409424e-01 -2.079459130764007568e-01
-3.331899046897888184e-01 -4.443967640399932861e-01 -1.026067063212394714e-01
-2.931325137615203857e-01 -3.507375121116638184e-01 -2.219036519527435303e-01
-2.561861574649810791e-01 -3.300045430660247803e-01 1.612822413444519043e-01
-3.091819882392883301e-01 -5.035592317581176758e-01 -3.101641237735748291e-01
-2.612663805484771729e-01 -5.467162132263183594e-01 -2.116394937038421631e-01
-3.279412984848022461e-01 -3.948002755641937256e-01 -9.237287938594818115e-02
-2.192966639995574951e-01 -4.922032356262207031e-01 -2.801351249217987061e-01
-2.373793125152587891e-01 -3.359630107879638672e-01 1.602638959884643555e-01
-2.811527550220489502e-01 -3.754543662071228027e-01 -3.346927165985107422e-01
-1.972653865814208984e-01 -3.905791640281677246e-01 -1.883029565215110779e-02
-3.136007189750671387e-01 -4.769675433635711670e-01 9.877737611532211304e-02
-2.358593940734863281e-01 -4.970510303974151611e-01 -3.502180576324462891e-01
-3.297560214996337891e-01 -4.371475279331207275e-01 8.841156959533691406e-03
-3.183307945728302002e-01 -4.398273229598999023e-01 1.221648231148719788e-01
-3.213355839252471924e-01 -4.910574257373809814e-01 -2.483697235584259033e-01
-2.632326781749725342e-01 -3.187424540519714355e-01 6.002559512853622437e-02
-3.298324346542358398e-01 -4.748337268829345703e-01 -1.404020190238952637e-01
-2.052752077579498291e-01 -4.928275644779205322e-01 -8.221251517534255981e-02
-2.085797190666198730e-01 -3.858067393302917480e-01 1.668438613414764404e-01
-2.563677430152893066e-01 -3.202221393585205078e-01 -7.633142918348312378e-02
-3.240493834018707275e-01 -4.937736988067626953e-01 -1.868526935577392578e-01
-2.853142619132995605e-01 -3.379569947719573975e-01 1.391054987907409668e-01
-2.920966446399688721e-01 -5.413475036621093750e-01 -1.131798028945922852e-01
-2.120399177074432373e-01 -5.077427029609680176e-01 -9.501157701015472412e-02
-2.219347655773162842e-01 -4.856293797492980957e-01 1.531541645526885986e-01
-1.940541863441467285e-01 -4.412555992603302002e-01 -3.709537535905838013e-02
-2.409863770008087158e-01 -5.330515503883361816e-01 -2.469777762889862061e-01
-2.023887485265731812e-01 -4.331031143665313721e-01 -2.097448408603668213e-01
-3.214457035064697266e-01 -4.719440937042236328e-01 5.059209465980529785e-02
-2.223176509141921997e-01 -3.798539936542510986e-01 2.303988933563232422e-01
-3.184488713741302490e-01 -3.693860173225402832e-01 -1.171313747763633728e-01
-2.984251677989959717e-01 -4.615185856819152832e-01 1.978635489940643311e-01
-1.997199505567550659e-01 -4.749181270599365234e-01 -8.663848787546157837e-02
-2.368431091308593750e-01 -3.515973687171936035e-01 2.177721560001373291e-01
-2.459936439990997314e-01 -3.372310698032379150e-01 -1.876569092273712158e-01
-3.146650195121765137e-01 -3.608402013778686523e-01 -1.030556559562683105e-01
-2.211979031562805176e-01 -5.015827417373657227e-01 -2.672232985496520996e-01
-2.379153072834014893e-01 -5.326368808746337891e-01 2.265624701976776123e-03
-2.145617306232452393e-01 -3.933092653751373291e-01 -2.489861547946929932e-01
-2.982754707336425781e-01 -3.754050135612487793e-01 1.966305673122406006e-01
-2.182544767856597900e-01 -3.514963686466217041e-01 -1.245949566364288330e-01
-2.985010743141174316e-01 -3.811707198619842529e-01 -3.116393685340881348e-01
-1.955372393131256104e-01 -4.069123268127441406e-01 3.825548291206359863e-02
-2.222611159086227417e-01 -3.711987733840942383e-01 2.164469361305236816e-01
-2.738419771194458008e-01 -5.017056465148925781e-01 1.728442907333374023e-01
-2.358378469944000244e-01 -4.489329755306243896e-01 -3.866954445838928223e-01
-3.327642083168029785e-01 -4.255757033824920654e-01 -9.427035599946975708e-02
-3.276097476482391357e-01 -4.540668427944183350e-01 2.107352018356323242e-02
-2.077291607856750488e-01 -4.975154697895050049e-01 -3.611621260643005371e-02
-2.645733356475830078e-01 -4.653286933898925781e-01 -4.310237467288970947e-01
-2.146395444869995117e-01 -4.353365302085876465e-01 -2.992115318775177002e-01
-3.320376276969909668e-01 -4.568322002887725830e-01 -7.638422399759292603e-02
-2.959608435630798340e-01 -4.745464026927947998e-01 -4.020943343639373779e-01
-2.146046608686447144e-01 -4.923523068428039551e-01 8.837101608514785767e-02
-2.100171744823455811e-01 -4.087504148483276367e-01 -2.476529777050018311e-01
-2.713358700275421143e-01 -5.169958472251892090e-01 1.258687376976013184e-01
-2.459202706813812256e-01 -4.626474976539611816e-01 -4.091729521751403809e-01
-3.282491862773895264e-01 -4.613405168056488037e-01 -2.306993007659912109e-01
-1.996393501758575439e-01 -4.604153931140899658e-01 -1.578639745712280273e-01
-1.956447213888168335e-01 -4.502976536750793457e-01 8.060112595558166504e-03
-3.267163634300231934e-01 -3.906068503856658936e-01 -4.541285336017608643e-02
-2.866297960281372070e-01 -5.419033765792846680e-01 -6.367647647857666016e-02
-3.118334412574768066e-01 -3.564345836639404297e-01 1.842666417360305786e-02
-2.289591133594512939e-01 -4.384176731109619141e-01 2.571496665477752686e-01
-2.847706675529479980e-01 -3.267889320850372314e-01 -8.088482171297073364e-02
-3.183642327785491943e-01 -3.664420843124389648e-01 -6.002579629421234131e-02
-2.735451459884643555e-01 -5.491185188293457031e-01 -1.639410704374313354e-01
-3.199224770069122314e-01 -3.912760913372039795e-01 8.215720206499099731e-02
-2.473778873682022095e-01 -5.345022082328796387e-01 2.768070995807647705e-02
-3.277828395366668701e-01 -4.720728695392608643e-01 -2.174188792705535889e-01
-2.199186682701110840e-01 -4.795579910278320312e-01 -3.072670698165893555e-01
-2.907961010932922363e-01 -5.160676836967468262e-01 -3.482640683650970459e-01
-2.415197044610977173e-01 -3.274358510971069336e-01 -1.050391122698783875e-01
-2.056694775819778442e-01 -4.937764406204223633e-01 -6.258184462785720825e-02
-2.855782508850097656e-01 -4.763555526733398438e-01 -4.190994799137115479e-01
-2.802518010139465332e-01 -3.812911212444305420e-01 2.610276937484741211e-01
-2.675707936286926270e-01 -3.681180477142333984e-01 -3.242670297622680664e-01
-2.784334421157836914e-01 -4.254502952098846436e-01 2.780319154262542725e-01
-3.047375082969665527e-01 -3.646861612796783447e-01 -2.299954891204833984e-01
-2.555493712425231934e-01 -3.217768371105194092e-01 1.021871194243431091e-01
-2.485102862119674683e-01 -3.189339041709899902e-01 3.569142520427703857e-02
-2.093465328216552734e-01 -4.628537297248840332e-01 1.428962349891662598e-01
-2.388913333415985107e-01 -3.850337266921997070e-01 2.772303223609924316e-01
-2.689522206783294678e-01 -3.183661401271820068e-01 -2.682590484619140625e-02
-2.950826585292816162e-01 -4.167040884494781494e-01 2.399206161499023438e-01
-2.150151580572128296e-01 -5.124293565750122070e-01 -1.232725456357002258e-01
-3.311962187290191650e-01 -4.673303961753845215e-01 -1.258057355880737305e-01
-3.033216595649719238e-01 -5.244030952453613281e-01 -2.534258365631103516e-02
-2.397514283657073975e-01 -5.100593566894531250e-01 -3.353936672210693359e-01
-3.166652321815490723e-01 -3.934771418571472168e-01 1.164636686444282532e-01
-2.629482448101043701e-01 -5.154085159301757812e-01 -3.699224293231964111e-01
-2.308698445558547974e-01 -4.042464494705200195e-01 2.724786400794982910e-01
-2.837692201137542725e-01 -5.290033817291259766e-01 -3.188396394252777100e-01
-2.006149441003799438e-01 -3.990682363510131836e-01 1.137218847870826721e-01
-2.008770704269409180e-01 -4.520015418529510498e-01 -1.883144229650497437e-01
-2.423438131809234619e-01 -4.276105165481567383e-01 -3.939037621021270752e-01
-2.076307982206344604e-01 -4.961752891540527344e-01 -1.334145963191986084e-01
-2.973611652851104736e-01 -3.511960208415985107e-01 -2.051208317279815674e-01
-2.492651045322418213e-01 -3.716958165168762207e-01 -3.195231556892395020e-01
-1.940234899520874023e-01 -4.334208369255065918e-01 4.343226552009582520e-03
-3.316096365451812744e-01 -4.147594869136810303e-01 -1.069697886705398560e-01
-2.324588745832443237e-01 -5.035678148269653320e-01 1.354475021362304688e-01
-2.050460577011108398e-01 -3.763545453548431396e-01 1.101399138569831848e-01
-2.042952030897140503e-01 -4.478775262832641602e-01 1.345040202140808105e-01
-2.834368944168090820e-01 -4.030397236347198486e-01 2.689758837223052979e-01
-2.803601324558258057e-01 -5.084001421928405762e-01 -3.841253817081451416e-01
-3.034832775592803955e-01 -3.985335826873779297e-01 2.016686201095581055e-01
-2.134040445089340210e-01 -4.352350831031799316e-01 2.057354152202606201e-01
-2.982282638549804688e-01 -3.397476077079772949e-01 -1.155793219804763794e-01
-2.207026183605194092e-01 -3.381859362125396729e-01 3.746963292360305786e-02
-2.600432634353637695e-01 -4.844617545604705811e-01 2.240878939628601074e-01
-3.211695253849029541e-01 -5.037991404533386230e-01 -1.380658596754074097e-01
-1.974337697029113770e-01 -3.920260071754455566e-01 3.189314901828765869e-02
-2.020618319511413574e-01 -4.055716097354888916e-01 -1.758212745189666748e-01
-2.604604661464691162e-01 -3.179385066032409668e-01 -4.000085964798927307e-02
-3.289081454277038574e-01 -4.775956273078918457e-01 -8.917016535997390747e-02
-3.268248438835144043e-01 -4.714290201663970947e-01 -1.035216078162193298e-02
-3.156970143318176270e-01 -5.082954764366149902e-01 -2.356681227684020996e-01
-2.053628265857696533e-01 -4.246392846107482910e-01 -2.313375473022460938e-01
-2.009350657463073730e-01 -3.840800821781158447e-01 -9.126372635364532471e-02
-2.023284435272216797e-01 -4.808565080165863037e-01 -1.271192729473114014e-01
-2.512379586696624756e-01 -3.531586229801177979e-01 2.412907183170318604e-01
-3.108832240104675293e-01 -4.769039154052734375e-01 -3.500653803348541260e-01
-1.979106664657592773e-01 -4.455625116825103760e-01 -1.532168537378311157e-01
-1.941817402839660645e-01 -4.237580895423889160e-01 1.945664733648300171e-02
-3.148860335350036621e-01 -4.824773669242858887e-01 7.631187885999679565e-02
-2.510783374309539795e-01 -5.466186404228210449e-01 -1.090727448463439941e-01
-2.612038850784301758e-01 -4.090909957885742188e-01 2.980926930904388428e-01
-2.686891555786132812e-01 -3.189280033111572266e-01 4.412654042243957520e-02
-1.982207894325256348e-01 -4.109293818473815918e-01 -1.383270919322967529e-01
-2.401210665702819824e-01 -3.864307105541229248e-01 -3.346227109432220459e-01
-2.856898605823516846e-01 -5.409237146377563477e-01 -4.616366326808929443e-02
-3.269349932670593262e-01 -4.158791303634643555e-01 4.211347550153732300e-02
-2.946970164775848389e-01 -4.516651332378387451e-01 2.221390604972839355e-01
-2.376097440719604492e-01 -4.829999804496765137e-01 -3.758452832698822021e-01
-3.321692943572998047e-01 -4.237448573112487793e-01 -1.368565559387207031e-01
-2.521437108516693115e-01 -5.471543073654174805e-01 -1.404542475938796997e-01
-2.921425998210906982e-01 -5.245820879936218262e-01 4.182674735784530640e-02
-2.304728180170059204e-01 -5.141280293464660645e-01 -2.822227180004119873e-01
-2.967200279235839844e-01 -5.371346473693847656e-01 -1.976607739925384521e-01
-3.302928209304809570e-01 -4.602829813957214355e-01 -3.682523965835571289e-02
-2.567059993743896484e-01 -3.500900268554687500e-01 -2.623589634895324707e-01
-2.459297180175781250e-01 -3.272589445114135742e-01 1.325276196002960205e-01
-2.268793582916259766e-01 -5.258496403694152832e-01 -2.390849962830543518e-02
-2.063390910625457764e-01 -3.876197934150695801e-01 -1.742333471775054932e-01
-2.153011262416839600e-01 -5.103253126144409180e-01 -1.801036298274993896e-02
-2.960359752178192139e-01 -3.846734762191772461e-01 -3.278061747550964355e-01
-3.331930637359619141e-01 -4.435638487339019775e-01 -1.185157895088195801e-01
-2.116673737764358521e-01 -4.718474745750427246e-01 -2.652297317981719971e-01
-2.200603336095809937e-01 -5.163329839706420898e-01 -1.827880144119262695e-01
-3.309543132781982422e-01 -4.196365177631378174e-01 -2.459314092993736267e-02
-3.085941374301910400e-01 -3.580964207649230957e-01 -1.668644398450851440e-01
-2.709396779537200928e-01 -5.496409535408020020e-01 -1.336558163166046143e-01
-2.101461291313171387e-01 -3.581661880016326904e-01 -7.387976348400115967e-02
-2.080921828746795654e-01 -3.956223428249359131e-01 -2.098535895347595215e-01
-3.313232064247131348e-01 -4.630482792854309082e-01 -1.601392477750778198e-01
-2.094601690769195557e-01 -4.719232916831970215e-01 -2.477301955223083496e-01
-2.918466925621032715e-01 -4.196485877037048340e-01 -3.960657119750976562e-01
-3.257405459880828857e-01 -3.899026513099670410e-01 -1.308897137641906738e-01
-3.047757744789123535e-01 -3.609485924243927002e-01 1.237646713852882385e-01
-2.277035713195800781e-01 -4.214396774768829346e-01 -3.482074439525604248e-01
-2.208649069070816040e-01 -3.423404991626739502e-01 9.871862083673477173e-02
-3.293446600437164307e-01 -4.689910113811492920e-01 -1.960856616497039795e-01
-3.174431920051574707e-01 -3.646899461746215820e-01 -3.399273380637168884e-02
-3.033514022827148438e-01 -4.626364707946777344e-01 1.775170564651489258e-01
-3.175808489322662354e-01 -3.805108666419982910e-01 -2.025460600852966309e-01
-2.430509030818939209e-01 -3.206473290920257568e-01 -6.095662713050842285e-03
-2.020060420036315918e-01 -4.115869700908660889e-01 1.393760442733764648e-01
-2.065570652484893799e-01 -3.942888677120208740e-01 -1.940929591655731201e-01
-2.321266084909439087e-01 -4.977561235427856445e-01 1.541165113449096680e-01
-2.804174125194549561e-01 -5.457668304443359375e-01 -8.021385967731475830e-02
-2.087854295969009399e-01 -4.433917105197906494e-01 -2.640769779682159424e-01
-3.176150619983673096e-01 -4.925334155559539795e-01 2.102017402648925781e-02
-3.276547491550445557e-01 -4.000189006328582764e-01 -1.525847613811492920e-01
-3.141423165798187256e-01 -4.791435301303863525e-01 -3.307474553585052490e-01
-2.269591689109802246e-01 -3.396768271923065186e-01 -1.161251068115234375e-01
-2.160876095294952393e-01 -4.724028110504150391e-01 -2.942650914192199707e-01
-3.240341246128082275e-01 -4.954466819763183594e-01 -1.026838347315788269e-01
-3.027096986770629883e-01 -5.037025809288024902e-01 8.294645696878433228e-02
-2.667463719844818115e-01 -4.355665445327758789e-01 2.868997156620025635e-01
-3.071893155574798584e-01 -4.401980340480804443e-01 1.851319670677185059e-01
-2.308363616466522217e-01 -4.826065003871917725e-01 -3.535178601741790771e-01
-2.107523679733276367e-01 -4.558946192264556885e-01 -2.741397619247436523e-01
-2.459179162979125977e-01 -4.786936640739440918e-01 -4.006889760494232178e-01
-2.126430124044418335e-01 -3.799564242362976074e-01 -2.031198740005493164e-01
-2.344451993703842163e-01 -3.252877593040466309e-01 2.658453583717346191e-02
-2.063781917095184326e-01 -3.637175559997558594e-01 -4.991525411605834961e-02
-1.968952268362045288e-01 -4.312054514884948730e-01 -1.411102116107940674e-01
-2.098310142755508423e-01 -3.717784583568572998e-01 1.444961428642272949e-01
-3.222013115882873535e-01 -3.961222767829895020e-01 -2.168228030204772949e-01
-2.573135793209075928e-01 -3.261760473251342773e-01 -1.376022845506668091e-01
-2.713940441608428955e-01 -3.468609452247619629e-01 -2.517567873001098633e-01
-1.948339939117431641e-01 -4.398640096187591553e-01 -9.305964410305023193e-02
-3.213307261466979980e-01 -4.667927920818328857e-01 -2.963852584362030029e-01
-2.674580514430999756e-01 -4.427092075347900391e-01 -4.308609664440155029e-01
-2.201805710792541504e-01 -4.561342000961303711e-01 2.096524238586425781e-01
-2.246066033840179443e-01 -3.541129529476165771e-01 -1.836577951908111572e-01
-3.303409814834594727e-01 -4.540897905826568604e-01 -2.049605846405029297e-01
-3.267465829849243164e-01 -4.326759874820709229e-01 -2.482944428920745850e-01
-3.165281414985656738e-01 -4.991002678871154785e-01 2.930708229541778564e-03
-3.121037185192108154e-01 -4.740564823150634766e-01 1.143830195069313049e-01
-1.991454362869262695e-01 -3.985703587532043457e-01 9.313815087080001831e-02
-2.357250154018402100e-01 -4.226997494697570801e-01 -3.741912543773651123e-01
-1.952086687088012695e-01 -4.513960182666778564e-01 -1.949380710721015930e-02
-2.720063924789428711e-01 -3.555411100387573242e-01 2.349396049976348877e-01
-3.010821342468261719e-01 -5.335059762001037598e-01 -1.019459441304206848e-01
-2.188087701797485352e-01 -5.175365805625915527e-01 -1.463121175765991211e-01
-2.048473656177520752e-01 -3.650815486907958984e-01 7.747367024421691895e-03
-2.560456395149230957e-01 -5.476813316345214844e-01 -1.723886430263519287e-01
-2.737092375755310059e-01 -3.437175750732421875e-01 -2.360658347606658936e-01
-3.181411623954772949e-01 -5.100321769714355469e-01 -1.187454089522361755e-01
-2.433728873729705811e-01 -4.866694211959838867e-01 2.086799144744873047e-01
-2.160618752241134644e-01 -5.096863508224487305e-01 4.592612385749816895e-04
-2.075818330049514771e-01 -3.590675592422485352e-01 2.449463307857513428e-02
-2.354049533605575562e-01 -5.123667716979980469e-01 1.107241585850715637e-01
-3.248095214366912842e-01 -4.660727977752685547e-01 -2.661937177181243896e-01
-3.107942044734954834e-01 -3.962489962577819824e-01 -2.987346649169921875e-01
-2.399208247661590576e-01 -4.409850835800170898e-01 2.754604816436767578e-01
-2.540470659732818604e-01 -3.174795210361480713e-01 1.435030996799468994e-02
-2.973722517490386963e-01 -5.328029394149780273e-01 -2.425101399421691895e-01
-2.222965061664581299e-01 -3.812336921691894531e-01 -2.624176442623138428e-01
5.357635021209716797e-01 -7.697127461433410645e-01 4.047691822052001953e-01
5.577451586723327637e-01 -7.336581945419311523e-01 3.127044439315795898e-02
5.501656532287597656e-01 -7.752434015274047852e-01 2.916276454925537109e-01
5.330744981765747070e-01 -7.927591204643249512e-01 1.640573441982269287e-01
5.480209589004516602e-01 -5.646443367004394531e-01 4.658037424087524414e-01
5.506299138069152832e-01 -6.938074827194213867e-01 -3.350582718849182129e-02
5.671852827072143555e-01 -7.177159786224365234e-01 4.774505496025085449e-01
4.548690617084503174e-01 -6.846022009849548340e-01 -1.368239521980285645e-02
5.067975521087646484e-01 -6.139335632324218750e-01 5.701813101768493652e-01
4.512344002723693848e-01 -7.611514925956726074e-01 1.723076254129409790e-01
5.574547648429870605e-01 -5.670629739761352539e-01 4.445265829563140869e-01
4.494536221027374268e-01 -6.789617538452148438e-01 3.020311892032623291e-02
5.634366273880004883e-01 -6.605891585350036621e-01 5.754051208496093750e-01
5.525280833244323730e-01 -7.754325270652770996e-01 2.306977063417434692e-01
4.953061640262603760e-01 -6.631927490234375000e-01 5.705842971801757812e-01
4.810301065444946289e-01 -7.718234062194824219e-01 -4.065120220184326172e-02
4.982791841030120850e-01 -5.635798573493957520e-01 2.984228730201721191e-01
4.918173253536224365e-01 -7.514470815658569336e-01 4.564269185066223145e-01
5.505879521369934082e-01 -7.403610944747924805e-01 4.757399260997772217e-01
5.484451055526733398e-01 -5.706008672714233398e-01 1.884204298257827759e-01
5.485048294067382812e-01 -7.536067366600036621e-01 2.701926231384277344e-02
5.917820930480957031e-01 -6.428239941596984863e-01 3.108445405960083008e-01
5.213814377784729004e-01 -7.975536584854125977e-01 1.184539794921875000e-01
5.043383836746215820e-01 -5.651608705520629883e-01 2.053473442792892456e-01
5.839921236038208008e-01 -6.734637618064880371e-01 4.643729925155639648e-01
4.726392328739166260e-01 -6.219845414161682129e-01 3.527221083641052246e-02
5.728899240493774414e-01 -7.423309087753295898e-01 2.242717593908309937e-01
4.814030528068542480e-01 -6.066254377365112305e-01 4.685859978199005127e-01
5.715393424034118652e-01 -5.772455930709838867e-01 3.274666070938110352e-01
4.469609558582305908e-01 -6.482231020927429199e-01 1.833288669586181641e-01
5.213888883590698242e-01 -7.831357717514038086e-01 1.561267673969268799e-02
4.769621193408966064e-01 -7.112098336219787598e-01 4.879976511001586914e-01
4.676452577114105225e-01 -6.082453131675720215e-01 1.250591129064559937e-01
4.473571479320526123e-01 -6.461027860641479492e-01 2.054089009761810303e-01
4.434630274772644043e-01 -6.634586453437805176e-01 1.927997916936874390e-01
4.914128482341766357e-01 -6.073032021522521973e-01 2.462656795978546143e-02
5.651506185531616211e-01 -5.706023573875427246e-01 4.104605913162231445e-01
5.171529054641723633e-01 -5.553616881370544434e-01 2.806679606437683105e-01
5.819645524024963379e-01 -6.341693401336669922e-01 4.963266849517822266e-01
5.875756740570068359e-01 -6.328588724136352539e-01 2.368097007274627686e-01
4.924496412277221680e-01 -6.024124622344970703e-01 5.091136693954467773e-01
4.584883153438568115e-01 -6.192378997802734375e-01 3.068643808364868164e-01
5.413885116577148438e-01 -5.565596818923950195e-01 4.135885834693908691e-01
5.581813454627990723e-01 -6.901097297668457031e-01 5.619095563888549805e-01
5.519491434097290039e-01 -7.330762743949890137e-01 8.697211742401123047e-04
5.035595297813415527e-01 -5.682294964790344238e-01 1.812547892332077026e-01
5.808077454566955566e-01 -7.081495523452758789e-01 1.669869422912597656e-01
4.606727361679077148e-01 -7.790527939796447754e-01 1.560525596141815186e-01
4.588729739189147949e-01 -6.162314414978027344e-01 2.875281572341918945e-01
5.822736024856567383e-01 -6.418839097023010254e-01 1.610003560781478882e-01
4.647274613380432129e-01 -6.226740479469299316e-01 7.588961720466613770e-02
5.863533020019531250e-01 -7.031782269477844238e-01 2.593409717082977295e-01
5.770196318626403809e-01 -7.074601054191589355e-01 4.457860887050628662e-01
5.885242223739624023e-01 -6.718676686286926270e-01 4.166911840438842773e-01
5.799533128738403320e-01 -5.917186141014099121e-01 3.801944851875305176e-01
4.540579915046691895e-01 -6.558150649070739746e-01 4.222804307937622070e-02
4.476795196533203125e-01 -6.956743001937866211e-01 3.304449915885925293e-01
5.770768523216247559e-01 -5.901415348052978516e-01 2.823078930377960205e-01
4.438813030719757080e-01 -7.385827898979187012e-01 1.434752941131591797e-01
5.447555184364318848e-01 -7.561364769935607910e-01 4.380962848663330078e-01
5.555739402770996094e-01 -7.035298943519592285e-01 -1.201468706130981445e-02
5.116690993309020996e-01 -7.729408144950866699e-01 4.145529270172119141e-01
5.666588544845581055e-01 -5.824230313301086426e-01 4.807724952697753906e-01
5.790714025497436523e-01 -5.963112115859985352e-01 4.397723674774169922e-01
4.908764064311981201e-01 -7.691928148269653320e-01 4.011433720588684082e-01
5.666024684906005859e-01 -6.821105480194091797e-01 3.422529995441436768e-02
4.442233145236968994e-01 -7.179064750671386719e-01 5.912998318672180176e-02
4.975267946720123291e-01 -7.986271381378173828e-01 6.565093994140625000e-02
5.685573220252990723e-01 -7.503318786621093750e-01 2.052749842405319214e-01
4.949547648429870605e-01 -7.662871479988098145e-01 4.196748435497283936e-01
5.696899890899658203e-01 -6.188732385635375977e-01 5.490981340408325195e-01
4.650992751121520996e-01 -6.331608891487121582e-01 4.261463880538940430e-01
4.730577468872070312e-01 -5.909172892570495605e-01 3.128136992454528809e-01
5.806225538253784180e-01 -6.938718557357788086e-01 4.535552263259887695e-01
4.600960612297058105e-01 -7.264918088912963867e-01 3.893001079559326172e-01
4.663953483104705811e-01 -7.091079354286193848e-01 4.470362067222595215e-01
4.613032042980194092e-01 -7.453050017356872559e-01 -3.556981682777404785e-02
5.549386739730834961e-01 -5.696910023689270020e-01 2.236209064722061157e-01
5.870660543441772461e-01 -6.945656538009643555e-01 3.710663318634033203e-01
4.851555228233337402e-01 -5.749088525772094727e-01 2.987483441829681396e-01
4.754139184951782227e-01 -7.417322993278503418e-01 4.314903020858764648e-01
5.038809776306152344e-01 -5.660829544067382812e-01 4.134241938591003418e-01
5.533410906791687012e-01 -5.591022968292236328e-01 3.525700569152832031e-01
5.098965167999267578e-01 -5.570585727691650391e-01 3.074802160263061523e-01
5.389879941940307617e-01 -5.816107392311096191e-01 1.107039749622344971e-01
4.951724708080291748e-01 -6.312192678451538086e-01 5.593494176864624023e-01
5.452856421470642090e-01 -7.530452609062194824e-01 9.758055210113525391e-03
4.596061408519744873e-01 -7.771983742713928223e-01 1.127919256687164307e-01
4.474945366382598877e-01 -7.313816547393798828e-01 2.755994796752929688e-01
5.031341314315795898e-01 -6.571188569068908691e-01 5.874953866004943848e-01
5.580343008041381836e-01 -7.618817090988159180e-01 1.319757997989654541e-01
4.884118139743804932e-01 -5.987018346786499023e-01 4.827572703361511230e-01
5.513687133789062500e-01 -7.699882388114929199e-01 1.160992234945297241e-01
5.582734346389770508e-01 -6.270868778228759766e-01 4.604668915271759033e-02
4.710857570171356201e-01 -7.732890248298645020e-01 -9.474337100982666016e-03
5.309178233146667480e-01 -6.325845122337341309e-01 -3.356975317001342773e-02
5.818818211555480957e-01 -6.075125932693481445e-01 4.532091021537780762e-01
5.140660405158996582e-01 -6.848354339599609375e-01 5.922216773033142090e-01
5.735809803009033203e-01 -5.951646566390991211e-01 2.139099687337875366e-01
5.799537301063537598e-01 -7.151498794555664062e-01 3.877792954444885254e-01
5.753744244575500488e-01 -6.724555492401123047e-01 5.219109058380126953e-01
4.575478434562683105e-01 -7.140282392501831055e-01 -4.164627194404602051e-02
4.696575105190277100e-01 -5.956891179084777832e-01 2.144278138875961304e-01
5.396305918693542480e-01 -6.746216416358947754e-01 6.043621301651000977e-01
4.567494392395019531e-01 -6.334210038185119629e-01 9.599234163761138916e-02
5.794121623039245605e-01 -6.892029047012329102e-01 1.224224567413330078e-01
5.312422513961791992e-01 -5.919996500015258789e-01 5.677443742752075195e-01
5.704776048660278320e-01 -7.457280755043029785e-01 3.135654926300048828e-01
4.998857378959655762e-01 -5.656670928001403809e-01 2.246723175048828125e-01
4.939393401145935059e-01 -5.865139961242675781e-01 4.699766039848327637e-01
5.901672244071960449e-01 -6.544587016105651855e-01 4.118540883064270020e-01
4.722486734390258789e-01 -7.878878712654113770e-01 2.252140641212463379e-01
4.643109440803527832e-01 -6.041073799133300781e-01 2.791352570056915283e-01
4.848123490810394287e-01 -7.314464449882507324e-01 -1.045448780059814453e-01
5.348703265190124512e-01 -7.885202765464782715e-01 1.172452121973037720e-01
4.531680047512054443e-01 -6.279067993164062500e-01 2.306205481290817261e-01
5.414804816246032715e-01 -7.355040907859802246e-01 5.098618865013122559e-01
4.754591286182403564e-01 -5.978146791458129883e-01 3.976375758647918701e-01
4.567722082138061523e-01 -7.656610012054443359e-01 2.376786172389984131e-01
4.693239927291870117e-01 -7.351639866828918457e-01 -7.438290119171142578e-02
5.650565624237060547e-01 -6.287640333175659180e-01 7.179583609104156494e-02
5.811238884925842285e-01 -6.577318906784057617e-01 5.013549327850341797e-01
5.106829404830932617e-01 -7.369604110717773438e-01 5.172060132026672363e-01
4.442074298858642578e-01 -7.375794649124145508e-01 1.891484260559082031e-01
5.825182795524597168e-01 -6.666235327720642090e-01 4.845725893974304199e-01
4.527732729911804199e-01 -6.362422704696655273e-01 3.056146800518035889e-01
5.517587661743164062e-01 -5.694849491119384766e-01 4.831449687480926514e-01
5.767739415168762207e-01 -7.338710427284240723e-01 2.405623048543930054e-01
4.677848219871520996e-01 -6.047085523605346680e-01 1.474472880363464355e-01
5.700162053108215332e-01 -5.754103660583496094e-01 3.950635194778442383e-01
5.814687609672546387e-01 -7.189670205116271973e-01 2.273657023906707764e-01
4.486971199512481689e-01 -7.275256514549255371e-01 2.990243136882781982e-01
4.899036586284637451e-01 -5.859053730964660645e-01 4.466460347175598145e-01
4.868141710758209229e-01 -5.745676755905151367e-01 3.369813859462738037e-01
4.837115705013275146e-01 -6.256290674209594727e-01 -1.052409410476684570e-02
4.920631945133209229e-01 -5.710357427597045898e-01 3.632974326610565186e-01
5.552525520324707031e-01 -6.800846457481384277e-01 5.798606872558593750e-01
4.454052448272705078e-01 -6.643753647804260254e-01 1.127428263425827026e-01
5.112053155899047852e-01 -7.092646360397338867e-01 -1.132246553897857666e-01
5.831242203712463379e-01 -7.162117958068847656e-01 3.064531981945037842e-01
4.951479136943817139e-01 -5.761396884918212891e-01 4.291320145130157471e-01
4.465632736682891846e-01 -7.321609258651733398e-01 4.853430390357971191e-02
5.233900547027587891e-01 -5.532027482986450195e-01 3.477753996849060059e-01
5.698229074478149414e-01 -6.993357539176940918e-01 5.077552795410156250e-01
4.708245694637298584e-01 -7.146658897399902344e-01 -8.662590384483337402e-02
4.588279724121093750e-01 -7.578719258308410645e-01 2.968399226665496826e-01
4.448082745075225830e-01 -6.582082509994506836e-01 2.305571138858795166e-01
4.973198175430297852e-01 -6.194572448730468750e-01 -1.789680123329162598e-02
5.792357921600341797e-01 -6.107093691825866699e-01 2.042967230081558228e-01
5.403018593788146973e-01 -7.756788730621337891e-01 6.397026777267456055e-02
5.817071199417114258e-01 -7.187560796737670898e-01 3.309537768363952637e-01
4.525109529495239258e-01 -6.484149694442749023e-01 3.434437513351440430e-01
4.969931244850158691e-01 -7.550541162490844727e-01 -8.643609285354614258e-02
5.900861024856567383e-01 -6.435932517051696777e-01 2.568935453891754150e-01
5.565617680549621582e-01 -5.915924906730651855e-01 5.459315776824951172e-01
4.406459629535675049e-01 -6.863653063774108887e-01 1.613683104515075684e-01
5.648648738861083984e-01 -7.318738698959350586e-01 7.294224202632904053e-02
5.370666980743408203e-01 -6.281130313873291016e-01 -1.539513468742370605e-02
4.824166297912597656e-01 -5.885419845581054688e-01 4.088462889194488525e-01
5.660846829414367676e-01 -5.699333548545837402e-01 3.404943346977233887e-01
5.891025066375732422e-01 -6.898644566535949707e-01 3.384344577789306641e-01
5.726189613342285156e-01 -6.821943521499633789e-01 6.877735257148742676e-02
5.010039210319519043e-01 -6.081493496894836426e-01 7.913500070571899414e-03
5.013503432273864746e-01 -5.832155942916870117e-01 4.893222749233245850e-01
5.265241265296936035e-01 -5.682638287544250488e-01 4.938570261001586914e-01
5.426880717277526855e-01 -7.778903245925903320e-01 9.325039386749267578e-02
5.435897707939147949e-01 -5.547376275062561035e-01 3.347417414188385010e-01
4.411119818687438965e-01 -6.865648031234741211e-01 2.202934026718139648e-01
5.623763799667358398e-01 -7.590976357460021973e-01 1.711622476577758789e-01
4.865635335445404053e-01 -5.733839869499206543e-01 2.821225225925445557e-01
5.798890590667724609e-01 -6.247125267982482910e-01 1.714169383049011230e-01
5.595846176147460938e-01 -6.397969722747802734e-01 5.889087319374084473e-01
5.705891251564025879e-01 -7.027974128723144531e-01 6.646147370338439941e-02
5.412030816078186035e-01 -5.568724274635314941e-01 2.708593010902404785e-01
5.642072558403015137e-01 -5.735580921173095703e-01 2.612554132938385010e-01
5.090477466583251953e-01 -8.027354478836059570e-01 1.905247867107391357e-01
4.960791468620300293e-01 -7.995064258575439453e-01 2.398722469806671143e-01
5.071386694908142090e-01 -7.120751738548278809e-01 5.561640262603759766e-01
4.401208162307739258e-01 -7.067044973373413086e-01 1.689618229866027832e-01
5.647667646408081055e-01 -6.486967802047729492e-01 4.310287535190582275e-02
4.783225953578948975e-01 -5.884027481079101562e-01 1.703750789165496826e-01
5.769798159599304199e-01 -6.113419532775878906e-01 1.824946403503417969e-01
5.728629827499389648e-01 -5.807235240936279297e-01 3.032504618167877197e-01
5.691392421722412109e-01 -5.735371708869934082e-01 3.763076663017272949e-01
4.530247747898101807e-01 -7.660027742385864258e-01 1.322690248489379883e-01
4.869355857372283936e-01 -7.530744671821594238e-01 4.405422210693359375e-01
4.422965943813323975e-01 -7.216926813125610352e-01 9.813252091407775879e-02
4.457645416259765625e-01 -6.890816092491149902e-01 3.101460933685302734e-01
5.283047556877136230e-01 -7.917311787605285645e-01 9.821395576000213623e-02
4.625872671604156494e-01 -7.804946303367614746e-01 9.561152756214141846e-02
5.390082001686096191e-01 -7.456648349761962891e-01 4.863621592521667480e-01
4.664636850357055664e-01 -6.148881912231445312e-01 3.884134292602539062e-01
4.418589174747467041e-01 -6.843049526214599609e-01 1.190867274999618530e-01
5.885409712791442871e-01 -6.282985210418701172e-01 2.667514681816101074e-01
5.790580511093139648e-01 -7.228131294250488281e-01 1.975128203630447388e-01
5.015231370925903320e-01 -5.807971954345703125e-01 1.087174266576766968e-01
4.972221553325653076e-01 -6.862198710441589355e-01 5.660244822502136230e-01
5.067311525344848633e-01 -7.273724079132080078e-01 -1.105139255523681641e-01
5.912146568298339844e-01 -6.497433185577392578e-01 3.908050656318664551e-01
5.313966274261474609e-01 -7.328028678894042969e-01 -6.959554553031921387e-02
4.942559003829956055e-01 -6.736758351325988770e-01 -1.013368964195251465e-01
4.437372684478759766e-01 -6.625102162361145020e-01 1.765243411064147949e-01
4.408139586448669434e-01 -7.162932753562927246e-01 1.832991242408752441e-01
5.630131959915161133e-01 -7.512456774711608887e-01 3.672851622104644775e-01
5.388284921646118164e-01 -7.195636034011840820e-01 5.482671260833740234e-01
5.856316685676574707e-01 -6.566257476806640625e-01 1.790584325790405273e-01
4.953380823135375977e-01 -7.966145277023315430e-01 4.982316493988037109e-02
4.454238414764404297e-01 -7.165823578834533691e-01 4.347772896289825439e-02
5.041494369506835938e-01 -5.608314275741577148e-01 2.664030194282531738e-01
5.398942232131958008e-01 -5.715467333793640137e-01 1.576735973358154297e-01
4.679775536060333252e-01 -6.921577453613281250e-01 -7.289579510688781738e-02
4.496111273765563965e-01 -6.606193780899047852e-01 3.331411480903625488e-01
4.677720069885253906e-01 -6.054817438125610352e-01 3.586305379867553711e-01
5.324003100395202637e-01 -7.760469913482666016e-01 3.817471265792846680e-01
5.803103446960449219e-01 -6.839123964309692383e-01 4.766094684600830078e-01
4.529282450675964355e-01 -6.298375725746154785e-01 2.605236172676086426e-01
5.857216119766235352e-01 -6.178102493286132812e-01 4.365614950656890869e-01
5.630708932876586914e-01 -7.606122493743896484e-01 2.677792906761169434e-01
5.908235907554626465e-01 -6.652184128761291504e-01 3.869295120239257812e-01
5.111203193664550781e-01 -7.963176965713500977e-01 2.833291590213775635e-01
4.740018248558044434e-01 -7.908524870872497559e-01 2.090684175491333008e-01
5.811231136322021484e-01 -5.967205166816711426e-01 4.091236591339111328e-01
5.218393802642822266e-01 -5.893833041191101074e-01 5.544623732566833496e-01
5.770145654678344727e-01 -7.049119472503662109e-01 1.190634667873382568e-01
4.499837756156921387e-01 -6.827905774116516113e-01 3.551322519779205322e-01
5.498977899551391602e-01 -6.385875344276428223e-01 6.051042675971984863e-01
5.508851408958435059e-01 -7.591814398765563965e-01 5.849643051624298096e-02
4.425999224185943604e-01 -7.127762436866760254e-01 2.458819299936294556e-01
5.624242424964904785e-01 -6.868824958801269531e-01 1.375027000904083252e-02
4.690109789371490479e-01 -7.473933100700378418e-01 3.912100791931152344e-01
4.646159708499908447e-01 -7.741928100585937500e-01 2.659383416175842285e-02
5.288433432579040527e-01 -7.472825050354003906e-01 -5.781492590904235840e-02
5.351723432540893555e-01 -5.904391407966613770e-01 7.191433012485504150e-02
5.105880498886108398e-01 -7.498627305030822754e-01 4.871112704277038574e-01
5.295810103416442871e-01 -7.953651547431945801e-01 2.010107785463333130e-01
5.463192462921142578e-01 -6.470218300819396973e-01 -2.109354734420776367e-02
4.476243257522583008e-01 -6.497010588645935059e-01 2.673585414886474609e-01
5.235546231269836426e-01 -5.564469695091247559e-01 4.106445610523223877e-01
5.110419392585754395e-01 -7.988662123680114746e-01 8.493436872959136963e-02
4.784413278102874756e-01 -6.042402386665344238e-01 4.445483982563018799e-01
5.809178948402404785e-01 -6.916696429252624512e-01 1.388870775699615479e-01
5.505518317222595215e-01 -5.992257595062255859e-01 5.715994238853454590e-01
4.660826027393341064e-01 -6.873325109481811523e-01 4.621089696884155273e-01
4.802821874618530273e-01 -7.163107991218566895e-01 -1.044792532920837402e-01
5.637049674987792969e-01 -7.461665272712707520e-01 1.077632904052734375e-01
5.485621094703674316e-01 -7.154328823089599609e-01 -3.237608075141906738e-02
5.797423124313354492e-01 -7.058894038200378418e-01 1.486000865697860718e-01
4.814851284027099609e-01 -6.691222190856933594e-01 5.302832126617431641e-01
4.429033398628234863e-01 -6.682634949684143066e-01 1.614969670772552490e-01
5.782881975173950195e-01 -6.653398871421813965e-01 1.092614829540252686e-01
5.186022520065307617e-01 -8.005793094635009766e-01 1.689299792051315308e-01
5.417324900627136230e-01 -6.919829845428466797e-01 -6.095078587532043457e-02
5.520790219306945801e-01 -7.708337306976318359e-01 3.182247281074523926e-01
5.668482184410095215e-01 -6.983265280723571777e-01 4.012699425220489502e-02
4.484091997146606445e-01 -7.179808616638183594e-01 3.147102892398834229e-01
4.461472630500793457e-01 -7.314825057983398438e-01 2.572976648807525635e-01
5.582330226898193359e-01 -6.814418435096740723e-01 -4.369169473648071289e-03
5.589609146118164062e-01 -7.118641138076782227e-01 5.234261751174926758e-01
5.668801665306091309e-01 -6.106245517730712891e-01 1.189495325088500977e-01
4.554119110107421875e-01 -7.582951188087463379e-01 2.635871469974517822e-01
5.045338869094848633e-01 -6.022087335586547852e-01 5.470700860023498535e-01
4.836583137512207031e-01 -7.852051854133605957e-01 7.774382829666137695e-04
4.528403282165527344e-01 -6.613057255744934082e-01 3.686266839504241943e-01
5.591952800750732422e-01 -6.022639274597167969e-01 1.052578389644622803e-01
5.270233154296875000e-01 -7.633801698684692383e-01 -3.159829974174499512e-02
5.463178753852844238e-01 -5.818095207214355469e-01 1.282748878002166748e-01
5.140898227691650391e-01 -8.016129136085510254e-01 1.448367238044738770e-01
4.751785993576049805e-01 -7.943655848503112793e-01 1.364192217588424683e-01
5.895261168479919434e-01 -6.880933642387390137e-01 2.823006510734558105e-01
4.623644948005676270e-01 -7.133032679557800293e-01 -6.141594052314758301e-02
4.866966009140014648e-01 -7.711772322654724121e-01 3.832578957080841064e-01
4.405087828636169434e-01 -6.877503395080566406e-01 1.873029917478561401e-01
5.431013703346252441e-01 -7.853063941001892090e-01 2.109300643205642700e-01
5.437116026878356934e-01 -6.885624527931213379e-01 5.886007547378540039e-01
4.780828952789306641e-01 -7.749168276786804199e-01 3.387195169925689697e-01
4.686889350414276123e-01 -7.775675058364868164e-01 2.749962210655212402e-01
4.497554302215576172e-01 -7.320989966392517090e-01 1.633061468601226807e-02
5.358251929283142090e-01 -7.314381599426269531e-01 5.270082354545593262e-01
5.193930268287658691e-01 -5.592232346534729004e-01 4.260826706886291504e-01
4.466657042503356934e-01 -6.674394607543945312e-01 3.052084445953369141e-01
4.577572941780090332e-01 -7.411828041076660156e-01 3.428071737289428711e-01
5.125774145126342773e-01 -7.981799244880676270e-01 2.630606591701507568e-01
5.853303074836730957e-01 -6.079427599906921387e-01 3.984701633453369141e-01
5.859541296958923340e-01 -6.446652412414550781e-01 1.942952871322631836e-01
5.883224010467529297e-01 -6.959161162376403809e-01 2.994887232780456543e-01
5.548695921897888184e-01 -5.611554384231567383e-01 3.106282651424407959e-01
5.461262464523315430e-01 -7.789190411567687988e-01 1.346614956855773926e-01
5.052971839904785156e-01 -7.656916975975036621e-01 4.364960491657257080e-01
4.474190473556518555e-01 -6.521896123886108398e-01 1.328716129064559937e-01
5.695258378982543945e-01 -7.182000875473022461e-01 7.928659021854400635e-02
5.563274621963500977e-01 -7.166568040847778320e-01 5.553364753723144531e-04
4.884215295314788818e-01 -6.047242879867553711e-01 4.000768065452575684e-02
5.810536742210388184e-01 -6.662664413452148438e-01 1.309266686439514160e-01
5.878792405128479004e-01 -6.464815735816955566e-01 4.461847841739654541e-01
4.735448956489562988e-01 -5.929184556007385254e-01 3.449240922927856445e-01
5.761614441871643066e-01 -6.883555054664611816e-01 4.955521225929260254e-01
5.882637500762939453e-01 -6.908329725265502930e-01 2.477150708436965942e-01
5.521652698516845703e-01 -6.703929901123046875e-01 -2.310931682586669922e-02
4.624212980270385742e-01 -6.198540925979614258e-01 1.073272228240966797e-01
5.686984062194824219e-01 -7.207009792327880859e-01 4.608170390129089355e-01
5.754332542419433594e-01 -6.067183613777160645e-01 5.038352608680725098e-01
4.794821739196777344e-01 -5.924673080444335938e-01 1.315138936042785645e-01
5.761729478836059570e-01 -7.351859211921691895e-01 2.976562380790710449e-01
4.825029373168945312e-01 -7.557654380798339844e-01 -7.640010118484497070e-02
4.533689022064208984e-01 -6.517196297645568848e-01 5.933056771755218506e-02
4.686398804187774658e-01 -7.600615024566650391e-01 3.519615232944488525e-01
4.987765550613403320e-01 -6.006451845169067383e-01 5.275573730468750000e-01
5.923580527305603027e-01 -6.525219082832336426e-01 3.289965987205505371e-01
4.652125239372253418e-01 -7.703534364700317383e-01 2.894750535488128662e-01
5.336586236953735352e-01 -7.909935712814331055e-01 1.363787502050399780e-01
5.826985239982604980e-01 -7.044267654418945312e-01 1.831129193305969238e-01
4.785196185111999512e-01 -6.025139689445495605e-01 8.361570537090301514e-02
5.587964653968811035e-01 -7.672113776206970215e-01 2.136289477348327637e-01
4.814923107624053955e-01 -5.859280228614807129e-01 3.850629925727844238e-01
5.422785282135009766e-01 -5.589962601661682129e-01 4.371895790100097656e-01
4.413705170154571533e-01 -7.131335139274597168e-01 2.166288644075393677e-01
5.277269482612609863e-01 -6.760950088500976562e-01 -8.559834957122802734e-02
4.576283097267150879e-01 -7.683851122856140137e-01 5.546972155570983887e-02
5.875947475433349609e-01 -6.193964481353759766e-01 2.852913141250610352e-01
5.914015769958496094e-01 -6.381033658981323242e-01 3.663780391216278076e-01
5.716558098793029785e-01 -7.457268238067626953e-01 2.688361406326293945e-01
5.785016417503356934e-01 -6.364256739616394043e-01 1.382705271244049072e-01
4.804051518440246582e-01 -5.814024806022644043e-01 2.263966202735900879e-01
5.596147775650024414e-01 -6.154326200485229492e-01 5.760071277618408203e-01
