-5.951900035142898560e-02 8.415697515010833740e-02 -4.399821162223815918e-02
1.392565667629241943e-03 5.849121510982513428e-02 -2.972728312015533447e-01
1.530841439962387085e-01 6.232976540923118591e-02 1.378489099442958832e-02
1.306895352900028229e-02 6.796993315219879150e-02 2.743046879768371582e-01
1.139479354023933411e-01 5.862158909440040588e-02 -2.685509026050567627e-01
5.904577672481536865e-03 9.218225628137588501e-02 2.274463921785354614e-01
-1.926492154598236084e-02 6.114099174737930298e-03 1.473240554332733154e-04
8.711742609739303589e-02 7.294137775897979736e-02 2.372336536645889282e-01
3.837972879409790039e-02 1.137090325355529785e-01 -2.417255565524101257e-02
1.272148191928863525e-01 3.463305532932281494e-02 -2.418907582759857178e-01
1.368727684020996094e-01 8.459065109491348267e-02 -3.945236653089523315e-02
-3.604159504175186157e-02 9.330815076828002930e-02 1.442938148975372314e-01
8.978664875030517578e-02 9.218437969684600830e-02 1.808088868856430054e-01
1.406596899032592773e-01 6.944441795349121094e-02 9.140704572200775146e-02
1.189527958631515503e-01 7.751595228910446167e-03 -1.563467457890510559e-02
1.464373916387557983e-01 3.133220970630645752e-02 -1.488944143056869507e-01
4.367015883326530457e-02 2.125818654894828796e-02 2.035703659057617188e-01
5.453597009181976318e-02 1.128259897232055664e-01 5.458218604326248169e-02
1.569691300392150879e-01 4.451486468315124512e-02 -6.452836841344833374e-02
-4.901392012834548950e-02 8.347384631633758545e-02 -1.205115690827369690e-01
-1.238099485635757446e-02 1.027182489633560181e-02 -1.833643168210983276e-01
1.358506083488464355e-01 3.035954385995864868e-02 8.381932973861694336e-02
1.526781171560287476e-02 2.180401235818862915e-03 -1.857223063707351685e-01
-6.592582166194915771e-02 7.919804751873016357e-02 -1.021829899400472641e-02
-7.760126143693923950e-03 2.724830061197280884e-02 1.956203132867813110e-01
1.431489586830139160e-01 2.302945405244827271e-02 -1.173665076494216919e-01
-3.337663412094116211e-02 9.016719460487365723e-02 1.701298952102661133e-01
3.857922554016113281e-02 1.070428341627120972e-01 -1.303954124450683594e-01
-2.888302505016326904e-02 1.078782603144645691e-02 2.062799222767353058e-02
7.931165397167205811e-02 5.786344408988952637e-03 -2.300218343734741211e-01
9.207788109779357910e-02 9.032208472490310669e-02 -2.016493231058120728e-01
-3.836970031261444092e-02 1.395218074321746826e-02 -1.355916168540716171e-02
-1.489768922328948975e-02 1.079953908920288086e-01 6.066980957984924316e-02
1.407418549060821533e-01 3.395453840494155884e-02 -1.913238465785980225e-01
8.465018868446350098e-02 5.295030772686004639e-03 8.239739388227462769e-02
-6.698552519083023071e-02 7.660431414842605591e-02 4.977648705244064331e-02
2.083722501993179321e-03 3.738820552825927734e-02 -2.988441288471221924e-01
-2.230349183082580566e-02 2.273915149271488190e-02 -2.225470691919326782e-01
2.239166386425495148e-02 -3.725118935108184814e-03 -1.160307601094245911e-01
8.257733285427093506e-02 -3.649663180112838745e-03 -4.929784685373306274e-02
4.870588332414627075e-02 -1.355964690446853638e-03 5.346012115478515625e-02
1.529283523559570312e-01 5.832825601100921631e-02 -1.152107641100883484e-01
-5.123127996921539307e-02 8.792367577552795410e-02 1.081639379262924194e-01
1.138825155794620514e-02 1.129786223173141479e-01 -2.395087853074073792e-03
1.241324022412300110e-01 1.968451961874961853e-02 -2.083514183759689331e-01
3.259149193763732910e-02 1.020551025867462158e-01 -1.717138588428497314e-01
3.111497685313224792e-02 9.743008017539978027e-02 2.164652794599533081e-01
4.064739495515823364e-02 1.037418916821479797e-01 -1.598382145166397095e-01
-5.776450037956237793e-02 2.956627681851387024e-02 -8.463206887245178223e-02
2.809486351907253265e-02 -2.735443413257598877e-03 -1.508001089096069336e-01
-3.410980850458145142e-02 7.674703001976013184e-02 2.084563225507736206e-01
1.253205537796020508e-01 1.866727694869041443e-02 6.585008651018142700e-02
2.929956465959548950e-02 2.170187234878540039e-02 2.041174620389938354e-01
4.859210550785064697e-02 9.979897737503051758e-02 1.994579881429672241e-01
-6.665296107530593872e-02 4.695991054177284241e-02 7.643078267574310303e-02
1.323154270648956299e-01 3.665249794721603394e-02 1.195469498634338379e-01
1.445118784904479980e-01 6.708091497421264648e-02 7.500758767127990723e-02
9.625799953937530518e-02 4.092145711183547974e-03 4.370434582233428955e-02
6.051198393106460571e-02 1.112591177225112915e-01 7.775441557168960571e-02
-4.017614573240280151e-02 4.198993742465972900e-02 1.790039986371994019e-01
-4.367869347333908081e-02 2.678948268294334412e-02 1.041792929172515869e-01
1.525151729583740234e-01 4.581604152917861938e-02 -1.368532776832580566e-01
-4.501122981309890747e-03 9.724372625350952148e-02 -1.678305715322494507e-01
6.242867559194564819e-02 2.373225800693035126e-02 2.060381323099136353e-01
6.343281269073486328e-02 1.028506308794021606e-01 1.665216684341430664e-01
8.798316121101379395e-02 -6.516389548778533936e-04 -1.524067074060440063e-01
1.140311136841773987e-01 5.725553259253501892e-02 1.971874237060546875e-01
8.492758870124816895e-02 5.779239162802696228e-02 -3.095056116580963135e-01
1.577595062553882599e-02 9.860628098249435425e-02 -1.850843280553817749e-01
5.457096919417381287e-02 -1.815617084503173828e-03 -1.826596558094024658e-01
-4.699042439460754395e-02 1.961414888501167297e-02 -7.431609928607940674e-02
1.217047348618507385e-01 2.565099485218524933e-02 1.165066063404083252e-01
9.648349881172180176e-02 7.441662997007369995e-02 -2.618942260742187500e-01
5.927049368619918823e-02 1.128308922052383423e-01 2.427457086741924286e-02
4.008044302463531494e-02 1.074335202574729919e-01 1.525000780820846558e-01
-1.321772113442420959e-02 6.068136543035507202e-03 -1.379728317260742188e-01
-3.449748456478118896e-02 1.507402211427688599e-02 -1.267557144165039062e-01
3.640007227659225464e-02 5.330931395292282104e-03 1.157684624195098877e-01
9.548006206750869751e-02 1.336444914340972900e-02 1.193962246179580688e-01
3.226266056299209595e-02 1.140224039554595947e-01 -1.176423765718936920e-02
1.176513731479644775e-03 1.093262061476707458e-01 -6.186023354530334473e-02
-1.294863224029541016e-02 6.167132407426834106e-03 3.990779817104339600e-02
-2.602288126945495605e-02 9.876723587512969971e-02 -1.024689227342605591e-01
8.802931010723114014e-02 5.527968332171440125e-02 2.428430765867233276e-01
1.496511101722717285e-01 5.507920309901237488e-02 6.147702038288116455e-02
1.457553505897521973e-01 3.185885399580001831e-02 3.487510979175567627e-02
7.774235308170318604e-02 9.950995445251464844e-04 5.290640890598297119e-02
6.878899037837982178e-02 -1.041069626808166504e-04 -1.934846043586730957e-01
8.391203731298446655e-02 1.815074309706687927e-02 1.630753129720687866e-01
-4.849609732627868652e-02 2.055812999606132507e-02 4.025414586067199707e-03
-4.078324139118194580e-02 9.908694773912429810e-02 2.924662269651889801e-02
1.234722957015037537e-01 5.739741027355194092e-02 1.730269193649291992e-01
1.573264598846435547e-01 5.258902534842491150e-02 -4.193735122680664062e-02
1.162033677101135254e-01 9.022797644138336182e-02 -1.365734040737152100e-01
-3.194536268711090088e-02 9.931172430515289307e-02 -7.082508504390716553e-02
-6.878530234098434448e-02 6.510071456432342529e-02 8.172740787267684937e-02
1.085266545414924622e-01 3.590745478868484497e-02 1.827200204133987427e-01
6.752750277519226074e-02 1.116123646497726440e-01 -9.020259603857994080e-03
7.524799555540084839e-03 9.742982685565948486e-03 -2.274205237627029419e-01
8.194829523563385010e-02 1.083406433463096619e-01 4.873616248369216919e-02
3.143223375082015991e-02 1.143351569771766663e-01 1.857957057654857635e-02
-6.194341182708740234e-02 5.560060217976570129e-02 -1.377451717853546143e-01
-4.803999513387680054e-02 3.878397867083549500e-02 -1.855900883674621582e-01
9.628672152757644653e-02 -1.023042947053909302e-03 -5.655831098556518555e-02
2.756371721625328064e-02 9.033125638961791992e-02 2.425302416086196899e-01
5.720648914575576782e-02 1.108369529247283936e-01 9.394436329603195190e-02
5.607056245207786560e-02 2.905420958995819092e-03 9.434463828802108765e-02
-6.756035238504409790e-02 7.733555138111114502e-02 5.483450368046760559e-03
-2.419296652078628540e-02 1.042263209819793701e-01 8.484576642513275146e-02
7.780848443508148193e-02 1.024769097566604614e-01 -1.384596079587936401e-01
1.490824222564697266e-01 4.543004557490348816e-02 -1.619740128517150879e-01
1.087230071425437927e-01 6.280425935983657837e-03 2.364244870841503143e-02
1.285891607403755188e-02 8.322030305862426758e-03 1.209223121404647827e-01
5.628643557429313660e-02 2.094705402851104736e-02 -3.033589422702789307e-01
-3.747186809778213501e-02 1.006177365779876709e-01 9.858755394816398621e-03
5.602551996707916260e-02 9.146136045455932617e-02 -2.323790341615676880e-01
2.493203803896903992e-02 1.161602884531021118e-02 1.531407684087753296e-01
6.124290078878402710e-02 1.064049899578094482e-01 -1.240904629230499268e-01
1.267716139554977417e-01 1.414562761783599854e-02 2.011001668870449066e-02
6.007574498653411865e-02 -6.080120801925659180e-03 -8.706897497177124023e-02
-4.671469330787658691e-02 7.583668082952499390e-02 1.758580505847930908e-01
-5.911037325859069824e-03 7.939532399177551270e-03 8.398006856441497803e-02
2.811461687088012695e-03 1.078452840447425842e-01 1.279590576887130737e-01
4.337371140718460083e-02 -5.011085420846939087e-03 -1.302136033773422241e-01
9.908983111381530762e-02 2.482173033058643341e-02 1.670880466699600220e-01
5.114156752824783325e-03 7.017715275287628174e-02 -2.835436165332794189e-01
1.001292169094085693e-01 8.071584254503250122e-02 1.995293647050857544e-01
4.903995245695114136e-02 9.478665888309478760e-02 2.220857739448547363e-01
8.491723984479904175e-02 1.232603564858436584e-02 -2.588477432727813721e-01
1.230931133031845093e-01 3.727519139647483826e-02 -2.560082972049713135e-01
5.511804297566413879e-02 1.860148087143898010e-02 1.895985007286071777e-01
-2.628995478153228760e-02 8.945655077695846558e-02 -1.668810695409774780e-01
9.035567194223403931e-02 1.044567301869392395e-01 -7.847712934017181396e-02
-2.420313656330108643e-02 6.463384628295898438e-02 -2.500878274440765381e-01
4.307809472084045410e-02 -6.125185638666152954e-03 -4.854138195514678955e-02
-1.507634669542312622e-02 4.596140235662460327e-02 -2.787100374698638916e-01
1.009346991777420044e-01 3.757774829864501953e-04 -1.049041971564292908e-01
9.750403463840484619e-02 1.011783778667449951e-01 9.326071292161941528e-02
3.010343015193939209e-02 1.109522432088851929e-01 1.165686398744583130e-01
-4.730598628520965576e-02 9.442822635173797607e-02 -2.687960490584373474e-02
-3.583108633756637573e-02 9.007206559181213379e-02 -1.344573348760604858e-01
1.467711292207241058e-02 1.086392998695373535e-01 -9.850022941827774048e-02
7.999455928802490234e-02 1.054522395133972168e-02 1.276300400495529175e-01
-1.324809342622756958e-02 5.072046071290969849e-03 2.050506137311458588e-02
4.646885767579078674e-02 5.790684372186660767e-03 -2.429641634225845337e-01
1.361974924802780151e-01 1.991287246346473694e-02 -1.508847922086715698e-01
-2.253217250108718872e-02 1.017908006906509399e-01 -8.413563668727874756e-02
-2.731234580278396606e-02 1.236815005540847778e-02 5.362597107887268066e-02
1.195559650659561157e-01 8.943154662847518921e-02 9.991174936294555664e-02
-3.086750954389572144e-02 8.338864147663116455e-02 -1.837372779846191406e-01
8.789986371994018555e-03 1.371904835104942322e-02 -2.496338039636611938e-01
-3.307822346687316895e-02 1.115672290325164795e-02 -6.589239835739135742e-02
-6.315106153488159180e-02 5.779843404889106750e-02 1.218031793832778931e-01
1.511825770139694214e-01 6.420582532882690430e-02 2.905189059674739838e-02
5.954760313034057617e-02 1.102752760052680969e-01 -7.494229078292846680e-02
5.459371954202651978e-03 1.110810339450836182e-01 -4.077705368399620056e-02
1.112914904952049255e-01 7.410652935504913330e-02 -2.366622984409332275e-01
-2.330872416496276855e-02 1.061075404286384583e-01 2.192307077348232269e-02
9.180714190006256104e-02 1.061439216136932373e-01 3.150473535060882568e-02
8.702066540718078613e-02 8.173608779907226562e-02 -2.493369281291961670e-01
3.442664071917533875e-02 7.324088364839553833e-02 -2.961246669292449951e-01
7.191026955842971802e-02 9.033313393592834473e-02 -2.278183102607727051e-01
8.931903541088104248e-02 2.360168099403381348e-02 1.783332079648971558e-01
1.259444952011108398e-01 1.534432172775268555e-02 -1.747564077377319336e-01
8.925020694732666016e-02 2.336809225380420685e-02 -2.905930578708648682e-01
-4.141049087047576904e-02 5.284153670072555542e-02 1.964745670557022095e-01
2.998997271060943604e-02 -5.403421819210052490e-03 -8.047930151224136353e-02
7.965064048767089844e-02 -2.156578004360198975e-03 4.688391461968421936e-03
1.514808982610702515e-01 6.510971486568450928e-02 -9.619009494781494141e-02
1.471086032688617706e-02 9.239141643047332764e-02 -2.186222821474075317e-01
-4.588957875967025757e-03 1.055072247982025146e-01 -9.856799244880676270e-02
2.996020577847957611e-02 -4.840988665819168091e-03 -2.288270741701126099e-02
6.156471744179725647e-02 8.181588351726531982e-02 2.511823773384094238e-01
5.367276072502136230e-02 6.785301864147186279e-02 -3.093031346797943115e-01
6.307688355445861816e-02 1.087072566151618958e-01 1.128032505512237549e-01
-7.039746642112731934e-02 4.683785513043403625e-02 3.297106921672821045e-02
-6.714890152215957642e-02 7.332339137792587280e-02 -5.617941170930862427e-02
1.159003004431724548e-02 8.844701200723648071e-02 2.428994923830032349e-01
-5.333814769983291626e-02 3.152392804622650146e-02 -1.354839354753494263e-01
1.246670037508010864e-01 8.351285755634307861e-02 1.133605986833572388e-01
4.477016627788543701e-02 1.399825513362884521e-02 -2.810365855693817139e-01
-6.478442996740341187e-02 4.977985471487045288e-02 -1.180956810712814331e-01
3.184193745255470276e-02 8.538351953029632568e-02 2.557862102985382080e-01
2.701573818922042847e-02 -1.334622502326965332e-03 -1.685952544212341309e-01
4.643655940890312195e-02 1.014051362872123718e-01 -1.768275648355484009e-01
1.115705296397209167e-01 2.956165932118892670e-02 1.582078635692596436e-01
7.383254170417785645e-02 6.703144311904907227e-02 2.587368190288543701e-01
1.220806837081909180e-01 5.110278353095054626e-02 -2.596998810768127441e-01
1.019929721951484680e-02 -2.506881952285766602e-03 -3.435184806585311890e-02
-6.040783971548080444e-02 3.209243714809417725e-02 3.317923843860626221e-02
1.232431679964065552e-01 9.374156594276428223e-02 -1.679541170597076416e-02
7.071623206138610840e-02 6.081610918045043945e-03 1.083522439002990723e-01
3.237089514732360840e-02 -1.420207321643829346e-03 4.705492407083511353e-02
1.007444709539413452e-01 5.472041666507720947e-04 -3.691634535789489746e-02
-7.079660147428512573e-02 4.509380459785461426e-02 2.725079655647277832e-03
5.999975651502609253e-02 -6.142683327198028564e-03 -6.640859693288803101e-02
8.130533993244171143e-02 9.180797636508941650e-02 1.984413415193557739e-01
1.200582832098007202e-01 7.376582920551300049e-02 1.652057021856307983e-01
7.768389582633972168e-02 8.948723971843719482e-02 2.128619402647018433e-01
3.237135708332061768e-03 3.731171414256095886e-02 2.385451346635818481e-01
6.589181721210479736e-02 1.001824513077735901e-01 1.803902983665466309e-01
-6.976203620433807373e-02 7.325670123100280762e-02 2.600510977208614349e-02
-6.886323541402816772e-02 4.213864356279373169e-02 1.822174526751041412e-02
7.502134889364242554e-02 2.795014530420303345e-03 -2.132023572921752930e-01
1.425255835056304932e-01 5.177597701549530029e-02 1.024660468101501465e-01
-4.053580015897750854e-02 3.153711557388305664e-02 -1.955123096704483032e-01
1.403323709964752197e-01 7.089883089065551758e-02 -1.514698415994644165e-01
4.615149646997451782e-02 1.049828231334686279e-01 1.688767522573471069e-01
9.954329580068588257e-02 5.457672476768493652e-02 2.251717597246170044e-01
6.148005276918411255e-02 7.947313785552978516e-02 -2.776574790477752686e-01
7.545545697212219238e-02 1.073467880487442017e-01 9.871281683444976807e-02
1.015117540955543518e-01 4.432771354913711548e-02 2.120416611433029175e-01
7.302474975585937500e-02 -5.031593143939971924e-03 -9.300693869590759277e-02
8.728691935539245605e-02 4.456651210784912109e-02 2.337704449892044067e-01
1.161496862769126892e-01 8.373372256755828857e-02 1.462410986423492432e-01
3.856318444013595581e-02 1.117641627788543701e-01 -7.002025097608566284e-02
-6.693374365568161011e-02 3.903168812394142151e-02 -5.259831249713897705e-02
9.889508783817291260e-02 8.100166916847229004e-03 -2.133786678314208984e-01
-7.181019335985183716e-02 6.075550988316535950e-02 5.224303156137466431e-02
7.391159236431121826e-02 -4.622761160135269165e-03 -3.850601986050605774e-02
3.340612351894378662e-02 4.374052211642265320e-02 -3.277657628059387207e-01
1.960131712257862091e-02 9.349249303340911865e-03 1.350456774234771729e-01
-3.035826981067657471e-02 8.863702416419982910e-02 1.847838908433914185e-01
-5.500358343124389648e-02 2.541913650929927826e-02 -6.196057796478271484e-02
2.702099084854125977e-02 7.631082832813262939e-02 2.714699506759643555e-01
6.636604666709899902e-02 1.001805290579795837e-01 -1.736448109149932861e-01
3.484539687633514404e-02 3.781989216804504395e-04 -1.967307031154632568e-01
-3.955426067113876343e-02 4.880598187446594238e-02 -2.247607856988906860e-01
1.077098622918128967e-01 9.703402221202850342e-02 -1.045513451099395752e-01
1.043003797531127930e-01 1.971732079982757568e-02 1.351328939199447632e-01
2.278672158718109131e-02 1.106591150164604187e-01 -8.086646348237991333e-02
1.485156640410423279e-02 1.060153394937515259e-01 1.603000760078430176e-01
-1.211918890476226807e-02 6.349977850914001465e-02 2.548141479492187500e-01
-9.956985712051391602e-03 2.151809632778167725e-03 -4.065723717212677002e-02
-4.828566312789916992e-02 2.395768463611602783e-02 5.643929541110992432e-02
1.335702687501907349e-01 1.656324788928031921e-02 -1.054702326655387878e-03
1.372353434562683105e-01 2.519007585942745209e-02 -1.781827062368392944e-01
2.982078865170478821e-02 -5.057863891124725342e-03 -1.006265059113502502e-01
5.497298762202262878e-02 4.701008647680282593e-02 2.646534442901611328e-01
1.114309206604957581e-01 9.540800005197525024e-02 8.879132568836212158e-02
-4.687990993261337280e-02 9.259262681007385254e-02 9.551890939474105835e-02
4.486595839262008667e-02 1.125919520854949951e-01 -5.040589720010757446e-02
6.095122545957565308e-02 1.119330674409866333e-01 -3.413709998130798340e-02
1.100363358855247498e-01 4.880883544683456421e-02 -2.851962447166442871e-01
6.537067145109176636e-02 7.425329834222793579e-02 -2.911465167999267578e-01
5.364042520523071289e-02 -6.088480353355407715e-03 -9.938976913690567017e-02
1.184876821935176849e-02 1.076751425862312317e-01 1.426619142293930054e-01
3.229897469282150269e-02 -4.560396075248718262e-03 -8.886998519301414490e-03
1.016222611069679260e-01 8.443205058574676514e-02 -2.145100980997085571e-01
-1.298185810446739197e-02 1.243178918957710266e-02 -1.968345195055007935e-01
-2.369342744350433350e-02 9.474850445985794067e-02 -1.419235467910766602e-01
-1.966414973139762878e-02 9.571053087711334229e-02 1.770425587892532349e-01
-2.080944925546646118e-02 3.045246191322803497e-02 -2.491673678159713745e-01
1.193963885307312012e-01 2.723767422139644623e-02 1.298836469650268555e-01
1.349721103906631470e-02 7.789466530084609985e-02 -2.723980844020843506e-01
-1.695577427744865417e-02 8.972354233264923096e-02 2.084208726882934570e-01
6.406550109386444092e-02 5.054107680916786194e-02 -3.280425369739532471e-01
1.619479060173034668e-02 1.271121203899383545e-03 6.003944575786590576e-02
2.119934745132923126e-02 5.947411060333251953e-03 -2.249236702919006348e-01
-7.290877401828765869e-03 4.443297535181045532e-02 -2.906846404075622559e-01
3.114714473485946655e-02 9.882030636072158813e-02 -1.930805593729019165e-01
1.350740194320678711e-01 8.616758882999420166e-02 -1.834697462618350983e-02
-2.473413199186325073e-02 4.638385400176048279e-02 2.220247685909271240e-01
1.079609841108322144e-01 8.655934780836105347e-02 1.602497398853302002e-01
9.701615571975708008e-02 1.462526619434356689e-02 -2.522050440311431885e-01
-2.055067941546440125e-02 6.020091474056243896e-03 -8.071520924568176270e-02
-1.179382205009460449e-03 -2.828314900398254395e-04 -6.374900043010711670e-02
-5.553144961595535278e-02 8.886606991291046143e-02 5.919554829597473145e-02
-4.660500586032867432e-02 2.330437488853931427e-02 -1.251911818981170654e-01
-1.757609471678733826e-02 1.076746881008148193e-01 4.950957372784614563e-03
-9.720597416162490845e-03 9.086381644010543823e-02 -1.950929909944534302e-01
1.082301661372184753e-01 5.501594394445419312e-03 -1.614346206188201904e-01
1.238305941224098206e-01 7.349328696727752686e-02 -2.069462239742279053e-01
-4.297583550214767456e-02 6.010138615965843201e-02 -2.101567536592483521e-01
-4.886054247617721558e-02 3.184571117162704468e-02 -1.615669131278991699e-01
-5.821201205253601074e-02 8.773302286863327026e-02 8.573522791266441345e-03
4.768875241279602051e-02 1.087904125452041626e-01 1.342389285564422607e-01
8.487427234649658203e-02 -2.547949552536010742e-04 -1.667867004871368408e-01
1.487714648246765137e-01 7.190480083227157593e-02 2.155555412173271179e-03
7.561416923999786377e-02 -4.856228828430175781e-03 -7.532367110252380371e-02
7.013037800788879395e-02 -4.111986607313156128e-03 -1.350951790809631348e-01
5.540240556001663208e-02 1.062553003430366516e-01 1.503289341926574707e-01
9.144201874732971191e-02 1.012289822101593018e-01 1.168144047260284424e-01
-7.438331842422485352e-03 1.097572967410087585e-01 -1.353153027594089508e-02
5.371613055467605591e-02 5.106810480356216431e-03 1.132261306047439575e-01
4.956556111574172974e-02 -5.364917218685150146e-03 -1.496137212961912155e-02
-5.838320404291152954e-02 2.814058959484100342e-02 -2.158271148800849915e-03
2.717180363833904266e-02 1.128445267677307129e-01 -4.518707096576690674e-02
1.356700658798217773e-01 2.154495194554328918e-02 3.386791795492172241e-02
9.462085366249084473e-02 8.378382772207260132e-02 -2.301134914159774780e-01
-7.334282249212265015e-02 5.497299507260322571e-02 1.213595457375049591e-02
-3.728044033050537109e-02 6.347363442182540894e-02 2.126499712467193604e-01
8.500278741121292114e-02 9.437857568264007568e-02 -1.891180574893951416e-01
1.143228709697723389e-01 8.889558911323547363e-02 1.268960386514663696e-01
4.190793633460998535e-02 9.706069529056549072e-02 -2.054682672023773193e-01
-2.883610874414443970e-02 2.071859687566757202e-02 1.198587566614151001e-01
2.237110212445259094e-02 5.080248415470123291e-02 2.720417678356170654e-01
3.775521367788314819e-02 5.829299613833427429e-02 2.787146270275115967e-01
1.131521761417388916e-01 2.729947865009307861e-02 -2.626747786998748779e-01
1.004113480448722839e-01 9.379643201828002930e-02 -1.608498394489288330e-01
-5.053928494453430176e-02 9.035755693912506104e-02 -5.713209509849548340e-02
-5.778393894433975220e-02 6.930427998304367065e-02 1.444349735975265503e-01
-2.971331775188446045e-02 9.992750734090805054e-02 1.152608543634414673e-01
-1.598547771573066711e-02 4.050549119710922241e-03 -6.216761469841003418e-02
1.116066053509712219e-01 3.399040549993515015e-03 -6.784113496541976929e-02
2.704265899956226349e-02 3.403213620185852051e-02 2.433914989233016968e-01
1.115086600184440613e-01 7.436709105968475342e-02 1.877540051937103271e-01
2.326264604926109314e-02 1.014972925186157227e-01 1.951063573360443115e-01
-6.165180355310440063e-03 1.340728253126144409e-03 -2.454838529229164124e-02
-5.296033620834350586e-02 9.182199835777282715e-02 2.966946549713611603e-02
1.355776786804199219e-01 7.198768109083175659e-02 1.102939546108245850e-01
1.296771317720413208e-02 4.874284565448760986e-02 -3.146241903305053711e-01
-5.080938339233398438e-02 5.850711837410926819e-02 1.743141412734985352e-01
1.498376727104187012e-01 5.545924603939056396e-02 -1.486992388963699341e-01
-4.416961967945098877e-02 9.710355103015899658e-02 -1.484006643295288086e-03
-2.908074855804443359e-02 4.222392290830612183e-02 2.054519355297088623e-01
1.034033298492431641e-01 1.026897728443145752e-01 -1.785458996891975403e-03
9.650431573390960693e-02 -1.093663275241851807e-03 -7.028979808092117310e-02
1.261507868766784668e-01 9.106878936290740967e-02 3.127238899469375610e-02
1.416243016719818115e-01 2.120270207524299622e-02 -2.281066030263900757e-02
-5.736733973026275635e-02 8.554010093212127686e-02 8.098120242357254028e-02
6.029315665364265442e-02 4.930227994918823242e-03 -2.376188337802886963e-01
8.373244106769561768e-02 -2.466760575771331787e-03 -1.326039731502532959e-01
7.590618729591369629e-02 5.246698856353759766e-03 9.569835662841796875e-02
2.085264772176742554e-03 1.276521757245063782e-02 1.372646391391754150e-01
3.488637879490852356e-02 4.031351581215858459e-02 2.584259808063507080e-01
-3.425316512584686279e-02 1.655042171478271484e-02 -1.430745124816894531e-01
4.687336832284927368e-02 1.129611730575561523e-01 7.040184736251831055e-02
3.596987575292587280e-03 3.146622329950332642e-02 2.229590415954589844e-01
3.196555376052856445e-02 1.058050394058227539e-01 1.678483337163925171e-01
8.357060700654983521e-02 6.575817614793777466e-02 -2.981957495212554932e-01
-4.247391223907470703e-02 9.289824962615966797e-02 1.192817687988281250e-01
-3.832578659057617188e-02 2.099454775452613831e-02 8.622416108846664429e-02
1.456480026245117188e-01 7.021891325712203979e-02 5.399496108293533325e-02
1.344948410987854004e-01 8.245500922203063965e-02 6.190136075019836426e-02
-2.161972224712371826e-02 1.531602814793586731e-02 1.037103086709976196e-01
9.360004961490631104e-02 2.897046133875846863e-02 1.903839260339736938e-01
-3.302762657403945923e-02 2.679436281323432922e-02 1.420090943574905396e-01
-4.980667680501937866e-02 5.825394392013549805e-02 -1.895890831947326660e-01
-5.200367420911788940e-02 6.460658460855484009e-02 -1.732464432716369629e-01
-6.178574264049530029e-02 3.137524425983428955e-02 -3.817837685346603394e-02
1.392842531204223633e-01 4.335625469684600830e-02 -2.097717821598052979e-01
-1.030978187918663025e-02 1.016794294118881226e-01 1.589712351560592651e-01
8.228459209203720093e-02 -2.824258059263229370e-03 -1.857040822505950928e-02
1.903450861573219299e-02 1.138257533311843872e-01 3.019472770392894745e-02
1.584304310381412506e-02 2.131497114896774292e-02 -2.854062318801879883e-01
5.772792547941207886e-02 9.543169289827346802e-03 1.417183429002761841e-01
5.016361922025680542e-02 -2.582285553216934204e-03 3.713819384574890137e-02
1.455919630825519562e-02 1.512116938829421997e-02 1.655407249927520752e-01
-1.495049893856048584e-02 9.157080203294754028e-03 6.923169642686843872e-02
2.611651644110679626e-02 1.139211356639862061e-01 4.992803186178207397e-02
9.881870448589324951e-02 9.687550365924835205e-02 1.293244659900665283e-01
1.365079283714294434e-01 8.389562368392944336e-02 2.340268902480602264e-02
1.445699632167816162e-01 7.651593536138534546e-02 -7.060667127370834351e-02
-1.971974968910217285e-02 5.639382451772689819e-02 -2.680441141128540039e-01
7.277932763099670410e-02 2.663983218371868134e-02 -3.104771375656127930e-01
1.151216030120849609e-01 9.515935182571411133e-02 -8.779770135879516602e-02
1.854971051216125488e-04 3.631468862295150757e-03 5.289676785469055176e-02
-4.379887133836746216e-02 7.103864848613739014e-02 -1.879826933145523071e-01
1.341752111911773682e-01 1.461850106716156006e-02 -9.446639567613601685e-02
6.910961866378784180e-02 8.469056338071823120e-02 -2.549630701541900635e-01
4.506525397300720215e-02 1.110566109418869019e-01 1.087641119956970215e-01
-7.279261201620101929e-02 6.440282613039016724e-02 -1.836422085762023926e-02
7.895591855049133301e-02 1.091261878609657288e-01 -3.132144734263420105e-02
3.098509274423122406e-02 8.105431497097015381e-02 -2.732084095478057861e-01
8.007375895977020264e-02 3.086231462657451630e-02 2.136306613683700562e-01
7.526826113462448120e-03 2.547051385045051575e-02 2.061419188976287842e-01
2.295283600687980652e-02 -2.732336521148681641e-03 1.291124336421489716e-02
-1.796297729015350342e-03 3.313235938549041748e-04 -9.303063899278640747e-02
3.143782913684844971e-02 5.962140858173370361e-04 7.047542184591293335e-02
-6.700047105550765991e-02 4.331657290458679199e-02 5.553981661796569824e-02
-1.613062992691993713e-02 4.937554895877838135e-02 2.400221377611160278e-01
8.908870071172714233e-02 1.450339332222938538e-02 1.372857391834259033e-01
-1.219466328620910645e-03 1.052788496017456055e-01 1.467928141355514526e-01
5.619092658162117004e-02 9.901856631040573120e-02 -1.895405352115631104e-01
-5.821043252944946289e-02 5.028726160526275635e-02 -1.564082056283950806e-01
1.015858054161071777e-01 5.254172161221504211e-02 -2.959561645984649658e-01
1.276076138019561768e-01 8.611556887626647949e-02 -1.166074126958847046e-01
-5.561276525259017944e-02 8.279518783092498779e-02 -8.868195861577987671e-02
3.978498280048370361e-03 7.457762956619262695e-02 2.641162276268005371e-01
-1.010406762361526489e-02 1.085417121648788452e-01 7.810249924659729004e-02
2.385918982326984406e-02 8.513372391462326050e-03 -2.433412820100784302e-01
-1.720817014575004578e-02 2.772500552237033844e-02 1.824782788753509521e-01
1.138126999139785767e-01 7.832734286785125732e-02 -2.148673981428146362e-01
9.374354034662246704e-02 3.504145890474319458e-03 -1.878187507390975952e-01
-6.713129580020904541e-02 6.432911008596420288e-02 -9.350515156984329224e-02
-5.219297856092453003e-02 9.182050079107284546e-02 -1.399269793182611465e-02
1.292500793933868408e-01 6.177056580781936646e-02 -2.257235497236251831e-01
1.697074621915817261e-02 -1.626942306756973267e-03 -1.423454880714416504e-01
1.344559192657470703e-01 6.067837029695510864e-02 1.355591118335723877e-01
-3.969663381576538086e-02 9.439780563116073608e-02 -8.448754996061325073e-02
3.595709800720214844e-03 6.310168653726577759e-03 -1.964829713106155396e-01
-3.102862089872360229e-02 1.536632701754570007e-02 6.878349930047988892e-02
1.527434736490249634e-01 4.692854359745979309e-02 3.309047222137451172e-02
1.472570002079010010e-01 7.256819307804107666e-02 -8.354901522397994995e-02
1.309235692024230957e-01 1.321589574217796326e-02 -1.133657544851303101e-01
1.048573106527328491e-01 1.068944856524467468e-02 7.935810089111328125e-02
2.200293168425559998e-02 7.331870496273040771e-02 -2.903650999069213867e-01
1.433142721652984619e-01 2.137794718146324158e-02 -6.162805855274200439e-02
-5.779699236154556274e-02 3.867442160844802856e-02 1.005561500787734985e-01
1.321374624967575073e-02 -2.805724740028381348e-03 -9.895884245634078979e-02
8.539445698261260986e-03 1.121094524860382080e-01 6.882111728191375732e-02
1.178602501749992371e-02 -2.858180552721023560e-03 -8.415632694959640503e-02
1.126819625496864319e-01 4.170510917901992798e-03 -4.364882409572601318e-02
-3.946280479431152344e-02 2.791620790958404541e-02 1.272516548633575439e-01
1.265859901905059814e-01 1.247960329055786133e-02 -1.431613862514495850e-01
4.320719093084335327e-02 5.416677147150039673e-02 -3.275032639503479004e-01
-3.256728500127792358e-02 1.002629399299621582e-01 -5.420094355940818787e-02
-2.923626452684402466e-02 3.528144955635070801e-02 1.859536617994308472e-01
-8.940435945987701416e-03 7.617899775505065918e-02 -2.515778839588165283e-01
6.095539778470993042e-02 1.087994873523712158e-01 -9.534118324518203735e-02
3.611822798848152161e-02 1.094037145376205444e-01 -1.042395830154418945e-01
9.319417178630828857e-03 1.097208708524703979e-01 1.158224940299987793e-01
-3.530255705118179321e-02 3.376815840601921082e-02 1.660462170839309692e-01
-4.706232249736785889e-02 8.454297482967376709e-02 1.480953991413116455e-01
7.051987946033477783e-02 1.112626791000366211e-01 1.098379679024219513e-02
-5.206651985645294189e-04 8.059076964855194092e-02 2.520340085029602051e-01
-3.128420114517211914e-01 1.463906466960906982e-01 -3.442995995283126831e-02
-3.345144987106323242e-01 1.908921003341674805e-01 1.001406684517860413e-01
-2.649351954460144043e-01 2.834264636039733887e-01 2.659602761268615723e-01
-3.350604474544525146e-01 1.977017819881439209e-01 -1.138224825263023376e-02
-2.198622226715087891e-01 1.599152088165283203e-01 2.441936731338500977e-01
-2.405310720205307007e-01 2.961708009243011475e-01 2.494156807661056519e-01
-1.610416322946548462e-01 2.426612377166748047e-01 1.612235009670257568e-01
-2.007096409797668457e-01 3.155787289142608643e-01 3.705293685197830200e-02
-3.117753267288208008e-01 1.971173137426376343e-01 -1.611930131912231445e-01
-3.144549429416656494e-01 1.954145729541778564e-01 2.392551302909851074e-01
-2.023946344852447510e-01 2.343091815710067749e-01 3.097931146621704102e-01
-3.327075541019439697e-01 2.074653655290603638e-01 1.371437609195709229e-01
-3.110806643962860107e-01 2.469426840543746948e-01 2.247030287981033325e-01
-2.019653171300888062e-01 1.559350043535232544e-01 -1.111087501049041748e-01
-2.370443642139434814e-01 3.207349479198455811e-01 5.270136892795562744e-02
-1.676189005374908447e-01 1.961988657712936401e-01 -7.352081686258316040e-02
-2.159036695957183838e-01 3.197677135467529297e-01 3.200301155447959900e-02
-2.486381977796554565e-01 1.834541708230972290e-01 -2.419403940439224243e-01
-2.413901686668395996e-01 3.137985467910766602e-01 1.600712239742279053e-01
-1.962040960788726807e-01 2.975857257843017578e-01 1.996047049760818481e-01
-2.733751237392425537e-01 1.279487013816833496e-01 -6.537389755249023438e-02
-2.130808234214782715e-01 2.380299866199493408e-01 3.250645995140075684e-01
-3.031760454177856445e-01 2.590220272541046143e-01 2.309943586587905884e-01
-1.752744615077972412e-01 2.916381955146789551e-01 1.332213580608367920e-01
-1.760713458061218262e-01 2.697929441928863525e-01 -1.237086951732635498e-01
-2.166421264410018921e-01 1.657291948795318604e-01 -1.844877451658248901e-01
-1.978701651096343994e-01 1.459041535854339600e-01 6.120733916759490967e-03
-1.677265167236328125e-01 2.318505942821502686e-01 2.024797499179840088e-01
-2.111839652061462402e-01 1.374654769897460938e-01 -1.934161782264709473e-02
-3.274930417537689209e-01 1.933873146772384644e-01 -8.348278701305389404e-02
-2.444181740283966064e-01 2.312705814838409424e-01 3.456750512123107910e-01
-1.535547375679016113e-01 2.438613176345825195e-01 5.969012156128883362e-02
-1.559045612812042236e-01 2.178415358066558838e-01 7.612887024879455566e-02
-2.632942497730255127e-01 1.300104856491088867e-01 -8.989845216274261475e-02
-2.972455024719238281e-01 1.604525297880172729e-01 2.339049875736236572e-01
-2.833999395370483398e-01 1.642263978719711304e-01 2.683985829353332520e-01
-2.642985582351684570e-01 3.134250938892364502e-01 2.693558111786842346e-02
-1.787931025028228760e-01 2.758959233760833740e-01 2.092022895812988281e-01
-3.216935396194458008e-01 1.792806982994079590e-01 1.873601526021957397e-01
-1.854553222656250000e-01 2.234536707401275635e-01 2.686185836791992188e-01
-3.005938529968261719e-01 2.891642451286315918e-01 5.437007173895835876e-02
-1.935159862041473389e-01 3.101036846637725830e-01 1.069692522287368774e-01
-1.596748232841491699e-01 2.504569292068481445e-01 1.446872204542160034e-01
-1.591342389583587646e-01 2.704383730888366699e-01 7.491843402385711670e-02
-2.626313269138336182e-01 1.692066788673400879e-01 -2.190276831388473511e-01
-2.089143544435501099e-01 1.545346975326538086e-01 -1.299117058515548706e-01
-3.064752817153930664e-01 2.421267032623291016e-01 2.509862780570983887e-01
-3.000531792640686035e-01 1.994787156581878662e-01 -1.966485828161239624e-01
-3.104339241981506348e-01 2.780454456806182861e-01 5.682524293661117554e-02
-1.993703395128250122e-01 1.650205403566360474e-01 2.060214877128601074e-01
-2.609931528568267822e-01 1.257527768611907959e-01 1.245403438806533813e-01
-2.009794414043426514e-01 2.749303579330444336e-01 2.719919681549072266e-01
-2.773495912551879883e-01 1.235952600836753845e-01 6.959455460309982300e-02
-2.845050692558288574e-01 2.164963483810424805e-01 -2.291904538869857788e-01
-2.122776210308074951e-01 3.172695040702819824e-01 -7.831633090972900391e-03
-2.132314294576644897e-01 1.978632658720016479e-01 3.083719015121459961e-01
-3.228666782379150391e-01 2.045231014490127563e-01 -1.153484880924224854e-01
-2.976031005382537842e-01 2.535470724105834961e-01 2.615583539009094238e-01
-1.805017590522766113e-01 1.747215688228607178e-01 -8.481241762638092041e-02
-2.855998575687408447e-01 2.815390229225158691e-01 2.255408763885498047e-01
-2.073221951723098755e-01 2.956095933914184570e-01 -1.344196498394012451e-01
-3.010992407798767090e-01 1.752691268920898438e-01 -1.729466617107391357e-01
-2.607030272483825684e-01 1.234144717454910278e-01 9.747356176376342773e-02
-2.633408904075622559e-01 3.141829967498779297e-01 4.644248262047767639e-02
-3.067111372947692871e-01 2.792443335056304932e-01 1.199268996715545654e-01
-2.341768294572830200e-01 1.344604045152664185e-01 1.596883386373519897e-01
-1.950929760932922363e-01 2.835919857025146484e-01 -1.487971395254135132e-01
-2.813600003719329834e-01 3.039474785327911377e-01 1.584174670279026031e-02
-2.755103111267089844e-01 1.260036528110504150e-01 -4.311417043209075928e-02
-1.614026129245758057e-01 2.758842408657073975e-01 8.666604757308959961e-03
-1.722732335329055786e-01 1.759727150201797485e-01 7.136844098567962646e-02
-2.016187906265258789e-01 3.047453165054321289e-01 1.808582544326782227e-01
-1.847261041402816772e-01 2.927914857864379883e-01 -8.666400611400604248e-02
-2.940080165863037109e-01 1.633914411067962646e-01 2.483479827642440796e-01
-3.031189143657684326e-01 1.383278369903564453e-01 -4.100654274225234985e-02
-2.304184436798095703e-01 1.317735016345977783e-01 -6.346715986728668213e-02
-2.309109568595886230e-01 3.204821348190307617e-01 8.573581278324127197e-02
-3.334563374519348145e-01 2.121253609657287598e-01 -3.186967968940734863e-02
-2.008077949285507202e-01 3.053900003433227539e-01 -7.719912379980087280e-02
-2.518670558929443359e-01 3.128221929073333740e-01 1.504189372062683105e-01
-3.308236896991729736e-01 1.995555460453033447e-01 1.531318128108978271e-01
-2.916405498981475830e-01 1.281289607286453247e-01 6.696692109107971191e-02
-2.079911231994628906e-01 1.470485925674438477e-01 -8.874790370464324951e-02
-2.582053840160369873e-01 2.887709736824035645e-01 -1.578962951898574829e-01
-3.333498239517211914e-01 2.311152219772338867e-01 6.740638613700866699e-02
-3.247036635875701904e-01 2.333920896053314209e-01 1.748398095369338989e-01
-2.603984475135803223e-01 3.107186257839202881e-01 -3.810853511095046997e-02
-2.448118031024932861e-01 1.374867856502532959e-01 -1.260002404451370239e-01
-2.238042354583740234e-01 1.412875354290008545e-01 1.759443283081054688e-01
-3.192851245403289795e-01 2.616136074066162109e-01 1.137933954596519470e-01
-1.588279604911804199e-01 2.564991414546966553e-01 1.273869276046752930e-01
-1.647427827119827271e-01 2.078126221895217896e-01 -8.205763250589370728e-02
-2.065857648849487305e-01 2.308256477117538452e-01 -2.340049594640731812e-01
-2.871739566326141357e-01 1.515554636716842651e-01 -1.532903611660003662e-01
-2.519195973873138428e-01 1.301311552524566650e-01 1.566368043422698975e-01
-2.784492373466491699e-01 2.934822738170623779e-01 1.982307583093643188e-01
-2.005815207958221436e-01 2.372543066740036011e-01 -2.226688712835311890e-01
-2.318381667137145996e-01 2.741231322288513184e-01 3.043634891510009766e-01
-3.279244899749755859e-01 2.295765280723571777e-01 -5.932760983705520630e-02
-1.853382289409637451e-01 1.575058102607727051e-01 3.416251763701438904e-02
-2.729644775390625000e-01 3.029373884201049805e-01 -5.480641126632690430e-02
-3.348042368888854980e-01 2.144076824188232422e-01 1.043358594179153442e-01
-1.639086306095123291e-01 2.649342417716979980e-01 1.539790034294128418e-01
-2.871894836425781250e-01 1.871842294931411743e-01 -2.156360894441604614e-01
-3.095424175262451172e-01 1.427522897720336914e-01 1.090029701590538025e-01
-1.811472177505493164e-01 1.629527211189270020e-01 5.022972822189331055e-03
-1.792675554752349854e-01 1.730378866195678711e-01 -6.722044944763183594e-02
-2.856195271015167236e-01 3.017863631248474121e-01 6.676814705133438110e-02
-1.989580839872360229e-01 2.729307115077972412e-01 -1.808552294969558716e-01
-3.358089327812194824e-01 1.915491968393325806e-01 7.183225452899932861e-02
-1.584193408489227295e-01 2.626806199550628662e-01 1.056782156229019165e-01
-2.110683023929595947e-01 2.045962810516357422e-01 -2.339888364076614380e-01
-1.971071511507034302e-01 1.525040268898010254e-01 -6.635790318250656128e-02
-2.736260592937469482e-01 1.222787648439407349e-01 4.710685834288597107e-02
-1.671960055828094482e-01 1.834825724363327026e-01 3.454556316137313843e-02
-1.624716669321060181e-01 1.936095207929611206e-01 2.554007992148399353e-02
-2.965552806854248047e-01 2.296115756034851074e-01 2.918393909931182861e-01
-2.800900340080261230e-01 2.818531692028045654e-01 2.403023838996887207e-01
-1.692315638065338135e-01 2.851865291595458984e-01 1.206487938761711121e-01
-3.313980102539062500e-01 1.850594878196716309e-01 1.278092563152313232e-01
-1.689071059226989746e-01 2.034269720315933228e-01 -1.019246131181716919e-01
-3.083658814430236816e-01 1.475988626480102539e-01 1.495254635810852051e-01
-1.640119403600692749e-01 2.180035114288330078e-01 -9.372344613075256348e-02
-1.711467206478118896e-01 2.240128517150878906e-01 -1.384353488683700562e-01
-1.584529280662536621e-01 2.698036432266235352e-01 2.740034461021423340e-02
-3.290659189224243164e-01 1.687367260456085205e-01 9.051927924156188965e-02
-3.172312974929809570e-01 2.604216635227203369e-01 1.449248790740966797e-01
-1.584381461143493652e-01 2.046060115098953247e-01 3.759595751762390137e-02
-3.102264404296875000e-01 1.465199887752532959e-01 -5.473297089338302612e-02
-2.565418183803558350e-01 1.345047354698181152e-01 -1.169518828392028809e-01
-2.649544179439544678e-01 1.543615311384201050e-01 -1.867193281650543213e-01
-2.294243127107620239e-01 2.356274873018264771e-01 3.402335047721862793e-01
-2.315814048051834106e-01 1.460656225681304932e-01 2.154797017574310303e-01
-2.911697328090667725e-01 2.821126580238342285e-01 -9.909445047378540039e-02
-2.379002571105957031e-01 1.273716390132904053e-01 -4.270457476377487183e-02
-2.873266935348510742e-01 1.258020997047424316e-01 4.178916662931442261e-02
-1.956609487533569336e-01 2.071117609739303589e-01 -2.073149234056472778e-01
-2.267714440822601318e-01 1.286246478557586670e-01 6.415523588657379150e-02
-2.267474234104156494e-01 1.870212554931640625e-01 3.119704723358154297e-01
-1.714291572570800781e-01 2.394480109214782715e-01 -1.407093852758407593e-01
-2.110956609249114990e-01 1.364551186561584473e-01 3.639820963144302368e-03
-2.534306645393371582e-01 2.849392890930175781e-01 2.752812206745147705e-01
-3.107292950153350830e-01 2.607031166553497314e-01 -8.849328756332397461e-02
-2.929938435554504395e-01 2.939227223396301270e-01 1.126822233200073242e-01
-2.084346115589141846e-01 1.409349441528320312e-01 1.060081347823143005e-01
-1.990361362695693970e-01 2.581988573074340820e-01 2.914145290851593018e-01
-2.537249922752380371e-01 2.177280187606811523e-01 3.449957966804504395e-01
-2.793135643005371094e-01 3.044019341468811035e-01 -9.734183549880981445e-05
-3.330391049385070801e-01 2.180280089378356934e-01 1.247437819838523865e-01
-2.382314801216125488e-01 1.250633299350738525e-01 7.207263261079788208e-02
-2.523793280124664307e-01 3.161081969738006592e-01 -4.624135792255401611e-03
-1.859175413846969604e-01 3.068609833717346191e-01 7.986734807491302490e-02
-3.346965610980987549e-01 2.190029174089431763e-01 -4.335232079029083252e-04
-2.165298312902450562e-01 3.140605986118316650e-01 -5.095637589693069458e-02
-2.404000759124755859e-01 3.068360984325408936e-01 -1.017833799123764038e-01
-1.659838855266571045e-01 2.847442924976348877e-01 7.977769523859024048e-02
-1.626852750778198242e-01 1.948787569999694824e-01 7.394625246524810791e-02
-3.361942172050476074e-01 2.109465003013610840e-01 7.880911231040954590e-02
-2.842417657375335693e-01 1.304069757461547852e-01 1.321075558662414551e-01
-2.300873696804046631e-01 3.014979064464569092e-01 -1.299624890089035034e-01
-1.683867871761322021e-01 2.085425555706024170e-01 1.817105561494827271e-01
-2.057679295539855957e-01 1.397806107997894287e-01 5.414303392171859741e-02
-3.332868814468383789e-01 1.786343157291412354e-01 1.662125252187252045e-02
-2.842152714729309082e-01 2.049007266759872437e-01 3.166022896766662598e-01
-1.839683353900909424e-01 2.052319347858428955e-01 2.476801425218582153e-01
-1.701347380876541138e-01 2.504160404205322266e-01 -1.278858631849288940e-01
-3.277467787265777588e-01 1.645281314849853516e-01 4.157032817602157593e-03
-2.295940220355987549e-01 1.488782763481140137e-01 -1.551377028226852417e-01
-1.545091867446899414e-01 2.493408620357513428e-01 2.780474722385406494e-03
-3.005384504795074463e-01 2.886146903038024902e-01 2.335048839449882507e-02
-3.267929553985595703e-01 2.103911638259887695e-01 1.844476610422134399e-01
-2.566366195678710938e-01 3.093312084674835205e-01 -6.152305752038955688e-02
-3.199858069419860840e-01 2.540592849254608154e-01 -4.845278710126876831e-02
-3.353797793388366699e-01 2.206485420465469360e-01 2.620954439043998718e-02
-2.261973023414611816e-01 3.024149537086486816e-01 2.257159352302551270e-01
-2.631027996540069580e-01 1.211999207735061646e-01 2.931309491395950317e-02
-2.645522058010101318e-01 1.530357897281646729e-01 2.570111751556396484e-01
-2.971149384975433350e-01 1.797825843095779419e-01 2.719020247459411621e-01
-2.011224776506423950e-01 3.091718852519989014e-01 1.520409286022186279e-01
-2.707581818103790283e-01 3.107932806015014648e-01 6.475078314542770386e-02
-1.694566607475280762e-01 2.775118649005889893e-01 -6.898569315671920776e-02
-2.137249708175659180e-01 1.824170649051666260e-01 2.867266833782196045e-01
-1.794976294040679932e-01 2.170363664627075195e-01 -1.681446880102157593e-01
-2.783772647380828857e-01 2.860769033432006836e-01 -1.267490237951278687e-01
-2.747782766819000244e-01 1.749039441347122192e-01 2.980744242668151855e-01
-2.571288645267486572e-01 1.223744526505470276e-01 7.868114113807678223e-02
-2.322535663843154907e-01 2.212260067462921143e-01 -2.583974003791809082e-01
-3.162762522697448730e-01 1.600188463926315308e-01 -8.205235749483108521e-02
-1.880631744861602783e-01 3.064706325531005859e-01 -1.258200034499168396e-02
-3.131990432739257812e-01 2.353000044822692871e-01 -1.373185366392135620e-01
-2.555352449417114258e-01 3.028644919395446777e-01 -1.040352582931518555e-01
-2.746916115283966064e-01 2.502866387367248535e-01 3.142578601837158203e-01
-2.824285626411437988e-01 2.362116426229476929e-01 -2.220402508974075317e-01
-1.643214672803878784e-01 2.594071924686431885e-01 1.677633821964263916e-01
-1.841042339801788330e-01 1.619611531496047974e-01 9.764964878559112549e-02
-2.882598042488098145e-01 1.412208676338195801e-01 1.878093481063842773e-01
-1.755234599113464355e-01 2.781533300876617432e-01 1.892218142747879028e-01
-2.622534632682800293e-01 2.088585197925567627e-01 -2.542334794998168945e-01
-1.576863825321197510e-01 2.187548428773880005e-01 1.108146682381629944e-01
-3.111674487590789795e-01 1.404287219047546387e-01 2.941237762570381165e-02
-1.624542772769927979e-01 2.023448497056961060e-01 -4.467769712209701538e-02
-1.633462309837341309e-01 2.438010573387145996e-01 -9.659880399703979492e-02
-2.122581303119659424e-01 3.000624775886535645e-01 2.224212437868118286e-01
-1.606149375438690186e-01 2.104187458753585815e-01 1.234459131956100464e-01
-2.514550089836120605e-01 2.749495506286621094e-01 2.996503114700317383e-01
-1.756406724452972412e-01 2.490738630294799805e-01 2.347715646028518677e-01
-2.779247760772705078e-01 1.244860887527465820e-01 -1.592631638050079346e-02
-2.767693996429443359e-01 2.912160158157348633e-01 -1.097900271415710449e-01
-2.514889240264892578e-01 1.952320039272308350e-01 -2.525442242622375488e-01
-1.596987992525100708e-01 2.733436822891235352e-01 5.347755551338195801e-02
-2.988310158252716064e-01 2.654066383838653564e-01 -1.294332891702651978e-01
-2.205045074224472046e-01 1.321072429418563843e-01 7.945591211318969727e-02
-3.100430369377136230e-01 1.417219489812850952e-01 -1.711943000555038452e-02
