5.290573835372924805e-01 -5.188267230987548828e-01 6.041342020034790039e-01
5.529842376708984375e-01 -6.162230968475341797e-01 2.314130812883377075e-01
5.484395027160644531e-01 -6.556394100189208984e-01 2.747462391853332520e-01
5.435099005699157715e-01 -4.835149645805358887e-01 1.029764115810394287e-01
5.532938838005065918e-01 -5.529417991638183594e-01 4.522563219070434570e-01
5.344908237457275391e-01 -6.357062458992004395e-01 4.506956040859222412e-01
5.318630337715148926e-01 -5.421371459960937500e-01 6.067984104156494141e-01
5.282532572746276855e-01 -5.360450148582458496e-01 5.807883739471435547e-01
5.275193452835083008e-01 -3.942688107490539551e-01 5.490567684173583984e-01
5.217366218566894531e-01 -4.681812524795532227e-01 3.817889392375946045e-01
5.217284560203552246e-01 -4.664078056812286377e-01 4.533206522464752197e-01
5.535275936126708984e-01 -5.416989326477050781e-01 1.772608757019042969e-01
5.485950708389282227e-01 -6.511290669441223145e-01 2.381909340620040894e-01
5.539028644561767578e-01 -4.840874969959259033e-01 4.033710360527038574e-01
5.238308906555175781e-01 -4.459682106971740723e-01 5.409601330757141113e-01
5.486950874328613281e-01 -4.199762344360351562e-01 4.632734656333923340e-01
5.429466962814331055e-01 -5.545095801353454590e-01 5.943578481674194336e-01
5.234094262123107910e-01 -4.103005230426788330e-01 4.043894708156585693e-01
5.288089513778686523e-01 -3.650795519351959229e-01 3.970359563827514648e-01
5.236834883689880371e-01 -4.881331324577331543e-01 5.377606749534606934e-01
5.274814963340759277e-01 -5.821565985679626465e-01 4.882962107658386230e-01
5.245813131332397461e-01 -3.954373002052307129e-01 4.632360637187957764e-01
5.476360321044921875e-01 -4.821272790431976318e-01 5.634634494781494141e-01
5.421255826950073242e-01 -4.559995234012603760e-01 6.118069887161254883e-01
5.312309861183166504e-01 -6.247804164886474609e-01 2.694632709026336670e-01
5.494272112846374512e-01 -4.473747611045837402e-01 2.001687139272689819e-01
5.220950245857238770e-01 -4.637943804264068604e-01 4.825499057769775391e-01
5.367413759231567383e-01 -6.211584210395812988e-01 1.596627235412597656e-01
5.291126370429992676e-01 -6.037054657936096191e-01 4.623941779136657715e-01
5.412139296531677246e-01 -4.228805899620056152e-01 5.935962200164794922e-01
5.556251406669616699e-01 -5.618808865547180176e-01 3.327677845954895020e-01
5.328907370567321777e-01 -6.412054896354675293e-01 3.117908537387847900e-01
5.526292920112609863e-01 -5.989926457405090332e-01 4.173324406147003174e-01
5.322217345237731934e-01 -4.956307411193847656e-01 1.308730840682983398e-01
5.504021644592285156e-01 -5.748196840286254883e-01 1.276934891939163208e-01
5.226306319236755371e-01 -4.385728538036346436e-01 4.905821681022644043e-01
5.289276242256164551e-01 -4.638080298900604248e-01 6.195265054702758789e-01
5.241712927818298340e-01 -5.565746426582336426e-01 3.403151035308837891e-01
5.362346172332763672e-01 -6.304889917373657227e-01 1.842092126607894897e-01
5.252677202224731445e-01 -5.102309584617614746e-01 5.588550567626953125e-01
5.315126180648803711e-01 -6.293617486953735352e-01 4.128022789955139160e-01
5.270975828170776367e-01 -3.732424676418304443e-01 4.497437179088592529e-01
5.448235273361206055e-01 -4.194897413253784180e-01 5.478751659393310547e-01
5.223166942596435547e-01 -5.000057220458984375e-01 4.752451777458190918e-01
5.489696860313415527e-01 -4.105213582515716553e-01 3.179986476898193359e-01
5.511119961738586426e-01 -4.432328641414642334e-01 4.399928748607635498e-01
5.218998193740844727e-01 -4.881033599376678467e-01 4.605689048767089844e-01
5.268059372901916504e-01 -5.952950716018676758e-01 3.852443099021911621e-01
5.439631938934326172e-01 -3.894751667976379395e-01 4.957030713558197021e-01
5.527865290641784668e-01 -6.099836826324462891e-01 2.067348361015319824e-01
5.313636064529418945e-01 -3.663516044616699219e-01 5.152569413185119629e-01
5.533906221389770508e-01 -4.623499214649200439e-01 3.620579242706298828e-01
5.297147035598754883e-01 -6.003441214561462402e-01 4.882437586784362793e-01
5.280258059501647949e-01 -5.455047488212585449e-01 1.936963498592376709e-01
5.325080752372741699e-01 -3.537574112415313721e-01 4.147114455699920654e-01
5.458698272705078125e-01 -5.026873946189880371e-01 1.005422472953796387e-01
5.215926170349121094e-01 -4.748645126819610596e-01 4.319861829280853271e-01
5.331871509552001953e-01 -5.146505236625671387e-01 6.314309835433959961e-01
5.255874991416931152e-01 -4.238094985485076904e-01 5.613324642181396484e-01
5.486356616020202637e-01 -4.309129714965820312e-01 4.923188090324401855e-01
5.341269373893737793e-01 -6.457312107086181641e-01 2.884842157363891602e-01
5.522503852844238281e-01 -5.667508244514465332e-01 4.689213633537292480e-01
5.321020483970642090e-01 -6.139521002769470215e-01 4.901726841926574707e-01
5.232076048851013184e-01 -4.154194295406341553e-01 4.656799733638763428e-01
5.419627428054809570e-01 -3.658272027969360352e-01 4.047654867172241211e-01
5.244280099868774414e-01 -4.306841790676116943e-01 5.440441370010375977e-01
5.225871801376342773e-01 -4.334789812564849854e-01 3.728825151920318604e-01
5.265337228775024414e-01 -4.984631836414337158e-01 5.874658823013305664e-01
5.552882552146911621e-01 -5.767603516578674316e-01 3.356678783893585205e-01
5.512321591377258301e-01 -5.227141976356506348e-01 5.095234513282775879e-01
5.502691268920898438e-01 -6.464830636978149414e-01 3.113011419773101807e-01
5.225581526756286621e-01 -4.285709261894226074e-01 4.612851440906524658e-01
5.328955054283142090e-01 -5.657445192337036133e-01 5.879287719726562500e-01
5.478518605232238770e-01 -5.603774189949035645e-01 5.470129251480102539e-01
5.512127876281738281e-01 -5.387101173400878906e-01 5.068245530128479004e-01
5.346342325210571289e-01 -6.274183988571166992e-01 4.815538823604583740e-01
5.379132628440856934e-01 -6.540087461471557617e-01 4.081028699874877930e-01
5.544665455818176270e-01 -5.876705646514892578e-01 3.688414990901947021e-01
5.331912636756896973e-01 -3.578897118568420410e-01 3.514040410518646240e-01
5.351632833480834961e-01 -6.517952084541320801e-01 3.604117631912231445e-01
5.235648751258850098e-01 -4.183255136013031006e-01 3.569563627243041992e-01
5.228839516639709473e-01 -5.105576515197753906e-01 3.174591660499572754e-01
5.283488035202026367e-01 -6.073930263519287109e-01 4.122910499572753906e-01
5.515866875648498535e-01 -4.703035652637481689e-01 4.747591614723205566e-01
5.287538766860961914e-01 -4.654127955436706543e-01 1.827898770570755005e-01
5.534225106239318848e-01 -4.642260074615478516e-01 2.992333173751831055e-01
5.507387518882751465e-01 -6.011985540390014648e-01 4.585203528404235840e-01
5.352198481559753418e-01 -4.080515503883361816e-01 1.917017698287963867e-01
5.249087810516357422e-01 -4.032185375690460205e-01 5.115263462066650391e-01
5.537905097007751465e-01 -4.738644659519195557e-01 2.814970612525939941e-01
5.545573830604553223e-01 -4.965527057647705078e-01 2.600008845329284668e-01
5.285305380821228027e-01 -6.020702719688415527e-01 2.762959599494934082e-01
5.482690930366516113e-01 -4.582032561302185059e-01 5.380747914314270020e-01
5.274324417114257812e-01 -5.995022058486938477e-01 3.239573538303375244e-01
5.345159173011779785e-01 -6.448213458061218262e-01 2.669937014579772949e-01
5.494273900985717773e-01 -5.930597186088562012e-01 1.279201507568359375e-01
5.544072389602661133e-01 -5.725985169410705566e-01 3.976361751556396484e-01
5.549702644348144531e-01 -5.151839256286621094e-01 3.868131935596466064e-01
5.494135618209838867e-01 -4.665671288967132568e-01 1.671493947505950928e-01
5.416828393936157227e-01 -4.923953413963317871e-01 6.237744092941284180e-01
5.436080694198608398e-01 -6.377736330032348633e-01 1.575617492198944092e-01
5.220788121223449707e-01 -5.045385956764221191e-01 4.485166370868682861e-01
5.512747168540954590e-01 -4.804420769214630127e-01 4.936743378639221191e-01
5.324748158454895020e-01 -3.969334959983825684e-01 2.278933823108673096e-01
5.307152271270751953e-01 -5.749275684356689453e-01 1.726509928703308105e-01
5.220209956169128418e-01 -4.960350692272186279e-01 3.597164750099182129e-01
5.462054014205932617e-01 -6.602876782417297363e-01 3.512583673000335693e-01
5.475169420242309570e-01 -4.008113443851470947e-01 3.075745701789855957e-01
5.453065037727355957e-01 -4.672773778438568115e-01 5.869377851486206055e-01
5.220887064933776855e-01 -4.854633212089538574e-01 4.769518971443176270e-01
5.259555578231811523e-01 -5.242460370063781738e-01 5.586726069450378418e-01
5.315094590187072754e-01 -5.092495083808898926e-01 1.352567076683044434e-01
5.229754447937011719e-01 -4.889560937881469727e-01 3.032228052616119385e-01
5.279300212860107422e-01 -6.067535877227783203e-01 3.726210296154022217e-01
5.403392314910888672e-01 -4.325723052024841309e-01 6.093337535858154297e-01
5.474529266357421875e-01 -5.975870490074157715e-01 5.133020281791687012e-01
5.254622697830200195e-01 -5.716522932052612305e-01 3.106901645660400391e-01
5.241231322288513184e-01 -4.972488284111022949e-01 2.643765211105346680e-01
5.438864827156066895e-01 -4.350872635841369629e-01 1.578625291585922241e-01
5.300875306129455566e-01 -6.238847374916076660e-01 3.282012641429901123e-01
5.345485210418701172e-01 -6.396740674972534180e-01 2.399990558624267578e-01
5.554678440093994141e-01 -5.471814870834350586e-01 3.632671535015106201e-01
5.494731068611145020e-01 -4.125760793685913086e-01 3.544949591159820557e-01
5.288883447647094727e-01 -4.255314469337463379e-01 6.035588383674621582e-01
5.520511865615844727e-01 -5.000875592231750488e-01 1.717108488082885742e-01
5.273604989051818848e-01 -4.316813349723815918e-01 2.337466478347778320e-01
5.471097230911254883e-01 -6.186396479606628418e-01 4.827082157135009766e-01
5.308343172073364258e-01 -4.611952900886535645e-01 1.610725373029708862e-01
5.542713999748229980e-01 -4.871441721916198730e-01 3.861889243125915527e-01
4.795399308204650879e-02 2.443110942840576172e-01 3.048442900180816650e-01
-4.138575494289398193e-02 2.016735076904296875e-01 -1.964996308088302612e-01
-1.966930478811264038e-01 2.804451584815979004e-01 1.299156248569488525e-01
-2.077426016330718994e-02 1.787067502737045288e-01 -1.633970588445663452e-01
-5.958120524883270264e-02 2.918567657470703125e-01 2.932417094707489014e-01
-4.141469597816467285e-01 1.017147228121757507e-01 -5.425537228584289551e-01
-1.922394931316375732e-01 1.624867320060729980e-01 -4.386342465877532959e-01
-2.630249261856079102e-01 2.669923901557922363e-01 4.996346682310104370e-02
-3.934866786003112793e-01 2.178952693939208984e-01 -1.819795668125152588e-01
-3.379666209220886230e-01 2.600669860839843750e-01 1.104788184165954590e-01
-4.409368038177490234e-01 1.239849999547004700e-01 1.497763842344284058e-01
-2.775868475437164307e-01 2.082892656326293945e-01 -3.195094466209411621e-01
-1.981167793273925781e-01 1.004960462450981140e-01 -7.777860760688781738e-02
-2.968135774135589600e-01 1.818347275257110596e-01 4.482245445251464844e-01
-1.991447806358337402e-01 9.421531111001968384e-02 -2.496902942657470703e-01
-2.028620243072509766e-01 2.634891867637634277e-01 -2.118909731507301331e-02
-3.741681575775146484e-01 1.860554963350296021e-01 4.103253185749053955e-01
-3.412668108940124512e-01 2.353959083557128906e-01 -1.271523982286453247e-01
-1.345722824335098267e-01 2.753314375877380371e-01 6.663467735052108765e-02
-4.934514164924621582e-01 7.724937796592712402e-02 -3.463005423545837402e-01
-6.830820441246032715e-02 1.362813264131546021e-01 -9.983915090560913086e-02
-8.469331264495849609e-02 2.671462893486022949e-01 2.730907686054706573e-02
-4.121310114860534668e-01 7.018224895000457764e-02 -2.810170054435729980e-01
-1.078814119100570679e-01 1.287263035774230957e-01 3.031127154827117920e-02
-3.353871405124664307e-02 2.254970371723175049e-01 4.825384914875030518e-01
-3.997705876827239990e-02 1.561486721038818359e-01 9.792181849479675293e-02
-4.813483357429504395e-02 2.934022247791290283e-01 3.948973119258880615e-01
-1.360023319721221924e-01 2.899415493011474609e-01 2.190573811531066895e-01
-3.499858081340789795e-01 7.153095304965972900e-02 -2.816887497901916504e-01
3.122603893280029297e-02 1.980635225772857666e-01 7.282032072544097900e-02
-4.651674330234527588e-01 8.334696292877197266e-02 -1.417134255170822144e-01
-9.270401298999786377e-02 2.563694715499877930e-01 -4.596440866589546204e-02
-1.401186883449554443e-01 2.829455733299255371e-01 1.364915072917938232e-01
-3.566466569900512695e-01 7.442962378263473511e-02 -2.051113694906234741e-01
-4.935438930988311768e-02 1.571676880121231079e-01 -2.120143026113510132e-01
-3.058991432189941406e-01 1.190707162022590637e-01 1.782974451780319214e-01
-3.878117799758911133e-01 2.007561624050140381e-01 -2.918052971363067627e-01
-4.570287466049194336e-01 7.262979447841644287e-02 -2.855837941169738770e-01
-3.183186948299407959e-01 1.258771419525146484e-01 2.176154106855392456e-01
-1.396722793579101562e-01 2.874585688114166260e-01 1.870593875646591187e-01
-4.912364482879638672e-01 1.957635581493377686e-01 -1.252401620149612427e-01
-2.135967314243316650e-01 1.034275963902473450e-01 -8.030025288462638855e-03
-4.616357386112213135e-01 1.989922970533370972e-01 2.849756479263305664e-01
-1.713423132896423340e-01 1.532970219850540161e-01 3.143883645534515381e-01
-3.342489004135131836e-01 2.657943367958068848e-01 2.138749212026596069e-01
-5.131088495254516602e-01 1.843067109584808350e-01 -1.390184909105300903e-01
-6.241779029369354248e-02 1.411028951406478882e-01 -2.783978357911109924e-03
-1.132869422435760498e-01 2.740852832794189453e-01 5.817221999168395996e-01
-3.976905345916748047e-01 1.169792115688323975e-01 1.473182439804077148e-01
-2.097098827362060547e-01 2.878719866275787354e-01 4.524323344230651855e-01
-2.997897267341613770e-01 9.827858954668045044e-02 -5.190606117248535156e-01
-4.658238887786865234e-01 1.623417437076568604e-01 -3.796862661838531494e-01
-2.891573309898376465e-01 1.355018764734268188e-01 2.677778899669647217e-01
4.904302954673767090e-02 2.313554883003234863e-01 2.595297098159790039e-01
-4.199770092964172363e-01 1.752105355262756348e-01 -3.805678188800811768e-01
-1.063427478075027466e-01 2.350445687770843506e-01 -1.636661291122436523e-01
-3.757698535919189453e-01 1.445457041263580322e-01 -5.069226622581481934e-01
3.661745786666870117e-02 2.579553425312042236e-01 2.035166174173355103e-01
-7.288822531700134277e-02 2.126811891794204712e-01 4.879417419433593750e-01
-1.788854598999023438e-01 1.100680157542228699e-01 -3.883761465549468994e-01
-2.632753551006317139e-02 1.959151029586791992e-01 3.555692136287689209e-01
-1.032329648733139038e-01 2.969170212745666504e-01 3.843995928764343262e-01
-4.385826587677001953e-01 2.165786176919937134e-01 -1.033238023519515991e-01
-1.514155119657516479e-01 1.726234406232833862e-01 -3.892103731632232666e-01
-4.712750315666198730e-01 9.384789317846298218e-02 -5.848793312907218933e-02
-1.709121018648147583e-01 1.676675528287887573e-01 3.850471377372741699e-01
-4.238330125808715820e-01 8.169390261173248291e-02 -5.029996037483215332e-01
-3.070687055587768555e-01 7.613465934991836548e-02 -3.813782036304473877e-01
6.604433059692382812e-03 1.960456669330596924e-01 2.710844278335571289e-01
-3.649732768535614014e-01 1.774404644966125488e-01 -4.128963947296142578e-01
-4.498572945594787598e-01 2.166639119386672974e-01 -6.843771040439605713e-02
-3.108530044555664062e-01 1.582505255937576294e-01 -4.862555265426635742e-01
-9.945444762706756592e-02 1.797191649675369263e-01 3.834156394004821777e-01
-4.493256807327270508e-01 1.065821275115013123e-01 5.056573450565338135e-02
-5.162841081619262695e-01 1.754280924797058105e-01 -1.996532976627349854e-01
-4.988016188144683838e-01 1.055690348148345947e-01 -2.137090638279914856e-02
-2.395219057798385620e-01 2.509780228137969971e-01 -9.748636186122894287e-02
-2.218401432037353516e-01 9.375941753387451172e-02 -3.807052671909332275e-01
-3.075869083404541016e-01 8.111155033111572266e-02 -1.479032784700393677e-01
-3.808817565441131592e-01 1.583480089902877808e-01 3.327523767948150635e-01
-3.311248421669006348e-01 2.081398367881774902e-01 -2.989592850208282471e-01
-9.511078894138336182e-02 1.258391886949539185e-01 -1.048954129219055176e-01
-2.602843344211578369e-01 1.738582253456115723e-01 4.306960403919219971e-01
-4.787287414073944092e-01 8.988902717828750610e-02 -1.006075590848922729e-01
-2.853775024414062500e-01 1.690300405025482178e-01 4.107499420642852783e-01
-2.898126840591430664e-01 1.599187850952148438e-01 3.765669763088226318e-01
-1.352222859859466553e-01 2.964277565479278564e-01 4.104536771774291992e-01
7.358640432357788086e-03 1.798497736454010010e-01 -2.692656219005584717e-02
-2.592107057571411133e-01 2.793318331241607666e-01 4.387659430503845215e-01
-2.287065386772155762e-01 1.674005389213562012e-01 -4.492603540420532227e-01
-3.424877524375915527e-01 2.171395421028137207e-01 -2.432866990566253662e-01
-3.741452097892761230e-01 7.194873690605163574e-02 -4.284966588020324707e-01
-1.181887686252593994e-01 2.271251976490020752e-01 5.574523806571960449e-01
-3.163986206054687500e-01 1.683225929737091064e-01 -4.589383006095886230e-01
-2.566328644752502441e-01 2.746589183807373047e-01 4.864128232002258301e-01
3.859919309616088867e-02 2.600350975990295410e-01 2.377087026834487915e-01
-3.023383915424346924e-01 2.715397179126739502e-01 1.893605887889862061e-01
-7.106064260005950928e-02 2.269008159637451172e-01 -1.653954684734344482e-01
-3.473457098007202148e-01 8.753158152103424072e-02 -4.865748062729835510e-02
-1.060353964567184448e-01 1.236906126141548157e-01 -2.272142022848129272e-01
-3.491401672363281250e-02 2.791520059108734131e-01 1.740396618843078613e-01
-3.985390067100524902e-01 1.854957193136215210e-01 3.842690289020538330e-01
-5.301165580749511719e-02 1.808805763721466064e-01 3.251301944255828857e-01
-2.088686674833297729e-01 1.073738560080528259e-01 -4.374454021453857422e-01
-7.224217057228088379e-03 2.561247646808624268e-01 5.610581859946250916e-02
-2.313036918640136719e-01 1.237316951155662537e-01 1.794696450233459473e-01
-2.080558687448501587e-01 1.224760711193084717e-01 1.522870808839797974e-01
-2.210483849048614502e-01 2.889702022075653076e-01 3.418875336647033691e-01
-3.225419223308563232e-01 2.309950590133666992e-01 -1.762128919363021851e-01
-1.175049245357513428e-01 2.086483985185623169e-01 -2.721291482448577881e-01
-4.334129095077514648e-01 1.781214475631713867e-01 -3.532521724700927734e-01
-2.271953970193862915e-01 2.790761291980743408e-01 1.426612585783004761e-01
-5.203766822814941406e-01 1.887990087270736694e-01 -9.756237268447875977e-04
-5.268893241882324219e-01 1.557125300168991089e-01 -2.849914729595184326e-01
-1.742397397756576538e-01 1.005417257547378540e-01 -2.057570517063140869e-01
2.715337276458740234e-02 1.995370537042617798e-01 1.993690282106399536e-01
-5.536980628967285156e-01 1.570451557636260986e-01 -1.201788485050201416e-01
-4.136445224285125732e-01 9.376959502696990967e-02 -7.737888023257255554e-03
-1.084475070238113403e-01 2.448030710220336914e-01 -1.188467144966125488e-01
-2.095826417207717896e-01 1.413838565349578857e-01 2.741553783416748047e-01
-5.592967867851257324e-01 1.117435172200202942e-01 -2.565110623836517334e-01
-2.575594484806060791e-01 1.380964964628219604e-01 2.761185467243194580e-01
-2.863776683807373047e-02 2.852502465248107910e-01 2.534464895725250244e-01
-3.588464856147766113e-01 2.265078574419021606e-01 -1.690241843461990356e-01
4.955887794494628906e-03 2.106639295816421509e-01 -7.859151065349578857e-02
-2.297068089246749878e-01 2.433855533599853516e-01 -1.493028849363327026e-01
-1.122913956642150879e-01 1.881325691938400269e-01 4.327932298183441162e-01
-2.263970226049423218e-01 1.820029914379119873e-01 -4.117405116558074951e-01
-5.267311930656433105e-01 1.741155236959457397e-01 -1.648532897233963013e-01
-4.541398286819458008e-01 1.980921030044555664e-01 -2.107707858085632324e-01
-9.655310213565826416e-02 2.492960691452026367e-01 -8.775158226490020752e-02
-1.250948607921600342e-01 2.638163268566131592e-01 -1.666598021984100342e-02
-5.059151649475097656e-01 8.064472675323486328e-02 -2.923510670661926270e-01
-1.258274167776107788e-01 1.148651763796806335e-01 -1.550434529781341553e-01
-1.435558497905731201e-01 2.180800884962081909e-01 -2.570734918117523193e-01
-2.644165158271789551e-01 8.149109780788421631e-02 -2.522642612457275391e-01
-2.706471383571624756e-01 2.485786974430084229e-01 -9.712170064449310303e-02
-2.526540160179138184e-01 2.297955453395843506e-01 -2.206754982471466064e-01
-1.828588545322418213e-01 1.186103448271751404e-01 -4.281949698925018311e-01
-1.690008342266082764e-01 2.812007665634155273e-01 1.236560791730880737e-01
-9.703730046749114990e-02 1.338666677474975586e-01 -2.778809666633605957e-01
-1.495031267404556274e-01 2.948545813560485840e-01 3.203761875629425049e-01
-3.695974051952362061e-01 1.425062865018844604e-01 2.817685008049011230e-01
-2.533964216709136963e-01 8.481096476316452026e-02 -1.974469125270843506e-01
-1.644407510757446289e-01 2.887936830520629883e-01 2.139257341623306274e-01
-2.601820528507232666e-01 9.547881036996841431e-02 -2.798241004347801208e-02
-3.365404009819030762e-01 2.508288621902465820e-01 -3.718445077538490295e-03
-3.427173495292663574e-01 1.710513085126876831e-01 -4.445984363555908203e-01
-4.141142368316650391e-01 2.075744122266769409e-01 -2.195531129837036133e-01
-5.158559679985046387e-01 1.695279031991958618e-01 -2.410871088504791260e-01
-9.117081761360168457e-02 1.275434345006942749e-01 -1.695329248905181885e-01
-3.868736624717712402e-01 2.336125522851943970e-01 3.996250331401824951e-01
-2.082816809415817261e-01 1.176498159766197205e-01 1.157984584569931030e-01
-1.527066528797149658e-02 2.381045669317245483e-01 -4.445939138531684875e-02
1.196986436843872070e-02 2.759894728660583496e-01 4.184229671955108643e-01
-4.257134497165679932e-01 2.367576062679290771e-01 2.163926959037780762e-01
-2.983443737030029297e-01 2.664579153060913086e-01 4.551136195659637451e-01
-1.319590210914611816e-02 1.659905314445495605e-01 6.881739199161529541e-02
-2.673360109329223633e-01 9.966083616018295288e-02 2.006095647811889648e-02
-3.124360442161560059e-01 2.637231349945068359e-01 9.349541366100311279e-02
-1.570758670568466187e-01 2.918650805950164795e-01 2.587737143039703369e-01
-3.441192805767059326e-01 1.194010749459266663e-01 1.793124675750732422e-01
-2.274725288152694702e-01 1.750537157058715820e-01 4.341599345207214355e-01
-1.969636976718902588e-01 2.441167682409286499e-01 -1.491753309965133667e-01
-3.495119512081146240e-01 1.541916429996490479e-01 3.369670212268829346e-01
-4.447102248668670654e-01 1.432914137840270996e-01 2.237310558557510376e-01
-2.942279279232025146e-01 2.161481827497482300e-01 -2.774740159511566162e-01
-1.719074845314025879e-01 2.862515151500701904e-01 1.835478842258453369e-01
-3.610306978225708008e-01 8.458629995584487915e-02 -7.494586706161499023e-02
-1.600312292575836182e-01 1.182825267314910889e-01 5.001159757375717163e-02
2.614173293113708496e-02 2.705028951168060303e-01 2.752547860145568848e-01
-1.744758337736129761e-01 1.362698674201965332e-01 2.156694978475570679e-01
-4.561963677406311035e-01 1.575701087713241577e-01 -4.105107784271240234e-01
-1.680589467287063599e-01 2.261727005243301392e-01 -2.346702814102172852e-01
-5.395057797431945801e-01 9.355513006448745728e-02 -2.927325367927551270e-01
-9.497135877609252930e-02 1.736947000026702881e-01 3.482428789138793945e-01
-5.726654827594757080e-02 2.430565208196640015e-01 -8.296909928321838379e-02
-3.631453514099121094e-01 2.585694789886474609e-01 2.266297936439514160e-01
-4.763300716876983643e-01 1.026682406663894653e-01 -4.400661215186119080e-03
-1.477002948522567749e-01 2.599501907825469971e-01 -4.848241433501243591e-02
-1.253185421228408813e-01 1.412739753723144531e-01 -3.699369132518768311e-01
-3.286375403404235840e-01 1.571461409330368042e-01 3.564712107181549072e-01
-1.948563307523727417e-01 2.323695868253707886e-01 5.779762864112854004e-01
-4.364562034606933594e-01 2.316965907812118530e-01 8.588889241218566895e-02
-2.618739902973175049e-01 9.310370683670043945e-02 -4.606792926788330078e-01
-3.096525371074676514e-01 8.302960544824600220e-02 -1.190902143716812134e-01
-1.102983504533767700e-01 2.961124479770660400e-01 3.363991081714630127e-01
-5.863705277442932129e-02 2.036259770393371582e-01 -2.201307415962219238e-01
-1.300818771123886108e-01 1.971853077411651611e-01 -3.162465989589691162e-01
-3.445715904235839844e-01 8.053264021873474121e-02 -4.852575063705444336e-01
-2.015870660543441772e-01 2.138046920299530029e-01 -2.961147129535675049e-01
-2.295384109020233154e-01 9.050428867340087891e-02 -1.548528373241424561e-01
4.164844751358032227e-03 2.572908699512481689e-01 8.686658740043640137e-02
-3.114702701568603516e-01 2.657735943794250488e-01 4.268869161605834961e-01
-1.274100244045257568e-01 1.218508109450340271e-01 7.351938635110855103e-03
-9.309174120426177979e-02 1.311258375644683838e-01 4.261424764990806580e-03
1.913067698478698730e-02 2.754416763782501221e-01 3.727794885635375977e-01
-2.394217401742935181e-01 1.908760070800781250e-01 -3.875063955783843994e-01
-3.189464807510375977e-01 9.384456276893615723e-02 8.011423051357269287e-05
-5.131707191467285156e-01 9.164611250162124634e-02 -1.558583974838256836e-01
-1.429229974746704102e-01 1.138392537832260132e-01 -3.025270998477935791e-01
1.655563712120056152e-02 1.854403764009475708e-01 1.093192696571350098e-01
-1.445028185844421387e-02 2.708100378513336182e-01 1.390308439731597900e-01
-2.159982919692993164e-03 2.447100579738616943e-01 4.792544841766357422e-01
-3.828936219215393066e-01 6.922223418951034546e-02 -3.272783458232879639e-01
-2.576203346252441406e-01 2.831157445907592773e-01 3.066875338554382324e-01
-1.934707164764404297e-02 1.643371284008026123e-01 -1.050562113523483276e-01
-2.937729954719543457e-01 2.747126817703247070e-01 2.268773019313812256e-01
-3.731609284877777100e-01 2.484731376171112061e-01 3.683464229106903076e-01
-3.033468127250671387e-02 1.656402498483657837e-01 1.600127518177032471e-01
-3.689378499984741211e-01 6.986036151647567749e-02 -3.671191036701202393e-01
-2.247649431228637695e-01 2.715197205543518066e-01 5.810684338212013245e-02
-5.570784807205200195e-01 1.221477240324020386e-01 -2.918291091918945312e-01
-6.675262749195098877e-02 2.824372947216033936e-01 1.647746115922927856e-01
-4.044205546379089355e-01 1.461455971002578735e-01 2.729325294494628906e-01
-4.193395376205444336e-03 2.014310956001281738e-01 3.346198201179504395e-01
-4.395416080951690674e-01 2.215224802494049072e-01 2.936044335365295410e-01
-2.252326756715774536e-01 2.647815048694610596e-01 -1.358773559331893921e-03
-4.431107938289642334e-01 8.319600671529769897e-02 -1.181606650352478027e-01
-1.144982576370239258e-01 1.221348047256469727e-01 -2.577387392520904541e-01
-2.725778222084045410e-01 1.111309677362442017e-01 1.160902380943298340e-01
-2.749202251434326172e-01 1.164253503084182739e-01 1.537891626358032227e-01
-4.198433458805084229e-02 2.717474997043609619e-01 1.020960956811904907e-01
-5.241403579711914062e-01 1.373698413372039795e-01 6.783799827098846436e-02
-2.129462212324142456e-01 1.347310543060302734e-01 2.374067157506942749e-01
-3.011209368705749512e-01 1.122994869947433472e-01 1.346367895603179932e-01
-2.692875862121582031e-01 2.541885077953338623e-01 -5.641135945916175842e-02
-2.556209564208984375e-01 1.297804713249206543e-01 -5.132722854614257812e-01
-4.032864570617675781e-01 2.423627376556396484e-01 2.950938642024993896e-01
-1.423890143632888794e-01 1.371001452207565308e-01 1.826686859130859375e-01
-4.559001028537750244e-01 7.139598578214645386e-02 -3.407665491104125977e-01
-5.129869580268859863e-01 1.033406779170036316e-01 -6.361317634582519531e-02
-5.175608396530151367e-01 1.876761317253112793e-01 -7.209271192550659180e-02
-1.625090837478637695e-03 1.710830032825469971e-01 2.038847655057907104e-02
-2.362527102231979370e-01 2.822355031967163086e-01 2.023533433675765991e-01
-9.527890384197235107e-02 1.434905529022216797e-01 1.482412070035934448e-01
-4.274755716323852539e-01 2.365410774946212769e-01 1.430276483297348022e-01
-2.253050208091735840e-01 1.559091210365295410e-01 3.548001945018768311e-01
-6.259147822856903076e-02 1.660480052232742310e-01 2.515362203121185303e-01
-8.616177737712860107e-02 2.884015142917633057e-01 5.260002017021179199e-01
-5.195025205612182617e-01 9.797434508800506592e-02 -1.181429624557495117e-01
-2.402089983224868774e-01 1.129126176238059998e-01 1.084490567445755005e-01
-3.957104682922363281e-01 1.702494174242019653e-01 3.548430502414703369e-01
-5.234414935111999512e-01 8.735083043575286865e-02 -2.531183362007141113e-01
-3.237701058387756348e-01 7.821821421384811401e-02 -1.729648858308792114e-01
-3.075242340564727783e-01 2.043332457542419434e-01 4.945405721664428711e-01
-2.504403293132781982e-01 8.427266031503677368e-02 -2.280073165893554688e-01
-4.160590469837188721e-01 8.571536839008331299e-02 -7.521469891071319580e-02
-1.133471578359603882e-01 1.452067196369171143e-01 1.974896788597106934e-01
-3.302791714668273926e-01 9.944864362478256226e-02 -5.384313464164733887e-01
-6.833213567733764648e-02 1.910009384155273438e-01 3.991809785366058350e-01
-4.846320152282714844e-01 1.492534875869750977e-01 -4.019052386283874512e-01
-1.782989650964736938e-01 1.926330029964447021e-01 -3.613711595535278320e-01
-3.800587058067321777e-01 7.206577807664871216e-02 -2.363796830177307129e-01
-5.029219985008239746e-01 1.522451937198638916e-01 1.566934138536453247e-01
-4.046280384063720703e-01 2.206389307975769043e-01 -1.440383493900299072e-01
-4.817973375320434570e-01 7.592527568340301514e-02 -3.867046833038330078e-01
-2.888004183769226074e-01 2.607898414134979248e-01 2.046876586973667145e-02
-1.168841719627380371e-01 1.557054966688156128e-01 2.736923694610595703e-01
-4.019351601600646973e-01 2.263073772192001343e-01 -1.036801040172576904e-01
-5.356343984603881836e-01 1.652394086122512817e-01 6.310948729515075684e-02
-3.186754882335662842e-01 2.658115029335021973e-01 1.405881643295288086e-01
-5.447186231613159180e-01 1.263605803251266479e-01 -3.397394716739654541e-01
-2.820203602313995361e-01 2.561739087104797363e-01 -2.900093048810958862e-02
-2.071472704410552979e-01 1.904407143592834473e-01 -3.805761337280273438e-01
-3.412833809852600098e-01 2.453115284442901611e-01 -4.751527681946754456e-02
-1.181241571903228760e-01 2.798776030540466309e-01 1.098385006189346313e-01
-9.627531468868255615e-02 1.526744216680526733e-01 2.223196029663085938e-01
-1.612594127655029297e-01 1.127279475331306458e-01 -3.575486838817596436e-01
-1.299409568309783936e-01 1.480498909950256348e-01 2.420143336057662964e-01
-5.536369085311889648e-01 1.271896958351135254e-01 -6.874422729015350342e-02
9.381204843521118164e-03 1.911375224590301514e-01 2.243250012397766113e-01
-2.948364019393920898e-01 2.566792964935302734e-01 5.040804147720336914e-01
-4.516775608062744141e-01 2.266703546047210693e-01 1.280687302350997925e-01
-1.186963170766830444e-01 2.142407149076461792e-01 5.263780951499938965e-01
-1.662266254425048828e-01 2.737472653388977051e-01 5.293393880128860474e-02
-3.583920598030090332e-01 2.470632642507553101e-01 4.184103310108184814e-01
-2.002547234296798706e-01 2.691920697689056396e-01 2.345448173582553864e-02
-3.534594178199768066e-01 1.681189388036727905e-01 3.813253641128540039e-01
-2.875502109527587891e-01 2.701806128025054932e-01 1.252253055572509766e-01
-7.601508498191833496e-02 1.966026872396469116e-01 4.324682056903839111e-01
-4.217685759067535400e-01 1.775203794240951538e-01 3.421860039234161377e-01
-1.539340615272521973e-01 1.137212887406349182e-01 -1.750338077545166016e-02
-1.726345866918563843e-01 1.129579395055770874e-01 1.954698562622070312e-02
-2.432416528463363647e-01 1.575115025043487549e-01 -4.751166999340057373e-01
-2.346264123916625977e-01 2.257755100727081299e-01 5.606771111488342285e-01
4.177302122116088867e-02 2.101241648197174072e-01 1.521507203578948975e-01
-3.379399776458740234e-01 1.079259961843490601e-01 1.100010871887207031e-01
-4.466068744659423828e-02 1.654111146926879883e-01 2.042454928159713745e-01
-3.081981539726257324e-01 7.483486831188201904e-02 -3.057813942432403564e-01
-3.508222103118896484e-02 2.895342409610748291e-01 3.065730929374694824e-01
-3.956764936447143555e-02 1.789702028036117554e-01 2.874858081340789795e-01
-3.752916157245635986e-01 7.762306183576583862e-02 -4.840252995491027832e-01
-3.485891520977020264e-01 2.623911201953887939e-01 2.977803349494934082e-01
-2.587835192680358887e-01 2.753618061542510986e-01 1.404941976070404053e-01
-1.271028816699981689e-01 2.685376703739166260e-01 1.556937396526336670e-02
-1.914550960063934326e-01 1.701370775699615479e-01 4.056844711303710938e-01
1.054400205612182617e-02 1.795979291200637817e-01 5.324667692184448242e-02
-4.908364415168762207e-01 1.759656071662902832e-01 -2.695711255073547363e-01
-4.370434582233428955e-02 1.535117626190185547e-01 -1.698307543992996216e-01
-3.287012577056884766e-01 2.679807543754577637e-01 2.579226195812225342e-01
4.234400391578674316e-02 2.192605137825012207e-01 9.005518257617950439e-02
-1.531033813953399658e-01 2.669922113418579102e-01 5.914283394813537598e-01
-1.925610303878784180e-01 2.589920759201049805e-01 -5.612641200423240662e-02
-2.757167220115661621e-01 9.774474054574966431e-02 -4.964905381202697754e-01
-1.152957230806350708e-01 1.341369599103927612e-01 1.092587113380432129e-01
-3.051378726959228516e-01 2.245257496833801270e-01 -2.276077866554260254e-01
1.264610886573791504e-02 2.678333520889282227e-01 4.522852599620819092e-01
-3.922292590141296387e-01 1.934487968683242798e-01 -3.246060609817504883e-01
-1.824419200420379639e-01 2.588407993316650391e-01 5.916175246238708496e-01
-5.270908474922180176e-01 8.887531608343124390e-02 -3.517062067985534668e-01
-1.234537065029144287e-01 2.202795147895812988e-01 -2.362045943737030029e-01
-2.189543843269348145e-01 2.761926651000976562e-01 1.007582694292068481e-01
-4.277431964874267578e-01 2.089208513498306274e-01 -1.877425760030746460e-01
-6.328634917736053467e-02 1.864067763090133667e-01 3.705763518810272217e-01
-2.462024241685867310e-01 2.653219699859619141e-01 1.767267286777496338e-02
-3.574242293834686279e-01 1.593632400035858154e-01 -4.753096997737884521e-01
-2.416687458753585815e-01 8.554768562316894531e-02 -3.173066973686218262e-01
-1.957598775625228882e-01 2.881550788879394531e-01 2.352397888898849487e-01
-3.983673751354217529e-01 1.294213235378265381e-01 2.086561471223831177e-01
-4.891937971115112305e-02 2.841388583183288574e-01 5.180576443672180176e-01
-1.641508042812347412e-01 2.519004642963409424e-01 -1.015338599681854248e-01
-6.712935864925384521e-02 2.944958508014678955e-01 4.409749507904052734e-01
-4.841281771659851074e-01 2.101396769285202026e-01 3.346858173608779907e-02
-2.715733349323272705e-01 2.684913873672485352e-01 7.673075050115585327e-02
-1.517472118139266968e-01 1.230789721012115479e-01 8.098529279232025146e-02
-4.964877367019653320e-01 8.154661953449249268e-02 -2.267701327800750732e-01
-4.745507538318634033e-01 2.158490121364593506e-01 8.331110328435897827e-02
-2.122113704681396484e-01 9.572540968656539917e-02 -1.132685691118240356e-01
-2.682572603225708008e-01 8.045202493667602539e-02 -3.050474226474761963e-01
-1.683043539524078369e-01 1.906664520502090454e-01 4.753798842430114746e-01
-5.462844669818878174e-02 2.524342238903045654e-01 -3.361003100872039795e-02
-1.973219513893127441e-01 9.608386456966400146e-02 -1.663504987955093384e-01
-1.366245746612548828e-02 2.872303724288940430e-01 3.806411921977996826e-01
-3.140308260917663574e-01 1.686442047357559204e-01 4.017744958400726318e-01
-2.056162506341934204e-01 1.094826832413673401e-01 4.152901470661163330e-02
-2.053196728229522705e-02 2.107764929533004761e-01 4.119998812675476074e-01
-1.989139020442962646e-01 2.768820226192474365e-01 5.479739308357238770e-01
-4.379963576793670654e-01 1.601387262344360352e-01 2.829954624176025391e-01
-3.614374101161956787e-01 9.956590086221694946e-02 5.111460760235786438e-02
-4.420252442359924316e-01 2.269297093152999878e-01 2.453954517841339111e-01
-3.941464424133300781e-01 8.303175121545791626e-02 -5.138747692108154297e-01
-3.349816203117370605e-01 1.347267776727676392e-01 2.602946162223815918e-01
-3.820088505744934082e-01 6.991820037364959717e-02 -3.934326171875000000e-01
-2.307918518781661987e-01 8.735658228397369385e-02 -2.519204914569854736e-01
-1.763716340065002441e-01 2.928242087364196777e-01 3.062296211719512939e-01
2.343276143074035645e-02 1.918878257274627686e-01 1.379987597465515137e-01
-6.031423807144165039e-03 2.850581109523773193e-01 3.479537069797515869e-01
4.896235466003417969e-02 2.234274744987487793e-01 1.849166601896286011e-01
-4.149647355079650879e-01 7.364994287490844727e-02 -2.125753462314605713e-01
-2.013222277164459229e-01 9.431453794240951538e-02 -2.935322225093841553e-01
-5.420560836791992188e-01 1.586659699678421021e-01 3.616993874311447144e-02
-3.700462877750396729e-01 7.658445090055465698e-02 -1.658117920160293579e-01
-4.996640384197235107e-01 1.371733844280242920e-01 1.215986013412475586e-01
-9.918390214443206787e-02 1.769869476556777954e-01 -3.244686424732208252e-01
-6.475849449634552002e-02 2.919618487358093262e-01 4.796377718448638916e-01
-3.279648423194885254e-01 1.808618009090423584e-01 -4.158144295215606689e-01
-3.386742174625396729e-01 1.431096792221069336e-01 2.971544861793518066e-01
-2.842536866664886475e-01 2.728265523910522461e-01 1.566133052110671997e-01
-1.548998951911926270e-01 2.955830693244934082e-01 3.725586533546447754e-01
-4.149752259254455566e-01 9.790359437465667725e-02 2.147519402205944061e-02
-3.841804862022399902e-01 8.276840299367904663e-02 -9.298190474510192871e-02
-1.516937613487243652e-01 1.068362072110176086e-01 -1.834572851657867432e-01
-1.066793948411941528e-01 1.250484287738800049e-01 -2.882113307714462280e-02
-5.805547535419464111e-02 2.930706143379211426e-01 3.224376738071441650e-01
-4.683790802955627441e-01 1.453867107629776001e-01 1.999755948781967163e-01
-8.949038386344909668e-02 1.619203686714172363e-01 2.730101048946380615e-01
-8.608098328113555908e-02 2.800445258617401123e-01 1.265611797571182251e-01
-2.093617916107177734e-01 1.491960436105728149e-01 -4.686148166656494141e-01
-2.735080122947692871e-01 8.445803821086883545e-02 -1.499371677637100220e-01
-4.933339953422546387e-01 7.926118373870849609e-02 -2.549407184123992920e-01
-2.790095806121826172e-01 2.228355109691619873e-01 -2.492205500602722168e-01
-3.722721636295318604e-01 1.066357791423797607e-01 9.709228575229644775e-02
3.374627232551574707e-02 2.168701887130737305e-01 3.488811850547790527e-02
-3.613193333148956299e-01 1.930304169654846191e-01 -3.512468338012695312e-01
-4.439422190189361572e-01 2.084259092807769775e-01 3.178930878639221191e-01
-4.119493663311004639e-01 7.387145608663558960e-02 -4.592655599117279053e-01
-2.660311758518218994e-01 1.460967361927032471e-01 3.176201879978179932e-01
-1.682467162609100342e-01 1.792285740375518799e-01 4.328711628913879395e-01
-3.189033269882202148e-01 2.428528517484664917e-01 -9.699037671089172363e-02
-5.302024483680725098e-01 1.811074912548065186e-01 -3.876508772373199463e-02
-1.160405278205871582e-01 1.351628303527832031e-01 -3.381882309913635254e-01
-3.497422337532043457e-01 1.126678660511970520e-01 1.391465216875076294e-01
-2.646589577198028564e-01 2.642469704151153564e-01 5.225954651832580566e-01
-4.830455183982849121e-01 1.833326965570449829e-01 -2.433823943138122559e-01
-1.444149315357208252e-01 1.506703794002532959e-01 2.754921913146972656e-01
-5.632870197296142578e-01 1.277231574058532715e-01 -2.280484139919281006e-01
1.038265228271484375e-02 2.182766050100326538e-01 3.765191733837127686e-01
-3.642010688781738281e-02 1.512491405010223389e-01 -3.023108467459678650e-02
-1.371340155601501465e-01 1.425657719373703003e-01 2.145689278841018677e-01
-4.586152434349060059e-01 2.227835953235626221e-01 1.701664775609970093e-01
-4.593064188957214355e-01 1.187317222356796265e-01 1.054116040468215942e-01
-2.792235612869262695e-01 8.661792427301406860e-02 -1.084003001451492310e-01
2.180406451225280762e-02 2.397819459438323975e-01 4.720329493284225464e-02
-6.677821278572082520e-03 2.047062963247299194e-01 -1.182860732078552246e-01
-3.398678600788116455e-01 7.194858044385910034e-02 -3.680930733680725098e-01
-1.067676693201065063e-01 2.466917932033538818e-01 5.839027166366577148e-01
4.440468549728393555e-02 2.515661716461181641e-01 3.331111073493957520e-01
-2.981961667537689209e-01 1.970189362764358521e-01 -3.624700605869293213e-01
-3.661373853683471680e-01 2.461025118827819824e-01 8.084702305495738983e-03
-1.798812747001647949e-01 1.288705915212631226e-01 1.699970960617065430e-01
-1.001596450805664062e-02 2.715363800525665283e-01 4.985462129116058350e-01
-1.368695497512817383e-01 2.323912680149078369e-01 -1.939937919378280640e-01
-1.661131083965301514e-01 1.034438982605934143e-01 -2.665449976921081543e-01
-2.019771635532379150e-01 2.143471837043762207e-01 5.469765067100524902e-01
-2.445629686117172241e-01 9.347092360258102417e-02 -7.310476899147033691e-02
-5.466914176940917969e-01 1.655642539262771606e-01 -9.444893896579742432e-02
-2.138464450836181641e-01 2.898776531219482422e-01 3.786029219627380371e-01
-3.588010370731353760e-02 2.909411489963531494e-01 4.273068606853485107e-01
-4.000659584999084473e-01 1.535323262214660645e-01 3.021679520606994629e-01
-1.559378802776336670e-01 1.284202784299850464e-01 1.351196318864822388e-01
-5.017096996307373047e-01 8.624968677759170532e-02 -1.807945072650909424e-01
-3.418833017349243164e-01 7.140998542308807373e-02 -3.300834000110626221e-01
-5.419635772705078125e-01 1.505218446254730225e-01 -2.582966089248657227e-01
-4.232901930809020996e-01 1.622046381235122681e-01 -4.277200698852539062e-01
-6.865437328815460205e-02 1.548052281141281128e-01 1.808286905288696289e-01
-4.373815059661865234e-01 2.239526212215423584e-01 -3.191136196255683899e-02
-6.824357807636260986e-02 2.715696394443511963e-01 7.195858657360076904e-02
-2.224465757608413696e-01 2.374297380447387695e-01 -1.849531382322311401e-01
-4.961323142051696777e-01 1.595124900341033936e-01 -3.416717648506164551e-01
-7.675963640213012695e-02 1.578896939754486084e-01 -2.906287014484405518e-01
-3.937580585479736328e-01 2.441172003746032715e-01 3.238749504089355469e-01
-9.795980155467987061e-02 2.740738391876220703e-01 6.940794736146926880e-02
-3.572479784488677979e-01 2.582955360412597656e-01 1.583483368158340454e-01
-4.356454312801361084e-02 2.598398923873901367e-01 5.511566996574401855e-01
-1.581408381462097168e-01 2.659518122673034668e-01 -8.596904575824737549e-03
-5.528045296669006348e-01 1.555798649787902832e-01 -1.550281941890716553e-01
-5.491815805435180664e-01 1.538842022418975830e-01 -2.003546804189682007e-01
-1.241567730903625488e-01 1.359075307846069336e-01 1.432847231626510620e-01
-1.762108802795410156e-01 1.218881309032440186e-01 1.107737123966217041e-01
-2.293192744255065918e-01 2.869176864624023438e-01 2.888062298297882080e-01
-3.527944684028625488e-01 2.517756223678588867e-01 4.060992598533630371e-02
-4.081383347511291504e-01 2.011418789625167847e-01 -2.666159868240356445e-01
-5.824327468872070312e-03 2.434666007757186890e-01 -4.229962825775146484e-03
-3.717318177223205566e-01 2.083241194486618042e-01 -2.667608857154846191e-01
-4.922063350677490234e-01 9.336672723293304443e-02 -4.705352783203125000e-01
-3.874967098236083984e-01 2.380553781986236572e-01 -2.621237933635711670e-02
-5.635979175567626953e-01 1.242906004190444946e-01 -1.615588217973709106e-01
-1.822950839996337891e-01 2.911474108695983887e-01 4.595761597156524658e-01
-3.925662636756896973e-01 2.084731757640838623e-01 -2.433126270771026611e-01
-1.336898058652877808e-01 2.018888294696807861e-01 4.974080026149749756e-01
-4.100565314292907715e-01 2.377726286649703979e-01 4.148287326097488403e-02
-3.366060554981231689e-01 7.746671140193939209e-02 -4.553016424179077148e-01
2.594122290611267090e-02 2.552744746208190918e-01 1.366501748561859131e-01
-1.894996166229248047e-01 2.924998998641967773e-01 4.031507968902587891e-01
-1.602259278297424316e-01 2.786779701709747314e-01 9.633882343769073486e-02
-2.076341658830642700e-01 2.843509018421173096e-01 1.899419128894805908e-01
-3.966977000236511230e-01 7.739770412445068359e-02 -1.546530723571777344e-01
-2.673884332180023193e-01 2.013735920190811157e-01 5.074130296707153320e-01
-1.169092357158660889e-01 2.962708473205566406e-01 4.389507770538330078e-01
-8.725069463253021240e-02 2.914626896381378174e-01 2.537244856357574463e-01
-2.809038758277893066e-01 2.373017966747283936e-01 -1.658556014299392700e-01
-4.840912818908691406e-01 2.066950649023056030e-01 -3.409877419471740723e-02
-4.556602835655212402e-01 2.230936288833618164e-01 5.155473574995994568e-02
-2.727056145668029785e-01 2.773001790046691895e-01 2.033408880233764648e-01
-2.794518172740936279e-01 1.408130079507827759e-01 2.935816049575805664e-01
-3.255313634872436523e-01 1.927045434713363647e-01 4.612680971622467041e-01
-3.880525827407836914e-01 9.046934545040130615e-02 -2.354658395051956177e-02
-4.738406538963317871e-01 2.129268646240234375e-01 -4.123535007238388062e-03
-6.960804760456085205e-02 1.369242519140243530e-01 -3.799756243824958801e-02
-4.929398298263549805e-01 1.570594757795333862e-01 1.880578696727752686e-01
-2.706395983695983887e-01 1.662658601999282837e-01 -4.637940526008605957e-01
-4.328197836875915527e-01 2.276064604520797729e-01 -4.545101895928382874e-03
-1.667682379484176636e-01 2.066653668880462646e-01 -3.107742667198181152e-01
-3.111721575260162354e-01 8.859919011592864990e-02 -5.378835275769233704e-02
-2.591695189476013184e-01 1.826985478401184082e-01 -4.163615107536315918e-01
4.378437995910644531e-02 2.187481969594955444e-01 2.338127642869949341e-01
-3.742519915103912354e-01 2.161619067192077637e-01 -2.182447016239166260e-01
3.463521599769592285e-02 2.519345879554748535e-01 3.900317847728729248e-01
-1.330770254135131836e-01 1.134159788489341736e-01 -1.198139786720275879e-01
-4.806641340255737305e-01 2.117898911237716675e-01 1.378675550222396851e-01
-4.530200660228729248e-01 9.292522072792053223e-02 -5.141009092330932617e-01
-9.698814153671264648e-02 2.208295613527297974e-01 -2.133040130138397217e-01
-3.725537657737731934e-01 1.328868418931961060e-01 2.387111634016036987e-01
-1.135494709014892578e-01 2.949621677398681641e-01 4.690023660659790039e-01
-1.166608184576034546e-01 1.295057982206344604e-01 6.610945612192153931e-02
-3.198690712451934814e-02 1.536900550127029419e-01 -6.959921121597290039e-02
-2.331248819828033447e-01 2.151305973529815674e-01 -2.940304279327392578e-01
-1.574017107486724854e-02 1.914101690053939819e-01 3.077108263969421387e-01
-4.249948263168334961e-01 7.162004709243774414e-02 -4.279196560382843018e-01
-4.162497818470001221e-01 6.917478889226913452e-02 -3.255856037139892578e-01
-2.591842412948608398e-01 2.511826157569885254e-01 5.538367629051208496e-01
-4.678273200988769531e-01 1.644829958677291870e-01 2.496585994958877563e-01
-4.403476119041442871e-01 9.869037568569183350e-02 8.796440437436103821e-03
-4.226078391075134277e-01 2.054112851619720459e-01 3.661604523658752441e-01
-3.369826078414916992e-01 1.455976516008377075e-01 -5.129812359809875488e-01
-3.719316422939300537e-02 2.425457090139389038e-01 5.264449715614318848e-01
-3.208885192871093750e-01 2.593958079814910889e-01 5.839768052101135254e-02
-1.694180518388748169e-01 1.062789037823677063e-01 -7.746385037899017334e-02
-4.100381135940551758e-01 2.416225373744964600e-01 1.120847016572952271e-01
-4.816919565200805664e-02 1.492947638034820557e-01 4.688128083944320679e-02
-2.437419295310974121e-01 1.042835041880607605e-01 -4.789774417877197266e-01
-4.161214530467987061e-01 1.941111981868743896e-01 -2.953010499477386475e-01
-3.517166972160339355e-01 9.361284226179122925e-02 5.564562976360321045e-03
-1.316875368356704712e-01 1.172176674008369446e-01 -4.471166804432868958e-02
-4.619089365005493164e-01 1.842169761657714844e-01 -2.811447083950042725e-01
-4.022517800331115723e-02 2.126425206661224365e-01 4.499683380126953125e-01
-1.831854730844497681e-01 1.061822101473808289e-01 -3.742021322250366211e-02
-3.187816143035888672e-01 8.500237762928009033e-02 -8.756169676780700684e-02
