-9.882154315710067749e-02 -2.683835625648498535e-01 -4.244734719395637512e-02
-1.177029535174369812e-01 -3.412001430988311768e-01 -2.048875764012336731e-02
-1.600901484489440918e-01 -2.756841480731964111e-01 1.525021344423294067e-02
-8.017071336507797241e-02 -3.410503268241882324e-01 6.732986122369766235e-02
-1.338474750518798828e-01 -2.565411627292633057e-01 -3.931339830160140991e-03
-8.508086204528808594e-02 -3.536917865276336670e-01 4.371225088834762573e-02
-1.452852785587310791e-02 -3.381184041500091553e-01 2.092836797237396240e-02
-1.585857570171356201e-01 -2.765205800533294678e-01 2.519307099282741547e-02
-4.363801330327987671e-02 -2.992576360702514648e-01 2.900080196559429169e-02
-1.166182011365890503e-01 -2.724636197090148926e-01 -5.643019452691078186e-02
-9.888835251331329346e-03 -3.546302318572998047e-01 1.026055216789245605e-02
-1.278157681226730347e-01 -2.950586676597595215e-01 7.109828293323516846e-02
-8.627438545227050781e-02 -2.684366106986999512e-01 1.971828192472457886e-02
-2.563083171844482422e-02 -3.571814596652984619e-01 -6.297893077135086060e-02
-6.771645694971084595e-02 -3.695367574691772461e-01 -2.692705020308494568e-04
-6.597520411014556885e-02 -2.807627618312835693e-01 -3.574660792946815491e-02
-8.454360067844390869e-03 -3.597013950347900391e-01 -1.485456712543964386e-03
-1.435668319463729858e-01 -2.588126361370086670e-01 1.844599097967147827e-02
-8.965149521827697754e-02 -3.395230472087860107e-01 -7.404805719852447510e-02
-9.447085857391357422e-02 -3.530207872390747070e-01 -4.115928709506988525e-02
-3.775650635361671448e-02 -3.748059868812561035e-01 -2.495101280510425568e-02
-4.971604421734809875e-02 -3.701860308647155762e-01 -4.321674257516860962e-02
-4.530002549290657043e-02 -3.027648031711578369e-01 4.091691225767135620e-02
-1.098791211843490601e-01 -2.641361355781555176e-01 -3.675312921404838562e-02
-8.217977732419967651e-02 -3.628361821174621582e-01 1.252243481576442719e-02
-7.527113705873489380e-02 -2.738173902034759521e-01 1.842352747917175293e-02
-1.207861974835395813e-01 -3.149824738502502441e-01 6.819666177034378052e-02
-1.209422051906585693e-01 -2.578442096710205078e-01 1.984386146068572998e-02
-1.592850238084793091e-01 -2.720510065555572510e-01 -3.612078726291656494e-04
-1.300527602434158325e-01 -3.045601546764373779e-01 -6.277802586555480957e-02
-8.697608113288879395e-02 -3.208629786968231201e-01 7.932488620281219482e-02
-4.860210418701171875e-02 -3.692673146724700928e-01 2.554056234657764435e-02
-2.617321163415908813e-02 -3.198382556438446045e-01 -5.219121649861335754e-02
-8.989856392145156860e-02 -2.736604213714599609e-01 4.583140835165977478e-02
-9.003787487745285034e-02 -3.565670251846313477e-01 -3.738118335604667664e-02
-5.407679080963134766e-02 -2.866266965866088867e-01 1.254487223923206329e-02
-4.379564896225929260e-02 -2.943190932273864746e-01 8.670831099152565002e-03
-2.350450307130813599e-02 -3.146468102931976318e-01 -2.741154655814170837e-02
-1.463165879249572754e-01 -2.695920467376708984e-01 -3.348219767212867737e-02
-4.051162675023078918e-02 -3.119223117828369141e-01 4.678718373179435730e-02
-7.201599329710006714e-02 -2.910662591457366943e-01 -6.909122318029403687e-02
-1.048157885670661926e-01 -3.284911215305328369e-01 6.832945346832275391e-02
-1.024234741926193237e-01 -3.305978477001190186e-01 -7.274767011404037476e-02
-6.716022640466690063e-02 -2.776370644569396973e-01 -2.130401134490966797e-02
-1.245927363634109497e-01 -2.586924433708190918e-01 2.712597884237766266e-02
-1.031027436256408691e-01 -2.809821665287017822e-01 -6.819887459278106689e-02
-6.185441464185714722e-02 -3.715626001358032227e-01 -6.684157066047191620e-03
-1.319067776203155518e-01 -3.303413689136505127e-01 6.837971042841672897e-03
-1.546816378831863403e-01 -2.941119968891143799e-01 3.153586387634277344e-02
-7.379160076379776001e-02 -3.449539542198181152e-01 -7.797592878341674805e-02
-1.337288171052932739e-01 -3.087081313133239746e-01 5.952064692974090576e-02
-7.653375715017318726e-02 -2.840341627597808838e-01 -6.078827753663063049e-02
-2.809732034802436829e-02 -3.186292350292205811e-01 3.185065090656280518e-02
-8.528411388397216797e-03 -3.482342660427093506e-01 6.379508879035711288e-03
-7.637571543455123901e-02 -3.596758842468261719e-01 -5.035584047436714172e-02
-1.428559273481369019e-01 -3.088910579681396484e-01 -3.642029687762260437e-02
-6.400419771671295166e-02 -3.200653493404388428e-01 -8.807274699211120605e-02
-1.187932491302490234e-02 -3.555250465869903564e-01 -4.497529938817024231e-02
-9.718666225671768188e-02 -3.545846641063690186e-01 1.829290576279163361e-02
-6.393936276435852051e-02 -3.620518445968627930e-01 -5.673846974968910217e-02
-1.565569043159484863e-01 -2.929866909980773926e-01 2.516403980553150177e-02
-1.036666035652160645e-01 -2.712026536464691162e-01 -5.244551971554756165e-02
-1.208629012107849121e-01 -3.278851509094238281e-01 -5.236735567450523376e-02
-1.314216703176498413e-01 -3.309048116207122803e-01 -1.873287605121731758e-03
-1.928370445966720581e-02 -3.241033852100372314e-01 -4.099616408348083496e-02
-1.370780169963836670e-02 -3.411057591438293457e-01 -4.863252863287925720e-02
-2.047538012266159058e-02 -3.429028689861297607e-01 3.585480898618698120e-02
-4.200891777873039246e-02 -3.693850338459014893e-01 2.558762766420841217e-02
-4.119750484824180603e-02 -3.198387622833251953e-01 -7.486902922391891479e-02
-3.695690259337425232e-02 -2.991646230220794678e-01 -7.831637747585773468e-03
-1.288135796785354614e-01 -3.182485401630401611e-01 5.544617027044296265e-02
-2.288584411144256592e-02 -3.370622992515563965e-01 -6.391240656375885010e-02
-1.426046192646026611e-01 -3.048206269741058350e-01 4.938300326466560364e-02
-1.304463148117065430e-01 -3.067426681518554688e-01 6.496353447437286377e-02
-9.386631101369857788e-02 -2.637444436550140381e-01 -4.609034862369298935e-03
-3.852514922618865967e-02 -2.998076975345611572e-01 -3.146337717771530151e-02
-5.915199592709541321e-02 -3.688438236713409424e-01 -4.015590623021125793e-02
-6.938438117504119873e-02 -3.656038045883178711e-01 -3.977511078119277954e-02
-1.111123487353324890e-01 -3.336033523082733154e-01 -5.863250419497489929e-02
-6.272874772548675537e-03 -3.479278683662414551e-01 -1.973788253962993622e-02
-1.129276081919670105e-01 -3.074846565723419189e-01 -7.764609158039093018e-02
-9.627059847116470337e-02 -3.406648039817810059e-01 5.909570306539535522e-02
-1.453295946121215820e-01 -3.156130015850067139e-01 7.711071055382490158e-03
-9.543429315090179443e-02 -2.858189344406127930e-01 6.961007416248321533e-02
-2.181513980031013489e-02 -3.154363632202148438e-01 -1.412217877805233002e-02
-1.360540837049484253e-02 -3.659008741378784180e-01 3.829502966254949570e-03
-8.412850648164749146e-02 -3.497133851051330566e-01 -6.416674703359603882e-02
-1.068267524242401123e-01 -2.696627080440521240e-01 5.108550935983657837e-02
-2.277735993266105652e-02 -3.226901888847351074e-01 2.463133819401264191e-02
-8.054232597351074219e-02 -3.189406394958496094e-01 -8.896153420209884644e-02
-1.521919667720794678e-01 -2.637227773666381836e-01 2.126371860504150391e-02
-1.551467776298522949e-01 -2.653373479843139648e-01 -2.370964735746383667e-03
-9.778945147991180420e-02 -2.903099358081817627e-01 -7.737142592668533325e-02
-1.422570943832397461e-01 -2.801468968391418457e-01 -4.832220822572708130e-02
-3.760744631290435791e-02 -3.721027970314025879e-01 1.567447371780872345e-02
-8.198744058609008789e-02 -3.459924459457397461e-01 6.050945818424224854e-02
-6.739201396703720093e-02 -2.880558371543884277e-01 4.902046918869018555e-02
-1.520078480243682861e-01 -3.053162693977355957e-01 1.501119695603847504e-02
-1.213978677988052368e-01 -3.367318212985992432e-01 2.701317332684993744e-02
-6.272293627262115479e-02 -3.049799501895904541e-01 6.636136770248413086e-02
-3.890546038746833801e-02 -3.591232597827911377e-01 4.461435601115226746e-02
-6.630567461252212524e-02 -3.501655757427215576e-01 -7.540450245141983032e-02
-6.293729692697525024e-02 -2.811908721923828125e-01 -2.864419855177402496e-02
-1.241694316267967224e-01 -2.654241919517517090e-01 -4.241925850510597229e-02
-1.463114619255065918e-01 -2.861859798431396484e-01 -4.445344209671020508e-02
-1.228242889046669006e-01 -2.765493392944335938e-01 -6.022210419178009033e-02
-1.163808852434158325e-01 -3.423685729503631592e-01 1.721835508942604065e-02
-7.584010064601898193e-02 -3.274471163749694824e-01 7.696882635354995728e-02
-1.186243593692779541e-01 -3.106571733951568604e-01 7.271309196949005127e-02
-5.737292766571044922e-02 -2.987140119075775146e-01 5.355307087302207947e-02
-8.457277715206146240e-02 -2.867968082427978516e-01 -7.065580785274505615e-02
-6.575509905815124512e-02 -3.132205009460449219e-01 -8.625280857086181641e-02
-1.062838062644004822e-01 -2.858478426933288574e-01 7.264000177383422852e-02
-1.561126112937927246e-01 -2.969985008239746094e-01 1.758228614926338196e-02
-7.907544076442718506e-02 -2.792846262454986572e-01 4.607416316866874695e-02
-1.508639901876449585e-01 -2.616009712219238281e-01 1.454922556877136230e-02
-3.863758966326713562e-02 -3.305471241474151611e-01 5.754770338535308838e-02
-1.388378739356994629e-01 -2.664977014064788818e-01 -3.697463870048522949e-02
-1.201569885015487671e-01 -3.401969373226165771e-01 1.106788031756877899e-02
-1.379451751708984375e-01 -2.973345816135406494e-01 -5.539462342858314514e-02
-9.070782363414764404e-02 -2.654766738414764404e-01 1.118376292288303375e-02
-1.081570535898208618e-01 -3.328320384025573730e-01 6.008534878492355347e-02
-7.990902662277221680e-02 -2.700703740119934082e-01 -1.226871646940708160e-02
-7.606223225593566895e-02 -2.998435199260711670e-01 -8.122380822896957397e-02
-8.318327367305755615e-02 -3.023291826248168945e-01 7.702592015266418457e-02
-9.840692579746246338e-02 -2.780131101608276367e-01 6.125425547361373901e-02
-4.872575402259826660e-02 -2.968340516090393066e-01 3.511662036180496216e-02
-8.022410422563552856e-02 -3.177283704280853271e-01 7.946677505970001221e-02
-6.042909622192382812e-02 -2.826719582080841064e-01 1.637572236359119415e-02
-6.794350594282150269e-02 -3.286406993865966797e-01 -8.872088789939880371e-02
-3.897662833333015442e-02 -3.754446506500244141e-01 -1.105470955371856689e-02
-4.834537953138351440e-02 -3.719873428344726562e-01 -3.663156926631927490e-02
-9.984025359153747559e-02 -3.539053499698638916e-01 -1.953029818832874298e-02
-6.290256977081298828e-02 -2.907664477825164795e-01 -5.956959351897239685e-02
-7.228089869022369385e-02 -2.895292937755584717e-01 5.760045722126960754e-02
-1.209428459405899048e-01 -3.264764845371246338e-01 5.447062104940414429e-02
-6.007567048072814941e-03 -3.519229292869567871e-01 -1.172284688800573349e-02
-1.039851382374763489e-01 -3.166463375091552734e-01 7.740038633346557617e-02
-5.944353342056274414e-02 -3.697475492954254150e-01 1.686051487922668457e-02
-1.241824030876159668e-01 -3.342417478561401367e-01 -2.777697518467903137e-02
-1.352563947439193726e-01 -3.261164724826812744e-01 -1.340650953352451324e-02
-3.977552801370620728e-02 -3.111118972301483154e-01 -6.354067474603652954e-02
-1.159273982048034668e-01 -2.595141530036926270e-01 2.530159242451190948e-02
-8.880138397216796875e-02 -2.682151794433593750e-01 -2.862112037837505341e-02
-1.392568498849868774e-01 -2.568855881690979004e-01 5.496107507497072220e-03
-4.434825479984283447e-02 -3.749875128269195557e-01 -1.626759208738803864e-02
-4.455306008458137512e-02 -3.115709722042083740e-01 5.248552933335304260e-02
-2.424772828817367554e-02 -3.272299468517303467e-01 3.442971780896186829e-02
-6.715745478868484497e-02 -2.767744660377502441e-01 -9.514464065432548523e-03
-6.212388351559638977e-02 -3.295930922031402588e-01 7.328633964061737061e-02
-6.807371973991394043e-03 -3.578725755214691162e-01 -2.035559713840484619e-02
-1.891094446182250977e-02 -3.361688554286956787e-01 3.046052716672420502e-02
-4.091671854257583618e-02 -3.040750920772552490e-01 3.430834785103797913e-02
-5.073552578687667847e-02 -3.478854894638061523e-01 -7.994220405817031860e-02
-6.273216009140014648e-02 -3.371593952178955078e-01 -8.623755723237991333e-02
-7.829134911298751831e-02 -2.705964744091033936e-01 -1.133007230237126350e-03
-1.590556800365447998e-01 -2.880122661590576172e-01 1.875128224492073059e-02
-8.930123597383499146e-02 -3.583417236804962158e-01 2.039883658289909363e-02
-4.254638031125068665e-02 -2.977683842182159424e-01 2.066451124846935272e-02
-1.205838173627853394e-01 -3.403838276863098145e-01 -1.137051731348037720e-03
-1.555295288562774658e-01 -2.730179131031036377e-01 -1.948349364101886749e-02
-3.691859543323516846e-02 -2.995844483375549316e-01 2.327943220734596252e-04
-1.346878558397293091e-01 -3.219593465328216553e-01 -3.261637687683105469e-02
-1.547266989946365356e-01 -2.667658627033233643e-01 -1.022880151867866516e-02
-1.252397298812866211e-01 -3.264026343822479248e-01 4.760307073593139648e-02
-1.107874289155006409e-01 -3.453349471092224121e-01 2.330284565687179565e-02
-1.469141244888305664e-01 -3.016465008258819580e-01 -3.577288612723350525e-02
-1.492268592119216919e-01 -2.899152636528015137e-01 4.854591935873031616e-02
-7.140048593282699585e-02 -2.760835289955139160e-01 -2.726668305695056915e-02
-2.296762540936470032e-02 -3.717803955078125000e-01 4.316008184105157852e-03
-6.994540244340896606e-02 -2.751700580120086670e-01 1.009512227028608322e-03
-7.780314236879348755e-02 -3.658643662929534912e-01 -1.192321442067623138e-02
-1.232673972845077515e-01 -3.098962306976318359e-01 -6.786494702100753784e-02
-1.046027094125747681e-01 -2.664829492568969727e-01 4.150607064366340637e-02
-1.479820013046264648e-01 -3.115306496620178223e-01 -6.286665797233581543e-03
-1.407696008682250977e-01 -3.143021464347839355e-01 -3.226657584309577942e-02
-9.996271878480911255e-02 -3.268040120601654053e-01 7.277330011129379272e-02
-4.762078076601028442e-02 -2.904719412326812744e-01 2.363057807087898254e-03
-7.606884837150573730e-02 -3.548948466777801514e-01 -6.204606592655181885e-02
-1.079191714525222778e-01 -2.762935757637023926e-01 6.290489435195922852e-02
-6.815554201602935791e-02 -3.544684946537017822e-01 -6.860756129026412964e-02
-2.827326953411102295e-02 -3.078421056270599365e-01 -1.063446328043937683e-02
-1.157015562057495117e-02 -3.315665721893310547e-01 -7.753625046461820602e-03
-2.016834914684295654e-02 -3.723607063293457031e-01 -2.139496244490146637e-02
-1.320114880800247192e-01 -2.604521214962005615e-01 -2.674823999404907227e-02
-8.145757019519805908e-02 -2.701932489871978760e-01 -2.128948643803596497e-02
-2.068839967250823975e-02 -3.217531144618988037e-01 1.561014913022518158e-02
-8.835148066282272339e-02 -2.711867988109588623e-01 3.655282780528068542e-02
-3.590998426079750061e-02 -3.036076426506042480e-01 -3.768166527152061462e-02
-1.126777529716491699e-01 -3.390750885009765625e-01 4.140828922390937805e-02
-9.093847870826721191e-02 -2.938801050186157227e-01 7.482441514730453491e-02
-1.287394464015960693e-01 -3.331277966499328613e-01 -7.911555469036102295e-03
-4.019141942262649536e-02 -3.071632385253906250e-01 -5.760400742292404175e-02
-8.627252280712127686e-02 -2.701164484024047852e-01 2.866540662944316864e-02
-4.006492719054222107e-02 -2.986619174480438232e-01 1.451632753014564514e-02
-1.005957722663879395e-01 -2.905253171920776367e-01 7.512790709733963013e-02
-1.116147041320800781e-01 -2.588302791118621826e-01 -1.048594061285257339e-02
-1.938428729772567749e-02 -3.314864635467529297e-01 -5.341500788927078247e-02
-1.598765999078750610e-01 -2.852883934974670410e-01 -3.526706015691161156e-03
-1.192785128951072693e-01 -3.409742712974548340e-01 -1.163200009614229202e-02
-1.453088074922561646e-01 -2.649169862270355225e-01 -2.662944607436656952e-02
-1.942700147628784180e-02 -3.715994358062744141e-01 -3.387023229151964188e-03
-7.612922787666320801e-02 -3.019583821296691895e-01 7.356868684291839600e-02
-6.210853904485702515e-02 -2.803627550601959229e-01 -1.806580275297164917e-02
-7.085666060447692871e-02 -2.819705009460449219e-01 -4.937149584293365479e-02
-6.731113791465759277e-02 -3.690184652805328369e-01 7.549604866653680801e-03
-1.264380216598510742e-01 -2.643536627292633057e-01 4.562287405133247375e-02
-8.541467040777206421e-02 -2.910996973514556885e-01 6.997951865196228027e-02
-4.274611920118331909e-02 -3.407738804817199707e-01 6.061284244060516357e-02
-1.383720338344573975e-01 -2.917522788047790527e-01 6.280535459518432617e-02
-5.522627383470535278e-02 -3.728586435317993164e-01 -2.072000876069068909e-02
-1.385931670665740967e-02 -3.493277132511138916e-01 -5.133689939975738525e-02
-7.693497091531753540e-02 -2.744211554527282715e-01 2.658293768763542175e-02
-1.348046958446502686e-02 -3.343893885612487793e-01 -4.057877510786056519e-02
-8.588579297065734863e-02 -3.585028946399688721e-01 2.731164358556270599e-02
-1.058848351240158081e-01 -2.597470879554748535e-01 4.281499423086643219e-04
-8.427718281745910645e-02 -3.456308841705322266e-01 -7.052270323038101196e-02
-1.417686790227890015e-01 -3.197564184665679932e-01 -5.063970107585191727e-03
-9.754008054733276367e-02 5.373802781105041504e-01 4.706263425759971142e-04
-2.252942174673080444e-01 5.610299706459045410e-01 -1.808972097933292389e-03
-1.866336464881896973e-01 6.111753582954406738e-01 8.240871131420135498e-03
-7.540386915206909180e-02 6.804487705230712891e-01 -9.181699715554714203e-04
-1.150227338075637817e-01 6.579198837280273438e-01 4.209337290376424789e-03
-3.495749831199645996e-02 6.663312911987304688e-01 -1.314533874392509460e-03
-9.144411981105804443e-02 6.419894695281982422e-01 -1.172094605863094330e-02
-1.856827288866043091e-01 5.704253315925598145e-01 1.031240820884704590e-02
-2.378546446561813354e-01 5.469401478767395020e-01 5.198712926357984543e-03
-9.481833875179290771e-02 6.376022100448608398e-01 6.150152068585157394e-03
-6.502528488636016846e-02 6.873473525047302246e-01 -5.895101930946111679e-03
-4.119122028350830078e-02 6.126030683517456055e-01 -9.330029599368572235e-03
-1.723383367061614990e-02 6.145401000976562500e-01 -5.615615285933017731e-03
-1.766290068626403809e-01 5.268148183822631836e-01 -5.983263836242258549e-04
-4.578480124473571777e-02 6.621138453483581543e-01 6.286845891736447811e-04
-7.074426114559173584e-02 5.884354710578918457e-01 6.328999064862728119e-03
-1.460489034652709961e-01 6.079813838005065918e-01 -1.006165239959955215e-02
-1.559749841690063477e-01 6.437044143676757812e-01 5.633606109768152237e-03
-1.748695373535156250e-01 6.493469476699829102e-01 3.377626417204737663e-03
-5.506658554077148438e-02 6.056090593338012695e-01 -9.744138456881046295e-03
-2.387335896492004395e-01 5.785990953445434570e-01 2.380268415436148643e-05
-7.724794745445251465e-02 6.876041889190673828e-01 -6.471278145909309387e-03
-6.831176578998565674e-02 6.426203250885009766e-01 4.456513561308383942e-03
-1.869940310716629028e-01 5.439092516899108887e-01 9.714902378618717194e-03
-2.123669087886810303e-01 5.354685783386230469e-01 5.394924664869904518e-05
-1.486764252185821533e-01 5.285229086875915527e-01 -1.342611503787338734e-03
-1.666928976774215698e-01 5.459003448486328125e-01 -4.622763954102993011e-03
-1.522989124059677124e-01 6.470579504966735840e-01 -9.012132883071899414e-03
-5.609551072120666504e-02 5.778290033340454102e-01 -6.354095879942178726e-03
-4.538697004318237305e-02 6.142988801002502441e-01 3.896220820024609566e-03
-3.889709711074829102e-02 5.799030065536499023e-01 -3.244781866669654846e-03
-1.376906037330627441e-01 5.400222539901733398e-01 8.313469588756561279e-03
-1.963843852281570435e-01 5.703904032707214355e-01 1.004311535507440567e-02
-1.190561428666114807e-01 5.628771781921386719e-01 -7.358097005635499954e-03
-3.842381387948989868e-02 6.530888676643371582e-01 9.786894079297780991e-04
-6.832903623580932617e-02 5.677507519721984863e-01 -5.750772077590227127e-03
-2.270721495151519775e-01 5.894482135772705078e-01 -2.610783791169524193e-03
-9.865126013755798340e-02 6.126272678375244141e-01 7.878288626670837402e-03
-6.942936778068542480e-02 5.631622076034545898e-01 4.238852765411138535e-03
-1.471522003412246704e-01 6.300517320632934570e-01 7.500228472054004669e-03
-1.443853080272674561e-01 6.220274567604064941e-01 8.247476071119308472e-03
-1.996066421270370483e-01 6.255223751068115234e-01 5.542447790503501892e-03
-1.213924363255500793e-01 6.249560713768005371e-01 -1.118534710258245468e-02
-4.334875941276550293e-02 5.958714485168457031e-01 3.290846245363354683e-03
-9.806149452924728394e-02 5.450671315193176270e-01 -3.273844253271818161e-03
-1.253806352615356445e-01 6.334962844848632812e-01 7.185994647443294525e-03
-8.577734231948852539e-02 6.046535968780517578e-01 7.469174452126026154e-03
-1.133079379796981812e-01 6.355730891227722168e-01 -1.140015665441751480e-02
-1.770130544900894165e-01 5.923485755920410156e-01 9.831180796027183533e-03
-3.005871176719665527e-02 6.251767873764038086e-01 -9.157900698482990265e-03
-1.705269068479537964e-01 6.177395582199096680e-01 8.229479193687438965e-03
-7.351896911859512329e-02 6.278709769248962402e-01 -1.155113428831100464e-02
-5.497794598340988159e-02 6.321045160293579102e-01 4.232425708323717117e-03
-8.706651628017425537e-02 6.369071006774902344e-01 5.903669632971286774e-03
-2.223848402500152588e-01 5.321975946426391602e-01 2.769621321931481361e-03
-1.028799861669540405e-01 5.764042139053344727e-01 -8.704620413482189178e-03
-6.815864145755767822e-02 6.587726473808288574e-01 -1.125732343643903732e-02
-7.555098831653594971e-02 6.639676690101623535e-01 -1.100618112832307816e-02
-1.286831349134445190e-01 5.865706205368041992e-01 9.697796776890754700e-03
-2.339528948068618774e-01 6.040739417076110840e-01 1.328944228589534760e-03
-1.285886168479919434e-01 5.799503326416015625e-01 9.744401089847087860e-03
-6.520691514015197754e-02 5.688300728797912598e-01 4.358062054961919785e-03
-1.634066849946975708e-01 5.753182172775268555e-01 1.041679177433252335e-02
-1.409941762685775757e-01 5.926355123519897461e-01 9.845728985965251923e-03
-1.662291139364242554e-01 5.862830281257629395e-01 1.019054651260375977e-02
-1.810729503631591797e-01 6.516490578651428223e-01 1.863787649199366570e-03
-1.758128404617309570e-01 6.521841287612915039e-01 -5.635393317788839340e-03
-2.206549048423767090e-01 5.718127489089965820e-01 -3.174512181431055069e-03
-1.104756370186805725e-01 6.274796724319458008e-01 -1.146428287029266357e-02
-5.036714673042297363e-02 6.476967334747314453e-01 -1.109810639172792435e-02
-7.237967103719711304e-02 5.817247033119201660e-01 -8.266427554190158844e-03
-9.192322194576263428e-02 5.843499302864074707e-01 -9.289426729083061218e-03
-3.132220357656478882e-02 6.121239066123962402e-01 1.904596108943223953e-03
-2.184771150350570679e-01 5.449706912040710449e-01 -8.865526178851723671e-04
-7.217819988727569580e-02 5.575757026672363281e-01 -3.720446722581982613e-03
-1.219125017523765564e-01 5.467827320098876953e-01 -4.959754645824432373e-03
-4.528653621673583984e-02 6.428645253181457520e-01 2.637039171531796455e-03
-1.391135156154632568e-01 6.770635843276977539e-01 -4.067331552505493164e-03
-5.193359404802322388e-02 6.010892391204833984e-01 4.619362764060497284e-03
-2.263449132442474365e-01 5.456204414367675781e-01 7.713899016380310059e-03
-1.214344426989555359e-01 6.628532409667968750e-01 -9.797439910471439362e-03
-3.969430923461914062e-02 6.728930473327636719e-01 -8.911563083529472351e-03
-1.559288650751113892e-01 5.931233763694763184e-01 -9.138789959251880646e-03
-1.425504982471466064e-01 6.710854172706604004e-01 -6.505862809717655182e-03
-1.127021312713623047e-01 6.759112477302551270e-01 -8.501757867634296417e-03
-1.830128133296966553e-01 6.027689576148986816e-01 9.065309539437294006e-03
-2.267732620239257812e-01 6.060885190963745117e-01 -1.796990633010864258e-03
-2.053215205669403076e-01 5.431231856346130371e-01 9.173111990094184875e-03
-5.649340152740478516e-02 5.844995379447937012e-01 -7.496987003833055496e-03
-8.529029786586761475e-02 5.535827875137329102e-01 5.175515543669462204e-03
-6.570780277252197266e-02 5.835143327713012695e-01 -8.086035959422588348e-03
-1.314951777458190918e-01 5.495905280113220215e-01 -5.593481473624706268e-03
-7.864943146705627441e-02 6.415449976921081543e-01 5.124695599079132080e-03
-1.228759512305259705e-01 5.486559867858886719e-01 8.297196589410305023e-03
-1.912744939327239990e-01 6.286523938179016113e-01 5.838898476213216782e-03
-1.042526736855506897e-01 5.920395255088806152e-01 8.676797151565551758e-03
-7.903454452753067017e-02 6.531597971916198730e-01 3.980533219873905182e-03
-1.711660176515579224e-01 5.478008985519409180e-01 9.960060007870197296e-03
-1.060918271541595459e-01 6.602218747138977051e-01 -1.072016265243291855e-02
-1.903973519802093506e-01 6.248686313629150391e-01 -6.687196902930736542e-03
-9.780351072549819946e-02 6.559150815010070801e-01 4.277114756405353546e-03
-1.246934682130813599e-01 6.695870757102966309e-01 -8.734580129384994507e-03
-1.980719566345214844e-01 5.467498302459716797e-01 9.647738188505172729e-03
-7.071979343891143799e-02 6.093065142631530762e-01 -1.069046929478645325e-02
-9.741792082786560059e-02 5.871914625167846680e-01 8.322849869728088379e-03
-2.022404670715332031e-01 6.099707484245300293e-01 -5.885486956685781479e-03
-7.647220045328140259e-02 5.664227008819580078e-01 5.670711398124694824e-03
-2.286570668220520020e-01 5.727676749229431152e-01 7.813991978764533997e-03
-1.862125098705291748e-01 5.559910535812377930e-01 1.022081915289163589e-02
-1.909203529357910156e-01 5.946968197822570801e-01 9.313962422311306000e-03
-1.469071656465530396e-01 6.347572207450866699e-01 -9.996655397117137909e-03
-1.596404910087585449e-01 5.197098851203918457e-01 4.447643645107746124e-03
-2.094312757253646851e-02 6.021243929862976074e-01 -3.148042131215333939e-03
-8.986931294202804565e-02 6.007346510887145996e-01 -1.056282594799995422e-02
-4.125166684389114380e-02 5.856872797012329102e-01 2.002930734306573868e-03
-1.224764585494995117e-01 5.819855332374572754e-01 9.524880908429622650e-03
-6.032945215702056885e-02 6.525837779045104980e-01 -1.133788004517555237e-02
-9.429836273193359375e-02 5.535590648651123047e-01 6.330228410661220551e-03
-1.146910786628723145e-01 6.227079033851623535e-01 7.868116721510887146e-03
-1.235775873064994812e-01 5.389687418937683105e-01 -3.371243365108966827e-03
-7.006628811359405518e-02 6.179106831550598145e-01 -1.112944539636373520e-02
-2.039247751235961914e-02 6.266497969627380371e-01 -1.308994251303374767e-04
-1.087583824992179871e-01 5.478394627571105957e-01 -4.687088541686534882e-03
-6.513041257858276367e-02 6.703146100044250488e-01 8.235729183070361614e-04
-5.831645429134368896e-02 6.461521387100219727e-01 -1.139039546251296997e-02
-2.338837087154388428e-01 5.517573356628417969e-01 7.000797893851995468e-03
-1.530200690031051636e-01 5.564029812812805176e-01 -6.351268384605646133e-03
-1.423014104366302490e-01 5.380078554153442383e-01 -3.596402704715728760e-03
-6.369061768054962158e-02 6.668150424957275391e-01 -1.069922000169754028e-02
-1.940476298332214355e-01 5.359350442886352539e-01 -1.721762353554368019e-03
-2.023340463638305664e-01 6.347208619117736816e-01 -3.644009353592991829e-03
-1.821120828390121460e-01 6.282688379287719727e-01 -7.429942954331636429e-03
-6.393170356750488281e-02 6.353781819343566895e-01 -1.150124333798885345e-02
-1.959656924009323120e-01 5.789369940757751465e-01 9.858042933046817780e-03
-7.937087118625640869e-02 6.023076176643371582e-01 -1.047159358859062195e-02
-9.933720529079437256e-02 6.648968458175659180e-01 -1.057470962405204773e-02
-1.388491392135620117e-01 5.717235207557678223e-01 -8.218804374337196350e-03
-6.103145331144332886e-02 5.994257330894470215e-01 -9.545658715069293976e-03
-9.090831130743026733e-02 6.288110017776489258e-01 -1.169237866997718811e-02
-1.553950309753417969e-01 6.226621270179748535e-01 8.101463317871093750e-03
-1.224229037761688232e-01 6.251816749572753906e-01 7.847811095416545868e-03
-2.018808722496032715e-01 5.851233601570129395e-01 9.358921088278293610e-03
-1.004340499639511108e-01 5.797360539436340332e-01 8.426535874605178833e-03
-1.531580984592437744e-01 5.803213119506835938e-01 1.028176117688417435e-02
-9.013227373361587524e-02 6.121256947517395020e-01 -1.118898671120405197e-02
-1.620907783508300781e-01 6.503738164901733398e-01 4.207094199955463409e-03
-1.280278265476226807e-01 6.335928440093994141e-01 -1.094285584986209869e-02
-2.080791890621185303e-01 5.251697897911071777e-01 2.696839161217212677e-03
-1.393857896327972412e-01 5.566660761833190918e-01 9.656551294028759003e-03
-2.097973227500915527e-01 5.606543421745300293e-01 9.536080062389373779e-03
-1.121946275234222412e-01 5.904771685600280762e-01 -9.984364733099937439e-03
-9.040305018424987793e-02 6.682938337326049805e-01 2.214698120951652527e-03
-8.325409889221191406e-02 6.803323030471801758e-01 -6.250115693546831608e-04
-2.053636312484741211e-01 6.126963496208190918e-01 6.835075560957193375e-03
-4.703010618686676025e-02 5.870858430862426758e-01 -6.883430294692516327e-03
-5.347175896167755127e-02 6.597914099693298340e-01 -1.087592542171478271e-02
-4.753870517015457153e-02 6.536524891853332520e-01 1.848143991082906723e-03
-8.229819685220718384e-02 6.697614789009094238e-01 -1.049021445214748383e-02
-1.551685631275177002e-01 6.527069211006164551e-01 -8.249387145042419434e-03
-8.997580409049987793e-02 5.899087190628051758e-01 7.868818007409572601e-03
-1.416361182928085327e-01 5.893952846527099609e-01 -9.456443600356578827e-03
-2.134110629558563232e-01 5.915427803993225098e-01 8.231612853705883026e-03
-1.799021512269973755e-01 6.410803198814392090e-01 4.664181731641292572e-03
-4.958954453468322754e-02 6.702088117599487305e-01 -9.948158636689186096e-03
-1.877762675285339355e-01 6.484211683273315430e-01 -3.947447054088115692e-03
-1.237459629774093628e-01 5.943984985351562500e-01 -1.013112626969814301e-02
-1.655691266059875488e-01 5.403240919113159180e-01 9.376091882586479187e-03
-4.436118155717849731e-02 6.212621927261352539e-01 3.653354244306683540e-03
-1.942446380853652954e-01 5.724430680274963379e-01 -5.829143803566694260e-03
-2.200862169265747070e-01 6.226026415824890137e-01 -5.895106005482375622e-04
-2.131558954715728760e-01 6.310456395149230957e-01 -1.397878513671457767e-04
-4.309688508510589600e-02 6.045120954513549805e-01 -8.755656890571117401e-03
-2.312853038311004639e-01 5.950509309768676758e-01 -1.523229642771184444e-03
-1.737295389175415039e-01 6.605129837989807129e-01 -3.138521453365683556e-03
-2.022954821586608887e-01 5.749046802520751953e-01 -5.315232556313276291e-03
-1.678039431571960449e-01 5.597546100616455078e-01 -6.269103847444057465e-03
-7.688718289136886597e-02 5.990848541259765625e-01 6.945377681404352188e-03
-2.024307847023010254e-01 5.555891394615173340e-01 -3.808009903877973557e-03
-6.506175547838211060e-02 6.126968860626220703e-01 -1.070582401007413864e-02
-5.013656616210937500e-02 6.100480556488037109e-01 -9.793424978852272034e-03
-2.123992890119552612e-01 5.344949364662170410e-01 7.902320474386215210e-03
-9.977711737155914307e-02 5.983327627182006836e-01 -1.049770507961511612e-02
-1.636247485876083374e-01 5.654880404472351074e-01 1.042178459465503693e-02
-8.230053633451461792e-02 6.290165781974792480e-01 6.244267802685499191e-03
-1.268183737993240356e-01 6.512275934219360352e-01 -1.040414627641439438e-02
-1.163110435009002686e-01 6.041861772537231445e-01 -1.073906105011701584e-02
-9.549050033092498779e-02 6.873397827148437500e-01 -5.396218039095401764e-03
-1.778821796178817749e-01 5.569854974746704102e-01 -5.539297126233577728e-03
-6.018726527690887451e-02 5.641228556632995605e-01 2.482436830177903175e-03
-1.095120683312416077e-01 6.052634716033935547e-01 8.600959554314613342e-03
-2.879520505666732788e-02 6.219998002052307129e-01 1.529235858470201492e-03
-1.639980077743530273e-01 6.315707564353942871e-01 -8.931394666433334351e-03
-1.886646896600723267e-01 6.371718645095825195e-01 4.580678418278694153e-03
-2.868323028087615967e-02 6.540328860282897949e-01 -9.488194249570369720e-03
-2.129914462566375732e-01 5.543726682662963867e-01 -2.696599578484892845e-03
-1.232785359025001526e-01 5.769969224929809570e-01 -8.866427466273307800e-03
-7.977764308452606201e-02 6.557718515396118164e-01 -1.144125126302242279e-02
-8.327220380306243896e-02 6.268088221549987793e-01 -1.163803972303867340e-02
-1.142663210630416870e-01 6.356173157691955566e-01 6.841916590929031372e-03
-1.783432960510253906e-01 5.243843197822570801e-01 7.262317463755607605e-03
-1.022170633077621460e-01 6.230928301811218262e-01 -1.152314152568578720e-02
-1.361389309167861938e-01 5.660764575004577637e-01 -7.704935502260923386e-03
-1.106850430369377136e-01 6.492996215820312500e-01 -1.115908659994602203e-02
-2.324726730585098267e-01 5.438522100448608398e-01 6.469624117016792297e-03
-1.334801763296127319e-01 6.118071675300598145e-01 8.898001164197921753e-03
-1.879297196865081787e-01 6.349793672561645508e-01 -6.231315899640321732e-03
-1.052474379539489746e-01 6.861513853073120117e-01 -4.679769277572631836e-03
-1.124166026711463928e-01 5.751964449882507324e-01 -8.689704351127147675e-03
-9.585434943437576294e-02 6.786003708839416504e-01 -8.919328451156616211e-03
-2.083527296781539917e-01 6.183572411537170410e-01 -4.586796741932630539e-03
-1.163168326020240784e-01 5.342257022857666016e-01 5.367156583815813065e-03
-2.749557048082351685e-02 6.281991004943847656e-01 1.202465966343879700e-03
-1.009164154529571533e-01 6.377995610237121582e-01 -1.164296176284551620e-02
-1.492602080106735229e-01 5.917393565177917480e-01 9.976305998861789703e-03
-8.856431394815444946e-02 5.811523795127868652e-01 7.648888044059276581e-03
-1.625248938798904419e-01 5.560920834541320801e-01 -6.059352774173021317e-03
-3.501400351524353027e-02 5.959995388984680176e-01 1.773439813405275345e-03
-1.672194302082061768e-01 6.605421304702758789e-01 -5.195242352783679962e-03
-7.211270183324813843e-02 5.966615676879882812e-01 -9.810769930481910706e-03
-1.602306663990020752e-01 6.305499076843261719e-01 7.204092107713222504e-03
-2.196367830038070679e-01 5.847122669219970703e-01 8.158091455698013306e-03
-1.306609660387039185e-01 6.057925224304199219e-01 -1.051663886755704880e-02
-2.098146378993988037e-01 5.464255809783935547e-01 -2.068385481834411621e-03
-1.923714280128479004e-01 5.917056798934936523e-01 -6.845873780548572540e-03
-2.946332842111587524e-02 5.976098775863647461e-01 -5.810495465993881226e-03
-1.213400289416313171e-01 5.279653072357177734e-01 1.378977205604314804e-03
-1.114603057503700256e-01 5.413011312484741211e-01 -3.318755188956856728e-03
-1.390238553285598755e-01 6.338031888008117676e-01 -1.045124884694814682e-02
-1.305327266454696655e-01 5.817977190017700195e-01 -9.189721196889877319e-03
-4.870923608541488647e-02 6.072678565979003906e-01 4.304919857531785965e-03
-3.989055007696151733e-02 6.377978324890136719e-01 -1.049257256090641022e-02
-2.558508515357971191e-02 6.694884300231933594e-01 -7.267318665981292725e-03
-1.124926805496215820e-01 6.420539021492004395e-01 -1.132405176758766174e-02
-2.491169422864913940e-02 6.111645698547363281e-01 5.780999199487268925e-04
-1.993701457977294922e-01 5.214111804962158203e-01 5.039787851274013519e-03
-1.183112040162086487e-01 6.482336521148681641e-01 5.549228284507989883e-03
-8.261151611804962158e-02 6.119962334632873535e-01 -1.110289990901947021e-02
-1.416202932596206665e-01 6.264585256576538086e-01 -1.042525470256805420e-02
-3.603899478912353516e-02 6.552524566650390625e-01 -1.012071594595909119e-02
-1.986967772245407104e-02 6.550066471099853516e-01 -8.156817406415939331e-03
-1.385786831378936768e-01 5.560708045959472656e-01 -6.518898066133260727e-03
-2.298303991556167603e-01 5.719984769821166992e-01 -1.806308748200535774e-03
-1.572757512331008911e-01 5.361278057098388672e-01 -3.185478039085865021e-03
-5.742208659648895264e-02 5.931190252304077148e-01 5.069132894277572632e-03
-1.130236834287643433e-01 5.907871127128601074e-01 9.087392129004001617e-03
-3.572053462266921997e-02 6.204645037651062012e-01 2.596984617412090302e-03
-1.498156040906906128e-01 5.738214850425720215e-01 -8.152442052960395813e-03
-3.939525038003921509e-02 6.599161028861999512e-01 2.601935993880033493e-04
-1.059124544262886047e-01 5.511369109153747559e-01 7.223214954137802124e-03
-1.662066876888275146e-01 6.039644479751586914e-01 -8.969498798251152039e-03
-1.616376042366027832e-01 5.925722718238830566e-01 9.985116310417652130e-03
-1.721909791231155396e-01 5.954534411430358887e-01 -8.393027819693088531e-03
-8.681815117597579956e-02 6.506321430206298828e-01 4.586395341902971268e-03
-2.033218443393707275e-01 5.509248971939086914e-01 9.644220583140850067e-03
-1.357639282941818237e-01 6.188718676567077637e-01 8.466754108667373657e-03
-8.889708667993545532e-02 6.634767055511474609e-01 -1.093022804707288742e-02
-1.157255247235298157e-01 6.026962399482727051e-01 8.907703682780265808e-03
-2.289492785930633545e-01 5.392035841941833496e-01 2.093937713652849197e-03
-1.441623121500015259e-01 6.599624752998352051e-01 -8.443566970527172089e-03
-6.771320849657058716e-02 5.908201932907104492e-01 -9.058024734258651733e-03
-1.527744233608245850e-01 5.420455336570739746e-01 9.192122146487236023e-03
-1.254624426364898682e-01 6.462513208389282227e-01 5.815685726702213287e-03
-1.678826808929443359e-01 6.428749561309814453e-01 -7.915129885077476501e-03
-1.065444797277450562e-01 6.629281044006347656e-01 3.377812216058373451e-03
-1.839287877082824707e-01 5.619654655456542969e-01 1.034558005630970001e-02
-1.378618627786636353e-01 5.844359397888183594e-01 9.966599754989147186e-03
-2.107642292976379395e-01 5.677566528320312500e-01 9.448251686990261078e-03
-9.844277799129486084e-02 6.317803859710693359e-01 6.745357532054185867e-03
-3.932485729455947876e-02 6.467408537864685059e-01 -1.051947660744190216e-02
-1.704246401786804199e-01 6.275750994682312012e-01 -8.555917069315910339e-03
-1.958262771368026733e-01 5.405888557434082031e-01 9.324234910309314728e-03
-1.014048531651496887e-01 6.713384985923767090e-01 1.791932154446840286e-03
-1.724063456058502197e-01 5.200217366218566895e-01 1.962456852197647095e-03
-6.733137369155883789e-02 6.634279489517211914e-01 2.066153800114989281e-03
-1.446987390518188477e-01 5.476871132850646973e-01 -5.302935373038053513e-03
-3.842791914939880371e-02 6.333450078964233398e-01 2.513620536774396896e-03
-1.750792711973190308e-01 5.737903118133544922e-01 -7.136978209018707275e-03
-1.556609570980072021e-01 6.534880995750427246e-01 3.983281087130308151e-03
-1.313599199056625366e-01 6.173221468925476074e-01 -1.079283189028501511e-02
-1.921745091676712036e-01 5.528164505958557129e-01 1.003425568342208862e-02
-1.188159957528114319e-01 6.084399819374084473e-01 8.773254230618476868e-03
-1.885677874088287354e-01 5.629496574401855469e-01 -5.508860573172569275e-03
-1.484978497028350830e-01 6.512035131454467773e-01 4.724400117993354797e-03
-2.341184616088867188e-01 5.972287058830261230e-01 4.484110046178102493e-03
-2.023880183696746826e-01 6.399369835853576660e-01 9.879749268293380737e-04
-2.044596374034881592e-01 5.733101963996887207e-01 9.667019359767436981e-03
-1.426412165164947510e-01 5.255181193351745605e-01 -5.300372140482068062e-05
-2.054990231990814209e-01 5.390262603759765625e-01 -1.352605642750859261e-03
-1.170329004526138306e-01 5.352011919021606445e-01 -1.917575718834996223e-03
-5.748464912176132202e-02 6.241838932037353516e-01 -1.098859962075948715e-02
-1.402033269405364990e-01 6.402118206024169922e-01 -1.020368561148643494e-02
-9.710873663425445557e-02 5.736688375473022461e-01 -8.280361071228981018e-03
-1.074218899011611938e-01 5.425389409065246582e-01 6.150527391582727432e-03
-1.565444618463516235e-01 5.430719256401062012e-01 -4.438723437488079071e-03
-3.362523764371871948e-02 6.034464240074157715e-01 2.013971330597996712e-03
-3.110348433256149292e-02 6.134865880012512207e-01 -8.359924890100955963e-03
-1.745879054069519043e-01 5.457375645637512207e-01 -4.316296428442001343e-03
-1.652001142501831055e-01 6.566106081008911133e-01 2.541369060054421425e-03
-1.106743887066841125e-01 6.808032393455505371e-01 -9.553493000566959381e-04
-1.444637626409530640e-01 5.756317973136901855e-01 1.018099486827850342e-02
-1.390788257122039795e-01 6.000992655754089355e-01 9.552553296089172363e-03
-1.909079402685165405e-01 5.427305102348327637e-01 -3.051130333915352821e-03
-1.319664716720581055e-01 5.740993618965148926e-01 -8.532413281500339508e-03
-1.034735068678855896e-01 6.716681122779846191e-01 -9.701497852802276611e-03
-1.346483528614044189e-01 5.948187112808227539e-01 -9.936707094311714172e-03
-7.725847512483596802e-02 6.173264384269714355e-01 -1.126001589000225067e-02
-1.463678777217864990e-01 5.852097272872924805e-01 -9.067661128938198090e-03
8.774041384458541870e-02 5.733227729797363281e-01 -4.533023573458194733e-03
-7.628577202558517456e-02 5.910909175872802734e-01 -1.170000899583101273e-02
-5.447176285088062286e-03 4.825791716575622559e-01 -9.786314330995082855e-03
2.343712002038955688e-02 6.471098661422729492e-01 -6.937100086361169815e-03
-6.592261791229248047e-02 4.310114085674285889e-01 -3.549541346728801727e-03
-6.206770241260528564e-02 5.235374569892883301e-01 7.105822674930095673e-03
-1.248386129736900330e-02 6.048743128776550293e-01 -1.279095280915498734e-02
-9.871363639831542969e-02 5.125180482864379883e-01 3.003300633281469345e-03
4.126884043216705322e-03 5.042598247528076172e-01 1.077193021774291992e-02
2.804593369364738464e-02 4.208725392818450928e-01 1.975821331143379211e-03
-1.051693782210350037e-01 4.867818951606750488e-01 1.658279448747634888e-03
-1.549433916807174683e-02 5.443364977836608887e-01 9.086585603654384613e-03
-1.197726652026176453e-02 5.721521973609924316e-01 7.657444104552268982e-03
-2.799904718995094299e-02 4.225096702575683594e-01 -3.174345474690198898e-03
-3.304995968937873840e-02 6.271497011184692383e-01 7.034216541796922684e-04
6.282643228769302368e-02 5.124394893646240234e-01 9.658956900238990784e-03
-4.122315905988216400e-03 5.147718787193298340e-01 -1.167493779212236404e-02
7.124394923448562622e-02 5.635304450988769531e-01 7.342875003814697266e-03
4.958269372582435608e-02 4.525578022003173828e-01 8.670351468026638031e-03
7.783011347055435181e-02 4.782561659812927246e-01 7.247932255268096924e-03
5.078111961483955383e-02 4.848452210426330566e-01 -6.119587458670139313e-03
4.666953161358833313e-02 5.162764191627502441e-01 -8.681080304086208344e-03
1.794885843992233276e-02 4.638541042804718018e-01 -6.984284613281488419e-03
8.288228511810302734e-02 5.530615448951721191e-01 6.830530241131782532e-03
-4.275916144251823425e-02 6.095722913742065430e-01 -1.250008400529623032e-02
3.162348270416259766e-02 4.369887113571166992e-01 8.371921256184577942e-03
9.757842868566513062e-02 5.484904646873474121e-01 4.367660265415906906e-03
8.336623199284076691e-03 5.088715553283691406e-01 -1.087245065718889236e-02
-1.167738214135169983e-01 5.209956765174865723e-01 -6.297094281762838364e-03
-2.364242263138294220e-02 6.038475632667541504e-01 -1.295516081154346466e-02
3.162187337875366211e-02 5.049373507499694824e-01 1.081265322864055634e-02
-1.952899619936943054e-02 4.410025477409362793e-01 -6.088344380259513855e-03
4.659471660852432251e-02 4.474476575851440430e-01 -2.051467774435877800e-03
6.116018816828727722e-02 4.798720180988311768e-01 9.381013922393321991e-03
1.227378379553556442e-02 5.434183478355407715e-01 -1.204754505306482315e-02
-9.735346585512161255e-02 4.641140103340148926e-01 -5.538017954677343369e-03
-7.304410636425018311e-02 4.415811300277709961e-01 4.709315951913595200e-03
-1.062594577670097351e-01 5.753284096717834473e-01 -4.239914473146200180e-03
-3.629056736826896667e-02 6.450265645980834961e-01 -7.378069218248128891e-03
-2.442330121994018555e-02 6.002415418624877930e-01 4.766942001879215240e-03
-6.920390576124191284e-02 6.167000532150268555e-01 -2.049389062449336052e-03
-3.062219917774200439e-02 4.308510422706604004e-01 7.693774066865444183e-03
1.745664700865745544e-02 4.177578687667846680e-01 5.612274631857872009e-03
2.715007215738296509e-02 5.007147789001464844e-01 -9.327698498964309692e-03
7.918078452348709106e-02 5.384269356727600098e-01 7.854286581277847290e-03
-5.777698010206222534e-02 6.249414086341857910e-01 -1.817836659029126167e-03
-1.088760979473590851e-02 5.627774000167846680e-01 8.291223086416721344e-03
-3.862382099032402039e-02 5.108060836791992188e-01 -1.212731562554836273e-02
-4.311110451817512512e-02 4.263797998428344727e-01 -3.845897270366549492e-03
8.260864019393920898e-02 5.784358978271484375e-01 5.027269013226032257e-03
-4.872699454426765442e-02 6.384546756744384766e-01 -4.348468035459518433e-03
-2.838628366589546204e-02 5.570974349975585938e-01 -1.346501614898443222e-02
9.737990796566009521e-02 5.768681168556213379e-01 3.321642288938164711e-04
3.062225133180618286e-02 4.264135062694549561e-01 6.658450700342655182e-03
-1.595408096909523010e-02 5.636073946952819824e-01 -1.335652265697717667e-02
1.977714709937572479e-03 5.390651226043701172e-01 9.816737845540046692e-03
8.237757533788681030e-02 5.826464891433715820e-01 -5.418034270405769348e-03
6.024001911282539368e-02 6.042113900184631348e-01 4.486143589019775391e-03
6.250745058059692383e-02 5.302187800407409668e-01 9.362349286675453186e-03
2.523932978510856628e-02 5.322834849357604980e-01 1.027874182909727097e-02
7.360507734119892120e-03 4.372004270553588867e-01 -4.382148385047912598e-03
-2.989391237497329712e-02 4.877515733242034912e-01 9.814412333071231842e-03
4.583506658673286438e-02 5.730337500572204590e-01 7.982977665960788727e-03
-2.029770053923130035e-03 4.104085862636566162e-01 2.228883327916264534e-03
-7.180689275264739990e-02 5.336560606956481934e-01 5.818692967295646667e-03
-9.630535542964935303e-02 4.954738616943359375e-01 3.584941849112510681e-03
-1.618630439043045044e-02 6.258183717727661133e-01 -1.164633780717849731e-02
-4.829746857285499573e-02 5.351668596267700195e-01 -1.301148999482393265e-02
1.041274424642324448e-02 4.415523409843444824e-01 9.457709267735481262e-03
-9.312629699707031250e-02 4.996787309646606445e-01 -9.575727395713329315e-03
8.011575788259506226e-02 6.070283651351928711e-01 1.261621713638305664e-03
1.598163694143295288e-02 5.212752819061279297e-01 1.058096997439861298e-02
-9.235746227204799652e-03 5.740731954574584961e-01 -1.324521657079458237e-02
1.805504038929939270e-02 5.381658673286437988e-01 -1.160298287868499756e-02
-1.057031005620956421e-02 4.202225208282470703e-01 -2.232713624835014343e-03
-3.938134014606475830e-02 4.400384426116943359e-01 -6.153333466500043869e-03
-5.249544978141784668e-02 4.228252470493316650e-01 -2.626638161018490791e-03
-2.282480150461196899e-02 5.551863908767700195e-01 8.246030658483505249e-03
-1.519131287932395935e-02 5.974861383438110352e-01 5.487355403602123260e-03
6.738595664501190186e-02 5.615844726562500000e-01 -7.963133975863456726e-03
5.566063895821571350e-02 5.436128377914428711e-01 -8.928708732128143311e-03
-4.329738765954971313e-02 4.755837619304656982e-01 9.010536596179008484e-03
-4.432121757417917252e-03 5.291140079498291016e-01 1.002698391675949097e-02
7.136883586645126343e-02 5.150952935218811035e-01 -5.829252768307924271e-03
-5.362193286418914795e-02 4.514533281326293945e-01 7.572597824037075043e-03
6.200567260384559631e-02 4.603820145130157471e-01 8.076344616711139679e-03
8.677088655531406403e-03 4.145147204399108887e-01 1.128404401242733002e-03
-7.388886064291000366e-02 5.781929492950439453e-01 2.647868357598781586e-03
-7.384829223155975342e-02 4.479055702686309814e-01 -5.983283277601003647e-03
-2.606065198779106140e-02 6.427269577980041504e-01 -9.261465631425380707e-03
-2.520669251680374146e-02 4.093720018863677979e-01 1.621992094442248344e-03
2.609683200716972351e-02 4.578382968902587891e-01 -5.734487436711788177e-03
-1.006319224834442139e-01 5.055232048034667969e-01 -9.107522666454315186e-03
-8.048592507839202881e-02 4.851977527141571045e-01 -9.537706151604652405e-03
2.744989842176437378e-02 6.231609582901000977e-01 -1.013809908181428909e-02
-7.440412789583206177e-02 6.074683666229248047e-01 -1.058827340602874756e-02
6.811679154634475708e-02 6.259567141532897949e-01 -2.989711705595254898e-03
-1.087686270475387573e-01 5.383285284042358398e-01 -1.630010083317756653e-04
-1.066587418317794800e-01 5.229401588439941406e-01 1.139170257374644279e-03
5.792007222771644592e-02 4.710922241210937500e-01 9.261372499167919159e-03
