-3.287569805979728699e-02 -6.275409460067749023e-02 -1.468695849180221558e-01
3.760043159127235413e-02 -8.585159480571746826e-02 -5.099484696984291077e-03
2.785639651119709015e-02 -4.002854228019714355e-03 6.393523514270782471e-02
1.947328448295593262e-02 -7.897112518548965454e-02 -2.475567162036895752e-01
3.302018344402313232e-02 -1.650383174419403076e-01 3.606689572334289551e-01
-4.782245308160781860e-02 -5.530510842800140381e-02 -5.635327696800231934e-01
-4.478964209556579590e-02 -1.201319545507431030e-01 -4.509485065937042236e-01
-2.108701691031455994e-02 -1.477018892765045166e-01 -7.981360703706741333e-02
-3.530151024460792542e-02 -1.493472605943679810e-01 -3.725435137748718262e-01
5.474478006362915039e-02 -6.767199933528900146e-02 3.209899663925170898e-01
3.026741743087768555e-02 -1.216716989874839783e-01 -9.043491631746292114e-02
-4.729490727186203003e-03 -1.238368749618530273e-01 2.064832746982574463e-01
-7.413790561258792877e-03 -1.583350896835327148e-01 6.591247022151947021e-02
-2.186710946261882782e-02 -6.874434649944305420e-02 2.869081310927867889e-02
2.096100524067878723e-02 -1.709147691726684570e-01 -4.880281537771224976e-02
-4.630240797996520996e-02 -5.596268922090530396e-02 -6.401911973953247070e-01
-3.380173817276954651e-02 -4.682286083698272705e-02 -1.873946636915206909e-01
1.393573265522718430e-02 -8.999476581811904907e-02 -3.161045014858245850e-01
1.679526641964912415e-03 1.811593770980834961e-03 1.560494005680084229e-01
7.883973419666290283e-03 -1.227439939975738525e-01 -3.644186556339263916e-01
-1.867457479238510132e-02 -2.771407365798950195e-03 -3.886182308197021484e-01
4.053318500518798828e-02 -6.960929930210113525e-02 5.049937963485717773e-02
-1.572643592953681946e-02 -3.820203244686126709e-03 -4.652895405888557434e-02
2.164659090340137482e-02 -4.279592633247375488e-02 4.898639023303985596e-01
-4.772882536053657532e-02 -5.773897096514701843e-02 -5.144991278648376465e-01
-1.727882772684097290e-05 -1.521074026823043823e-01 -3.817502260208129883e-01
1.120226271450519562e-02 -6.592324376106262207e-02 -3.331650495529174805e-01
-4.806417599320411682e-02 -9.939164668321609497e-02 -6.792607903480529785e-01
5.074941739439964294e-02 -4.660568386316299438e-02 2.828094363212585449e-01
-3.531998768448829651e-02 -1.428978145122528076e-01 -3.214622437953948975e-01
4.874910786747932434e-02 -1.173880174756050110e-01 6.226880550384521484e-01
-4.127886891365051270e-02 -3.349095955491065979e-02 -5.580483078956604004e-01
5.511286482214927673e-02 -3.859856352210044861e-02 4.658511877059936523e-01
2.795312739908695221e-02 -5.100457370281219482e-02 -1.075008362531661987e-01
1.851345971226692200e-02 -4.107607528567314148e-02 -2.087521255016326904e-01
-2.247784845530986786e-02 -1.680355668067932129e-01 -4.331308603286743164e-01
1.781949773430824280e-02 -4.139978438615798950e-02 4.556011855602264404e-01
5.410306155681610107e-02 -1.173933222889900208e-01 3.310069441795349121e-01
1.911699026823043823e-02 4.778169095516204834e-03 6.522424519062042236e-05
-2.599450200796127319e-02 -7.486175000667572021e-02 -6.607536673545837402e-01
-3.318354859948158264e-02 -9.776001423597335815e-02 -7.006762027740478516e-01
4.452198371291160583e-02 -6.866361200809478760e-02 1.174972131848335266e-01
-5.033760145306587219e-02 -8.747857809066772461e-02 -5.779778957366943359e-01
2.721652574837207794e-02 -3.443476557731628418e-02 -7.990079373121261597e-02
2.869195118546485901e-02 -1.491687446832656860e-02 1.284475065767765045e-02
-2.560706064105033875e-02 -1.471808552742004395e-01 -1.513638198375701904e-01
1.485119760036468506e-02 -7.806472480297088623e-03 -1.397837549448013306e-01
5.672651808708906174e-03 -1.700423955917358398e-01 1.522574871778488159e-01
3.476589918136596680e-02 -4.094742238521575928e-03 4.190773069858551025e-01
3.750947117805480957e-02 -3.335657715797424316e-02 5.734181404113769531e-01
-3.347059711813926697e-02 -1.570005416870117188e-01 -4.513740837574005127e-01
4.630682989954948425e-03 -1.019375026226043701e-01 3.420528769493103027e-01
-4.595801234245300293e-02 -5.359499901533126831e-02 -4.578942060470581055e-01
-1.492289826273918152e-02 -1.023392379283905029e-02 -4.237439334392547607e-01
2.989115566015243530e-02 -1.486893892288208008e-01 -3.066828101873397827e-02
6.951760966330766678e-03 -1.632069796323776245e-01 -2.687729895114898682e-01
-7.063042372465133667e-03 -3.598039969801902771e-02 -4.613505005836486816e-01
3.548055887222290039e-02 2.592727541923522949e-04 3.000627160072326660e-01
1.230546180158853531e-02 -1.834512948989868164e-01 4.198464751243591309e-02
-4.733958467841148376e-02 -1.000313013792037964e-01 -4.608199000358581543e-01
-2.382372692227363586e-02 -5.511194467544555664e-05 -3.065948188304901123e-01
-2.756356261670589447e-03 7.439911365509033203e-03 5.806222558021545410e-02
-2.452058345079421997e-02 -6.155806034803390503e-02 -1.445135846734046936e-02
7.974670268595218658e-03 -9.930200874805450439e-03 2.819245457649230957e-01
-1.987732574343681335e-02 -5.138727650046348572e-02 -5.919869542121887207e-01
3.263861685991287231e-02 -1.412165313959121704e-01 -1.337958686053752899e-02
4.640834033489227295e-02 -9.669317305088043213e-02 1.399217694997787476e-01
-3.321927413344383240e-02 -9.632358700037002563e-02 -1.526163071393966675e-01
2.062520757317543030e-02 -7.344305515289306641e-03 -6.359537690877914429e-02
-4.062528908252716064e-02 -1.396291255950927734e-01 -4.548484683036804199e-01
-9.338497184216976166e-04 5.560211837291717529e-03 9.810322523117065430e-02
-2.506748028099536896e-02 -2.507790923118591309e-03 -2.625714242458343506e-01
2.025548927485942841e-02 -8.016956597566604614e-02 5.026362538337707520e-01
-1.492813974618911743e-02 -1.563095301389694214e-02 -4.509479999542236328e-01
-5.011228471994400024e-02 -7.587646692991256714e-02 -6.151996254920959473e-01
-3.891976550221443176e-02 -1.070271283388137817e-01 -2.708192765712738037e-01
2.157298661768436432e-02 -7.132478058338165283e-02 -2.165769487619400024e-01
5.562001094222068787e-02 -8.618524670600891113e-02 3.254370689392089844e-01
5.856308713555335999e-02 -7.708816230297088623e-02 6.496305465698242188e-01
-4.569490626454353333e-02 -1.248305812478065491e-01 -5.304118990898132324e-01
-4.315174743533134460e-02 -1.030619367957115173e-01 -3.544723689556121826e-01
4.526350647211074829e-03 4.895888268947601318e-03 -1.752054691314697266e-01
4.482696950435638428e-02 -1.213470995426177979e-01 1.410584002733230591e-01
6.136092171072959900e-02 -7.731432467699050903e-02 5.528431534767150879e-01
-1.416413113474845886e-02 -1.598156094551086426e-01 -3.349399194121360779e-02
-9.193558245897293091e-03 -1.303201168775558472e-02 9.540583193302154541e-02
1.858654664829373360e-03 -9.283921867609024048e-02 -4.449586272239685059e-01
4.384320601820945740e-02 -2.078496664762496948e-02 2.551138103008270264e-01
1.578731089830398560e-02 -1.451181024312973022e-01 -2.317173182964324951e-01
-2.251458726823329926e-02 -1.610060334205627441e-01 -1.766207516193389893e-01
1.285008899867534637e-02 -1.592920422554016113e-01 -2.192072123289108276e-01
-1.700440421700477600e-02 -1.117073595523834229e-01 7.294738292694091797e-02
3.081398643553256989e-02 -8.081304281949996948e-02 -1.016097962856292725e-01
-6.270193494856357574e-03 -5.797331035137176514e-02 2.256444990634918213e-01
-4.262897372245788574e-02 -4.982641711831092834e-02 -3.697894215583801270e-01
6.170532666146755219e-03 -1.810204982757568359e-01 -1.459694951772689819e-01
-1.983187161386013031e-02 -1.569359153509140015e-01 -1.046004071831703186e-01
-2.686156705021858215e-02 -1.642972826957702637e-01 -3.067422509193420410e-01
-1.427629962563514709e-02 -1.102003976702690125e-01 -5.814092159271240234e-01
-2.720090001821517944e-02 -1.590352356433868408e-01 -2.553292512893676758e-01
-3.880862891674041748e-02 -3.302704915404319763e-02 -3.446761071681976318e-01
2.032403089106082916e-02 -1.487586200237274170e-01 -1.644339561462402344e-01
4.242105782032012939e-02 -3.164606541395187378e-02 1.691416651010513306e-01
2.255611587315797806e-03 -4.264456778764724731e-02 -3.909442722797393799e-01
8.737296797335147858e-03 1.522387564182281494e-02 4.282625764608383179e-02
-2.882028743624687195e-02 -8.407929539680480957e-02 -7.389501482248306274e-02
-3.465045243501663208e-02 -1.548574119806289673e-01 -4.712959527969360352e-01
1.857291720807552338e-02 -1.700632572174072266e-01 -8.964266628026962280e-02
5.032500252127647400e-02 -3.964795172214508057e-02 3.004558384418487549e-01
5.325897037982940674e-02 -6.972382217645645142e-02 2.838766574859619141e-01
-7.442445494234561920e-04 -6.957560777664184570e-02 2.954740524291992188e-01
1.421492826193571091e-02 -1.397904306650161743e-01 3.653591871261596680e-01
-2.774620056152343750e-02 -1.612871140241622925e-02 -1.871481835842132568e-01
4.958713427186012268e-02 -1.387587934732437134e-01 3.107418715953826904e-01
6.029875576496124268e-02 -9.719511866569519043e-02 4.829771220684051514e-01
8.149351924657821655e-05 -1.375253647565841675e-01 2.294164746999740601e-01
-1.277669705450534821e-02 -1.698569953441619873e-01 -7.917801290750503540e-02
5.744048953056335449e-02 -5.941961705684661865e-02 6.326175332069396973e-01
-1.400652341544628143e-02 -1.510794460773468018e-01 1.019419915974140167e-02
-2.876459062099456787e-02 -6.082999333739280701e-02 -8.059271425008773804e-02
-4.368013516068458557e-02 -3.788275271654129028e-02 -5.101060271263122559e-01
6.046104431152343750e-02 -6.783536076545715332e-02 5.928884148597717285e-01
2.654921077191829681e-02 -1.088191866874694824e-01 -1.552874594926834106e-01
-2.237622812390327454e-02 -1.545304656028747559e-01 -1.333482563495635986e-01
-2.611492201685905457e-02 -1.140346378087997437e-01 -6.560675501823425293e-01
3.552689403295516968e-02 -1.467436254024505615e-01 5.232740938663482666e-02
7.279112935066223145e-03 -1.823514997959136963e-01 -1.124466210603713989e-01
-2.460309490561485291e-02 -3.014966472983360291e-02 -7.155598700046539307e-02
1.588936522603034973e-02 -1.004979908466339111e-01 -2.923491299152374268e-01
1.176321879029273987e-02 -1.710682511329650879e-01 -1.714029759168624878e-01
3.707834705710411072e-02 -1.132739931344985962e-01 -9.912047535181045532e-04
4.895993694663047791e-02 -1.467171758413314819e-01 3.974507451057434082e-01
3.123956918716430664e-02 -1.346084624528884888e-01 -5.207370221614837646e-02
-4.183933138847351074e-02 -1.373701691627502441e-01 -4.831127822399139404e-01
4.812750965356826782e-02 -1.423434168100357056e-01 5.080850124359130859e-01
1.974693685770034790e-02 -1.631769090890884399e-01 3.159000873565673828e-01
4.994132369756698608e-02 -1.428828984498977661e-01 3.656297922134399414e-01
-9.328182786703109741e-04 -1.178203523159027100e-01 2.609083354473114014e-01
2.335106395184993744e-02 -1.463705450296401978e-01 -1.317985802888870239e-01
-1.654696650803089142e-02 -1.592624336481094360e-01 -4.817973673343658447e-01
3.962942864745855331e-03 -3.380335867404937744e-03 2.108451128005981445e-01
-4.035831987857818604e-02 -2.830090746283531189e-02 -4.659499824047088623e-01
5.692747980356216431e-02 -9.418499469757080078e-02 3.611152172088623047e-01
4.693542420864105225e-02 -1.232340484857559204e-01 6.043975353240966797e-01
3.131487593054771423e-02 4.485011100769042969e-03 2.599528729915618896e-01
4.540757834911346436e-02 -1.306084245443344116e-01 1.758676767349243164e-01
-4.952333495020866394e-02 -7.376780360937118530e-02 -6.416399478912353516e-01
-5.017169751226902008e-03 -8.552744239568710327e-02 -5.091333389282226562e-01
2.399231679737567902e-02 -9.510956704616546631e-02 -1.945321410894393921e-01
-4.195954650640487671e-02 -1.281021237373352051e-01 -4.067608416080474854e-01
-7.337979041039943695e-04 -6.011256948113441467e-02 -4.494022130966186523e-01
-3.924111276865005493e-02 -7.071006298065185547e-02 -2.574672698974609375e-01
1.440439093858003616e-02 -1.053524240851402283e-01 4.345800876617431641e-01
3.844627365469932556e-02 -1.984333246946334839e-02 1.502314954996109009e-01
3.638211265206336975e-02 -1.141449362039566040e-01 5.875439047813415527e-01
-5.625042133033275604e-03 -1.765997707843780518e-01 -2.973608970642089844e-01
1.911320723593235016e-02 -1.229514032602310181e-01 4.489903748035430908e-01
-1.080503873527050018e-02 -4.871148243546485901e-02 -5.203944444656372070e-01
-2.420262433588504791e-02 -9.076313674449920654e-02 -6.655740551650524139e-03
3.646120429039001465e-02 -1.338260173797607422e-01 2.635090984404087067e-02
9.034700691699981689e-03 -1.637331098318099976e-01 2.229218930006027222e-01
2.818508446216583252e-02 6.838761270046234131e-03 2.109766602516174316e-01
-4.664724692702293396e-02 -9.783383458852767944e-02 -4.353929758071899414e-01
4.376867040991783142e-02 -5.302182957530021667e-02 1.297311931848526001e-01
-2.176482602953910828e-02 -3.732930123805999756e-02 -8.882462978363037109e-03
5.613068491220474243e-02 -1.173131316900253296e-01 3.913199603557586670e-01
-1.455566845834255219e-02 -1.395667493343353271e-01 4.393775761127471924e-02
-1.730267889797687531e-02 -6.872881948947906494e-02 -5.989827513694763184e-01
2.180562540888786316e-02 -1.316486001014709473e-01 -1.876017004251480103e-01
2.192611433565616608e-02 -1.064242795109748840e-01 4.987655580043792725e-01
4.042099788784980774e-02 -1.575304865837097168e-01 2.158886939287185669e-01
1.736248657107353210e-02 -1.473723351955413818e-01 -2.061303555965423584e-01
-9.025769308209419250e-03 -1.743569970130920410e-01 -6.183777004480361938e-02
3.948275372385978699e-02 -9.743378311395645142e-02 6.269680857658386230e-01
-9.145525284111499786e-03 -1.144059002399444580e-03 -3.320986032485961914e-01
6.200376898050308228e-03 -1.318270862102508545e-01 3.091287314891815186e-01
-3.322874009609222412e-02 -6.607589125633239746e-02 -6.850799918174743652e-01
3.500532358884811401e-02 -5.494632944464683533e-02 -1.437532529234886169e-02
-3.137190639972686768e-02 -1.494080424308776855e-01 -2.736287117004394531e-01
-1.469044480472803116e-03 -1.677898317575454712e-01 8.793469518423080444e-02
4.939734190702438354e-02 -7.102550566196441650e-02 6.702510714530944824e-01
2.855015173554420471e-02 -1.736316382884979248e-01 1.232040748000144958e-01
1.470653153955936432e-02 -1.668726503849029541e-01 2.553684413433074951e-01
2.182311005890369415e-02 -1.163569986820220947e-01 -2.096077501773834229e-01
6.029262393712997437e-02 -8.078745752573013306e-02 6.244861483573913574e-01
1.947985775768756866e-02 -1.103024482727050781e-01 4.733034074306488037e-01
2.376337349414825439e-02 -8.403654396533966064e-02 5.306689143180847168e-01
-2.734909765422344208e-03 -2.553424611687660217e-02 2.154566049575805664e-01
1.068907976150512695e-02 -5.917233973741531372e-02 4.097622632980346680e-01
1.522752456367015839e-02 -3.209136798977851868e-02 -2.258268147706985474e-01
-4.591349884867668152e-02 -1.190942227840423584e-01 -4.859424233436584473e-01
5.818311125040054321e-02 -1.072683036327362061e-01 6.092607378959655762e-01
2.341097593307495117e-02 -1.720491051673889160e-01 -4.809089004993438721e-04
5.855331569910049438e-02 -8.803974092006683350e-02 4.047548770904541016e-01
4.151108115911483765e-02 -4.695552960038185120e-02 1.047678366303443909e-01
3.785696625709533691e-02 -6.040476262569427490e-03 2.454197555780410767e-01
4.559094831347465515e-02 -1.398984640836715698e-01 5.355879664421081543e-01
1.410521566867828369e-02 1.428350806236267090e-02 9.012775123119354248e-02
-2.530133165419101715e-02 -1.680010557174682617e-01 -3.297268152236938477e-01
5.901133269071578979e-02 -1.029765754938125610e-01 4.415209889411926270e-01
-2.792672812938690186e-02 -1.047492846846580505e-01 -7.569662481546401978e-02
-4.868494719266891479e-02 -1.103304773569107056e-01 -6.026784181594848633e-01
2.701626159250736237e-02 7.504673302173614502e-02 7.560890913009643555e-02
-2.555511295795440674e-01 6.193827092647552490e-02 -2.063889056444168091e-01
-1.924305111169815063e-01 5.466752499341964722e-02 5.894826650619506836e-01
-1.569519639015197754e-01 7.022669538855552673e-03 -6.423346996307373047e-01
-4.528264701366424561e-02 7.225814461708068848e-02 3.484869897365570068e-01
-1.507358253002166748e-01 4.071126133203506470e-02 8.190928697586059570e-01
-6.631329655647277832e-02 -4.791893064975738525e-03 2.330484986305236816e-01
-1.664723902940750122e-01 6.023798137903213501e-02 5.435564517974853516e-01
7.753059267997741699e-03 -2.983666956424713135e-03 -3.992983698844909668e-01
4.966817796230316162e-03 7.165873050689697266e-02 -3.710720837116241455e-01
2.895404696464538574e-01 1.186391711235046387e-02 4.147364199161529541e-02
-2.269398272037506104e-01 1.009814999997615814e-02 -5.582703351974487305e-01
-6.156783550977706909e-02 -6.255626678466796875e-03 1.969581842422485352e-02
-2.537726163864135742e-01 6.173174083232879639e-02 6.736797839403152466e-02
-1.954662501811981201e-01 6.365364789962768555e-02 -4.771369695663452148e-01
3.996791690587997437e-02 7.449965178966522217e-02 1.814175248146057129e-01
-1.335150003433227539e-01 6.899015605449676514e-02 -4.023568630218505859e-01
8.673651516437530518e-02 7.197362184524536133e-02 3.504586517810821533e-01
2.577464282512664795e-01 6.138828396797180176e-02 1.167372688651084900e-01
7.851058617234230042e-03 6.677035987377166748e-02 -5.654623508453369141e-01
-7.894180715084075928e-02 6.979426741600036621e-02 4.237544536590576172e-01
1.547115892171859741e-01 1.953613013029098511e-03 -3.379402458667755127e-01
-2.760891020298004150e-01 4.339773207902908325e-02 -6.644372940063476562e-01
2.558747865259647369e-02 7.242923974990844727e-02 3.815730810165405273e-01
7.639921270310878754e-03 7.300855964422225952e-02 -2.874708771705627441e-01
-1.302563548088073730e-01 7.051910459995269775e-02 2.441903203725814819e-01
-8.077897876501083374e-02 1.499901711940765381e-02 -8.539174795150756836e-01
-1.172977909445762634e-01 -3.849375993013381958e-03 1.300931423902511597e-01
-3.086606860160827637e-01 5.137326568365097046e-02 9.086168557405471802e-02
-3.462160229682922363e-01 3.524720296263694763e-02 -1.811004057526588440e-02
6.153902038931846619e-03 -5.241621285676956177e-03 2.952894866466522217e-01
8.086872100830078125e-02 -2.915102988481521606e-03 -3.042021989822387695e-01
2.372119203209877014e-02 -1.533143222332000732e-04 -5.075072050094604492e-01
-1.721297204494476318e-01 1.539144665002822876e-02 -7.846566438674926758e-01
-9.338177740573883057e-02 -5.358979105949401855e-04 -4.803629219532012939e-01
-2.486944794654846191e-01 5.463294684886932373e-03 -1.262447088956832886e-01
-4.189160093665122986e-02 7.298487424850463867e-02 -2.940709292888641357e-01
1.539338678121566772e-01 1.112079806625843048e-02 -5.958297252655029297e-01
3.271690383553504944e-02 -4.172481596469879150e-03 -3.110244870185852051e-01
-2.194007486104965210e-01 6.624878942966461182e-02 -1.130697429180145264e-01
-3.182883858680725098e-01 4.686151817440986633e-02 1.440393775701522827e-01
-2.761721312999725342e-01 1.071209833025932312e-02 9.577840566635131836e-02
-1.167622804641723633e-01 3.143114596605300903e-02 -9.531077146530151367e-01
1.778294295072555542e-01 9.505441412329673767e-03 -5.026764869689941406e-01
-1.984767019748687744e-01 1.209247857332229614e-03 -2.469356358051300049e-01
1.290664970874786377e-01 2.134680747985839844e-03 -4.191229343414306641e-01
2.456617653369903564e-01 3.355257585644721985e-02 -5.551344156265258789e-01
2.869552671909332275e-01 5.449722707271575928e-02 4.010380804538726807e-01
4.825266823172569275e-02 6.628651916980743408e-02 6.371439695358276367e-01
3.245699405670166016e-01 4.643706604838371277e-02 3.405252397060394287e-01
2.277802377939224243e-01 6.262199953198432922e-03 4.466693699359893799e-01
2.172156125307083130e-01 1.302192360162734985e-02 -4.565655887126922607e-01
-3.324943780899047852e-02 -6.516922265291213989e-03 1.023501381278038025e-01
1.924847215414047241e-01 6.788584589958190918e-02 2.126246690750122070e-01
-2.105507850646972656e-01 1.594852656126022339e-03 -1.489641815423965454e-01
-2.559854090213775635e-02 -6.282448768615722656e-03 -1.554576009511947632e-01
-2.043698355555534363e-02 5.651615560054779053e-03 -6.945638656616210938e-01
-2.000086307525634766e-01 6.796513497829437256e-02 -3.831959888339042664e-02
6.069936603307723999e-02 7.412746548652648926e-02 -8.363701403141021729e-02
1.811189502477645874e-01 1.301858574151992798e-03 -1.957581788301467896e-01
-3.201835751533508301e-01 5.035504698753356934e-02 -2.088103890419006348e-01
3.005294799804687500e-01 3.132080286741256714e-02 6.396009922027587891e-01
-8.763919770717620850e-02 6.314884126186370850e-02 6.319879293441772461e-01
-8.801513910293579102e-02 7.310158014297485352e-02 1.825426220893859863e-01
1.444361209869384766e-01 7.134475558996200562e-02 1.180639639496803284e-01
-2.711677253246307373e-01 5.903328955173492432e-02 -2.869196832180023193e-01
-2.517298050224781036e-02 7.394385337829589844e-02 -2.215637117624282837e-01
6.275163590908050537e-02 1.706469804048538208e-03 6.176505088806152344e-01
-1.479683518409729004e-01 6.510889530181884766e-02 4.508704245090484619e-01
-1.587243676185607910e-01 5.639020353555679321e-02 6.428259611129760742e-01
-1.254822164773941040e-01 1.300209201872348785e-02 -8.006629943847656250e-01
1.743943393230438232e-01 3.411279991269111633e-03 5.216830968856811523e-01
-2.181202620267868042e-01 1.572481542825698853e-02 5.396748781204223633e-01
-1.613310873508453369e-01 6.832830607891082764e-02 -3.593430817127227783e-01
3.269584178924560547e-01 3.461606800556182861e-02 -1.531025022268295288e-01
2.139062136411666870e-01 6.520685553550720215e-02 -7.523515075445175171e-02
2.958652973175048828e-01 5.414446443319320679e-02 -7.997423410415649414e-03
-2.583944201469421387e-01 6.189185753464698792e-02 -1.462752819061279297e-01
-5.520713515579700470e-03 6.474856287240982056e-02 6.724412441253662109e-01
1.591725051403045654e-01 1.489915512502193451e-02 8.280777931213378906e-01
-1.465530991554260254e-01 2.405025064945220947e-03 -5.150890350341796875e-01
-3.592145815491676331e-02 6.826519966125488281e-04 5.562974214553833008e-01
1.895386576652526855e-01 2.820488065481185913e-03 4.452368319034576416e-01
3.340989947319030762e-01 2.771514281630516052e-02 3.867266774177551270e-01
7.442157715559005737e-02 5.095984786748886108e-02 9.207904338836669922e-01
-3.300344347953796387e-01 2.122524380683898926e-02 -7.310110330581665039e-02
-1.511481553316116333e-01 6.691642105579376221e-02 3.704202473163604736e-01
-1.893379092216491699e-01 6.754660606384277344e-02 1.579696983098983765e-01
3.871959075331687927e-02 7.158938050270080566e-02 4.267978370189666748e-01
-2.388420999050140381e-01 6.250709295272827148e-02 -3.297525048255920410e-01
1.230542063713073730e-01 6.571846455335617065e-02 5.959346294403076172e-01
9.709821641445159912e-02 -4.837196320295333862e-03 -8.890560269355773926e-02
-2.976309657096862793e-01 1.311500929296016693e-02 -2.003626078367233276e-01
1.170037537813186646e-01 -3.659091889858245850e-03 -1.302643120288848877e-01
-5.448530614376068115e-02 6.605554372072219849e-02 -5.991390943527221680e-01
-8.296179026365280151e-02 1.910366863012313843e-02 -8.991874456405639648e-01
-3.566064685583114624e-02 7.213459163904190063e-02 -3.525174260139465332e-01
-1.774959415197372437e-01 2.556174993515014648e-03 -4.413519501686096191e-01
-1.282149553298950195e-01 7.124355435371398926e-02 1.942871659994125366e-01
-1.471783518791198730e-01 -3.037106245756149292e-03 -2.712007239460945129e-02
3.194924294948577881e-01 3.069782070815563202e-02 5.367406606674194336e-01
-1.105263829231262207e-01 7.252641022205352783e-02 1.477486193180084229e-01
-1.417383253574371338e-01 5.336456745862960815e-02 7.256058454513549805e-01
-1.926401257514953613e-01 4.002898931503295898e-04 -2.025148868560791016e-01
-1.352762877941131592e-01 -1.178137958049774170e-03 2.746753394603729248e-01
-3.453489020466804504e-02 6.714759767055511475e-02 5.826526880264282227e-01
1.788008511066436768e-01 6.793291866779327393e-02 -1.147484034299850464e-01
2.494760155677795410e-01 6.082310527563095093e-02 3.645060062408447266e-01
-2.352322190999984741e-01 4.329843446612358093e-03 -2.129568308591842651e-01
-1.004918888211250305e-01 2.272519841790199280e-02 8.670208454132080078e-01
-2.371831536293029785e-01 6.260419636964797974e-02 1.630511879920959473e-01
-2.301833480596542358e-01 7.638458162546157837e-03 -4.624034762382507324e-01
-7.767443358898162842e-02 6.893998384475708008e-02 -4.866952002048492432e-01
-2.949540615081787109e-01 5.617037415504455566e-02 -1.776303946971893311e-01
2.113357931375503540e-01 2.258954942226409912e-02 8.394038677215576172e-01
1.759033203125000000e-01 6.531213223934173584e-02 -2.872745990753173828e-01
-1.129230037331581116e-01 3.295682370662689209e-03 -5.975834131240844727e-01
2.818466424942016602e-01 3.682125732302665710e-02 7.133383750915527344e-01
1.708454191684722900e-01 6.447491794824600220e-02 5.457848310470581055e-01
1.171553805470466614e-01 -2.098880708217620850e-03 3.922221362590789795e-01
-7.742232829332351685e-02 -5.366858094930648804e-03 -1.750951558351516724e-01
-2.477230280637741089e-01 6.314046680927276611e-02 -2.088246494531631470e-02
-1.932532936334609985e-01 4.779335856437683105e-02 6.802761554718017578e-01
7.045388221740722656e-02 -5.922026932239532471e-03 -4.538657516241073608e-02
1.906942278146743774e-01 4.062309116125106812e-02 -6.908752918243408203e-01
6.488918513059616089e-02 6.231395900249481201e-02 7.382968664169311523e-01
3.079898469150066376e-02 -2.934768795967102051e-03 4.412418901920318604e-01
-1.375333070755004883e-01 7.043126970529556274e-02 -2.979473471641540527e-01
-8.566284179687500000e-02 6.155778467655181885e-02 -7.052475214004516602e-01
-8.953989297151565552e-02 7.214429229497909546e-02 2.640688717365264893e-01
5.475625768303871155e-02 6.039278954267501831e-02 7.820659875869750977e-01
-3.487954288721084595e-02 7.502031326293945312e-02 -3.482182696461677551e-02
-1.571663767099380493e-01 -1.437164843082427979e-03 1.489998698234558105e-01
-1.335472911596298218e-01 9.361654520034790039e-05 3.502926230430603027e-01
3.259410560131072998e-01 2.055858075618743896e-02 2.639169991016387939e-01
-1.217407286167144775e-01 2.209405973553657532e-02 -9.073796272277832031e-01
2.108469009399414062e-01 6.490125507116317749e-02 3.656678497791290283e-01
2.156638205051422119e-01 7.311895489692687988e-03 -3.093631565570831299e-01
1.766178756952285767e-01 5.732234567403793335e-03 -4.047653675079345703e-01
-5.955591425299644470e-02 -2.472661435604095459e-04 -5.192289352416992188e-01
2.112911790609359741e-01 6.633234024047851562e-02 3.483441099524497986e-02
-5.646744370460510254e-02 -5.344554781913757324e-03 -2.283331602811813354e-01
-2.743491530418395996e-01 1.248734630644321442e-02 2.004206031560897827e-01
-7.712986320257186890e-02 -3.021214157342910767e-03 -3.752928972244262695e-01
-2.246850281953811646e-01 2.853874117136001587e-03 -4.794393479824066162e-02
2.294115871191024780e-01 1.034967601299285889e-02 -3.453619480133056641e-01
2.660937011241912842e-01 7.883341982960700989e-03 2.177763134241104126e-01
-3.217168152332305908e-01 3.615202009677886963e-02 2.483673393726348877e-01
-2.134698256850242615e-02 6.580038368701934814e-02 6.340931653976440430e-01
3.099730312824249268e-01 1.915359124541282654e-02 -9.827760607004165649e-02
3.306951522827148438e-01 2.835034579038619995e-02 4.318307638168334961e-01
-1.464217901229858398e-02 1.528398692607879639e-02 8.770925998687744141e-01
2.700864970684051514e-01 1.322338916361331940e-02 -2.199044376611709595e-01
-3.028475344181060791e-01 1.505417749285697937e-02 -2.839822471141815186e-01
-1.955472677946090698e-01 6.018807366490364075e-02 4.585762023925781250e-01
-2.908304892480373383e-02 7.468242943286895752e-02 -1.303038597106933594e-01
-2.643253505229949951e-01 1.757721230387687683e-02 3.952170610427856445e-01
1.316734682768583298e-02 1.645077392458915710e-02 9.039468765258789062e-01
2.166802585124969482e-01 5.234844237565994263e-02 -5.021692514419555664e-01
-1.918084919452667236e-01 6.778416037559509277e-02 -2.454252243041992188e-01
2.531341314315795898e-01 4.602399095892906189e-02 7.392525672912597656e-01
-1.748145073652267456e-01 8.896999061107635498e-04 -3.600676953792572021e-01
-2.337074577808380127e-01 5.461540818214416504e-02 -6.278904676437377930e-01
-1.864263117313385010e-01 6.324194371700286865e-02 -5.196127891540527344e-01
-2.308788150548934937e-01 1.212309300899505615e-02 -5.994353294372558594e-01
4.761662706732749939e-02 -6.301224231719970703e-03 1.474075168371200562e-01
1.831996142864227295e-01 6.281432509422302246e-02 -3.585796356201171875e-01
1.239733323454856873e-01 7.081918418407440186e-02 3.401290178298950195e-01
2.356214523315429688e-01 5.753269419074058533e-02 5.766313076019287109e-01
-2.047771066427230835e-01 6.712646782398223877e-02 6.137082353234291077e-02
-2.200929820537567139e-01 6.604406237602233887e-02 -1.569453030824661255e-01
-2.288512289524078369e-01 6.403103470802307129e-03 2.356649190187454224e-01
2.560625672340393066e-01 3.946466371417045593e-02 -5.058732032775878906e-01
1.757838279008865356e-01 -1.344617456197738647e-03 1.023269146680831909e-01
2.031920105218887329e-01 5.617307871580123901e-02 7.049847841262817383e-01
2.306791990995407104e-01 6.389536708593368530e-02 -2.762828022241592407e-02
4.616541415452957153e-02 3.374971449375152588e-03 -5.971791744232177734e-01
-2.212965674698352814e-02 5.743850022554397583e-03 7.087352275848388672e-01
-1.137271299958229065e-01 1.933019235730171204e-02 8.188635110855102539e-01
-2.730995714664459229e-01 5.359895154833793640e-02 -5.048956871032714844e-01
1.242070570588111877e-01 1.032952778041362762e-02 -6.413360834121704102e-01
-2.995776832103729248e-01 1.539558731019496918e-02 -3.421707153320312500e-01
-5.117375031113624573e-02 8.220948278903961182e-03 7.366112470626831055e-01
3.370764553546905518e-01 2.575761452317237854e-02 5.512044206261634827e-02
-1.671955883502960205e-01 3.681099042296409607e-02 -9.129860401153564453e-01
-1.019230410456657410e-01 6.416972726583480835e-02 -6.290136575698852539e-01
-7.491673529148101807e-02 6.050407886505126953e-03 -6.991219520568847656e-01
-1.846345216035842896e-01 4.067145287990570068e-02 7.508931159973144531e-01
3.980870917439460754e-02 5.353131145238876343e-02 8.932795524597167969e-01
1.793005317449569702e-01 6.888735294342041016e-02 4.898429848253726959e-03
-3.336730599403381348e-01 3.928516805171966553e-02 -3.952492475509643555e-01
-2.359648197889328003e-01 1.045246422290802002e-02 3.527466356754302979e-01
-3.283629715442657471e-01 4.468131065368652344e-02 -3.531686663627624512e-01
1.970179677009582520e-01 6.678058207035064697e-02 3.081578612327575684e-01
2.290389686822891235e-01 6.118669360876083374e-02 -2.150875329971313477e-01
2.232488989830017090e-01 2.974662929773330688e-03 2.326783835887908936e-01
-5.193996429443359375e-02 6.392215937376022339e-02 6.578590869903564453e-01
1.489489972591400146e-01 7.006306946277618408e-02 3.005561828613281250e-01
1.754567585885524750e-02 -5.317285656929016113e-03 -2.452110052108764648e-01
-2.264182716608047485e-01 6.278508901596069336e-02 -3.895734846591949463e-01
-1.125607453286647797e-02 -1.191850751638412476e-03 -4.872262775897979736e-01
1.954876780509948730e-01 6.531093269586563110e-02 4.226115047931671143e-01
-9.547862410545349121e-02 5.620437115430831909e-02 -8.026783466339111328e-01
-4.236326552927494049e-03 7.491545379161834717e-02 1.439517140388488770e-01
-6.846193224191665649e-02 4.353907704353332520e-02 -9.426327943801879883e-01
1.691206544637680054e-01 -6.469152867794036865e-04 3.069506287574768066e-01
7.442103326320648193e-02 2.016089111566543579e-02 9.459118843078613281e-01
-2.651840150356292725e-01 4.055579379200935364e-02 -7.199859619140625000e-01
7.717034220695495605e-02 -5.410328507423400879e-03 2.044172883033752441e-01
1.621445715427398682e-01 6.836527585983276367e-02 -1.800556480884552002e-01
1.411405503749847412e-01 6.230549886822700500e-02 -4.974142611026763916e-01
1.307011023163795471e-02 1.295242458581924438e-03 -5.639930963516235352e-01
-1.880241483449935913e-01 1.685984246432781219e-02 6.429980993270874023e-01
-2.758400738239288330e-01 5.607192218303680420e-02 1.983699500560760498e-01
3.459894657135009766e-01 3.166368603706359863e-02 1.517054885625839233e-01
-1.613481342792510986e-01 1.248337328433990479e-03 3.101894557476043701e-01
-2.370969206094741821e-01 6.447722762823104858e-02 -6.308859586715698242e-02
2.376546412706375122e-01 6.325470656156539917e-02 2.746538817882537842e-01
1.056500822305679321e-01 6.304882466793060303e-02 6.959527730941772461e-01
-3.257917165756225586e-01 4.910774901509284973e-02 -1.159615516662597656e-01
1.128899827599525452e-01 1.394051313400268555e-02 8.578417301177978516e-01
2.080794870853424072e-01 2.586532384157180786e-03 3.369810879230499268e-01
-2.994329631328582764e-01 3.350747749209403992e-02 3.835991621017456055e-01
1.174928322434425354e-01 6.958916783332824707e-02 4.385039806365966797e-01
4.193704947829246521e-02 7.370606064796447754e-02 2.754583358764648438e-01
-8.510835468769073486e-02 3.524614498019218445e-03 -6.288769245147705078e-01
7.885006815195083618e-02 6.672456860542297363e-02 6.092131137847900391e-01
6.872921437025070190e-02 -2.094283699989318848e-03 4.652644395828247070e-01
-1.610124409198760986e-01 -1.454290002584457397e-03 -2.384500205516815186e-01
2.102498114109039307e-01 3.842636942863464355e-02 -6.511619091033935547e-01
-2.238160967826843262e-01 6.461110711097717285e-02 -2.885556817054748535e-01
4.395823925733566284e-02 -6.619308143854141235e-03 5.283935740590095520e-02
-2.210958003997802734e-01 4.661899060010910034e-03 -3.626837730407714844e-01
1.014625430107116699e-01 7.013732194900512695e-02 -2.978954911231994629e-01
1.638036817312240601e-01 -1.462571322917938232e-03 2.557991743087768555e-01
-1.721884757280349731e-01 6.945806741714477539e-02 -2.075238525867462158e-01
-2.452011555433273315e-01 5.194192752242088318e-03 -1.716063916683197021e-01
-4.564732685685157776e-02 7.472732663154602051e-02 -9.147087484598159790e-02
-1.376735121011734009e-01 7.167501747608184814e-02 8.316110819578170776e-02
-6.460669450461864471e-03 5.428655818104743958e-02 8.701961040496826172e-01
5.398696288466453552e-03 6.022120267152786255e-02 -7.288950681686401367e-01
3.096374273300170898e-01 3.636365383863449097e-02 -2.719172835350036621e-01
-1.251197159290313721e-01 8.223390206694602966e-03 -7.125294208526611328e-01
1.041724011301994324e-01 5.938610807061195374e-02 -6.392458677291870117e-01
-9.324637055397033691e-02 5.107076093554496765e-02 8.308728933334350586e-01
2.772988565266132355e-02 2.003358304500579834e-02 9.442756175994873047e-01
2.565879523754119873e-01 6.476001814007759094e-03 8.170653879642486572e-02
1.865154653787612915e-01 6.078696623444557190e-02 -4.118399024009704590e-01
2.181226313114166260e-01 6.223965436220169067e-02 4.758578836917877197e-01
-1.692964285612106323e-01 7.001616060733795166e-02 -1.458902060985565186e-01
1.887292861938476562e-01 6.838750839233398438e-02 1.570023447275161743e-01
2.751961052417755127e-01 9.939158335328102112e-03 -1.651831716299057007e-02
1.705318540334701538e-01 6.974317878484725952e-02 7.431292533874511719e-02
7.755073904991149902e-02 1.692383736371994019e-02 -8.059796094894409180e-01
2.528028190135955811e-01 6.111372634768486023e-02 3.103115558624267578e-01
2.438963763415813446e-02 6.940299272537231445e-02 -4.602067470550537109e-01
9.149847924709320068e-02 7.367058098316192627e-02 4.064916074275970459e-02
2.353361397981643677e-01 1.103529706597328186e-02 5.889081954956054688e-01
2.969654798507690430e-01 1.787958480417728424e-02 4.816869795322418213e-01
-2.358296960592269897e-01 9.482808411121368408e-03 -5.065455436706542969e-01
-1.252869069576263428e-01 -4.137776792049407959e-03 -7.226355373859405518e-02
2.208200097084045410e-01 6.231782957911491394e-03 -2.422267198562622070e-01
4.298790916800498962e-02 -3.299351781606674194e-03 -3.493626415729522705e-01
3.440117835998535156e-02 5.708830803632736206e-02 8.418545722961425781e-01
2.554347217082977295e-01 2.783284522593021393e-02 7.793329954147338867e-01
-7.359426468610763550e-02 -5.411289632320404053e-03 1.430500149726867676e-01
-2.450291216373443604e-01 6.211580708622932434e-03 -2.945351898670196533e-01
-3.383660688996315002e-02 6.064793467521667480e-02 -7.335683107376098633e-01
-2.847600281238555908e-01 3.036914952099323273e-02 4.454688131809234619e-01
3.697800636291503906e-02 -6.407801061868667603e-03 -8.847011625766754150e-02
2.326726727187633514e-02 6.238893419504165649e-02 7.393894195556640625e-01
-2.730323374271392822e-01 1.320478133857250214e-02 -4.539887011051177979e-01
-5.791435018181800842e-02 7.427178323268890381e-02 1.408038735389709473e-01
-8.214477449655532837e-02 7.030922174453735352e-02 -4.202629923820495605e-01
-2.327277809381484985e-01 2.697375603020191193e-02 -7.960807085037231445e-01
1.227539926767349243e-01 -6.615743041038513184e-04 4.609667062759399414e-01
7.180844247341156006e-02 -1.663111150264739990e-03 -3.868994712829589844e-01
1.338997632265090942e-01 7.127042114734649658e-02 2.517430782318115234e-01
2.602072060108184814e-01 5.256715416908264160e-02 -3.269003927707672119e-01
-5.340601131319999695e-02 4.965274035930633545e-02 -8.956398963928222656e-01
-7.243134081363677979e-02 2.644888870418071747e-02 9.231673479080200195e-01
-7.321717217564582825e-03 7.097765803337097168e-02 4.534705579280853271e-01
-1.010787636041641235e-01 5.664030835032463074e-02 7.444533109664916992e-01
2.644029557704925537e-01 6.031944975256919861e-02 2.184808850288391113e-01
1.779190152883529663e-01 2.216036245226860046e-02 8.882412910461425781e-01
1.025428250432014465e-01 7.283979654312133789e-02 -6.976549327373504639e-02
-1.343615055084228516e-01 3.298170864582061768e-03 4.765666723251342773e-01
-5.667460709810256958e-02 6.095224246382713318e-02 7.210727930068969727e-01
-1.683847010135650635e-01 -1.346793025732040405e-03 6.915412843227386475e-02
9.596198797225952148e-02 7.337608933448791504e-02 1.524201035499572754e-01
1.975265592336654663e-01 4.245659336447715759e-03 4.835085570812225342e-01
6.239966675639152527e-02 6.413943320512771606e-02 6.940850019454956055e-01
-4.707017168402671814e-02 1.076541841030120850e-03 -5.703152418136596680e-01
1.028781756758689880e-01 1.812472939491271973e-03 -4.664520025253295898e-01
-1.130023822188377380e-01 1.506719738245010376e-03 -5.371658802032470703e-01
5.420498922467231750e-02 7.134316861629486084e-02 -3.331362009048461914e-01
2.127247750759124756e-01 3.866333514451980591e-03 -1.689080744981765747e-01
8.970933407545089722e-02 7.358597218990325928e-02 -1.834492385387420654e-02
5.033509805798530579e-02 7.461301982402801514e-02 1.257724910974502563e-01
1.065833494067192078e-01 6.880997121334075928e-02 4.979258179664611816e-01
1.112066507339477539e-01 -4.813376814126968384e-03 7.239672541618347168e-02
-1.622726209461688995e-02 -6.719443947076797485e-03 -8.330395072698593140e-02
1.354352384805679321e-01 7.077997922897338867e-02 -1.245850771665573120e-01
1.520498245954513550e-01 -9.210780262947082520e-04 3.645586073398590088e-01
1.112385690212249756e-01 4.878107458353042603e-03 6.776033639907836914e-01
3.004294335842132568e-01 1.347982138395309448e-02 1.536280512809753418e-01
-3.073257803916931152e-01 1.518314145505428314e-02 -3.824103623628616333e-02
-3.113385848701000214e-02 8.885499089956283569e-03 -7.630996704101562500e-01
2.800605893135070801e-01 2.933838404715061188e-02 -4.159045517444610596e-01
2.774492502212524414e-01 1.281142979860305786e-02 4.431495964527130127e-01
-3.008617758750915527e-01 5.405423045158386230e-02 4.545156657695770264e-02
-1.699861325323581696e-02 1.876451075077056885e-03 -5.948389768600463867e-01
5.733261629939079285e-02 7.451334968209266663e-03 -6.820707321166992188e-01
9.533366560935974121e-02 5.486854910850524902e-02 -7.313370704650878906e-01
-5.309585109353065491e-02 5.641438066959381104e-02 -8.101149797439575195e-01
1.708025187253952026e-01 9.593252092599868774e-03 7.141832113265991211e-01
2.370536327362060547e-03 7.237542420625686646e-02 -3.319349586963653564e-01
-2.585704326629638672e-01 7.360918447375297546e-03 4.223510622978210449e-02
3.084040284156799316e-01 1.530528254806995392e-02 1.144338324666023254e-01
7.163238525390625000e-02 7.350428402423858643e-02 -1.284085661172866821e-01
3.268728405237197876e-02 7.500980794429779053e-02 2.460261434316635132e-02
8.923932909965515137e-02 6.031107157468795776e-03 -6.095665693283081055e-01
-2.389379544183611870e-03 3.011357039213180542e-02 9.897706508636474609e-01
1.323153376579284668e-01 -2.121824771165847778e-03 -1.956969350576400757e-01
2.838662452995777130e-02 2.736072987318038940e-03 6.533699035644531250e-01
-6.163768470287322998e-02 6.821492314338684082e-02 5.157252550125122070e-01
3.742211312055587769e-02 -6.598811596632003784e-03 1.051193252205848694e-01
-8.332044631242752075e-02 7.967408746480941772e-03 6.932746171951293945e-01
2.352075576782226562e-01 5.407186597585678101e-02 6.646388769149780273e-01
-2.245490252971649170e-01 7.675303146243095398e-03 3.130239844322204590e-01
1.651045680046081543e-01 6.323535740375518799e-02 6.033380031585693359e-01
1.076354011893272400e-01 -4.147186875343322754e-03 2.519434690475463867e-01
-3.749496489763259888e-02 1.509514823555946350e-02 -8.589130640029907227e-01
2.292732335627079010e-02 7.008311152458190918e-02 5.024702548980712891e-01
-6.609889864921569824e-02 7.391498237848281860e-02 -1.757363677024841309e-01
-2.633259296417236328e-01 4.344133287668228149e-02 5.035135746002197266e-01
-1.858062893152236938e-01 -5.171559751033782959e-04 -3.123734518885612488e-02
-1.183221489191055298e-01 6.171460449695587158e-02 -6.782855987548828125e-01
-5.012175440788269043e-02 5.704761669039726257e-02 7.989100217819213867e-01
6.367883831262588501e-02 5.428554490208625793e-03 7.206356525421142578e-01
2.222865074872970581e-01 6.367500871419906616e-02 -1.241497099399566650e-01
-1.946310698986053467e-01 4.790326580405235291e-03 -4.832198917865753174e-01
3.095705211162567139e-01 3.505239635705947876e-02 6.002557277679443359e-01
1.811425201594829559e-02 1.252140849828720093e-03 6.069221496582031250e-01
3.399610519409179688e-01 3.136029466986656189e-02 -4.631156101822853088e-03
-1.274667531251907349e-01 6.077074632048606873e-02 6.199090480804443359e-01
1.689714044332504272e-01 7.569868117570877075e-03 6.684473752975463867e-01
-5.924050137400627136e-02 -2.157192677259445190e-03 4.132968783378601074e-01
1.728972345590591431e-01 5.319086462259292603e-02 8.139435052871704102e-01
-9.050950407981872559e-02 7.227559387683868408e-02 -2.854879498481750488e-01
3.691779449582099915e-02 7.356818020343780518e-02 -2.096220552921295166e-01
7.223633117973804474e-03 -6.927322596311569214e-03 3.964493796229362488e-02
6.807589530944824219e-02 5.937414616346359253e-02 -6.907231807708740234e-01
2.396885007619857788e-01 1.378993503749370575e-02 6.431527137756347656e-01
3.044033050537109375e-01 5.272501707077026367e-02 2.974562346935272217e-01
4.571396857500076294e-02 -4.484653472900390625e-04 -4.750636816024780273e-01
-1.611972898244857788e-01 -2.203632146120071411e-03 -9.350800514221191406e-02
2.282314151525497437e-01 4.164637997746467590e-03 -6.927971541881561279e-02
2.018444538116455078e-01 9.851045906543731689e-04 -4.035843536257743835e-03
-1.742461621761322021e-01 6.986802816390991211e-02 -9.169984608888626099e-02
-1.682742387056350708e-01 1.968145370483398438e-02 -8.429945707321166992e-01
-2.704207301139831543e-01 1.085507869720458984e-02 1.588385701179504395e-01
3.215108811855316162e-01 1.880499161779880524e-02 2.258411496877670288e-01
3.777874633669853210e-02 5.744823068380355835e-02 -7.563513517379760742e-01
-1.123554110527038574e-01 2.836070954799652100e-03 5.115257501602172852e-01
7.183717191219329834e-02 2.404011040925979614e-02 -8.728648424148559570e-01
1.017961427569389343e-01 -5.033183842897415161e-03 -1.624323055148124695e-02
-1.178561374545097351e-01 6.577309966087341309e-02 -5.635566711425781250e-01
-5.321232602000236511e-02 4.212455824017524719e-03 6.432546377182006836e-01
-9.708734601736068726e-02 -5.268797278404235840e-03 -8.575525134801864624e-04
1.045877486467361450e-01 5.339659005403518677e-02 8.792362213134765625e-01
4.922304302453994751e-02 6.345249712467193604e-02 -6.227514743804931641e-01
1.321845799684524536e-01 6.496190279722213745e-02 -4.388916194438934326e-01
-9.274929016828536987e-02 6.291277706623077393e-03 6.422257423400878906e-01
6.434990465641021729e-02 6.982046365737915039e-02 -3.923744559288024902e-01
-2.033261209726333618e-02 7.437193393707275391e-02 -1.775479167699813843e-01
-4.925050586462020874e-02 7.141599059104919434e-02 -3.882711529731750488e-01
8.088832348585128784e-02 7.192368805408477783e-02 -2.416318953037261963e-01
6.652849167585372925e-02 -6.273128092288970947e-04 -4.401701688766479492e-01
1.231440156698226929e-01 -1.773592084646224976e-03 -2.543253600597381592e-01
5.642512440681457520e-02 6.779463589191436768e-02 -4.852565228939056396e-01
-2.434104830026626587e-01 6.256400793790817261e-02 1.110692769289016724e-01
3.241286426782608032e-02 2.598227187991142273e-02 -9.189273118972778320e-01
-2.368653416633605957e-01 5.950608104467391968e-02 -4.823807179927825928e-01
-1.863200217485427856e-01 2.636406570672988892e-03 2.737629413604736328e-01
6.257611513137817383e-02 -5.244150757789611816e-03 -1.735328435897827148e-01
-2.819557189941406250e-01 5.448969453573226929e-02 -4.280793368816375732e-01
-1.501805633306503296e-01 1.149173825979232788e-02 -7.497003078460693359e-01
9.110151976346969604e-02 2.847307920455932617e-02 9.928767681121826172e-01
-2.732487916946411133e-01 1.373272947967052460e-02 2.526028752326965332e-01
-2.092248797416687012e-01 8.474187925457954407e-03 4.060066044330596924e-01
-1.781049668788909912e-01 3.670200705528259277e-03 3.559389710426330566e-01
1.974269747734069824e-01 6.717655807733535767e-03 5.781286954879760742e-01
-6.152586266398429871e-02 5.141755938529968262e-02 8.635448217391967773e-01
-3.254756331443786621e-01 4.745823889970779419e-02 -2.951500117778778076e-01
1.331962645053863525e-01 -3.382790833711624146e-03 -6.361608207225799561e-02
-2.668159008026123047e-01 1.440779119729995728e-02 3.106707930564880371e-01
1.241822466254234314e-01 3.042178228497505188e-03 6.079039573669433594e-01
1.097683683037757874e-01 -3.590818494558334351e-03 3.007868528366088867e-01
1.822008937597274780e-01 6.561338901519775391e-02 4.608672261238098145e-01
-3.134239315986633301e-01 3.626241534948348999e-02 3.033052980899810791e-01
3.743494302034378052e-02 7.482407987117767334e-02 -3.503036499023437500e-02
-1.315750181674957275e-01 6.275242567062377930e-02 5.626330375671386719e-01
-2.479587793350219727e-01 1.646266505122184753e-02 4.450750946998596191e-01
-1.239133179187774658e-01 1.564117893576622009e-02 7.600224018096923828e-01
-2.989797387272119522e-03 1.133821532130241394e-02 -7.968370914459228516e-01
-2.799492180347442627e-01 5.842912197113037109e-02 7.563639432191848755e-03
-2.767873406410217285e-01 1.258952170610427856e-02 -4.072557985782623291e-01
-1.971245855093002319e-01 1.193091273307800293e-03 1.058809757232666016e-01
2.530061304569244385e-01 5.552332848310470581e-02 -2.877953946590423584e-01
1.309557110071182251e-01 1.415489055216312408e-02 -6.920869350433349609e-01
-2.602032124996185303e-01 3.421298041939735413e-02 5.514408349990844727e-01
-3.765014698728919029e-03 4.999995976686477661e-02 9.207142591476440430e-01
-7.360238581895828247e-02 1.150247268378734589e-02 7.711465358734130859e-01
-8.249054104089736938e-02 1.042903959751129150e-02 -7.844641208648681641e-01
8.925319463014602661e-02 7.374339550733566284e-02 9.276533871889114380e-02
3.169214725494384766e-02 -5.548231303691864014e-03 2.661636173725128174e-01
1.165418773889541626e-01 7.262128591537475586e-02 9.369375184178352356e-03
8.130972832441329956e-02 -3.922667354345321655e-03 -2.371646761894226074e-01
-3.135274648666381836e-01 4.601998254656791687e-02 2.048051059246063232e-01
1.759022921323776245e-01 -2.405829727649688721e-04 -1.113458573818206787e-01
-1.593038886785507202e-01 -7.069371640682220459e-04 1.993872970342636108e-01
-9.922792017459869385e-02 -4.887200891971588135e-03 8.920426666736602783e-02
2.479933798313140869e-01 5.990127101540565491e-03 2.776765823364257812e-01
1.573061570525169373e-02 7.437364757061004639e-02 2.234676480293273926e-01
9.011155366897583008e-02 7.335153222084045410e-02 1.962573379278182983e-01
