-2.265882939100265503e-01 -1.831224560737609863e-01 3.216621279716491699e-01
-2.375707626342773438e-01 -1.032737344503402710e-01 -2.302968204021453857e-01
-6.134719401597976685e-02 -2.125894725322723389e-01 -1.114859282970428467e-01
-2.714172899723052979e-01 -1.573310792446136475e-01 1.691328287124633789e-01
-2.456194162368774414e-01 -1.017769724130630493e-01 -1.952429413795471191e-01
-2.094033658504486084e-01 -6.902699917554855347e-02 -1.904974132776260376e-01
-1.646113842725753784e-01 -2.482938766479492188e-01 -2.368059158325195312e-01
-2.473853975534439087e-01 -8.735632151365280151e-02 1.439796835184097290e-01
-2.081331163644790649e-01 -1.553816050291061401e-01 -3.515148162841796875e-01
-2.252349555492401123e-01 -1.383088678121566772e-01 3.299666643142700195e-01
-1.315311789512634277e-01 -2.352780699729919434e-01 -2.672109007835388184e-01
-2.759889960289001465e-01 -1.617600321769714355e-01 -1.141139492392539978e-01
-1.354183256626129150e-01 -4.744644463062286377e-02 -1.097307354211807251e-01
-1.303373277187347412e-01 -2.048180103302001953e-01 -3.370425701141357422e-01
-9.385846555233001709e-02 -1.704947352409362793e-01 -3.192203044891357422e-01
-2.208577990531921387e-01 -8.509843051433563232e-02 -2.265257090330123901e-01
-2.765963673591613770e-01 -1.254866868257522583e-01 4.554607719182968140e-02
-1.433001458644866943e-01 -2.521666586399078369e-01 -2.111357003450393677e-01
-1.101113781332969666e-01 -8.660259097814559937e-02 2.720286250114440918e-01
-5.660821497440338135e-02 -1.593664437532424927e-01 -1.997624635696411133e-01
-2.050286233425140381e-01 -2.525471448898315430e-01 -1.699527055025100708e-01
-2.592877447605133057e-01 -2.059799581766128540e-01 1.703878939151763916e-01
-2.821812033653259277e-01 -1.635753810405731201e-01 7.322880439460277557e-03
-4.088240861892700195e-02 -1.396874785423278809e-01 4.194580018520355225e-02
-1.831704378128051758e-01 -1.095753163099288940e-01 -3.413195013999938965e-01
-1.544081419706344604e-01 -4.596161097288131714e-02 1.284054964780807495e-01
-1.887795627117156982e-01 -1.479803472757339478e-01 -3.712683916091918945e-01
-2.771951854228973389e-01 -1.727995574474334717e-01 -9.249662607908248901e-02
-5.148818343877792358e-02 -1.926214247941970825e-01 1.097677350044250488e-01
-2.337473332881927490e-01 -8.368053287267684937e-02 -1.777861714363098145e-01
-1.601382195949554443e-01 -1.487498432397842407e-01 3.918248414993286133e-01
-2.636928260326385498e-01 -1.177432686090469360e-01 -1.453466415405273438e-01
-2.128902226686477661e-01 -2.095488160848617554e-01 3.100357651710510254e-01
-1.696937531232833862e-01 -2.579463124275207520e-01 -1.873784661293029785e-01
-1.761258393526077271e-01 -1.566398292779922485e-01 3.900430798530578613e-01
-9.429875016212463379e-02 -2.310338914394378662e-01 -2.041212022304534912e-01
-1.815159916877746582e-01 -4.913725703954696655e-02 1.385573893785476685e-01
-2.396494597196578979e-01 -7.792880386114120483e-02 -1.155234873294830322e-01
-1.081539690494537354e-01 -1.978982836008071899e-01 3.208929896354675293e-01
-4.962440580129623413e-02 -1.103088557720184326e-01 -5.751984938979148865e-02
-7.255032658576965332e-02 -1.382813602685928345e-01 -2.607871890068054199e-01
-1.185783743858337402e-01 -2.495514154434204102e-01 1.853143125772476196e-01
-1.806328445672988892e-01 -2.252045720815658569e-01 3.112879991531372070e-01
-6.354770809412002563e-02 -9.327344596385955811e-02 -1.114878877997398376e-01
-1.096931695938110352e-01 -1.902814507484436035e-01 -3.315645456314086914e-01
-1.728894263505935669e-01 -1.550096571445465088e-01 -3.818184733390808105e-01
-1.195683181285858154e-01 -6.037840992212295532e-02 -1.759846806526184082e-01
-4.954256862401962280e-02 -1.694132387638092041e-01 -1.488296836614608765e-01
-1.623913496732711792e-01 -4.010822623968124390e-02 1.191342528909444809e-02
-8.077740669250488281e-02 -7.917673140764236450e-02 1.507767885923385620e-01
-2.353713512420654297e-01 -8.119534701108932495e-02 -1.587810516357421875e-01
-2.681110203266143799e-01 -2.131106257438659668e-01 -9.097570553421974182e-03
-2.378899455070495605e-01 -7.568207383155822754e-02 1.293174028396606445e-01
-6.596799194812774658e-02 -8.504366874694824219e-02 7.594204694032669067e-02
-7.909417897462844849e-02 -2.384710013866424561e-01 -6.929130852222442627e-02
-1.886602938175201416e-01 -2.562560439109802246e-01 -1.799471378326416016e-01
-4.811357706785202026e-02 -1.200589984655380249e-01 -9.132198989391326904e-02
-3.946928679943084717e-02 -1.548316031694412231e-01 2.255843207240104675e-02
-5.760899186134338379e-02 -1.363840848207473755e-01 -1.962938755750656128e-01
-4.642768949270248413e-02 -1.555886864662170410e-01 1.307680159807205200e-01
-2.064407318830490112e-01 -5.185534805059432983e-02 -6.492672115564346313e-02
-2.487505525350570679e-01 -2.383735924959182739e-01 -1.669677719473838806e-02
-1.929987967014312744e-01 -2.110281139612197876e-01 3.326743245124816895e-01
-2.375679016113281250e-01 -2.190124392509460449e-01 2.278851717710494995e-01
-2.327781617641448975e-01 -2.488261759281158447e-01 8.287756145000457764e-02
-2.659948766231536865e-01 -2.167675793170928955e-01 2.228055708110332489e-02
-2.727673649787902832e-01 -1.489940583705902100e-01 -1.379380822181701660e-01
-2.762109339237213135e-01 -1.420849412679672241e-01 1.165763437747955322e-01
-2.095510810613632202e-01 -6.474056839942932129e-02 1.836481094360351562e-01
-5.157569795846939087e-02 -2.021227329969406128e-01 5.671345442533493042e-02
-3.972132503986358643e-02 -1.516112536191940308e-01 -3.458783403038978577e-02
-5.163856595754623413e-02 -1.519228518009185791e-01 -1.711862832307815552e-01
-2.479158341884613037e-01 -1.601748615503311157e-01 2.782670259475708008e-01
-2.094789743423461914e-01 -9.411968290805816650e-02 -2.784572839736938477e-01
-1.731544286012649536e-01 -4.097314178943634033e-02 -3.252062946557998657e-03
-8.235076069831848145e-02 -2.436289340257644653e-01 1.129138097167015076e-02
-2.475803494453430176e-01 -1.963856816291809082e-01 2.470680773258209229e-01
-1.021032258868217468e-01 -2.113801538944244385e-01 -2.836239337921142578e-01
-1.849838048219680786e-01 -1.911810338497161865e-01 -3.588849902153015137e-01
-1.594341546297073364e-01 -4.025372117757797241e-02 3.088129498064517975e-02
-2.177660167217254639e-01 -2.597950398921966553e-01 4.428226873278617859e-02
-2.683424949645996094e-01 -1.065728440880775452e-01 5.726934596896171570e-02
-1.099885106086730957e-01 -1.126481443643569946e-01 3.258563280105590820e-01
-7.694131880998611450e-02 -7.322087138891220093e-02 -7.000092417001724243e-02
-1.461678445339202881e-01 -4.094027727842330933e-02 -2.413659915328025818e-02
-2.569808661937713623e-01 -1.618562787771224976e-01 2.449741959571838379e-01
-1.372768878936767578e-01 -2.577211856842041016e-01 1.736848801374435425e-01
-1.072333082556724548e-01 -1.449045240879058838e-01 3.490985035896301270e-01
-1.527530252933502197e-01 -2.145595550537109375e-01 3.376238346099853516e-01
-8.280179649591445923e-02 -1.369662731885910034e-01 -2.907103300094604492e-01
-9.871347993612289429e-02 -2.419843077659606934e-01 1.653499752283096313e-01
-8.768597990274429321e-02 -2.206855863332748413e-01 -2.199487239122390747e-01
-6.807442009449005127e-02 -7.953663915395736694e-02 2.668752893805503845e-02
-1.127247065305709839e-01 -2.623617649078369141e-01 -1.437046099454164505e-03
-2.015149593353271484e-01 -2.214827537536621094e-01 3.010465502738952637e-01
-1.306484639644622803e-01 -6.724354624748229980e-02 2.379796355962753296e-01
-1.105919927358627319e-01 -2.582166492938995361e-01 8.568070083856582642e-02
-2.680160999298095703e-01 -1.384634822607040405e-01 -1.604343056678771973e-01
-1.752317845821380615e-01 -2.595421671867370605e-01 1.787199378013610840e-01
-8.112253993749618530e-02 -2.190593481063842773e-01 1.992561221122741699e-01
-1.503721177577972412e-01 -2.595193386077880859e-01 -1.750453710556030273e-01
-1.710706204175949097e-01 -8.138529211282730103e-02 -2.880131602287292480e-01
-1.834609210491180420e-01 -4.310847818851470947e-02 4.397632181644439697e-02
-1.459143310785293579e-01 -9.470706433057785034e-02 3.314787149429321289e-01
-2.077108621597290039e-01 -2.647645771503448486e-01 1.813710480928421021e-02
-2.434768378734588623e-01 -1.550024151802062988e-01 -2.767178416252136230e-01
-1.526194065809249878e-01 -2.432595193386077881e-01 -2.552957534790039062e-01
-1.795715391635894775e-01 -8.531098067760467529e-02 3.070396184921264648e-01
-1.029694154858589172e-01 -1.730755418539047241e-01 3.376983404159545898e-01
-1.260642111301422119e-01 -1.531446576118469238e-01 3.748679161071777344e-01
-2.104055136442184448e-01 -7.477940618991851807e-02 2.305314540863037109e-01
-2.716459929943084717e-01 -1.767518371343612671e-01 1.554887145757675171e-01
-2.443059682846069336e-01 -2.100223749876022339e-01 -2.167308032512664795e-01
-8.743804693222045898e-02 -2.376093119382858276e-01 1.395503431558609009e-01
-2.395142614841461182e-01 -1.355330646038055420e-01 -2.780731320381164551e-01
-9.843719005584716797e-02 -2.347714602947235107e-01 2.009252160787582397e-01
-1.162151768803596497e-01 -2.529538571834564209e-01 -1.579097360372543335e-01
-1.082295849919319153e-01 -2.517908215522766113e-01 -1.386781185865402222e-01
-1.136484518647193909e-01 -2.569262981414794922e-01 1.160578802227973938e-01
-2.345111370086669922e-01 -6.919933855533599854e-02 -7.656992226839065552e-02
-2.373497784137725830e-01 -1.201520115137100220e-01 2.818614244461059570e-01
-2.635209560394287109e-01 -2.109620869159698486e-01 -1.049565225839614868e-01
-1.027761250734329224e-01 -5.582547932863235474e-02 8.508443087339401245e-02
-1.504333317279815674e-01 -8.195328712463378906e-02 -2.917512059211730957e-01
-2.804989814758300781e-01 -1.784512102603912354e-01 -4.985432140529155731e-03
-4.708170145750045776e-02 -1.819442510604858398e-01 -1.021108776330947876e-01
-2.184629589319229126e-01 -2.547266185283660889e-01 -1.057957038283348083e-01
-7.137408852577209473e-02 -1.683094501495361328e-01 2.591168880462646484e-01
-4.085581004619598389e-02 -1.484449207782745361e-01 -6.123946607112884521e-02
-8.872149884700775146e-02 -8.206104487180709839e-02 1.997864991426467896e-01
-7.837950438261032104e-02 -1.384631395339965820e-01 2.814226746559143066e-01
-1.589368730783462524e-01 -2.441105544567108154e-01 2.572963833808898926e-01
-2.614451050758361816e-01 1.182736828923225403e-02 -1.498288065195083618e-01
-1.843705177307128906e-01 -1.483332365751266479e-02 -3.345404565334320068e-01
-2.565557658672332764e-01 -6.252322345972061157e-02 1.845509000122547150e-02
-1.613719314336776733e-01 -2.498376369476318359e-02 -2.880453765392303467e-01
-6.187423318624496460e-02 6.718546897172927856e-02 1.196536570787429810e-01
-2.207919955253601074e-01 6.622521579265594482e-02 -1.178730875253677368e-01
-1.465783268213272095e-01 -6.617426127195358276e-02 8.244359493255615234e-02
-2.209069728851318359e-01 1.342364773154258728e-02 2.911551296710968018e-01
-2.437513470649719238e-01 -6.413602083921432495e-02 -9.224405884742736816e-02
-1.102995127439498901e-01 -4.447790607810020447e-02 8.380053937435150146e-02
-1.757666021585464478e-01 8.007771521806716919e-02 1.500956118106842041e-01
-2.359442114830017090e-01 -1.837803795933723450e-02 -2.868061661720275879e-01
-1.778477728366851807e-01 -7.672096043825149536e-02 8.716410398483276367e-02
-1.887410879135131836e-01 6.317871809005737305e-02 2.156542688608169556e-01
-1.940704435110092163e-01 -4.435256123542785645e-03 3.762683570384979248e-01
-1.601577252149581909e-01 4.316841810941696167e-02 -3.659608960151672363e-01
-1.754961907863616943e-01 5.913314223289489746e-02 2.700458467006683350e-01
-2.339941561222076416e-01 -5.157436430454254150e-02 -1.970138847827911377e-01
-2.074050605297088623e-01 -3.875036165118217468e-02 -2.727171182632446289e-01
-1.677385568618774414e-01 7.374893128871917725e-02 2.157664000988006592e-01
-1.319897174835205078e-01 9.851504862308502197e-02 -1.740540415048599243e-01
-2.686842083930969238e-01 -6.445582956075668335e-03 -1.199020743370056152e-01
-2.279510796070098877e-01 -7.191009819507598877e-02 1.708828955888748169e-01
-2.327451407909393311e-01 -7.221508771181106567e-02 -4.957093670964241028e-02
-2.585715055465698242e-01 -4.296135529875755310e-02 1.587779223918914795e-01
-1.280678361654281616e-01 1.000219732522964478e-01 7.581839710474014282e-02
-1.823895871639251709e-01 -2.259968966245651245e-02 -3.158295750617980957e-01
-7.657970488071441650e-02 4.759229347109794617e-02 2.651703655719757080e-01
-2.618814110755920410e-01 -8.040389046072959900e-03 1.319281160831451416e-01
-1.670093089342117310e-01 4.421895369887351990e-02 3.360434770584106445e-01
-1.864323318004608154e-01 8.612515032291412354e-02 2.519626915454864502e-02
-1.435963809490203857e-01 -1.743172481656074524e-02 3.933249115943908691e-01
-8.601770550012588501e-02 -1.435739547014236450e-02 -3.961477801203727722e-02
-2.678295075893402100e-01 -1.785950362682342529e-02 9.236298501491546631e-02
-2.428105324506759644e-01 -7.357323542237281799e-03 2.448474019765853882e-01
-2.273982167243957520e-01 3.017017245292663574e-02 2.174183577299118042e-01
-2.045929878950119019e-01 6.696772575378417969e-02 -2.440629154443740845e-01
-1.274011731147766113e-01 -4.705089703202247620e-02 -7.195727527141571045e-02
-1.250254809856414795e-01 -5.329030007123947144e-02 1.699097901582717896e-01
-2.126316875219345093e-01 3.161140531301498413e-02 2.700064480304718018e-01
-9.477804601192474365e-02 4.383944347500801086e-02 3.230123519897460938e-01
-1.074877381324768066e-01 2.635471150279045105e-02 -2.841664254665374756e-01
-2.563701868057250977e-01 -6.259416043758392334e-02 3.904892504215240479e-02
-2.556853592395782471e-01 -5.555252730846405029e-02 1.329308599233627319e-01
-9.377573430538177490e-02 9.978910535573959351e-02 5.362319760024547577e-03
-2.043063640594482422e-01 3.318563103675842285e-04 3.544531166553497314e-01
-2.361595928668975830e-01 1.694252528250217438e-02 2.222504764795303345e-01
-2.543073296546936035e-01 -4.806300625205039978e-02 1.736140251159667969e-01
-7.694880664348602295e-02 1.105603296309709549e-02 2.615413367748260498e-01
-1.923486143350601196e-01 7.753886282444000244e-02 -2.209090143442153931e-01
-2.302733659744262695e-01 -6.850247830152511597e-02 1.909431219100952148e-01
-1.976548731327056885e-01 -5.480371415615081787e-02 3.160413205623626709e-01
-2.489916831254959106e-01 3.562738001346588135e-02 -1.394513845443725586e-01
-1.594945788383483887e-01 -5.677109956741333008e-02 2.953957021236419678e-01
-2.434259951114654541e-01 2.950438298285007477e-02 1.275863796472549438e-01
-5.867017060518264771e-02 6.610745191574096680e-02 7.057863473892211914e-02
-2.707787156105041504e-01 -3.251530975103378296e-02 5.007708817720413208e-02
-1.694047003984451294e-01 -7.307869195938110352e-02 1.938067376613616943e-02
-1.745018213987350464e-01 8.127955347299575806e-02 -2.522599101066589355e-01
-2.472547292709350586e-01 -6.736952811479568481e-02 -3.339059650897979736e-02
-1.806962192058563232e-01 9.015704691410064697e-02 -1.277818977832794189e-01
-5.535175651311874390e-02 4.605197906494140625e-02 7.798388600349426270e-02
-6.404191255569458008e-02 6.674426794052124023e-02 1.443044841289520264e-01
-2.427148967981338501e-01 3.635947406291961670e-02 8.872179687023162842e-02
-7.100528478622436523e-02 1.890885457396507263e-02 2.389604449272155762e-01
-6.118759512901306152e-02 5.358216166496276855e-02 -7.352517545223236084e-02
-8.103203773498535156e-02 2.254056744277477264e-02 2.959176599979400635e-01
-1.945280432701110840e-01 -7.876688987016677856e-02 3.548155352473258972e-02
-1.275699287652969360e-01 9.248156100511550903e-03 -3.094339668750762939e-01
-9.573373198509216309e-02 -3.211172670125961304e-02 8.860164880752563477e-02
-1.713833957910537720e-01 8.978392928838729858e-02 7.264672219753265381e-02
-1.182481348514556885e-01 8.799559436738491058e-03 -2.860405743122100830e-01
-8.226203173398971558e-02 1.869254931807518005e-02 -1.711682528257369995e-01
-1.112758070230484009e-01 3.938795253634452820e-02 3.554214835166931152e-01
-2.518521249294281006e-01 3.459499776363372803e-02 -8.259645104408264160e-02
-1.713401228189468384e-01 8.766555041074752808e-02 9.787581861019134521e-02
-2.285096198320388794e-01 -5.027760565280914307e-02 2.746893465518951416e-01
-2.596316933631896973e-01 -2.482267096638679504e-02 1.687657386064529419e-01
-1.300620436668395996e-01 -3.301139920949935913e-03 -2.887774407863616943e-01
-1.200519502162933350e-01 1.039166823029518127e-01 -7.930809259414672852e-02
-2.663115859031677246e-01 6.904425099492073059e-03 5.867612548172473907e-03
-1.743051856756210327e-01 2.194876782596111298e-03 3.962287902832031250e-01
-2.608824074268341064e-01 -5.128047615289688110e-02 1.090303659439086914e-01
-7.646786421537399292e-02 9.102326631546020508e-02 -8.558668196201324463e-03
-1.405905187129974365e-01 -5.173363536596298218e-02 2.798364460468292236e-01
-2.090161591768264771e-01 4.268278181552886963e-02 2.425100654363632202e-01
-1.419037729501724243e-01 1.002569645643234253e-01 4.396242648363113403e-02
-2.241213172674179077e-01 -5.833774060010910034e-02 2.613279819488525391e-01
-1.926693171262741089e-01 -7.909509539604187012e-02 9.727114439010620117e-02
-9.755750745534896851e-02 9.870504587888717651e-02 -1.000824421644210815e-01
-2.710076272487640381e-01 -1.591183431446552277e-02 -9.740279614925384521e-02
-2.469805479049682617e-01 -3.156675398349761963e-02 -2.326590865850448608e-01
-5.780293047428131104e-02 3.037239238619804382e-02 2.635327354073524475e-02
-1.611842513084411621e-01 7.552932202816009521e-02 -2.994289100170135498e-01
-1.341914981603622437e-01 -5.941938608884811401e-02 5.354291200637817383e-02
-2.174149304628372192e-01 6.862556934356689453e-02 -1.534361019730567932e-02
-1.231131851673126221e-01 1.032625213265419006e-01 -1.018813550472259521e-01
-9.237041324377059937e-02 7.246316969394683838e-02 -2.254157662391662598e-01
-6.772842258214950562e-02 4.295030608773231506e-02 2.283438295125961304e-01
-1.237459778785705566e-01 8.693436533212661743e-02 1.960368156433105469e-01
-1.778934597969055176e-01 -7.337894290685653687e-02 -1.974460110068321228e-02
-8.541331440210342407e-02 8.459948003292083740e-03 -1.578239202499389648e-01
-2.571607828140258789e-01 2.588924393057823181e-02 -1.425549760460853577e-02
-2.545181214809417725e-01 2.871630527079105377e-02 7.237594574689865112e-03
-2.349908649921417236e-01 1.950684934854507446e-03 -3.043742775917053223e-01
-1.318286508321762085e-01 -3.892306238412857056e-02 3.218289017677307129e-01
-6.269145756959915161e-02 7.563041895627975464e-02 3.827281296253204346e-03
-2.418981492519378662e-01 -2.780734375119209290e-02 2.598316967487335205e-01
-1.786244809627532959e-01 -5.208595097064971924e-02 -2.012805044651031494e-01
-1.233829110860824585e-01 -4.371927306056022644e-02 2.657848298549652100e-01
-2.126514762639999390e-01 -5.586032569408416748e-02 2.937091290950775146e-01
-1.466374248266220093e-01 8.923878520727157593e-02 -2.422354072332382202e-01
-2.324511706829071045e-01 4.905372858047485352e-02 7.748334109783172607e-02
-9.893856197595596313e-02 4.503051936626434326e-02 -2.714107632637023926e-01
-2.150593400001525879e-01 -7.832241058349609375e-02 1.235065609216690063e-01
-6.376871466636657715e-02 1.159935258328914642e-02 6.102475896477699280e-02
-2.498785257339477539e-01 1.837520673871040344e-02 -2.263304740190505981e-01
-2.450102865695953369e-01 4.355996102094650269e-02 -6.859251856803894043e-02
-7.286929339170455933e-02 5.431159213185310364e-02 -1.625975221395492554e-01
-2.649269700050354004e-01 -4.746253043413162231e-02 8.218888938426971436e-02
-1.005802229046821594e-01 -2.248181775212287903e-02 -9.764085710048675537e-02
-1.713465601205825806e-01 9.140750020742416382e-02 4.993184283375740051e-02
-1.369622349739074707e-01 -2.541372925043106079e-02 3.729938566684722900e-01
-6.064942479133605957e-02 7.204548269510269165e-02 4.188673943281173706e-02
-1.161708980798721313e-01 -3.303375840187072754e-02 2.970708012580871582e-01
-1.426076442003250122e-01 -5.706355720758438110e-02 -5.938402935862541199e-02
-1.339841932058334351e-01 -2.202849835157394409e-03 3.983299434185028076e-01
-1.893457919359207153e-01 8.657390624284744263e-02 -1.140992492437362671e-01
-1.685901880264282227e-01 3.069509565830230713e-02 3.660819530487060547e-01
-2.128253728151321411e-01 4.495258256793022156e-02 -3.091157078742980957e-01
-1.450725495815277100e-01 1.767579466104507446e-02 -3.508380949497222900e-01
-2.304867804050445557e-01 -5.976502597332000732e-02 -1.607423126697540283e-01
-1.322815716266632080e-01 -5.903965234756469727e-02 1.108870059251785278e-01
-2.705402076244354248e-01 -3.983733803033828735e-02 -2.352057397365570068e-02
-1.891648471355438232e-01 -7.707700133323669434e-02 1.553415954113006592e-01
-2.438261806964874268e-01 3.255722299218177795e-02 1.057533472776412964e-01
-9.819806367158889771e-02 1.196330785751342773e-02 -2.278322279453277588e-01
-2.322978079319000244e-01 -7.594589889049530029e-02 7.337721437215805054e-02
-9.768994897603988647e-02 6.391373276710510254e-02 -2.571454942226409912e-01
-6.989968568086624146e-02 8.720807731151580811e-03 1.982614398002624512e-01
-1.830466836690902710e-01 -3.576364740729331970e-02 -2.767376899719238281e-01
-2.334111630916595459e-01 -5.998756736516952515e-02 2.276715934276580811e-01
-9.195777773857116699e-02 6.168891489505767822e-02 -2.417126148939132690e-01
-1.675106436014175415e-01 -7.236274331808090210e-02 1.663924157619476318e-01
-2.515580356121063232e-01 -4.732761904597282410e-02 -1.645953208208084106e-01
-2.374368309974670410e-01 5.172122269868850708e-02 -9.101870656013488770e-02
-7.720451802015304565e-02 7.513124495744705200e-02 -1.527802646160125732e-01
-6.424012780189514160e-02 1.378232520073652267e-02 1.254145242273807526e-02
-1.418995857238769531e-01 7.241149246692657471e-02 -3.121069073677062988e-01
-1.195917427539825439e-01 -5.117653310298919678e-02 1.200632005929946899e-01
-1.607901155948638916e-01 -6.269268691539764404e-02 -8.495022356510162354e-02
-1.753937453031539917e-01 9.344062209129333496e-02 -4.653261974453926086e-02
-1.527106761932373047e-01 -5.155227333307266235e-02 -1.471279114484786987e-01
-6.207315623760223389e-02 1.520907133817672729e-02 8.959436416625976562e-02
-2.342647016048431396e-01 5.419964343309402466e-02 -1.902294158935546875e-02
-8.553679287433624268e-02 -1.989541202783584595e-02 1.593618243932723999e-01
-1.312769651412963867e-01 -4.041809961199760437e-02 -1.422561556100845337e-01
-2.481670677661895752e-01 -2.554154023528099060e-03 2.110686600208282471e-01
-1.815061271190643311e-01 -4.072515666484832764e-02 -2.569826841354370117e-01
-1.407575756311416626e-01 -5.362134426832199097e-02 -8.404770493507385254e-02
-2.486798465251922607e-01 7.428682874888181686e-03 -2.532218992710113525e-01
-2.134834229946136475e-01 5.429101362824440002e-02 -2.748511135578155518e-01
-7.879582047462463379e-02 9.235073626041412354e-02 2.603682130575180054e-02
-2.148861140012741089e-01 6.959351897239685059e-02 -1.450615674257278442e-01
-2.656111121177673340e-01 -1.648349687457084656e-02 -1.615676283836364746e-01
-1.961381137371063232e-01 2.993152104318141937e-02 3.208580315113067627e-01
-2.241027355194091797e-01 4.506425932049751282e-02 1.642636358737945557e-01
-1.422552317380905151e-01 8.589113503694534302e-02 1.884379833936691284e-01
-9.274723380804061890e-02 7.754350453615188599e-02 2.197306156158447266e-01
-6.709687411785125732e-02 6.744898855686187744e-02 -1.068006902933120728e-01
-1.882788389921188354e-01 -4.943321645259857178e-02 3.389490544795989990e-01
-1.000802069902420044e-01 -3.454388305544853210e-02 3.426694124937057495e-02
-2.276756316423416138e-01 5.651380121707916260e-02 -1.779421418905258179e-01
-7.193893194198608398e-02 8.201856911182403564e-02 1.077261120080947876e-01
-1.520458310842514038e-01 -6.461043655872344971e-02 2.088702470064163208e-01
-1.017702594399452209e-01 -3.748339042067527771e-02 1.241832822561264038e-01
-7.276444137096405029e-02 2.516386099159717560e-02 -1.298914849758148193e-01
-1.006760969758033752e-01 2.737286314368247986e-02 -2.645540833473205566e-01
-2.439786493778228760e-01 -6.147547811269760132e-02 1.759462505578994751e-01
-1.800751239061355591e-01 6.510899960994720459e-02 -3.161932528018951416e-01
-7.664149254560470581e-02 -8.667325600981712341e-04 -4.753175750374794006e-02
-1.038162559270858765e-01 -2.900755405426025391e-02 -7.176506519317626953e-02
-1.007734835147857666e-01 6.487538665533065796e-02 2.834528982639312744e-01
-8.549717813730239868e-02 -1.593682356178760529e-02 2.051776349544525146e-01
-2.526161968708038330e-01 -6.544623523950576782e-02 4.037804901599884033e-04
-8.662639558315277100e-02 -2.193295955657958984e-02 5.242931470274925232e-02
-2.505361139774322510e-01 -2.052356675267219543e-02 2.204958647489547729e-01
-1.468591988086700439e-01 1.013797372579574585e-01 -1.018823385238647461e-01
-7.269748300313949585e-02 -4.596272483468055725e-04 2.038720995187759399e-04
-9.413602203130722046e-02 9.882392734289169312e-02 4.053016006946563721e-02
-1.110187619924545288e-01 8.940293639898300171e-02 -2.159950733184814453e-01
-9.605757147073745728e-02 2.495947107672691345e-02 -2.451948970556259155e-01
-1.745003163814544678e-01 -6.373792886734008789e-02 2.743861675262451172e-01
-5.885323137044906616e-02 6.791179627180099487e-02 2.264695800840854645e-02
-2.071841508150100708e-01 1.787087135016918182e-02 3.215915262699127197e-01
-2.040714621543884277e-01 6.627485901117324829e-02 1.321456879377365112e-01
-1.900442540645599365e-01 8.686026930809020996e-02 -6.950306892395019531e-02
-1.337524950504302979e-01 -5.543443560600280762e-02 -2.085294201970100403e-02
-1.174960881471633911e-01 6.105224415659904480e-02 3.110190629959106445e-01
-1.737208664417266846e-01 4.985536262392997742e-02 3.083921372890472412e-01
-1.103901714086532593e-01 -4.209715873003005981e-02 1.444485317915678024e-02
-7.232096791267395020e-02 8.557191491127014160e-02 -5.224848911166191101e-02
-1.335154473781585693e-01 1.039759218692779541e-01 -4.151052981615066528e-02
-8.854280412197113037e-02 9.014545381069183350e-02 1.282067149877548218e-01
-1.757145076990127563e-01 5.347174592316150665e-03 -3.630268275737762451e-01
-1.342475414276123047e-01 -2.199313044548034668e-02 -2.421106547117233276e-01
-1.219405680894851685e-01 -4.963032901287078857e-02 1.373927108943462372e-03
-2.564990818500518799e-01 2.269855141639709473e-02 4.104928672313690186e-02
-7.705360651016235352e-02 8.770998567342758179e-02 -8.220480382442474365e-02
-1.257821321487426758e-01 1.021148934960365295e-01 4.450888186693191528e-02
-1.880734115839004517e-01 8.658374100923538208e-02 -2.725072205066680908e-03
-8.513078838586807251e-02 3.835229575634002686e-02 3.058423697948455811e-01
-7.793704420328140259e-02 9.209150075912475586e-02 7.671641185879707336e-03
-7.988746464252471924e-02 -4.733337089419364929e-03 2.267668843269348145e-01
-2.488581538200378418e-01 -5.957835167646408081e-02 1.587907671928405762e-01
-8.514492213726043701e-02 -1.801235415041446686e-02 1.104237511754035950e-02
-2.045445144176483154e-01 7.372975349426269531e-02 -1.880190521478652954e-01
-1.393599659204483032e-01 -6.095956265926361084e-02 1.772698760032653809e-01
-9.910167753696441650e-02 2.034451812505722046e-03 3.397853672504425049e-01
-1.871323138475418091e-01 -7.546701282262802124e-02 1.799502968788146973e-01
-2.223866730928421021e-01 4.033494740724563599e-02 -2.924112975597381592e-01
-2.400196790695190430e-01 6.569677498191595078e-03 -2.882959246635437012e-01
-6.097292900085449219e-02 6.824013590812683105e-02 1.002928167581558228e-01
-2.254997193813323975e-01 -5.813763290643692017e-02 -1.776949912309646606e-01
-1.815641969442367554e-01 7.221718132495880127e-02 -2.859492003917694092e-01
-1.460461467504501343e-01 7.489010691642761230e-02 2.475080192089080811e-01
-1.846297979354858398e-01 -7.799959927797317505e-02 7.202325761318206787e-02
-8.790561556816101074e-02 9.449454396963119507e-02 7.774716615676879883e-02
-2.064489722251892090e-01 6.895574927330017090e-02 9.445232152938842773e-02
-1.931176483631134033e-01 4.989876598119735718e-02 -3.383725583553314209e-01
-2.027142643928527832e-01 -6.104020029306411743e-02 -1.714839190244674683e-01
-2.130224853754043579e-01 -7.960854470729827881e-02 6.426118314266204834e-02
-2.224888801574707031e-01 4.313914477825164795e-02 1.831841915845870972e-01
-1.397233307361602783e-01 9.615416079759597778e-02 1.054998636245727539e-01
-2.116947621107101440e-01 -7.898532599210739136e-02 2.186573669314384460e-02
-2.058464288711547852e-01 -5.294005572795867920e-02 -2.160756289958953857e-01
-1.396367847919464111e-01 -6.196611374616622925e-02 1.572102755308151245e-01
-1.454150974750518799e-01 -9.420005604624748230e-03 -3.055580258369445801e-01
-2.227036058902740479e-01 -4.496557638049125671e-02 -2.407932430505752563e-01
-2.102909535169601440e-01 -6.492263078689575195e-02 -1.465570628643035889e-01
-2.095731198787689209e-01 7.330347597599029541e-02 8.327360264956951141e-03
-1.231846958398818970e-01 -7.973331958055496216e-03 -2.581090331077575684e-01
-1.372883170843124390e-01 1.033981963992118835e-01 -7.435820996761322021e-02
-1.278933882713317871e-01 -5.371892452239990234e-02 1.940224766731262207e-01
-1.178391724824905396e-01 6.723572313785552979e-02 2.904655039310455322e-01
-1.586638540029525757e-01 -4.639133065938949585e-02 -1.944048851728439331e-01
-2.404579967260360718e-01 3.992808237671852112e-02 -1.995688229799270630e-01
-2.668910920619964600e-01 7.509373128414154053e-03 -6.466084718704223633e-02
-1.764462590217590332e-01 -7.606305181980133057e-02 1.226806789636611938e-01
-1.173773258924484253e-01 9.877629578113555908e-02 -1.605861186981201172e-01
-1.024061590433120728e-01 -3.820296376943588257e-02 1.046205610036849976e-01
-1.786976307630538940e-01 -6.916861981153488159e-02 2.386074662208557129e-01
-6.409677118062973022e-02 3.972869738936424255e-02 2.057394534349441528e-01
-2.719317972660064697e-01 -1.780217885971069336e-02 -7.921034097671508789e-02
-1.816338747739791870e-01 -7.221311330795288086e-02 -4.911266639828681946e-02
-1.498677581548690796e-01 8.914311975240707397e-02 1.511523127555847168e-01
-1.412544548511505127e-01 1.020146235823631287e-01 7.317593321204185486e-03
-2.318797409534454346e-01 -6.441589444875717163e-02 2.112612873315811157e-01
-2.032536119222640991e-01 -6.853713840246200562e-02 2.469479739665985107e-01
-1.991902589797973633e-01 5.459070205688476562e-02 -3.151140511035919189e-01
-2.675134837627410889e-01 6.181899923831224442e-03 -4.751476272940635681e-02
-8.052368462085723877e-02 -2.659205347299575806e-05 -8.850757777690887451e-02
-1.102544814348220825e-01 7.846888154745101929e-02 2.394123226404190063e-01
-1.231601908802986145e-01 8.256319910287857056e-02 2.223069369792938232e-01
-1.135633140802383423e-01 8.907625824213027954e-02 1.805007010698318481e-01
-1.857860833406448364e-01 8.665504306554794312e-02 -1.530320048332214355e-01
-1.582939475774765015e-01 -6.477946788072586060e-02 -5.221455916762351990e-02
-2.434493303298950195e-01 3.994031250476837158e-02 -1.708018034696578979e-01
-2.726562321186065674e-01 -2.773388475179672241e-02 8.267651312053203583e-03
-2.021220773458480835e-01 -1.458383165299892426e-02 3.663671314716339111e-01
-1.067329496145248413e-01 1.028859615325927734e-01 -5.988248065114021301e-02
-7.991044968366622925e-02 -1.459994539618492126e-02 7.382224500179290771e-02
-6.537453085184097290e-02 3.370201587677001953e-02 -9.308230876922607422e-02
-2.188570946455001831e-01 6.838454306125640869e-02 -9.201450645923614502e-02
-1.688683629035949707e-01 -6.389850378036499023e-02 -1.004294753074645996e-01
-1.664577424526214600e-01 -1.726846210658550262e-02 -3.162892162799835205e-01
-1.668581217527389526e-01 -3.294832631945610046e-02 -2.690326869487762451e-01
-1.402701884508132935e-01 8.337817341089248657e-02 2.071348577737808228e-01
-1.034636497497558594e-01 9.034783393144607544e-02 1.621071845293045044e-01
-9.480625391006469727e-02 -2.715870738029479980e-02 -4.853656515479087830e-03
-2.718162536621093750e-01 -1.532153412699699402e-02 2.121574804186820984e-02
-1.651717424392700195e-01 8.816573768854141235e-02 1.171874254941940308e-01
-2.133098393678665161e-01 -7.770811021327972412e-02 1.413278430700302124e-01
-2.111503034830093384e-01 -7.263103127479553223e-02 -8.093698322772979736e-02
-1.181712150573730469e-01 9.761271625757217407e-02 1.093100458383560181e-01
-1.454782634973526001e-01 -4.437555372714996338e-02 3.298363983631134033e-01
-1.583292782306671143e-01 -5.142826586961746216e-02 -1.642208248376846313e-01
-2.641892135143280029e-01 -3.587952628731727600e-02 1.275202780961990356e-01
-2.209533452987670898e-01 6.072794646024703979e-02 6.553383171558380127e-02
-1.060038208961486816e-01 -3.278797119855880737e-02 2.461138516664505005e-01
-6.084609031677246094e-02 4.806002229452133179e-02 1.715010404586791992e-01
-2.319241464138031006e-01 4.377903416752815247e-02 1.232626140117645264e-01
-2.137673199176788330e-01 6.310738623142242432e-02 -2.245066463947296143e-01
-1.120962202548980713e-01 1.007036417722702026e-01 6.640674173831939697e-02
-8.044482022523880005e-02 3.820282593369483948e-02 -1.964917331933975220e-01
-1.431372910737991333e-01 -3.988661989569664001e-02 -1.876161992549896240e-01
-2.451575547456741333e-01 -4.726910963654518127e-02 2.233322560787200928e-01
-1.972281336784362793e-01 7.626219093799591064e-02 8.036196231842041016e-02
-8.752471208572387695e-02 4.831639304757118225e-02 -2.324160188436508179e-01
-2.083239853382110596e-01 5.230380967259407043e-02 2.009294629096984863e-01
-8.835048973560333252e-02 -7.134106010198593140e-03 -1.081855893135070801e-01
-1.135042980313301086e-01 8.504519611597061157e-02 -2.407796829938888550e-01
-1.863200366497039795e-01 8.456024527549743652e-02 5.164650827646255493e-02
-6.706878542900085449e-02 1.228785701096057892e-02 -2.354099974036216736e-02
-8.845915645360946655e-02 5.395788699388504028e-02 2.899272143840789795e-01
-1.970003843307495117e-01 -6.271374970674514771e-02 2.842764854431152344e-01
-1.661640852689743042e-01 7.150830328464508057e-02 2.316784411668777466e-01
-2.087420076131820679e-01 2.491785399615764618e-02 3.011812567710876465e-01
-1.319121718406677246e-01 -5.070070922374725342e-02 2.531499862670898438e-01
-2.441492378711700439e-01 -7.043296843767166138e-02 8.329415321350097656e-02
-2.333306372165679932e-01 3.197035938501358032e-02 -2.740311324596405029e-01
-1.265923380851745605e-01 8.072040975093841553e-02 -2.754510343074798584e-01
-1.870645284652709961e-01 -6.336424499750137329e-02 -1.430051922798156738e-01
-1.656923890113830566e-01 -7.340463995933532715e-02 1.107298880815505981e-01
-1.698566377162933350e-01 9.542010724544525146e-02 -9.192529320716857910e-02
-1.755994260311126709e-01 -7.041385024785995483e-02 2.215760797262191772e-01
-1.227445751428604126e-01 -5.297662317752838135e-02 6.909316778182983398e-02
-2.064151763916015625e-01 -2.646127715706825256e-02 3.560532629489898682e-01
-2.168863564729690552e-01 3.092837706208229065e-02 -3.280328214168548584e-01
-2.427441775798797607e-01 -2.562516182661056519e-02 -2.578160166740417480e-01
-1.173285320401191711e-01 1.010255664587020874e-01 -1.340757012367248535e-01
-1.694940030574798584e-01 -6.717184185981750488e-02 -7.009814679622650146e-02
-7.580817490816116333e-02 -8.242245763540267944e-03 1.389503777027130127e-01
-2.182797938585281372e-01 -6.854569911956787109e-02 -1.151577085256576538e-01
-1.457743346691131592e-01 -6.418559700250625610e-02 2.273678779602050781e-02
-6.471434235572814941e-02 6.354350596666336060e-02 1.637654900550842285e-01
-9.084025770425796509e-02 6.467977166175842285e-02 2.664011120796203613e-01
-1.334924548864364624e-01 -3.059223294258117676e-02 -2.039540410041809082e-01
-1.150053888559341431e-01 -2.858074381947517395e-02 -1.414114832878112793e-01
-1.359005868434906006e-01 5.208781734108924866e-02 3.390909433364868164e-01
-1.634869575500488281e-01 8.802092075347900391e-02 -2.295775860548019409e-01
-2.122959792613983154e-01 2.206183224916458130e-02 -3.464153409004211426e-01
-2.598880529403686523e-01 1.478267088532447815e-02 5.691374465823173523e-02
-2.185961008071899414e-01 -6.857044994831085205e-02 2.236197143793106079e-01
-2.368662953376770020e-01 -2.946069091558456421e-02 2.779357731342315674e-01
-9.588497132062911987e-02 -4.864914342761039734e-03 -1.636829227209091187e-01
-1.026109308004379272e-01 8.573878556489944458e-02 1.921792328357696533e-01
-2.202232927083969116e-01 -4.471614584326744080e-02 3.074432909488677979e-01
-6.271451711654663086e-02 7.410035282373428345e-02 -2.212809771299362183e-02
-1.876644343137741089e-01 -3.142233937978744507e-02 -2.938279509544372559e-01
-1.639076620340347290e-01 6.095053255558013916e-02 2.845488786697387695e-01
-1.983919143676757812e-01 8.102494478225708008e-02 -1.329773813486099243e-01
-1.021628454327583313e-01 1.023349836468696594e-01 -2.401074767112731934e-02
-2.720295190811157227e-01 -3.265000879764556885e-02 -4.074015468358993530e-02
-1.625388711690902710e-01 9.680241346359252930e-02 -1.264094710350036621e-01
-1.470072269439697266e-01 1.014770269393920898e-01 -1.080348715186119080e-02
-1.878350377082824707e-01 5.671906843781471252e-02 2.500460743904113770e-01
-1.455457806587219238e-01 -6.261387467384338379e-02 -5.398761481046676636e-03
-1.387252509593963623e-01 4.474390670657157898e-02 3.567570447921752930e-01
-1.990057677030563354e-01 8.117014169692993164e-02 -1.959187537431716919e-02
-1.899255365133285522e-01 4.914512112736701965e-02 2.757198810577392578e-01
-1.616840809583663940e-01 -6.610747426748275757e-02 2.304505258798599243e-01
-2.664743661880493164e-01 -4.631618037819862366e-02 6.514964252710342407e-02
-1.927327066659927368e-01 -6.998194754123687744e-02 -9.599731862545013428e-02
-2.584744095802307129e-01 -2.830781787633895874e-02 -1.931201219558715820e-01
-1.574518978595733643e-01 -7.043452560901641846e-02 1.259714066982269287e-01
-1.190728694200515747e-01 1.043749153614044189e-01 -2.700480446219444275e-02
-1.371417343616485596e-01 2.158112265169620514e-02 3.937848508358001709e-01
-7.408051937818527222e-02 8.158439397811889648e-02 1.273603737354278564e-01
-7.903714478015899658e-02 7.481043040752410889e-02 1.928151994943618774e-01
-9.194856882095336914e-02 8.926063030958175659e-02 1.465857177972793579e-01
-2.543166279792785645e-01 1.387546677142381668e-02 1.206704825162887573e-01
-1.058337092399597168e-01 5.830057337880134583e-02 -2.852357923984527588e-01
-5.799549818038940430e-02 5.576770007610321045e-02 -2.947270497679710388e-02
-1.365438401699066162e-01 -5.691955238580703735e-02 2.166531980037689209e-01
-1.108622401952743530e-01 -3.349658101797103882e-03 3.631862103939056396e-01
-6.882089376449584961e-02 4.387303441762924194e-02 -1.348284184932708740e-01
-1.369260549545288086e-01 1.002944260835647583e-01 -1.500803977251052856e-01
-1.476181447505950928e-01 9.520026296377182007e-02 -1.958733797073364258e-01
-6.530776619911193848e-02 5.898780748248100281e-02 1.835892349481582642e-01
-1.266737282276153564e-01 -4.962910339236259460e-02 -4.025638476014137268e-02
-2.292718440294265747e-01 3.359566628932952881e-02 1.943089067935943604e-01
-2.143089473247528076e-01 -7.072284072637557983e-02 -9.867194294929504395e-02
-1.240783780813217163e-01 -9.959297254681587219e-03 3.798294067382812500e-01
-8.344241231679916382e-02 9.519604593515396118e-02 -3.322305530309677124e-02
-1.314283162355422974e-01 -2.413211017847061157e-02 -2.256939262151718140e-01
-2.501004040241241455e-01 -6.413508951663970947e-02 1.145681738853454590e-01
-2.297708988189697266e-01 5.935173481702804565e-02 -6.305639445781707764e-02
-2.341634631156921387e-01 -5.459932982921600342e-02 2.452679276466369629e-01
-1.915307790040969849e-01 7.256896793842315674e-02 1.451143175363540649e-01
-1.459842175245285034e-01 1.003644093871116638e-01 -1.311362087726593018e-01
-7.224597036838531494e-02 8.866395801305770874e-04 1.791600883007049561e-01
-1.141898036003112793e-01 1.298160664737224579e-02 3.791822791099548340e-01
-1.160683855414390564e-01 4.966541007161140442e-02 3.404035866260528564e-01
-6.624136120080947876e-02 5.470284074544906616e-02 -1.184295415878295898e-01
-5.749339610338211060e-02 2.941008843481540680e-02 5.227720364928245544e-02
-2.730558514595031738e-01 -2.219929546117782593e-02 -9.963748976588249207e-03
-1.321690529584884644e-01 -4.515161365270614624e-02 -1.132632195949554443e-01
-1.476176679134368896e-01 -3.225392848253250122e-02 -2.356263846158981323e-01
-1.864977180957794189e-01 -3.374169766902923584e-02 3.730782270431518555e-01
-2.177465558052062988e-01 -9.811367839574813843e-03 3.318230509757995605e-01
-1.446430683135986328e-01 9.198882430791854858e-02 -2.251262366771697998e-01
-1.994355320930480957e-01 3.765371069312095642e-02 2.905587852001190186e-01
-5.945202708244323730e-02 3.839980065822601318e-02 -3.967324271798133850e-02
-1.393837928771972656e-01 -1.699677295982837677e-02 -2.721018195152282715e-01
-8.645851165056228638e-02 1.272209081798791885e-02 3.098389506340026855e-01
-2.256340831518173218e-01 5.066376924514770508e-02 -2.367062419652938843e-01
-1.894425749778747559e-01 -2.096757292747497559e-02 3.825915753841400146e-01
-1.174485608935356140e-01 -4.486182704567909241e-02 2.199451327323913574e-01
-1.425289064645767212e-01 7.109940797090530396e-02 2.689440250396728516e-01
-1.890007406473159790e-01 3.990853577852249146e-02 3.093656301498413086e-01
-1.864167004823684692e-01 -7.099355757236480713e-02 -7.508955895900726318e-02
-1.508810222148895264e-01 9.643495082855224609e-02 -1.772487908601760864e-01
-2.046650350093841553e-01 6.156945601105690002e-02 1.629179567098617554e-01
-1.527330726385116577e-01 -5.857538431882858276e-02 2.689996659755706787e-01
-2.402030080556869507e-01 4.652859270572662354e-02 1.216062344610691071e-02
-2.718571424484252930e-01 -2.967361360788345337e-02 3.158773481845855713e-02
-1.184670105576515198e-01 2.631011605262756348e-02 -3.122151494026184082e-01
-1.571743935346603394e-01 6.977084279060363770e-02 -3.206704854965209961e-01
-2.081668525934219360e-01 7.569743692874908447e-02 -1.108972281217575073e-01
-6.616579741239547729e-02 7.198688387870788574e-02 -8.327451348304748535e-02
-1.882607489824295044e-01 -7.637727260589599609e-02 -4.195749759674072266e-03
-1.968055218458175659e-01 3.631848096847534180e-02 -3.558217585086822510e-01
-2.371171712875366211e-01 -6.490884721279144287e-02 -1.100665777921676636e-01
-7.612077146768569946e-02 3.461986407637596130e-02 2.758928537368774414e-01
-1.565530002117156982e-01 9.980515390634536743e-02 -6.863203644752502441e-02
-1.567992568016052246e-01 -4.407152906060218811e-02 3.471142649650573730e-01
-1.742940396070480347e-01 -7.191451638936996460e-02 2.009208351373672485e-01
-7.134859263896942139e-02 -1.247460022568702698e-03 3.892611712217330933e-02
-2.554287612438201904e-01 1.748109608888626099e-02 -1.881097406148910522e-01
-8.735219389200210571e-02 8.256963640451431274e-02 -1.751843392848968506e-01
-1.409697532653808594e-01 8.075624704360961914e-02 -2.844569087028503418e-01
-9.230082482099533081e-02 8.355469256639480591e-02 -1.906877607107162476e-01
-2.678039968013763428e-01 -2.490685321390628815e-03 4.582895338535308838e-02
-2.562679052352905273e-01 2.546861581504344940e-02 -1.270473301410675049e-01
-8.915852010250091553e-02 -1.992089301347732544e-02 -2.064855024218559265e-02
-2.422213554382324219e-01 2.300042286515235901e-02 1.676595360040664673e-01
-2.241656482219696045e-01 2.589185535907745361e-02 2.462894320487976074e-01
-1.621222794055938721e-01 6.241355091333389282e-02 -3.381517529487609863e-01
-9.127521514892578125e-02 1.483633928000926971e-02 -2.058158367872238159e-01
-1.466687917709350586e-01 8.619134873151779175e-02 -2.596192359924316406e-01
-1.974302530288696289e-01 7.967963069677352905e-02 -1.674918234348297119e-01
-1.063030958175659180e-01 1.022630184888839722e-01 2.182734757661819458e-02
-1.511621177196502686e-01 5.267612263560295105e-02 -3.536934256553649902e-01
-2.151193767786026001e-01 -3.274403885006904602e-02 3.349125087261199951e-01
-2.588510513305664062e-01 -5.424486845731735229e-02 -8.176217973232269287e-02
-2.259592413902282715e-01 6.031154468655586243e-02 1.362165529280900955e-02
-2.667371630668640137e-01 -4.936474561691284180e-02 5.994532257318496704e-03
-8.591212332248687744e-02 8.233643323183059692e-02 1.762429922819137573e-01
-2.038153409957885742e-01 6.842873990535736084e-02 1.158481389284133911e-01
-1.764198243618011475e-01 8.514267206192016602e-02 -2.185715585947036743e-01
-1.110318005084991455e-01 -2.488892152905464172e-02 3.125221133232116699e-01
-1.470796763896942139e-01 6.087795644998550415e-02 3.056941330432891846e-01
-2.385751605033874512e-01 4.534884169697761536e-02 5.056186392903327942e-02
-2.160955220460891724e-01 -7.248266041278839111e-02 1.994023472070693970e-01
-1.951193958520889282e-01 -7.105635106563568115e-02 2.326914221048355103e-01
-1.839355528354644775e-01 7.894260436296463013e-02 1.267531663179397583e-01
-2.117597460746765137e-01 -7.645602524280548096e-02 -3.225515037775039673e-02
-2.645124495029449463e-01 6.655049044638872147e-03 -1.334822773933410645e-01
-2.362504452466964722e-01 4.999333247542381287e-02 -1.538364440202713013e-01
-6.284197419881820679e-02 3.088680468499660492e-02 1.910722106695175171e-01
-1.185132488608360291e-01 -1.421818137168884277e-02 -2.225592136383056641e-01
-1.881542801856994629e-01 -4.313667491078376770e-02 3.549990355968475342e-01
-9.979030489921569824e-02 -1.544998399913311005e-02 3.018567264080047607e-01
-2.503126263618469238e-01 -4.383815079927444458e-02 -1.839221715927124023e-01
-1.877723485231399536e-01 -6.594941020011901855e-02 -1.242182403802871704e-01
-9.012302756309509277e-02 9.204690903425216675e-02 -1.331098526716232300e-01
-1.303791403770446777e-01 3.100471571087837219e-02 3.810326159000396729e-01
-2.497892081737518311e-01 3.754790499806404114e-02 -5.252932384610176086e-02
-9.988083690404891968e-02 -3.453396260738372803e-02 1.637488454580307007e-01
-2.686832845211029053e-01 -2.087551727890968323e-02 -1.292514055967330933e-01
-1.494446396827697754e-01 9.643903374671936035e-02 7.782252132892608643e-02
-6.015379726886749268e-02 3.310066089034080505e-02 1.640705168247222900e-01
-1.443188339471817017e-01 -5.877231806516647339e-02 2.378585636615753174e-01
-1.106242686510086060e-01 -4.041980206966400146e-02 -1.353171467781066895e-02
-2.508751153945922852e-01 8.543570525944232941e-03 1.668301075696945190e-01
-1.010067760944366455e-01 -5.318250507116317749e-03 -1.866404712200164795e-01
-1.738865077495574951e-01 -5.820004642009735107e-02 -1.566410362720489502e-01
-5.860507488250732422e-02 3.342234343290328979e-02 -1.032520271837711334e-02
-8.335082978010177612e-02 8.995968103408813477e-02 -1.111802756786346436e-01
-2.371419668197631836e-01 -1.025609485805034637e-02 2.715316712856292725e-01
-6.738003343343734741e-02 1.617500372231006622e-02 -5.064030364155769348e-02
-2.695931196212768555e-01 -1.908891648054122925e-02 7.146047800779342651e-02
-2.227465212345123291e-01 5.522143468260765076e-02 1.034560799598693848e-01
-2.318300306797027588e-01 5.603114143013954163e-02 -1.293061226606369019e-01
-2.106262892484664917e-01 -1.857696287333965302e-02 -3.225876390933990479e-01
-1.475271135568618774e-01 -3.746190667152404785e-02 -2.121581882238388062e-01
-2.325897514820098877e-01 5.674456246197223663e-03 2.655514180660247803e-01
-2.593889236450195312e-01 -5.898609757423400879e-02 -1.485020667314529419e-02
-1.621189117431640625e-01 -7.306449115276336670e-03 -3.340788483619689941e-01
-5.749901384115219116e-02 3.592456132173538208e-02 1.266843527555465698e-01
-2.252282202243804932e-01 -2.842750400304794312e-02 3.140555620193481445e-01
-1.340466737747192383e-01 -3.961997106671333313e-02 -1.582331061363220215e-01
-2.144381850957870483e-01 5.596092715859413147e-02 1.503607630729675293e-01
-1.030177325010299683e-01 1.678433269262313843e-02 3.595353960990905762e-01
-1.110633537173271179e-01 -3.349540382623672485e-02 2.712466418743133545e-01
-1.095105409622192383e-01 -1.362042315304279327e-02 3.415619432926177979e-01
-2.662131786346435547e-01 -2.034109085798263550e-03 6.775939464569091797e-02
-9.411434084177017212e-02 -2.791733667254447937e-02 1.813653856515884399e-01
-1.476081609725952148e-01 9.817939251661300659e-02 5.923036485910415649e-02
-1.060843393206596375e-01 -3.497345373034477234e-02 -3.438120335340499878e-02
