3.743718862533569336e-01 -2.209195196628570557e-01 -5.447129011154174805e-01
2.907717227935791016e-01 -1.759456843137741089e-01 -6.218758225440979004e-01
3.579555153846740723e-01 -4.434773325920104980e-02 -8.598871529102325439e-02
4.261043369770050049e-01 -1.345685124397277832e-01 4.028440415859222412e-01
2.201092839241027832e-01 -1.316513717174530029e-01 -3.403881564736366272e-02
4.355865716934204102e-01 -1.906359195709228516e-01 2.466518878936767578e-01
2.652401328086853027e-01 -8.909232169389724731e-02 -3.628173768520355225e-01
4.165875911712646484e-01 -8.279033750295639038e-02 2.301331609487533569e-01
4.064071476459503174e-01 -2.415515929460525513e-01 8.217401802539825439e-03
3.293190300464630127e-01 -7.961340248584747314e-02 5.502673387527465820e-01
3.940915465354919434e-01 -2.491908073425292969e-01 -1.958090998232364655e-02
4.468525648117065430e-01 -1.875119805335998535e-01 -2.101075202226638794e-01
2.330958694219589233e-01 -1.361702978610992432e-01 -2.856235206127166748e-01
3.296619951725006104e-01 -2.430349439382553101e-01 4.033385217189788818e-01
2.984001636505126953e-01 -9.902051836252212524e-02 -5.618334412574768066e-01
3.493157327175140381e-01 -5.409219861030578613e-02 3.209315538406372070e-01
2.418924272060394287e-01 -2.186613976955413818e-01 -1.925416849553585052e-02
2.350251674652099609e-01 -2.099823355674743652e-01 9.381940215826034546e-02
2.323353439569473267e-01 -2.054107189178466797e-01 2.729693660512566566e-04
4.337928593158721924e-01 -2.085293680429458618e-01 -2.597650289535522461e-01
2.668921649456024170e-01 -6.469149887561798096e-02 -1.007472276687622070e-01
4.281552731990814209e-01 -8.258270472288131714e-02 -4.164179414510726929e-02
4.421740770339965820e-01 -1.040265560150146484e-01 -1.388712823390960693e-01
2.348338365554809570e-01 -9.430591762065887451e-02 1.363896131515502930e-01
3.489863276481628418e-01 -4.313134402036666870e-02 8.750623464584350586e-02
4.246192574501037598e-01 -1.093002706766128540e-01 3.396175801753997803e-01
3.640315830707550049e-01 -1.921466290950775146e-01 6.278733015060424805e-01
2.711501717567443848e-01 -6.542424857616424561e-02 2.647764086723327637e-01
3.845367431640625000e-01 -5.345731228590011597e-02 -1.504998803138732910e-01
2.748832404613494873e-01 -6.206570565700531006e-02 -1.565276533365249634e-01
3.485073745250701904e-01 -1.082126945257186890e-01 6.501973271369934082e-01
2.772153615951538086e-01 -2.043336480855941772e-01 -4.941649734973907471e-01
3.078697919845581055e-01 -4.457765072584152222e-02 1.560031808912754059e-02
4.164279401302337646e-01 -2.318375408649444580e-01 -1.889171600341796875e-01
3.209369480609893799e-01 -1.801268309354782104e-01 -6.831961274147033691e-01
4.429670572280883789e-01 -1.797604709863662720e-01 -3.320693671703338623e-01
2.719123661518096924e-01 -1.886629760265350342e-01 -5.221220254898071289e-01
4.146881997585296631e-01 -2.183750867843627930e-01 -3.847728967666625977e-01
2.856838405132293701e-01 -5.316435545682907104e-02 1.501719057559967041e-01
3.383190035820007324e-01 -5.799499899148941040e-02 3.822105824947357178e-01
3.101099133491516113e-01 -1.535154283046722412e-01 -6.864038705825805664e-01
2.464058697223663330e-01 -2.237432599067687988e-01 1.181530654430389404e-01
4.533240497112274170e-01 -1.331791281700134277e-01 -6.644855439662933350e-02
3.500227630138397217e-01 -4.443027079105377197e-02 -1.343841701745986938e-01
2.407200932502746582e-01 -1.377828717231750488e-01 -3.642492890357971191e-01
2.823027670383453369e-01 -6.159147620201110840e-02 -2.197585999965667725e-01
3.685636520385742188e-01 -5.211257934570312500e-02 -2.420357763767242432e-01
4.418977797031402588e-01 -1.283122301101684570e-01 2.277620583772659302e-01
2.176585942506790161e-01 -1.515719443559646606e-01 -1.171872485429048538e-02
4.267204105854034424e-01 -1.041674986481666565e-01 2.928757071495056152e-01
3.335222005844116211e-01 -2.559706270694732666e-01 2.409647703170776367e-01
2.778114974498748779e-01 -8.377442508935928345e-02 -4.040023982524871826e-01
3.110786378383636475e-01 -4.573648422956466675e-02 1.523164361715316772e-01
3.319392204284667969e-01 -6.368654966354370117e-02 -4.204399287700653076e-01
3.922414481639862061e-01 -6.181297451257705688e-02 2.064995318651199341e-01
4.425099194049835205e-01 -1.031630188226699829e-01 -7.092311233282089233e-02
3.920828998088836670e-01 -1.121709942817687988e-01 5.467031598091125488e-01
3.719952702522277832e-01 -5.140892416238784790e-02 -2.096903622150421143e-01
3.924925029277801514e-01 -2.429606914520263672e-01 -2.795170843601226807e-01
2.647327184677124023e-01 -1.541004478931427002e-01 -5.337734818458557129e-01
3.119840323925018311e-01 -2.334588319063186646e-01 4.709105789661407471e-01
4.305466413497924805e-01 -1.219905465841293335e-01 -4.434436261653900146e-01
3.962904810905456543e-01 -2.057160288095474243e-01 -5.564396977424621582e-01
2.924137115478515625e-01 -1.128186956048011780e-01 -5.893968939781188965e-01
2.359173893928527832e-01 -9.907084703445434570e-02 -1.240097656846046448e-01
3.880870044231414795e-01 -2.506513595581054688e-01 7.047239691019058228e-02
2.262124419212341309e-01 -1.805469393730163574e-01 -1.434966474771499634e-01
2.200631797313690186e-01 -1.544549465179443359e-01 2.312800139188766479e-01
2.900766134262084961e-01 -2.513413429260253906e-01 1.693028211593627930e-01
2.489077001810073853e-01 -8.917863667011260986e-02 -2.175328731536865234e-01
4.132692217826843262e-01 -9.923875331878662109e-02 3.811239004135131836e-01
3.650969266891479492e-01 -2.559377551078796387e-01 -2.113984674215316772e-01
4.541879296302795410e-01 -1.411253511905670166e-01 -1.322121452540159225e-02
2.506781816482543945e-01 -2.153470814228057861e-01 3.279375433921813965e-01
4.477820098400115967e-01 -1.316069364547729492e-01 -2.735736668109893799e-01
3.935298323631286621e-01 -8.582603186368942261e-02 4.272504448890686035e-01
3.565489947795867920e-01 -2.281270623207092285e-01 -5.285444855690002441e-01
3.153293132781982422e-01 -4.784238338470458984e-02 2.260419428348541260e-01
3.339174985885620117e-01 -4.281013458967208862e-02 -9.550870954990386963e-02
2.343218028545379639e-01 -1.753241866827011108e-01 3.983600437641143799e-01
2.870866358280181885e-01 -6.766015291213989258e-02 3.955637812614440918e-01
4.247980713844299316e-01 -2.265561521053314209e-01 -3.337760642170906067e-02
3.335299789905548096e-01 -4.402532428503036499e-02 1.597887724637985229e-01
2.187163531780242920e-01 -1.641837954521179199e-01 1.621766090393066406e-01
2.383639365434646606e-01 -8.834799379110336304e-02 4.589724168181419373e-02
4.389433264732360840e-01 -1.064155548810958862e-01 1.436069011688232422e-01
2.514342665672302246e-01 -2.266784906387329102e-01 1.807785630226135254e-01
4.151998758316040039e-01 -1.069868132472038269e-01 4.038461446762084961e-01
2.941467165946960449e-01 -2.555689811706542969e-01 2.365828491747379303e-02
2.576146125793457031e-01 -1.294626146554946899e-01 5.686904191970825195e-01
4.353341460227966309e-01 -1.907515078783035278e-01 -3.753504455089569092e-01
2.740897834300994873e-01 -2.463772892951965332e-01 3.561075404286384583e-02
3.546029925346374512e-01 -5.253721028566360474e-02 -2.918217182159423828e-01
2.547146379947662354e-01 -1.911364793777465820e-01 5.023651719093322754e-01
2.369681894779205322e-01 -1.898804455995559692e-01 3.669592440128326416e-01
2.720092236995697021e-01 -1.901928782463073730e-01 5.859780311584472656e-01
2.394707649946212769e-01 -1.187767237424850464e-01 -3.029306232929229736e-01
4.216505289077758789e-01 -1.163276582956314087e-01 -4.886161684989929199e-01
2.879613637924194336e-01 -2.379914224147796631e-01 -3.262928724288940430e-01
3.708992004394531250e-01 -2.368818521499633789e-01 -4.432571828365325928e-01
4.132443070411682129e-01 -6.844820082187652588e-02 -2.143587730824947357e-02
4.330163896083831787e-01 -8.897825330495834351e-02 -1.161138410679996014e-03
4.017553031444549561e-01 -1.108218654990196228e-01 4.982273578643798828e-01
4.304245114326477051e-01 -8.715065568685531616e-02 -1.546508818864822388e-01
2.234102785587310791e-01 -1.178491413593292236e-01 1.527442187070846558e-01
3.755570352077484131e-01 -2.551394701004028320e-01 -1.573353260755538940e-01
3.178671896457672119e-01 -9.533368051052093506e-02 -5.913766622543334961e-01
3.016817569732666016e-01 -2.203811109066009521e-01 5.389874577522277832e-01
4.216423630714416504e-01 -2.294902205467224121e-01 -1.028393581509590149e-01
4.537478089332580566e-01 -1.704228669404983521e-01 -8.020889014005661011e-02
4.434277415275573730e-01 -1.564550399780273438e-01 -3.758133947849273682e-01
2.647884488105773926e-01 -2.393473088741302490e-01 -5.863857641816139221e-02
2.343332469463348389e-01 -1.734369695186614990e-01 -2.885827124118804932e-01
3.638059198856353760e-01 -4.917306452989578247e-02 1.890122741460800171e-01
2.656236886978149414e-01 -1.227909028530120850e-01 -5.041552186012268066e-01
2.913968861103057861e-01 -1.546883136034011841e-01 -6.401163339614868164e-01
2.916239500045776367e-01 -6.011921912431716919e-02 3.315269052982330322e-01
4.029082059860229492e-01 -8.220362663269042969e-02 -4.141942262649536133e-01
3.418030440807342529e-01 -2.256475090980529785e-01 5.258131623268127441e-01
2.496813535690307617e-01 -7.573491334915161133e-02 9.655228257179260254e-02
4.465882182121276855e-01 -1.715986132621765137e-01 -3.079563975334167480e-01
4.054816067218780518e-01 -1.038303077220916748e-01 4.526430666446685791e-01
3.666657209396362305e-01 -4.848670214414596558e-02 1.534866541624069214e-01
2.766953110694885254e-01 -2.313057780265808105e-01 3.767575919628143311e-01
3.188261389732360840e-01 -1.301425993442535400e-01 7.076004147529602051e-01
2.951073646545410156e-01 -2.498667389154434204e-01 2.414868324995040894e-01
2.520953118801116943e-01 -8.043635636568069458e-02 -1.579477190971374512e-01
2.273654937744140625e-01 -1.067188754677772522e-01 2.463032491505146027e-02
3.569665849208831787e-01 -2.114011347293853760e-01 5.758433341979980469e-01
2.875780761241912842e-01 -2.402450889348983765e-01 3.395200967788696289e-01
2.667684555053710938e-01 -2.371671199798583984e-01 -1.533062607049942017e-01
2.537688016891479492e-01 -7.362885773181915283e-02 -5.778521671891212463e-02
3.062812089920043945e-01 -1.116737425327301025e-01 -6.235609650611877441e-01
3.945763111114501953e-01 -2.488090097904205322e-01 -8.495973795652389526e-02
3.789727687835693359e-01 -7.911809533834457397e-02 -4.908634424209594727e-01
3.135583698749542236e-01 -6.054736673831939697e-02 -3.589362204074859619e-01
4.320021867752075195e-01 -1.785982102155685425e-01 3.319293260574340820e-01
2.483204752206802368e-01 -1.487323194742202759e-01 5.371885895729064941e-01
4.101701676845550537e-01 -2.228428423404693604e-01 2.793593406677246094e-01
3.422002196311950684e-01 -2.323704212903976440e-01 -5.058923959732055664e-01
3.713417649269104004e-01 -1.315723061561584473e-01 -6.923422217369079590e-01
2.414338737726211548e-01 -8.570044487714767456e-02 -2.359775826334953308e-02
2.925980985164642334e-01 -2.524979114532470703e-01 -1.309631168842315674e-01
3.406449258327484131e-01 -4.318439215421676636e-02 1.232590302824974060e-01
3.761147856712341309e-01 -5.152768641710281372e-02 -1.831303089857101440e-01
4.138048589229583740e-01 -1.878715753555297852e-01 4.442263841629028320e-01
4.088227152824401855e-01 -6.506512314081192017e-02 -4.510100185871124268e-02
3.364502787590026855e-01 -6.616628915071487427e-02 -4.445045590400695801e-01
3.531648218631744385e-01 -1.579619348049163818e-01 6.984304189682006836e-01
2.320533394813537598e-01 -9.863211214542388916e-02 -2.281929366290569305e-03
2.258633822202682495e-01 -1.240794360637664795e-01 -1.399338692426681519e-01
4.519643783569335938e-01 -1.390155404806137085e-01 7.247243821620941162e-02
2.507547140121459961e-01 -9.541331231594085693e-02 -2.883942127227783203e-01
3.476366400718688965e-01 -5.675999075174331665e-02 3.562679588794708252e-01
3.636291325092315674e-01 -5.564730614423751831e-02 2.976946234703063965e-01
2.792215049266815186e-01 -2.290895581245422363e-01 4.100708365440368652e-01
2.594393491744995117e-01 -1.544578075408935547e-01 -5.053055286407470703e-01
3.376136422157287598e-01 -2.543889284133911133e-01 -2.872046530246734619e-01
4.436009526252746582e-01 -1.052463650703430176e-01 -4.716650396585464478e-02
3.746441006660461426e-01 -2.301097810268402100e-01 -4.866977334022521973e-01
3.110171854496002197e-01 -2.565875947475433350e-01 -1.772114336490631104e-01
2.685754299163818359e-01 -9.242449700832366943e-02 4.937155246734619141e-01
4.418467879295349121e-01 -1.085778474807739258e-01 1.038545444607734680e-01
2.205002903938293457e-01 -1.519865840673446655e-01 -1.075320169329643250e-01
4.378783106803894043e-01 -1.333615928888320923e-01 -4.106815457344055176e-01
4.301232397556304932e-01 -1.289640665054321289e-01 -4.674704372882843018e-01
2.372652292251586914e-01 -2.047078907489776611e-01 2.596750259399414062e-01
4.181164801120758057e-01 -8.019298315048217773e-02 -2.655397355556488037e-01
3.259049355983734131e-01 -1.732301115989685059e-01 7.058172821998596191e-01
4.103480279445648193e-01 -8.033072948455810547e-02 -3.462290763854980469e-01
3.112264871597290039e-01 -2.601583600044250488e-01 -3.462080284953117371e-02
4.101814031600952148e-01 -2.385417520999908447e-01 -1.297702342271804810e-01
3.806037306785583496e-01 -2.550160288810729980e-01 -6.127699743956327438e-04
3.783543109893798828e-01 -6.265603750944137573e-02 3.150033056735992432e-01
2.393828630447387695e-01 -9.713184833526611328e-02 2.874825000762939453e-01
2.771250009536743164e-01 -1.467282027006149292e-01 6.579999923706054688e-01
3.755845725536346436e-01 -2.345571517944335938e-01 3.872311711311340332e-01
3.054555654525756836e-01 -7.007430493831634521e-02 -4.208767414093017578e-01
3.710941672325134277e-01 -1.070751845836639404e-01 6.025777459144592285e-01
2.778886854648590088e-01 -1.075973510742187500e-01 5.947266817092895508e-01
3.131352961063385010e-01 -2.584815621376037598e-01 1.449726969003677368e-01
4.199057817459106445e-01 -7.516800612211227417e-02 3.949947655200958252e-02
2.488686144351959229e-01 -1.311565637588500977e-01 -4.181732535362243652e-01
3.396224677562713623e-01 -2.475173771381378174e-01 -3.764468729496002197e-01
3.238638341426849365e-01 -4.844395071268081665e-02 2.547595500946044922e-01
2.190946340560913086e-01 -1.373853236436843872e-01 1.721278876066207886e-01
3.206769227981567383e-01 -6.209617853164672852e-02 4.233087003231048584e-01
3.216227889060974121e-01 -8.189001679420471191e-02 -5.338027477264404297e-01
2.764825820922851562e-01 -2.405781894922256470e-01 2.622114121913909912e-01
2.919856905937194824e-01 -2.544230222702026367e-01 7.239217311143875122e-02
3.992767632007598877e-01 -6.977582722902297974e-02 2.545800507068634033e-01
4.149240255355834961e-01 -1.279861181974411011e-01 4.686395525932312012e-01
3.132037520408630371e-01 -2.516221702098846436e-01 -2.784340679645538330e-01
3.621437549591064453e-01 -2.513848245143890381e-01 -3.052939176559448242e-01
3.593723177909851074e-01 -7.084436714649200439e-02 -4.719824194908142090e-01
4.281242489814758301e-01 -1.674159318208694458e-01 -5.029399394989013672e-01
3.477872610092163086e-01 -2.227239310741424561e-01 -5.636606812477111816e-01
3.201664388179779053e-01 -2.523467242717742920e-01 2.890658080577850342e-01
2.892535328865051270e-01 -2.533482909202575684e-01 -3.886858001351356506e-02
4.073482155799865723e-01 -7.557151466608047485e-02 -3.203783631324768066e-01
3.822490572929382324e-01 -1.842979788780212402e-01 5.981475114822387695e-01
3.388131558895111084e-01 -4.970044642686843872e-02 -2.621996104717254639e-01
2.479286640882492065e-01 -1.151830852031707764e-01 -3.664319217205047607e-01
2.808163464069366455e-01 -2.170789837837219238e-01 5.016288757324218750e-01
3.029955327510833740e-01 -1.524479836225509644e-01 7.088247537612915039e-01
3.002959191799163818e-01 -2.398384511470794678e-01 3.927823305130004883e-01
2.752776741981506348e-01 -2.464353740215301514e-01 9.722871333360671997e-02
3.659600615501403809e-01 -1.341647207736968994e-01 6.681942939758300781e-01
4.197892844676971436e-01 -8.026906102895736694e-02 1.557088792324066162e-01
3.344166874885559082e-01 -2.627555727958679199e-01 2.523880638182163239e-02
2.264994233846664429e-01 -1.591334939002990723e-01 3.418037891387939453e-01
3.805642724037170410e-01 -1.714950203895568848e-01 6.259122490882873535e-01
4.315397739410400391e-01 -2.054405957460403442e-01 -3.234100341796875000e-01
2.242422699928283691e-01 -1.577231884002685547e-01 3.101257681846618652e-01
3.067969083786010742e-01 -2.524781823158264160e-01 -2.374012321233749390e-01
2.764188647270202637e-01 -2.461753785610198975e-01 1.360448449850082397e-01
3.258259296417236328e-01 -2.420630753040313721e-01 -4.171982407569885254e-01
2.795449793338775635e-01 -7.881339639425277710e-02 4.573562145233154297e-01
2.935456335544586182e-01 -6.811500340700149536e-02 4.241568148136138916e-01
3.637345433235168457e-01 -4.498925805091857910e-02 3.504325821995735168e-02
2.868998646736145020e-01 -1.509252786636352539e-01 6.827134490013122559e-01
2.474250495433807373e-01 -7.838340103626251221e-02 1.212169378995895386e-01
4.159888327121734619e-01 -1.991508305072784424e-01 3.870759606361389160e-01
2.439863234758377075e-01 -2.110527157783508301e-01 2.922956347465515137e-01
3.714048862457275391e-01 -2.533298134803771973e-01 -2.355843633413314819e-01
2.690641283988952637e-01 -1.043711304664611816e-01 -4.645103812217712402e-01
3.478618264198303223e-01 -8.766432851552963257e-02 5.765265226364135742e-01
3.942277133464813232e-01 -2.398193776607513428e-01 2.262731939554214478e-01
2.738328278064727783e-01 -5.751078575849533081e-02 5.241781100630760193e-02
3.014864325523376465e-01 -4.928666353225708008e-02 -1.371490061283111572e-01
2.277271449565887451e-01 -1.784044355154037476e-01 -1.822249293327331543e-01
4.191489815711975098e-01 -7.800812274217605591e-02 1.290931254625320435e-01
3.412873148918151855e-01 -1.237784698605537415e-01 6.919534206390380859e-01
3.832447826862335205e-01 -2.536470293998718262e-01 2.821196243166923523e-02
2.388116121292114258e-01 -2.097460478544235229e-01 -1.218395233154296875e-01
3.672917187213897705e-01 -8.928224444389343262e-02 5.452654957771301270e-01
3.983351588249206543e-01 -2.106901854276657104e-01 4.397796392440795898e-01
2.598583698272705078e-01 -2.204318940639495850e-01 3.644403517246246338e-01
4.339448511600494385e-01 -1.778500825166702271e-01 -4.374244809150695801e-01
3.000765144824981689e-01 -2.521173954010009766e-01 -2.046992331743240356e-01
2.675465941429138184e-01 -1.305601745843887329e-01 -5.293583273887634277e-01
4.132549464702606201e-01 -7.637676596641540527e-02 1.924241632223129272e-01
2.309630811214447021e-01 -2.028412520885467529e-01 1.204708516597747803e-01
2.426167130470275879e-01 -1.214903220534324646e-01 4.577330052852630615e-01
2.186175286769866943e-01 -1.344306766986846924e-01 2.055582962930202484e-02
3.388901948928833008e-01 -2.527853250503540039e-01 -3.113414645195007324e-01
3.117826581001281738e-01 -4.674743860960006714e-02 1.868221908807754517e-01
2.320178449153900146e-01 -1.870981603860855103e-01 3.215799629688262939e-01
3.178970515727996826e-01 -2.609295845031738281e-01 -7.230077683925628662e-02
4.310722351074218750e-01 -2.137393802404403687e-01 1.156042218208312988e-01
2.191340178251266479e-01 -1.723431497812271118e-01 3.560887277126312256e-02
2.393929362297058105e-01 -1.071405634284019470e-01 -2.441563308238983154e-01
3.402318954467773438e-01 -6.850303709506988525e-02 4.728402495384216309e-01
3.291412591934204102e-01 -1.537907421588897705e-01 7.201251983642578125e-01
4.328132867813110352e-01 -1.841866374015808105e-01 3.057648539543151855e-01
4.430593848228454590e-01 -1.983380615711212158e-01 4.633010551333427429e-02
2.958227396011352539e-01 -8.167329430580139160e-02 -4.691765308380126953e-01
2.842223346233367920e-01 -1.877848356962203979e-01 -5.765919089317321777e-01
3.257638514041900635e-01 -7.075265049934387207e-02 -4.696195125579833984e-01
2.186995297670364380e-01 -1.473397314548492432e-01 -5.226180329918861389e-02
4.014743864536285400e-01 -7.366942614316940308e-02 2.800037860870361328e-01
3.683129251003265381e-01 -2.131575495004653931e-01 -5.935499668121337891e-01
3.888232409954071045e-01 -7.687655091285705566e-02 3.910709917545318604e-01
2.536768615245819092e-01 -1.062871366739273071e-01 4.790974557399749756e-01
2.538897395133972168e-01 -2.076816111803054810e-01 -3.295137882232666016e-01
3.079743981361389160e-01 -2.450361847877502441e-01 -3.433766365051269531e-01
2.269472479820251465e-01 -1.281602382659912109e-01 -1.793375462293624878e-01
3.791699707508087158e-01 -4.963726550340652466e-02 -6.698293238878250122e-02
2.960373461246490479e-01 -8.804110437631607056e-02 5.628383159637451172e-01
4.006845355033874512e-01 -7.772325724363327026e-02 -3.897707760334014893e-01
2.712782025337219238e-01 -2.105908244848251343e-01 -4.345313608646392822e-01
3.643675148487091064e-01 -6.364238262176513672e-02 -4.028983116149902344e-01
3.279232382774353027e-01 -4.484000056982040405e-02 -1.531297266483306885e-01
3.148815333843231201e-01 -2.496970891952514648e-01 3.167872130870819092e-01
4.122840166091918945e-01 -7.170332968235015869e-02 -2.071695029735565186e-01
2.272014617919921875e-01 -1.350066810846328735e-01 -2.063023597002029419e-01
2.905292809009552002e-01 -2.447431981563568115e-01 2.971183061599731445e-01
2.732061743736267090e-01 -1.735418438911437988e-01 -5.591356158256530762e-01
3.414967656135559082e-01 -8.264097571372985840e-02 -5.549061298370361328e-01
2.558897137641906738e-01 -1.824004352092742920e-01 -4.486733675003051758e-01
4.068233072757720947e-01 -1.587913483381271362e-01 -6.199204325675964355e-01
3.225616216659545898e-01 -2.577967047691345215e-01 1.957046836614608765e-01
2.398385703563690186e-01 -1.641539931297302246e-01 -3.606188893318176270e-01
2.473872601985931396e-01 -2.096512615680694580e-01 -2.512673735618591309e-01
2.680537700653076172e-01 -7.397098094224929810e-02 -2.573789656162261963e-01
2.192005813121795654e-01 -1.598751395940780640e-01 1.976537555456161499e-01
2.985155582427978516e-01 -2.379056513309478760e-01 -3.784766495227813721e-01
4.362234473228454590e-01 -9.919255971908569336e-02 -2.291081100702285767e-01
2.879937291145324707e-01 -2.066718339920043945e-01 -5.301222205162048340e-01
3.344657123088836670e-01 -9.578444063663482666e-02 -6.123773455619812012e-01
3.212602436542510986e-01 -4.445138573646545410e-02 -1.206105574965476990e-01
3.796468079090118408e-01 -2.031852453947067261e-01 -6.132048964500427246e-01
4.435098171234130859e-01 -1.092248409986495972e-01 -1.879094690084457397e-01
3.179659247398376465e-01 -2.120842188596725464e-01 -5.891853570938110352e-01
4.469821751117706299e-01 -1.215721592307090759e-01 -2.300301343202590942e-01
4.528898298740386963e-01 -1.318735629320144653e-01 -1.063416376709938049e-01
2.935169637203216553e-01 -4.949987679719924927e-02 1.205376610159873962e-01
2.579696178436279297e-01 -2.017120271921157837e-01 -3.939179778099060059e-01
3.342154324054718018e-01 -2.070546001195907593e-01 -6.284117102622985840e-01
2.617252469062805176e-01 -9.863306581974029541e-02 -3.946135044097900391e-01
4.142983257770538330e-01 -2.110287398099899292e-01 -4.402815997600555420e-01
3.721090257167816162e-01 -2.314411103725433350e-01 4.245589077472686768e-01
2.568768560886383057e-01 -9.227173030376434326e-02 -3.211644887924194336e-01
3.855433166027069092e-01 -2.286510914564132690e-01 -4.647741913795471191e-01
3.293646275997161865e-01 -2.165573835372924805e-01 5.803260207176208496e-01
3.678633868694305420e-01 -1.657705754041671753e-01 -7.076168060302734375e-01
3.675207197666168213e-01 -5.881502479314804077e-02 -3.435964584350585938e-01
4.402928352355957031e-01 -1.210651844739913940e-01 -3.402518033981323242e-01
3.330339491367340088e-01 -4.768759012222290039e-02 -2.242110073566436768e-01
3.315507173538208008e-01 -2.577696144580841064e-01 -2.215943634510040283e-01
4.139810204505920410e-01 -2.270385473966598511e-01 1.968028396368026733e-01
4.355355203151702881e-01 -1.180292442440986633e-01 -3.813631534576416016e-01
2.801897227764129639e-01 -6.948575377464294434e-02 -3.011105358600616455e-01
3.796645998954772949e-01 -1.211151257157325745e-01 -6.604427695274353027e-01
3.631054759025573730e-01 -9.243826568126678467e-02 -5.925874710083007812e-01
3.591974079608917236e-01 -2.438022196292877197e-01 3.572972714900970459e-01
3.023877739906311035e-01 -2.253510504961013794e-01 -4.856185615062713623e-01
2.342533171176910400e-01 -1.467240601778030396e-01 4.320249259471893311e-01
2.525810003280639648e-01 -2.218239903450012207e-01 -1.936443895101547241e-01
3.208721280097961426e-01 -1.929270923137664795e-01 6.659685969352722168e-01
2.530798017978668213e-01 -2.120746076107025146e-01 -2.921246886253356934e-01
3.347465395927429199e-01 -4.188267141580581665e-02 -4.177349060773849487e-02
3.599770665168762207e-01 -2.044335901737213135e-01 -6.369104981422424316e-01
2.682396471500396729e-01 -2.337750792503356934e-01 2.888255417346954346e-01
3.906656503677368164e-01 -6.658179312944412231e-02 -3.352501094341278076e-01
2.609505653381347656e-01 -1.518653333187103271e-01 6.013919711112976074e-01
3.453426659107208252e-01 -2.098997235298156738e-01 5.992723703384399414e-01
2.844236195087432861e-01 -2.391149997711181641e-01 -2.922441363334655762e-01
3.677191138267517090e-01 -4.688157886266708374e-02 -1.100356951355934143e-01
3.912998437881469727e-01 -2.500765323638916016e-01 -1.108326315879821777e-01
3.974718749523162842e-01 -5.889233201742172241e-02 6.475333124399185181e-02
4.506564140319824219e-01 -1.593787819147109985e-01 -2.623356580734252930e-01
2.640129327774047852e-01 -6.815905123949050903e-02 2.297137975692749023e-01
2.957899272441864014e-01 -1.069776192307472229e-01 6.366898417472839355e-01
2.650206685066223145e-01 -2.141514718532562256e-01 -3.750580251216888428e-01
3.510172665119171143e-01 -2.372177392244338989e-01 -4.692223370075225830e-01
4.458910822868347168e-01 -1.958712637424468994e-01 -5.938565358519554138e-02
2.392598688602447510e-01 -1.134726032614707947e-01 -2.775359153747558594e-01
4.506676495075225830e-01 -1.799800246953964233e-01 1.879368163645267487e-02
3.788979053497314453e-01 -2.426618635654449463e-01 2.926036715507507324e-01
2.636323273181915283e-01 -2.156708836555480957e-01 4.282154738903045654e-01
4.340823888778686523e-01 -2.012576162815093994e-01 1.979062110185623169e-01
4.081601202487945557e-01 -1.169048324227333069e-01 -5.629782080650329590e-01
4.388820827007293701e-01 -2.031937837600708008e-01 9.272222220897674561e-02
2.262476533651351929e-01 -1.823041290044784546e-01 2.566671371459960938e-01
3.867084681987762451e-01 -5.272357165813446045e-02 3.089851513504981995e-02
4.166803956031799316e-01 -1.491958349943161011e-01 -5.768101215362548828e-01
3.993420004844665527e-01 -1.870945990085601807e-01 -6.075038313865661621e-01
3.743275105953216553e-01 -2.247233092784881592e-01 4.628187119960784912e-01
2.728210091590881348e-01 -9.451390802860260010e-02 5.235753059387207031e-01
2.218488305807113647e-01 -1.830808967351913452e-01 7.539489120244979858e-02
4.136128425598144531e-01 -1.672840714454650879e-01 4.890277087688446045e-01
4.099534153938293457e-01 -1.424897313117980957e-01 5.159066915512084961e-01
3.480711579322814941e-01 -1.855899244546890259e-01 6.702790260314941406e-01
4.371577799320220947e-01 -2.002376914024353027e-01 1.589819788932800293e-01
3.172893524169921875e-01 -2.600443363189697266e-01 -1.110965833067893982e-01
3.504387140274047852e-01 -2.295611947774887085e-01 4.908318221569061279e-01
3.208892345428466797e-01 -2.303798794746398926e-01 5.009166002273559570e-01
4.465845823287963867e-01 -1.418381929397583008e-01 1.935964971780776978e-01
3.315001428127288818e-01 -1.432224065065383911e-01 -7.125635147094726562e-01
2.527700066566467285e-01 -2.227259874343872070e-01 2.693492472171783447e-01
4.293444156646728516e-01 -9.621569514274597168e-02 -3.057448565959930420e-01
4.063402712345123291e-01 -2.082959413528442383e-01 4.066047966480255127e-01
3.774548470973968506e-01 -2.561611533164978027e-01 -6.622529029846191406e-02
2.687858045101165771e-01 -8.184243738651275635e-02 4.262559413909912109e-01
3.471402823925018311e-01 -2.618465423583984375e-01 6.039898097515106201e-02
3.862396478652954102e-01 -8.388107270002365112e-02 4.507063329219818115e-01
4.242896437644958496e-01 -8.148550242185592651e-02 9.098335355520248413e-02
4.234480559825897217e-01 -8.055485039949417114e-02 -1.830554753541946411e-01
3.711517751216888428e-01 -2.457798123359680176e-01 -3.529817163944244385e-01
3.906861543655395508e-01 -1.024010330438613892e-01 -5.776893496513366699e-01
3.866727650165557861e-01 -1.483229398727416992e-01 6.192393898963928223e-01
3.022150695323944092e-01 -5.428182333707809448e-02 -2.394192516803741455e-01
3.168541491031646729e-01 -9.633347392082214355e-02 6.249510049819946289e-01
3.625915646553039551e-01 -2.598944902420043945e-01 -8.648326247930526733e-02
2.875073552131652832e-01 -1.341933310031890869e-01 -6.160243749618530273e-01
3.345300555229187012e-01 -5.047819763422012329e-02 2.911963164806365967e-01
3.083592355251312256e-01 -2.169017493724822998e-01 5.674763321876525879e-01
2.764258682727813721e-01 -2.366298735141754150e-01 3.170159161090850830e-01
3.471042513847351074e-01 -2.613488435745239258e-01 8.597416430711746216e-02
4.043261408805847168e-01 -2.135541439056396484e-01 -4.832039773464202881e-01
4.519255161285400391e-01 -1.515574157238006592e-01 -2.375538200139999390e-01
3.292344510555267334e-01 -4.184695333242416382e-02 4.516027122735977173e-02
2.214283496141433716e-01 -1.793532967567443848e-01 -1.229091361165046692e-02
3.034920096397399902e-01 -1.810361891984939575e-01 -6.487977504730224609e-01
2.487186491489410400e-01 -2.210735231637954712e-01 -1.450572609901428223e-01
2.284702807664871216e-01 -1.393669247627258301e-01 -2.342101931571960449e-01
2.453258633613586426e-01 -2.218362540006637573e-01 1.443393826484680176e-01
3.946898877620697021e-01 -2.423862069845199585e-01 1.833051741123199463e-01
2.661623954772949219e-01 -2.365170568227767944e-01 2.232822626829147339e-01
4.496269524097442627e-01 -1.653747111558914185e-01 1.331568807363510132e-01
4.215925037860870361e-01 -1.241059601306915283e-01 -5.132695436477661133e-01
2.609496712684631348e-01 -2.371595799922943115e-01 -2.609391324222087860e-02
4.074636697769165039e-01 -6.459831446409225464e-02 -9.690715372562408447e-02
2.976432442665100098e-01 -1.781587749719619751e-01 6.780330538749694824e-01
2.442638874053955078e-01 -1.117913126945495605e-01 4.350263476371765137e-01
2.320328503847122192e-01 -9.766087681055068970e-02 7.570086419582366943e-02
3.409954905509948730e-01 -4.617144167423248291e-02 -1.957032084465026855e-01
2.361047267913818359e-01 -9.600709378719329834e-02 2.136266678571701050e-01
2.479864358901977539e-01 -2.261608093976974487e-01 2.132332697510719299e-02
3.452745676040649414e-01 -1.059470474720001221e-01 -6.518537998199462891e-01
3.713674545288085938e-01 -4.872885346412658691e-02 1.187831386923789978e-01
3.981204330921173096e-01 -8.299159258604049683e-02 -4.457091689109802246e-01
2.756190001964569092e-01 -2.470864802598953247e-01 -9.111146442592144012e-03
2.716372013092041016e-01 -2.062136232852935791e-01 5.230869650840759277e-01
2.425068318843841553e-01 -1.930503845214843750e-01 -3.036189675331115723e-01
2.739247679710388184e-01 -1.525419056415557861e-01 -5.767666101455688477e-01
2.399848550558090210e-01 -1.296010762453079224e-01 -3.417774140834808350e-01
4.221892058849334717e-01 -2.288161516189575195e-01 -4.727534484118223190e-03
2.205208241939544678e-01 -1.775377541780471802e-01 1.150461584329605103e-01
2.346397638320922852e-01 -2.039626538753509521e-01 2.184803336858749390e-01
3.485847413539886475e-01 -1.190300285816192627e-01 -6.859775781631469727e-01
2.817639708518981934e-01 -5.954387784004211426e-02 -1.821394562721252441e-01
4.244066476821899414e-01 -1.038396358489990234e-01 -4.114099442958831787e-01
2.508470714092254639e-01 -1.964172124862670898e-01 4.555935561656951904e-01
2.222263813018798828e-01 -1.375625133514404297e-01 2.601188123226165771e-01
2.757990360260009766e-01 -1.781653612852096558e-01 6.282994151115417480e-01
3.705621361732482910e-01 -1.053527295589447021e-01 -6.327562928199768066e-01
3.953148126602172852e-01 -9.085413813591003418e-02 -5.075444579124450684e-01
4.537615776062011719e-01 -1.698549836874008179e-01 -4.445436969399452209e-02
3.943446576595306396e-01 -7.571843266487121582e-02 3.502602279186248779e-01
2.569217085838317871e-01 -2.149072289466857910e-01 3.874820768833160400e-01
4.488421380519866943e-01 -1.618179529905319214e-01 1.564891338348388672e-01
2.641230821609497070e-01 -1.105518639087677002e-01 5.517313480377197266e-01
3.610245883464813232e-01 -2.428496479988098145e-01 -4.092172980308532715e-01
4.262951612472534180e-01 -1.537926495075225830e-01 -5.236234664916992188e-01
2.776004076004028320e-01 -6.436661630868911743e-02 3.043532669544219971e-01
2.923009097576141357e-01 -8.152399957180023193e-02 5.184832215309143066e-01
4.011794924736022949e-01 -1.863398700952529907e-01 5.179525017738342285e-01
2.701534628868103027e-01 -2.439315021038055420e-01 5.865515023469924927e-02
4.393747448921203613e-01 -1.557009220123291016e-01 -4.200117588043212891e-01
3.481509685516357422e-01 -1.844430714845657349e-01 -6.942707896232604980e-01
4.108707308769226074e-01 -2.246397137641906738e-01 -3.593331277370452881e-01
4.459241628646850586e-01 -1.544722467660903931e-01 -3.444220125675201416e-01
4.495530128479003906e-01 -1.847660094499588013e-01 -1.448931843042373657e-01
4.018992185592651367e-01 -2.324126213788986206e-01 2.537534534931182861e-01
3.521131575107574463e-01 -4.550184309482574463e-02 -1.604872196912765503e-01
2.349521517753601074e-01 -1.018210053443908691e-01 2.636240124702453613e-01
2.412040233612060547e-01 -1.007172837853431702e-01 3.422745168209075928e-01
4.193713068962097168e-01 -9.161537885665893555e-02 -3.707760572433471680e-01
4.245173931121826172e-01 -1.164794266223907471e-01 3.696901500225067139e-01
2.899978756904602051e-01 -9.377595782279968262e-02 -5.123258829116821289e-01
4.338835179805755615e-01 -1.627276241779327393e-01 -4.650124013423919678e-01
4.419412016868591309e-01 -1.964321434497833252e-01 -2.376034408807754517e-01
2.297637164592742920e-01 -1.447113305330276489e-01 3.845098912715911865e-01
3.739944398403167725e-01 -2.556610703468322754e-01 9.046531468629837036e-02
3.692632913589477539e-01 -8.265502750873565674e-02 5.059527754783630371e-01
3.380866348743438721e-01 -2.604425549507141113e-01 -1.623316705226898193e-01
2.229321002960205078e-01 -1.522211879491806030e-01 -1.593424975872039795e-01
3.559103906154632568e-01 -2.554487884044647217e-01 2.104679495096206665e-01
3.533137440681457520e-01 -5.804812908172607422e-02 -3.635656833648681641e-01
3.582461774349212646e-01 -4.375956207513809204e-02 -3.354097902774810791e-02
2.257530689239501953e-01 -1.858471930027008057e-01 -9.444651007652282715e-02
2.169186472892761230e-01 -1.505775004625320435e-01 5.670598894357681274e-02
3.738900423049926758e-01 -2.536584138870239258e-01 1.483940631151199341e-01
4.216144680976867676e-01 -1.631049513816833496e-01 4.430551230907440186e-01
4.340746998786926270e-01 -1.023826748132705688e-01 1.898841112852096558e-01
3.331734538078308105e-01 -1.963451206684112549e-01 -6.614770293235778809e-01
3.367989361286163330e-01 -2.464180290699005127e-01 3.675536215305328369e-01
3.050599992275238037e-01 -5.161020904779434204e-02 -2.095987349748611450e-01
3.409949541091918945e-01 -7.377915829420089722e-02 5.086597800254821777e-01
3.869627714157104492e-01 -1.866340786218643188e-01 -6.446843147277832031e-01
3.136892020702362061e-01 -5.261920392513275146e-02 -2.624585628509521484e-01
2.684681415557861328e-01 -1.317729651927947998e-01 6.181357502937316895e-01
2.682349681854248047e-01 -7.318969070911407471e-02 3.434473872184753418e-01
4.091482460498809814e-01 -2.356972843408584595e-01 -2.296152263879776001e-01
4.070063829421997070e-01 -2.382865548133850098e-01 1.056223288178443909e-01
4.022879004478454590e-01 -9.038608521223068237e-02 -4.740659296512603760e-01
2.852343618869781494e-01 -5.328991264104843140e-02 -7.124829292297363281e-02
2.795188128948211670e-01 -5.791187286376953125e-02 -1.245783418416976929e-01
2.525144219398498535e-01 -1.172784864902496338e-01 5.126273036003112793e-01
4.167171418666839600e-01 -7.713590562343597412e-02 -2.387832999229431152e-01
2.756352424621582031e-01 -2.197847068309783936e-01 4.636788368225097656e-01
3.392041921615600586e-01 -2.484396696090698242e-01 3.435011804103851318e-01
2.273373156785964966e-01 -1.945221573114395142e-01 -3.379161283373832703e-02
2.379147261381149292e-01 -1.681762188673019409e-01 -3.369494974613189697e-01
2.250380665063858032e-01 -1.149877160787582397e-01 1.766480207443237305e-01
3.354220092296600342e-01 -2.375646084547042847e-01 4.493024647235870361e-01
4.428555965423583984e-01 -1.138588786125183105e-01 -2.541958987712860107e-01
3.037885725498199463e-01 -2.575382292270660400e-01 1.050373762845993042e-01
2.807722091674804688e-01 -2.485437095165252686e-01 -8.346803486347198486e-02
3.291589915752410889e-01 -2.243172228336334229e-01 -5.463496446609497070e-01
4.089663326740264893e-01 -6.557237356901168823e-02 1.899572834372520447e-02
3.035715818405151367e-01 -1.376585513353347778e-01 -6.648432016372680664e-01
4.363377392292022705e-01 -1.831381916999816895e-01 2.717833518981933594e-01
2.901856601238250732e-02 9.845633059740066528e-02 1.914773434400558472e-01
-1.040701866149902344e-01 2.198703438043594360e-01 1.630626916885375977e-01
1.534260809421539307e-03 1.200728639960289001e-01 -4.474821686744689941e-01
-8.282493799924850464e-02 9.890803694725036621e-02 -5.987975597381591797e-01
4.482679069042205811e-03 1.328317970037460327e-01 -4.719020128250122070e-01
-1.222629472613334656e-01 1.869060993194580078e-01 -4.212018251419067383e-01
-6.088718026876449585e-02 2.004183977842330933e-01 6.047427058219909668e-01
-1.695652306079864502e-01 1.681170463562011719e-01 -2.565239369869232178e-01
2.557622641324996948e-02 9.621387720108032227e-02 -2.416355162858963013e-02
-1.726846992969512939e-01 8.525412529706954956e-02 -4.413120150566101074e-01
3.884963691234588623e-02 1.148998737335205078e-01 -8.173751085996627808e-02
-1.352871358394622803e-01 2.054596245288848877e-01 5.200631171464920044e-02
-3.648607060313224792e-02 2.223964184522628784e-01 -3.167136013507843018e-01
5.448237061500549316e-02 1.737430244684219360e-01 3.567830920219421387e-01
-2.615167945623397827e-02 1.189330592751502991e-01 7.280544042587280273e-01
-1.520696580410003662e-01 1.582985371351242065e-01 -4.524664282798767090e-01
3.056830167770385742e-02 1.932364553213119507e-01 4.941870570182800293e-01
-1.922856271266937256e-01 6.306455284357070923e-02 -2.409200668334960938e-01
-1.267714649438858032e-01 5.846469849348068237e-02 5.831744074821472168e-01
-1.812082529067993164e-01 1.513668894767761230e-01 -2.861186563968658447e-01
-1.684852540493011475e-01 1.589122116565704346e-01 4.365445077419281006e-01
-1.226059421896934509e-01 5.318354070186614990e-02 5.507076978683471680e-01
-1.917311400175094604e-01 1.239049360156059265e-01 -3.294371366500854492e-01
-3.974679857492446899e-02 2.085531502962112427e-01 5.651710629463195801e-01
2.100102603435516357e-02 2.295938581228256226e-01 1.609921157360076904e-01
-2.384567633271217346e-02 2.099809646606445312e-01 -4.158684909343719482e-01
-2.151620239019393921e-01 9.077616035938262939e-02 -7.478936761617660522e-02
-8.641409128904342651e-02 2.261494398117065430e-01 -7.967204600572586060e-02
-1.634800434112548828e-01 3.188768774271011353e-02 3.067534789443016052e-02
-1.990752816200256348e-01 5.056792497634887695e-02 8.498521894216537476e-02
-1.721731722354888916e-01 3.438295423984527588e-02 6.312631815671920776e-02
-2.869442105293273926e-04 1.982740610837936401e-01 -4.336940646171569824e-01
-1.339669376611709595e-01 3.268926590681076050e-02 -1.379610300064086914e-01
-1.474210917949676514e-01 1.952374577522277832e-01 1.914959847927093506e-01
-2.161027863621711731e-02 6.052210181951522827e-02 2.588779926300048828e-01
5.855120718479156494e-02 1.978095024824142456e-01 1.201188415288925171e-01
-1.479670405387878418e-03 8.803068846464157104e-02 4.721336364746093750e-01
1.679026335477828979e-02 8.579955250024795532e-02 5.804722383618354797e-02
-3.185981512069702148e-02 2.375906854867935181e-01 1.313775628805160522e-01
-1.220938712358474731e-01 1.976447254419326782e-01 -3.254874944686889648e-01
-9.343001246452331543e-02 5.839712917804718018e-02 -4.106774628162384033e-01
-7.058462500572204590e-02 5.717098712921142578e-02 5.321967005729675293e-01
-5.972234532237052917e-02 4.171951115131378174e-02 -2.156388759613037109e-02
-3.000708669424057007e-02 2.342210412025451660e-01 2.575322687625885010e-01
-1.667193919420242310e-01 6.385079026222229004e-02 -3.806720972061157227e-01
-9.238213300704956055e-02 3.430581837892532349e-02 -8.760160952806472778e-02
-9.021323919296264648e-02 1.958180367946624756e-01 5.768213272094726562e-01
1.897819340229034424e-03 7.337523996829986572e-02 1.135149672627449036e-01
-4.218542203307151794e-02 4.748499393463134766e-02 9.062250703573226929e-02
3.439232707023620605e-03 2.254909574985504150e-01 3.589048385620117188e-01
-2.077264338731765747e-01 9.532632678747177124e-02 -2.108967006206512451e-01
-1.653081178665161133e-01 5.782777816057205200e-02 4.881784319877624512e-01
-1.888824701309204102e-01 1.543446481227874756e-01 -1.531970202922821045e-01
-2.248242124915122986e-02 8.546346426010131836e-02 -3.832175731658935547e-01
-1.859522759914398193e-01 9.305200725793838501e-02 -3.911555111408233643e-01
-1.489789485931396484e-01 3.617798537015914917e-02 -1.753402054309844971e-01
-8.061864227056503296e-02 8.456028997898101807e-02 -5.464327335357666016e-01
5.508099496364593506e-02 1.548916548490524292e-01 -1.329680681228637695e-01
-4.457721114158630371e-02 7.041046768426895142e-02 5.601339936256408691e-01
-9.411918371915817261e-02 3.411699086427688599e-02 2.760410010814666748e-01
-1.051667109131813049e-01 2.090198099613189697e-01 3.862317800521850586e-01
-1.991709619760513306e-01 8.060662448406219482e-02 -2.715232074260711670e-01
-8.268178999423980713e-02 4.044327139854431152e-02 -1.755610406398773193e-01
4.047368466854095459e-02 1.112774610519409180e-01 6.062158569693565369e-02
1.425202190876007080e-02 8.448964357376098633e-02 2.047936916351318359e-01
2.528698742389678955e-02 2.057968229055404663e-01 4.540061652660369873e-01
-1.727875024080276489e-01 3.464943915605545044e-02 9.361886978149414062e-02
-8.499011397361755371e-03 2.234282940626144409e-01 4.140650033950805664e-01
-1.218215525150299072e-01 1.954092830419540405e-01 -3.504257500171661377e-01
-2.099550068378448486e-01 9.056785702705383301e-02 2.790426015853881836e-01
-1.577890217304229736e-01 1.812807470560073853e-01 3.125970363616943359e-01
2.442643791437149048e-02 2.274027466773986816e-01 1.890823841094970703e-01
-2.060129791498184204e-01 1.338670104742050171e-01 -3.606195002794265747e-02
-5.204861238598823547e-02 5.333230644464492798e-02 -2.176126837730407715e-01
1.471533626317977905e-02 2.037786841392517090e-01 -3.551255464553833008e-01
-8.308935910463333130e-02 2.264986038208007812e-01 2.052428424358367920e-01
-1.456320658326148987e-02 1.471740305423736572e-01 7.302671670913696289e-01
-6.339935213327407837e-02 3.911044448614120483e-02 7.123446464538574219e-02
-1.828956902027130127e-01 1.048590466380119324e-01 -4.168559610843658447e-01
5.987535417079925537e-02 1.778802275657653809e-01 2.664235234260559082e-01
-1.168505921959877014e-01 2.109353840351104736e-01 -1.648941636085510254e-01
-1.612618416547775269e-01 1.570345312356948853e-01 -4.073446691036224365e-01
3.935927152633666992e-02 1.112642958760261536e-01 3.040991723537445068e-03
-7.979288697242736816e-02 3.635505586862564087e-02 -5.928491801023483276e-02
-8.744302392005920410e-02 1.389022469520568848e-01 -6.446201801300048828e-01
5.388826131820678711e-03 2.321236580610275269e-01 -9.263526648283004761e-02
-8.395954221487045288e-02 3.754685819149017334e-02 -1.221984103322029114e-01
-2.192081883549690247e-02 2.374656796455383301e-01 -2.588421851396560669e-02
-1.439632922410964966e-01 1.683157384395599365e-01 5.391120910644531250e-01
-1.615374237298965454e-01 3.179474920034408569e-02 1.506978571414947510e-01
9.531147778034210205e-03 1.080527603626251221e-01 -3.430480659008026123e-01
-2.112945169210433960e-01 1.128367334604263306e-01 2.114039063453674316e-01
-4.630178213119506836e-02 1.227549910545349121e-01 -6.063380241394042969e-01
-1.396914124488830566e-01 5.250648409128189087e-02 5.248792767524719238e-01
2.661762386560440063e-02 9.491564333438873291e-02 1.162066012620925903e-01
-9.327249228954315186e-02 9.713546931743621826e-02 7.543896436691284180e-01
-1.678375154733657837e-02 8.420644700527191162e-02 5.394926667213439941e-01
1.792488992214202881e-02 2.309117317199707031e-01 -6.596833467483520508e-03
-6.624145060777664185e-02 1.639109700918197632e-01 -6.181324720382690430e-01
-1.136758029460906982e-01 2.977494150400161743e-02 2.189122736454010010e-01
1.565436273813247681e-02 2.308441996574401855e-01 -4.150316119194030762e-02
2.928569912910461426e-02 2.232841253280639648e-01 -7.848700135946273804e-02
-1.506312638521194458e-01 3.224407136440277100e-02 -9.059325605630874634e-02
-6.380365043878555298e-02 4.980012774467468262e-02 4.246666133403778076e-01
-2.047750800848007202e-01 1.340510845184326172e-01 1.656078994274139404e-01
-5.295220389962196350e-02 2.309783846139907837e-01 -1.675092875957489014e-01
-1.895873099565505981e-01 1.207730993628501892e-01 -3.554467558860778809e-01
-6.591966748237609863e-02 7.775764167308807373e-02 -4.880204796791076660e-01
-1.976075768470764160e-01 4.940583556890487671e-02 2.534214407205581665e-02
-1.207737252116203308e-01 1.992682218551635742e-01 4.103820919990539551e-01
-1.533412560820579529e-02 2.151997685432434082e-01 5.038228631019592285e-01
-2.162858247756958008e-01 8.619463443756103516e-02 1.207425743341445923e-01
-1.596003323793411255e-01 1.887642592191696167e-01 5.692594498395919800e-02
-5.407335981726646423e-02 2.146843373775482178e-01 -3.825733363628387451e-01
-1.353752911090850830e-01 2.775199711322784424e-02 3.819688782095909119e-02
5.093242228031158447e-02 1.704201847314834595e-01 4.003579616546630859e-01
4.342865198850631714e-02 1.486998051404953003e-01 -2.559360563755035400e-01
-6.070517748594284058e-02 1.868507117033004761e-01 -5.501534938812255859e-01
3.990687429904937744e-02 1.683074235916137695e-01 4.967281222343444824e-01
-1.334299743175506592e-01 1.973011791706085205e-01 -2.465118467807769775e-01
-1.368870139122009277e-01 5.692185461521148682e-02 -4.067295789718627930e-01
-1.740975081920623779e-01 1.381442993879318237e-01 5.098235607147216797e-01
-1.209730580449104309e-01 1.943039894104003906e-01 4.629137814044952393e-01
-1.950644105672836304e-01 1.360858529806137085e-01 3.277468681335449219e-01
-1.070949882268905640e-01 1.999126076698303223e-01 -3.791341483592987061e-01
-1.344749778509140015e-01 5.031548440456390381e-02 -3.591544926166534424e-01
-2.103027254343032837e-01 9.477528929710388184e-02 -1.748731732368469238e-01
-4.285510629415512085e-02 5.113919824361801147e-02 2.999094724655151367e-01
-2.144268900156021118e-01 7.997560501098632812e-02 -4.822931438684463501e-02
-6.982369720935821533e-02 2.196965813636779785e-01 4.101575613021850586e-01
-2.323828265070915222e-02 1.938466727733612061e-01 6.447263956069946289e-01
5.658350884914398193e-02 1.514198780059814453e-01 -9.098935872316360474e-02
5.503892898559570312e-02 1.877093315124511719e-01 3.105087280273437500e-01
-9.159415960311889648e-02 3.160267323255538940e-02 1.466746926307678223e-01
-2.121102064847946167e-01 9.806847572326660156e-02 2.432400584220886230e-01
-5.822665616869926453e-02 6.989163160324096680e-02 6.007595658302307129e-01
-1.059022769331932068e-01 2.184591591358184814e-01 1.880024522542953491e-01
-1.594738662242889404e-01 8.605817705392837524e-02 -4.901657104492187500e-01
-1.649058461189270020e-01 6.821367144584655762e-02 -4.092791676521301270e-01
-1.635059416294097900e-01 1.837393492460250854e-01 -8.440607041120529175e-02
-1.212029904127120972e-01 1.489245593547821045e-01 -5.901604294776916504e-01
-1.640049815177917480e-01 3.357683122158050537e-02 -4.571072757244110107e-02
