-2.050112932920455933e-02 -1.414546370506286621e-01 -1.959351450204849243e-01
-3.344587981700897217e-02 -1.863776743412017822e-01 1.239648014307022095e-01
5.432049185037612915e-02 -2.064387798309326172e-01 2.929024100303649902e-01
4.879352450370788574e-02 -2.206770032644271851e-01 3.431830704212188721e-01
-2.654454112052917480e-02 -1.482936441898345947e-01 1.225274801254272461e-01
-2.748923003673553467e-02 -1.457030177116394043e-01 -3.908310085535049438e-02
-2.799774706363677979e-02 -1.690777540206909180e-01 3.031790852546691895e-01
5.645764619112014771e-02 -2.276239097118377686e-01 2.439337223768234253e-01
2.589060179889202118e-02 -1.489455699920654297e-01 -5.100461244583129883e-01
6.695517897605895996e-02 -2.089229375123977661e-01 1.123082041740417480e-01
-2.496190369129180908e-02 -2.075649201869964600e-01 1.240273863077163696e-01
4.928806796669960022e-03 -1.327893435955047607e-01 -2.433377355337142944e-01
5.416100844740867615e-02 -2.205619513988494873e-01 -4.723795950412750244e-01
6.369860470294952393e-02 -2.000151574611663818e-01 1.453351974487304688e-01
2.146008051931858063e-02 -1.809751391410827637e-01 4.470497667789459229e-01
4.133861884474754333e-02 -2.322549223899841309e-01 3.488712608814239502e-01
5.345406942069530487e-03 -1.385129541158676147e-01 1.042950600385665894e-01
1.173205673694610596e-02 -2.426446080207824707e-01 9.873925149440765381e-02
2.403488568961620331e-02 -1.571784764528274536e-01 2.643528878688812256e-01
6.962765008211135864e-02 -1.979611814022064209e-01 1.508641988039016724e-03
2.503301948308944702e-02 -1.981515139341354370e-01 4.832531511783599854e-01
2.277779579162597656e-02 -1.549120247364044189e-01 2.483436614274978638e-01
-2.973892167210578918e-02 -1.742924004793167114e-01 -1.868776232004165649e-01
-2.909323573112487793e-02 -1.813838034868240356e-01 -1.722058653831481934e-01
1.219405233860015869e-02 -2.278026640415191650e-01 -3.135062456130981445e-01
6.897917948663234711e-03 -2.301939427852630615e-01 -2.251065820455551147e-01
2.962235361337661743e-02 -2.285675853490829468e-01 4.201579093933105469e-01
-1.680995523929595947e-02 -1.863793432712554932e-01 -3.564371168613433838e-01
3.613127395510673523e-03 -2.356574237346649170e-01 2.589007019996643066e-01
5.744205415248870850e-02 -1.707729399204254150e-01 -4.477804601192474365e-01
3.613914549350738525e-02 -1.560668796300888062e-01 1.393266022205352783e-01
6.951729953289031982e-02 -2.064671367406845093e-01 4.832457378506660461e-02
5.210202187299728394e-02 -1.946454644203186035e-01 2.833214998245239258e-01
-3.249180316925048828e-02 -1.570138186216354370e-01 1.016581803560256958e-01
7.071569561958312988e-02 -2.104810923337936401e-01 -3.577619194984436035e-01
1.400323770940303802e-02 -1.906398534774780273e-01 -5.829014778137207031e-01
7.109540700912475586e-02 -1.905076354742050171e-01 -2.650569379329681396e-01
-1.410090178251266479e-02 -1.826491951942443848e-01 4.554399549961090088e-01
6.499050557613372803e-02 -1.941806823015213013e-01 8.903391659259796143e-02
4.384862631559371948e-02 -1.803425848484039307e-01 2.931777238845825195e-01
-9.659733623266220093e-03 -2.079534381628036499e-01 4.499770700931549072e-01
-2.301162108778953552e-02 -2.100709676742553711e-01 5.250194296240806580e-02
6.363096833229064941e-02 -2.209525704383850098e-01 1.677887439727783203e-01
-3.099751472473144531e-02 -1.516577154397964478e-01 3.305828943848609924e-02
1.379219442605972290e-02 -2.231382131576538086e-01 -3.801909387111663818e-01
-2.814238518476486206e-02 -1.954231560230255127e-01 -6.767551600933074951e-02
1.489351689815521240e-02 -2.219557464122772217e-01 4.704056680202484131e-01
3.965263813734054565e-02 -1.614672839641571045e-01 1.679998040199279785e-01
5.825279280543327332e-02 -2.075727432966232300e-01 2.480511814355850220e-01
6.992304325103759766e-02 -2.293387800455093384e-01 -1.456983536481857300e-01
-3.384303301572799683e-03 -2.000240534543991089e-01 -4.282801747322082520e-01
-2.829631790518760681e-02 -1.925596147775650024e-01 -1.003122702240943909e-01
2.920815348625183105e-02 -2.469255626201629639e-01 1.762784123420715332e-01
-2.477138116955757141e-02 -1.563212722539901733e-01 -2.702982127666473389e-01
3.576876968145370483e-02 -2.018492817878723145e-01 4.373343884944915771e-01
1.247682888060808182e-02 -2.349896132946014404e-01 -2.056504935026168823e-01
6.582526862621307373e-02 -2.355720102787017822e-01 -3.553154319524765015e-02
5.172429233789443970e-02 -1.569708734750747681e-01 -2.592046856880187988e-01
1.671986654400825500e-03 -2.224738001823425293e-01 -2.759909331798553467e-01
5.995332822203636169e-02 -2.408649474382400513e-01 2.608113363385200500e-02
-1.307736337184906006e-02 -1.467979550361633301e-01 -3.682341575622558594e-01
6.871435791254043579e-03 -1.350452899932861328e-01 -3.271697759628295898e-01
-2.443582192063331604e-02 -2.073744684457778931e-01 2.035344094038009644e-01
-2.551117166876792908e-02 -1.737496256828308105e-01 -2.725781202316284180e-01
-4.536230117082595825e-03 -2.280906289815902710e-01 -7.901515066623687744e-02
5.837928131222724915e-02 -2.391742169857025146e-01 -2.207127511501312256e-01
5.845328792929649353e-02 -2.428828626871109009e-01 -5.838133767247200012e-02
6.864429265260696411e-02 -1.925558894872665405e-01 -1.570225879549980164e-02
5.373447388410568237e-02 -2.441488057374954224e-01 7.903312146663665771e-02
1.698591560125350952e-02 -2.091175913810729980e-01 -5.132483243942260742e-01
4.328002035617828369e-02 -1.590318232774734497e-01 -5.077162384986877441e-01
2.514640428125858307e-02 -1.710802167654037476e-01 3.748980462551116943e-01
-1.412807404994964600e-02 -2.158634364604949951e-01 -1.204196512699127197e-01
2.240312285721302032e-02 -2.465740889310836792e-01 1.243984550237655640e-01
-5.266793072223663330e-03 -2.191922217607498169e-01 -2.289879918098449707e-01
3.463863953948020935e-02 -1.489063203334808350e-01 -4.577977061271667480e-01
2.141390554606914520e-02 -2.459950149059295654e-01 1.273266971111297607e-03
3.140906989574432373e-02 -2.436270862817764282e-01 2.632791996002197266e-01
-3.225062042474746704e-02 -1.669919341802597046e-01 -1.294827908277511597e-01
4.485481232404708862e-02 -2.353464514017105103e-01 -3.513381779193878174e-01
6.855243444442749023e-02 -1.861447095870971680e-01 -3.407287299633026123e-01
3.968472778797149658e-02 -2.086873352527618408e-01 -5.693714022636413574e-01
6.806933134794235229e-02 -2.244848012924194336e-01 6.344360113143920898e-02
1.158960163593292236e-03 -1.670719832181930542e-01 -5.459737777709960938e-01
5.500108748674392700e-02 -1.698154807090759277e-01 -4.781286716461181641e-01
-1.563454791903495789e-02 -2.120395600795745850e-01 3.605009317398071289e-01
6.163980439305305481e-02 -2.247783541679382324e-01 -3.913267552852630615e-01
5.483974702656269073e-03 -2.385325580835342407e-01 2.288112416863441467e-02
-2.241434529423713684e-03 -1.763981133699417114e-01 4.699102938175201416e-01
-1.311565563082695007e-02 -1.511928290128707886e-01 -3.969493508338928223e-01
-3.902940079569816589e-03 -1.323304325342178345e-01 -1.338812708854675293e-01
2.101046964526176453e-02 -2.351274043321609497e-01 -2.798869311809539795e-01
5.606405809521675110e-02 -1.783598661422729492e-01 1.216275542974472046e-01
-3.439565375447273254e-02 -1.738750189542770386e-01 1.663265526294708252e-01
6.738314032554626465e-02 -1.810160875320434570e-01 -2.921561300754547119e-01
9.655250236392021179e-03 -1.387972682714462280e-01 8.968359231948852539e-02
4.153786599636077881e-02 -1.655272990465164185e-01 1.922848671674728394e-01
-2.165664359927177429e-02 -1.883979290723800659e-01 -2.762939631938934326e-01
7.393896579742431641e-02 -2.088317126035690308e-01 -1.228842586278915405e-01
-1.096035353839397430e-02 -2.020791321992874146e-01 -3.326129317283630371e-01
6.390570104122161865e-02 -2.243105471134185791e-01 1.516355574131011963e-01
6.454370915889739990e-02 -2.028292566537857056e-01 -4.746328592300415039e-01
6.055817380547523499e-02 -2.368496358394622803e-01 1.045813262462615967e-01
-2.082647755742073059e-02 -1.604862213134765625e-01 -3.431197106838226318e-01
-2.696225345134735107e-01 1.435435414314270020e-01 -2.079649716615676880e-01
-2.735947370529174805e-01 2.220880687236785889e-01 -4.883861541748046875e-01
-3.053058087825775146e-01 7.900951057672500610e-02 2.837010622024536133e-01
-2.786375284194946289e-01 2.650776803493499756e-01 2.657232880592346191e-01
-3.062578141689300537e-01 8.555295318365097046e-02 -3.008339405059814453e-01
-3.584356606006622314e-01 2.316432148218154907e-01 2.749469876289367676e-01
-2.663952112197875977e-01 1.522426158189773560e-01 -1.592385619878768921e-01
-3.043011724948883057e-01 1.283615231513977051e-01 4.623106122016906738e-01
-2.736525237560272217e-01 1.452427953481674194e-01 1.973127573728561401e-01
-3.458479642868041992e-01 7.992900907993316650e-02 3.365800380706787109e-01
-3.371747136116027832e-01 2.630831599235534668e-01 -4.515512585639953613e-01
-3.319498300552368164e-01 2.880347967147827148e-01 -4.093828797340393066e-01
-2.841848731040954590e-01 2.933330535888671875e-01 2.137169837951660156e-01
-2.705570757389068604e-01 2.458209246397018433e-01 2.185181826353073120e-01
-3.003625869750976562e-01 7.050340622663497925e-02 1.250854730606079102e-01
-2.861641347408294678e-01 1.106041595339775085e-01 2.479392737150192261e-01
-3.470824360847473145e-01 2.917108833789825439e-01 1.061119884252548218e-02
-2.602030038833618164e-01 2.342209219932556152e-01 -2.717847824096679688e-01
-3.383585214614868164e-01 9.880538284778594971e-02 -3.466482758522033691e-01
-2.801468670368194580e-01 3.182116150856018066e-01 -2.878254652023315430e-01
-2.809588611125946045e-01 1.177459284663200378e-01 2.005527317523956299e-01
-3.189927637577056885e-01 2.479454874992370605e-01 4.598352313041687012e-01
-2.814107239246368408e-01 2.953000664710998535e-01 1.802457273006439209e-01
-3.707356452941894531e-01 1.631336510181427002e-01 1.873145103454589844e-01
-2.626526057720184326e-01 2.780006825923919678e-01 -1.341485083103179932e-01
-3.595458865165710449e-01 2.089430093765258789e-01 -3.069903850555419922e-01
-3.540819287300109863e-01 2.674596607685089111e-01 1.329662650823593140e-01
-3.357112407684326172e-01 2.861618697643280029e-01 2.645460367202758789e-01
-2.822614908218383789e-01 2.357596904039382935e-01 3.556455373764038086e-01
-3.374501764774322510e-01 6.180754303932189941e-02 -1.178779006004333496e-01
-3.670581579208374023e-01 1.760245710611343384e-01 -1.937943845987319946e-01
-2.799156904220581055e-01 2.002019137144088745e-01 -5.228319168090820312e-01
-2.683847546577453613e-01 2.227819412946701050e-01 -4.319207668304443359e-01
-3.643608987331390381e-01 2.263496518135070801e-01 1.710985302925109863e-01
-2.752921879291534424e-01 1.166978552937507629e-01 -2.645023167133331299e-02
-3.627088069915771484e-01 1.344126164913177490e-01 -2.255403995513916016e-01
-3.583986759185791016e-01 1.775038242340087891e-01 3.996515274047851562e-01
-2.810222804546356201e-01 2.155217230319976807e-01 -5.417079925537109375e-01
-3.665439486503601074e-01 2.102256417274475098e-01 1.943051666021347046e-01
-3.230425715446472168e-01 2.933734953403472900e-01 -4.514238834381103516e-01
-2.606465518474578857e-01 1.839241385459899902e-01 -1.246161013841629028e-01
-3.713393807411193848e-01 1.416030824184417725e-01 4.409361630678176880e-03
-3.501568436622619629e-01 2.850197553634643555e-01 -8.136378228664398193e-02
-3.618557751178741455e-01 2.473955154418945312e-01 -7.424984872341156006e-02
-2.623876035213470459e-01 2.596945166587829590e-01 -2.934502363204956055e-01
-3.680581748485565186e-01 1.871656626462936401e-01 2.327019721269607544e-01
-2.849527895450592041e-01 9.334827214479446411e-02 3.316350281238555908e-02
-2.989100217819213867e-01 1.690164208412170410e-01 -5.648220777511596680e-01
-3.517847061157226562e-01 2.739936411380767822e-01 -1.910085976123809814e-01
-3.323307037353515625e-01 2.485429197549819946e-01 -5.171524286270141602e-01
-2.626934647560119629e-01 2.724440693855285645e-01 -4.216645658016204834e-02
-2.866877317428588867e-01 2.069034576416015625e-01 4.146434664726257324e-01
-2.593637108802795410e-01 1.987015157938003540e-01 -1.553079187870025635e-01
-3.608103394508361816e-01 1.952772736549377441e-01 3.475156426429748535e-01
-2.774380743503570557e-01 3.130588531494140625e-01 5.398750305175781250e-03
-3.034464120864868164e-01 1.817464381456375122e-01 -5.903843641281127930e-01
-3.404739797115325928e-01 1.536954343318939209e-01 -4.764536619186401367e-01
-2.811006307601928711e-01 2.160523980855941772e-01 3.662305474281311035e-01
-3.647013604640960693e-01 2.368132174015045166e-01 7.270105183124542236e-03
-2.782450616359710693e-01 1.307646036148071289e-01 -3.094067573547363281e-01
-2.936663925647735596e-01 3.142117261886596680e-01 -4.153262376785278320e-01
-2.919181287288665771e-01 2.578082978725433350e-01 -5.725632309913635254e-01
-3.686083853244781494e-01 1.163544580340385437e-01 1.227053999900817871e-01
-3.469014465808868408e-01 1.717817485332489014e-01 -4.529399871826171875e-01
-2.688253223896026611e-01 2.728535830974578857e-01 -3.863080739974975586e-01
-3.510477542877197266e-01 1.901460438966751099e-01 -4.236294031143188477e-01
-2.880323231220245361e-01 3.309891521930694580e-01 -7.458297163248062134e-02
-3.154405355453491211e-01 3.126732110977172852e-01 -3.984329104423522949e-01
-3.297489285469055176e-01 5.156484246253967285e-02 9.656819701194763184e-02
-3.481361269950866699e-01 2.514405548572540283e-01 3.240003585815429688e-01
-3.548616170883178711e-01 1.682074368000030518e-01 -3.776885271072387695e-01
-2.689828276634216309e-01 1.627789884805679321e-01 -3.122804760932922363e-01
-3.544335365295410156e-01 9.207705408334732056e-02 3.225616216659545898e-01
-3.715032041072845459e-01 1.746905595064163208e-01 -3.920944780111312866e-02
-3.178804516792297363e-01 5.642661452293395996e-02 1.620597541332244873e-01
-3.100303113460540771e-01 3.111431896686553955e-01 2.188578993082046509e-01
-3.392996490001678467e-01 1.926534473896026611e-01 -5.144814848899841309e-01
-2.885647416114807129e-01 2.944872379302978516e-01 2.398961633443832397e-01
-2.910819351673126221e-01 1.909254491329193115e-01 4.472420811653137207e-01
-2.812683582305908203e-01 1.024970188736915588e-01 5.131968855857849121e-02
-2.606069147586822510e-01 2.357895374298095703e-01 3.529447317123413086e-02
-3.721070289611816406e-01 1.532534956932067871e-01 2.223440632224082947e-02
-2.739571332931518555e-01 2.510945200920104980e-01 2.505585551261901855e-01
-3.384448885917663574e-01 8.866176009178161621e-02 -3.014394044876098633e-01
-2.625533342361450195e-01 1.711078435182571411e-01 -1.403844654560089111e-01
-3.551389276981353760e-01 2.662126421928405762e-01 -1.613193452358245850e-01
-3.490398824214935303e-01 2.613889873027801514e-01 -3.242655396461486816e-01
-2.646680772304534912e-01 2.163602709770202637e-01 -3.715170621871948242e-01
-2.737670242786407471e-01 3.006299138069152832e-01 -3.376098275184631348e-01
-3.098154067993164062e-01 7.976977527141571045e-02 3.234907984733581543e-01
-2.668321430683135986e-01 1.893189698457717896e-01 1.809386909008026123e-01
-2.969846427440643311e-01 2.085300087928771973e-01 4.726047515869140625e-01
-3.029598891735076904e-01 2.996863722801208496e-01 2.754171490669250488e-01
-3.548573553562164307e-01 1.573495715856552124e-01 4.398465752601623535e-01
-2.596376538276672363e-01 2.573002576828002930e-01 -1.426825523376464844e-01
-2.901544570922851562e-01 2.167785763740539551e-01 -5.852308273315429688e-01
-2.608049809932708740e-01 2.155857831239700317e-01 -2.817658782005310059e-01
-3.429545760154724121e-01 1.189548000693321228e-01 4.739233255386352539e-01
-2.958049774169921875e-01 3.361490070819854736e-01 -1.662086397409439087e-01
-3.590730428695678711e-01 2.484907507896423340e-01 1.664945930242538452e-01
-3.327432274818420410e-01 2.912319898605346680e-01 -3.873254656791687012e-01
-2.861391305923461914e-01 9.721360355615615845e-02 -1.791411638259887695e-01
-2.808300852775573730e-01 1.027382388710975647e-01 -7.989142835140228271e-02
-2.886884212493896484e-01 8.712392300367355347e-02 7.515926659107208252e-02
-3.028584718704223633e-01 6.493160128593444824e-02 2.589088678359985352e-02
-3.020515441894531250e-01 8.714646846055984497e-02 3.056952357292175293e-01
-2.661249339580535889e-01 2.856470942497253418e-01 -1.810868084430694580e-02
-3.102179169654846191e-01 6.169590353965759277e-02 -9.454541653394699097e-02
-3.552528023719787598e-01 2.564067840576171875e-01 -2.340850681066513062e-01
-2.738559246063232422e-01 1.522129178047180176e-01 2.262209802865982056e-01
-3.191652894020080566e-01 6.339509785175323486e-02 2.586271762847900391e-01
-3.477029800415039062e-01 2.911978960037231445e-01 -3.620877861976623535e-02
-2.660064995288848877e-01 1.665042638778686523e-01 1.014167815446853638e-01
-2.702617049217224121e-01 2.037697285413742065e-01 -4.387239813804626465e-01
-3.083405196666717529e-01 3.352143764495849609e-01 -2.025833576917648315e-01
-2.613457441329956055e-01 1.777734458446502686e-01 -9.599542617797851562e-02
-2.704502642154693604e-01 2.283285260200500488e-01 2.418232709169387817e-01
-2.681231498718261719e-01 2.470375001430511475e-01 -4.232748150825500488e-01
-2.787855863571166992e-01 2.487092465162277222e-01 -5.227620601654052734e-01
-3.168954849243164062e-01 3.198935389518737793e-01 1.384406834840774536e-01
-3.689177632331848145e-01 1.249427050352096558e-01 -3.640413656830787659e-02
-2.881398499011993408e-01 1.315264254808425903e-01 3.534696698188781738e-01
-3.647935092449188232e-01 1.795963793992996216e-01 -2.409699112176895142e-01
-3.174166679382324219e-01 2.676601707935333252e-01 -5.499953031539916992e-01
-2.744665741920471191e-01 1.585460007190704346e-01 -3.832744956016540527e-01
-2.709759771823883057e-01 2.658163905143737793e-01 1.753065586090087891e-01
-2.608201205730438232e-01 2.655278742313385010e-01 -9.487247467041015625e-02
-2.662838697433471680e-01 2.830421030521392822e-01 -2.948015928268432617e-01
-3.442600369453430176e-01 2.942655086517333984e-01 7.595741003751754761e-02
-2.760188579559326172e-01 1.317153275012969971e-01 -2.773615419864654541e-01
-2.823141217231750488e-01 1.788063943386077881e-01 -5.084981918334960938e-01
-3.146335482597351074e-01 2.979537844657897949e-01 -4.726685881614685059e-01
-2.612393498420715332e-01 2.589148879051208496e-01 -1.592402905225753784e-02
-2.601916193962097168e-01 2.068166434764862061e-01 2.435507997870445251e-02
-3.167699873447418213e-01 5.540636181831359863e-02 -3.617104887962341309e-02
-2.778595387935638428e-01 1.420397758483886719e-01 -3.610405921936035156e-01
-3.656117916107177734e-01 1.886954754590988159e-01 -2.193682938814163208e-01
-3.126985430717468262e-01 1.260842680931091309e-01 4.913180470466613770e-01
-3.603857159614562988e-01 1.774505674839019775e-01 3.776770234107971191e-01
-3.421133160591125488e-01 1.469854563474655151e-01 -4.563444852828979492e-01
-3.425955176353454590e-01 2.366938441991806030e-01 4.164645671844482422e-01
-2.601251304149627686e-01 1.975153386592864990e-01 -2.045214325189590454e-01
-2.698610424995422363e-01 1.874567568302154541e-01 -4.053388833999633789e-01
-2.785562276840209961e-01 2.538941204547882080e-01 2.921188473701477051e-01
-2.978339195251464844e-01 1.698205173015594482e-01 4.799205064773559570e-01
-2.888116538524627686e-01 8.622822910547256470e-02 -7.124414294958114624e-02
-2.877470850944519043e-01 2.743569910526275635e-01 3.094652295112609863e-01
-3.325796425342559814e-01 1.152524277567863464e-01 4.920044541358947754e-01
-3.207336664199829102e-01 2.221730053424835205e-01 5.078688859939575195e-01
-3.686721324920654297e-01 2.014762908220291138e-01 -1.051672920584678650e-01
-3.510472774505615234e-01 1.291096061468124390e-01 4.482107758522033691e-01
-3.307819962501525879e-01 3.196747303009033203e-01 -1.241695582866668701e-01
-3.433970510959625244e-01 2.552732527256011963e-01 3.507843613624572754e-01
-3.565255105495452881e-01 2.672173082828521729e-01 2.636250481009483337e-02
-2.754534184932708740e-01 1.163618192076683044e-01 -6.564289331436157227e-02
-3.591450452804565430e-01 2.568199932575225830e-01 -9.898737072944641113e-02
-3.568186759948730469e-01 7.575959712266921997e-02 1.048877984285354614e-01
-2.770480811595916748e-01 1.160202771425247192e-01 8.310067653656005859e-02
-3.322686851024627686e-01 8.046822249889373779e-02 3.862292170524597168e-01
-2.830109000205993652e-01 1.101492866873741150e-01 -2.450583279132843018e-01
-3.540175259113311768e-01 9.751160442829132080e-02 3.501390814781188965e-01
-3.320486545562744141e-01 5.273476243019104004e-02 1.345647573471069336e-01
-3.658511340618133545e-01 1.111101582646369934e-01 -6.182376295328140259e-02
-3.215777277946472168e-01 8.544694632291793823e-02 -3.318250775337219238e-01
-2.619580626487731934e-01 2.473086565732955933e-01 5.210152268409729004e-02
-2.894136905670166016e-01 8.418562263250350952e-02 1.144772022962570190e-02
-3.462253808975219727e-01 2.914863824844360352e-01 -1.550118625164031982e-01
-3.202631473541259766e-01 5.953155457973480225e-02 2.239487320184707642e-01
-3.285590112209320068e-01 1.412536501884460449e-01 -5.065777301788330078e-01
-3.199549615383148193e-01 3.258901834487915039e-01 -2.494983226060867310e-01
-2.901182174682617188e-01 1.038182824850082397e-01 -2.966356277465820312e-01
-2.975001931190490723e-01 7.744187861680984497e-02 1.685441732406616211e-01
-2.604628205299377441e-01 2.016807794570922852e-01 -2.376489937305450439e-01
-2.837282717227935791e-01 1.675552576780319214e-01 3.792700171470642090e-01
-3.592776954174041748e-01 8.473995327949523926e-02 1.844959855079650879e-01
-3.588124215602874756e-01 1.651465743780136108e-01 -3.291123509407043457e-01
-3.571607768535614014e-01 2.655539512634277344e-01 -5.646250024437904358e-02
-2.635851502418518066e-01 1.985590308904647827e-01 -3.215409517288208008e-01
-2.926732897758483887e-01 3.346319794654846191e-01 -9.613788872957229614e-02
-2.680225372314453125e-01 1.728129088878631592e-01 -3.344289660453796387e-01
-3.645523488521575928e-01 2.370177507400512695e-01 -2.995137497782707214e-02
-3.355361819267272949e-01 3.035423755645751953e-01 1.352045685052871704e-01
-2.713859081268310547e-01 1.320737302303314209e-01 3.875055909156799316e-02
-3.440146744251251221e-01 2.838267385959625244e-01 1.906020641326904297e-01
-3.411957323551177979e-01 6.388749182224273682e-02 2.514715790748596191e-01
-3.574641644954681396e-01 2.605563402175903320e-01 9.834270179271697998e-02
-3.341276347637176514e-01 3.020527362823486328e-01 1.668912917375564575e-01
-3.186644315719604492e-01 6.941349804401397705e-02 3.050311803817749023e-01
-3.461484313011169434e-01 2.528873085975646973e-01 -3.917725682258605957e-01
-2.990813255310058594e-01 6.967750936746597290e-02 -1.999293453991413116e-02
-3.078334629535675049e-01 1.816726326942443848e-01 5.219587087631225586e-01
-3.057124912738800049e-01 1.454739719629287720e-01 4.952196478843688965e-01
-3.233393728733062744e-01 5.955195426940917969e-02 -1.356285661458969116e-01
-3.382231593132019043e-01 5.876548588275909424e-02 -7.277352362871170044e-02
-3.425619006156921387e-01 2.978501021862030029e-01 -1.819384843111038208e-01
-3.193654119968414307e-01 2.785201668739318848e-01 -5.178699493408203125e-01
-3.471248745918273926e-01 2.559167444705963135e-01 -3.708150982856750488e-01
-3.039287328720092773e-01 1.550647169351577759e-01 -5.498446822166442871e-01
-2.617800831794738770e-01 1.764082610607147217e-01 -3.678821027278900146e-02
-3.655865788459777832e-01 1.372758895158767700e-01 -1.795182824134826660e-01
-3.677837848663330078e-01 1.638252884149551392e-01 2.710807323455810547e-01
-3.700358271598815918e-01 1.778643727302551270e-01 -1.063600406050682068e-01
-3.646951615810394287e-01 1.055319383740425110e-01 2.120989859104156494e-01
-2.626354694366455078e-01 1.932668387889862061e-01 8.582156896591186523e-02
-3.549174070358276367e-01 2.485079318284988403e-01 -2.799298167228698730e-01
-3.661502003669738770e-01 1.859574317932128906e-01 2.787104845046997070e-01
-2.902926504611968994e-01 2.236310243606567383e-01 4.251465201377868652e-01
-2.827109396457672119e-01 9.760758280754089355e-02 -1.081348024308681488e-02
-3.237515687942504883e-01 1.066484600305557251e-01 -4.223767518997192383e-01
-2.889842689037322998e-01 8.711850643157958984e-02 -1.020793467760086060e-01
-3.182341754436492920e-01 5.339112877845764160e-02 6.832753866910934448e-02
-3.362851440906524658e-01 1.605397462844848633e-01 -5.078141093254089355e-01
-3.644738793373107910e-01 9.878484904766082764e-02 1.559773981571197510e-01
-3.425024747848510742e-01 7.093954831361770630e-02 3.021009564399719238e-01
-3.266976475715637207e-01 3.154143691062927246e-01 1.154263019561767578e-01
-3.597238659858703613e-01 2.290284037590026855e-01 -2.589285671710968018e-01
-2.935366034507751465e-01 1.236246079206466675e-01 -4.241459369659423828e-01
-2.764323353767395020e-01 2.052590250968933105e-01 3.258209824562072754e-01
-2.858906090259552002e-01 3.153142333030700684e-01 -3.727864027023315430e-01
-2.784555852413177490e-01 2.767179906368255615e-01 2.282600551843643188e-01
-3.625780045986175537e-01 1.472924649715423584e-01 -2.543871998786926270e-01
-3.403447270393371582e-01 7.927617430686950684e-02 -2.394703626632690430e-01
-2.588242590427398682e-01 2.316725552082061768e-01 -3.771101683378219604e-02
-3.579953312873840332e-01 9.838483482599258423e-02 -1.621225923299789429e-01
-3.275701403617858887e-01 3.208608627319335938e-01 -2.023887485265731812e-01
-3.139702081680297852e-01 3.232076764106750488e-01 -3.303628563880920410e-01
-2.627753019332885742e-01 2.700312137603759766e-01 -2.614286541938781738e-01
-2.889022231101989746e-01 1.637619137763977051e-01 4.187969565391540527e-01
-2.758867442607879639e-01 1.249419376254081726e-01 -2.227166891098022461e-01
-3.461754322052001953e-01 1.461494266986846924e-01 4.909329414367675781e-01
-3.254353702068328857e-01 2.555328905582427979e-01 4.324739575386047363e-01
-2.623351216316223145e-01 1.710025072097778320e-01 -7.066629081964492798e-02
-2.918308675289154053e-01 1.043905094265937805e-01 -3.176244497299194336e-01
-2.971920371055603027e-01 1.050406694412231445e-01 3.490233421325683594e-01
-3.610006272792816162e-01 2.322567999362945557e-01 2.242469042539596558e-01
-3.692885041236877441e-01 2.073185741901397705e-01 -3.157614916563034058e-02
-2.862919270992279053e-01 1.268395632505416870e-01 3.193742632865905762e-01
-3.654761016368865967e-01 1.555606126785278320e-01 -2.157455682754516602e-01
-2.616544067859649658e-01 1.901336014270782471e-01 4.289498925209045410e-02
-3.227590918540954590e-01 5.274185538291931152e-02 -1.086535304784774780e-02
-2.773867249488830566e-01 2.817901670932769775e-01 1.986612230539321899e-01
-3.335768878459930420e-01 5.286245048046112061e-02 6.307724863290786743e-03
-3.497571349143981934e-01 2.244920581579208374e-01 3.976427912712097168e-01
-2.646347284317016602e-01 1.714777648448944092e-01 7.921551167964935303e-02
-3.614689111709594727e-01 1.055453717708587646e-01 -1.390912830829620361e-01
-3.636660277843475342e-01 1.202735453844070435e-01 -1.638172566890716553e-01
-2.817540764808654785e-01 2.788725495338439941e-01 -4.948837757110595703e-01
-2.687165439128875732e-01 1.393944323062896729e-01 -3.023866564035415649e-02
-2.729351818561553955e-01 3.114599585533142090e-01 -1.306443214416503906e-01
-3.625344038009643555e-01 2.395057976245880127e-01 1.314215064048767090e-01
-3.519806861877441406e-01 1.986883133649826050e-01 4.320054650306701660e-01
-3.449577093124389648e-01 9.201832115650177002e-02 -2.757623493671417236e-01
-2.628678977489471436e-01 2.524186670780181885e-01 -3.244141936302185059e-01
-3.260852992534637451e-01 8.570326119661331177e-02 4.085050821304321289e-01
-2.944135665893554688e-01 2.464733868837356567e-01 4.130368828773498535e-01
-2.947507798671722412e-01 3.358859717845916748e-01 -1.167526468634605408e-01
-3.567287325859069824e-01 2.505595684051513672e-01 2.071377038955688477e-01
-3.525786995887756348e-01 6.998632848262786865e-02 -3.450512886047363281e-04
-3.697996139526367188e-01 1.374772042036056519e-01 -6.275390088558197021e-02
-3.674817979335784912e-01 2.132568955421447754e-01 1.431038677692413330e-01
-3.263994455337524414e-01 5.143743753433227539e-02 3.253483772277832031e-02
-3.487244248390197754e-01 2.704573273658752441e-01 2.174281328916549683e-01
-2.715672850608825684e-01 1.293718218803405762e-01 -1.092381775379180908e-03
-2.648489177227020264e-01 1.983551979064941406e-01 -3.476602435111999512e-01
-3.341445326805114746e-01 2.970507144927978516e-01 2.068844139575958252e-01
-2.917678654193878174e-01 1.638162285089492798e-01 -5.315583348274230957e-01
-2.613443136215209961e-01 2.044868618249893188e-01 6.425062566995620728e-02
-3.137562274932861328e-01 3.295576572418212891e-01 4.228596389293670654e-02
-3.681996762752532959e-01 1.673737168312072754e-01 -1.650393456220626831e-01
-3.409968018531799316e-01 2.235166579484939575e-01 -4.916781187057495117e-01
-2.959889769554138184e-01 3.196087181568145752e-01 1.344429850578308105e-01
-2.614255249500274658e-01 2.707829177379608154e-01 -1.641836464405059814e-01
-3.560566604137420654e-01 2.206593602895736694e-01 -3.404355049133300781e-01
-3.614451289176940918e-01 1.876017600297927856e-01 -2.966808080673217773e-01
-3.296148180961608887e-01 2.258149981498718262e-01 -5.576091408729553223e-01
-3.540263772010803223e-01 7.592162489891052246e-02 -5.463228374719619751e-02
-3.321726322174072266e-01 1.014364436268806458e-01 4.605213999748229980e-01
-3.424158394336700439e-01 2.186610847711563110e-01 4.590038657188415527e-01
-3.632823824882507324e-01 1.136094257235527039e-01 2.845771908760070801e-01
-2.641464471817016602e-01 2.500432431697845459e-01 -3.560562729835510254e-01
-2.582168281078338623e-01 2.323558032512664795e-01 -1.516412198543548584e-01
-3.628084659576416016e-01 1.951679140329360962e-01 3.190543651580810547e-01
-3.563907146453857422e-01 1.085580214858055115e-01 -2.334237098693847656e-01
-3.256261944770812988e-01 1.886453032493591309e-01 -5.747495293617248535e-01
-3.593424558639526367e-01 8.259139209985733032e-02 1.985192298889160156e-02
-2.688341736793518066e-01 1.396224349737167358e-01 -1.142814978957176208e-01
-3.407377004623413086e-01 6.205292046070098877e-02 -9.295722842216491699e-02
-3.428786098957061768e-01 2.979997098445892334e-01 5.642881244421005249e-02
-3.686751723289489746e-01 2.085100412368774414e-01 -6.784950196743011475e-02
-3.129041790962219238e-01 1.090354844927787781e-01 4.543910026550292969e-01
-3.713525831699371338e-01 1.894967705011367798e-01 3.575619310140609741e-02
-2.741054892539978027e-01 3.095823526382446289e-01 -2.658326029777526855e-01
-2.675406634807586670e-01 2.786201238632202148e-01 -3.448755741119384766e-01
-2.582250237464904785e-01 2.347306311130523682e-01 -1.138726994395256042e-01
-2.658569812774658203e-01 1.532883048057556152e-01 -7.344434037804603577e-03
-2.696439325809478760e-01 1.507347375154495239e-01 1.300784349441528320e-01
-2.685404121875762939e-01 2.983078956604003906e-01 -7.114563882350921631e-02
-3.645350635051727295e-01 2.366519272327423096e-01 5.145260691642761230e-02
-3.008413314819335938e-01 7.975260168313980103e-02 2.422689348459243774e-01
-2.648658156394958496e-01 1.802103519439697266e-01 -2.947354316711425781e-01
-2.684191763401031494e-01 2.996436953544616699e-01 -1.091332361102104187e-01
-3.468753397464752197e-01 9.450319409370422363e-02 3.939303159713745117e-01
-2.924645543098449707e-01 1.120469942688941956e-01 -3.654255270957946777e-01
-3.583713471889495850e-01 1.097665429115295410e-01 -2.112863063812255859e-01
-2.642002105712890625e-01 1.674903333187103271e-01 -2.045142501592636108e-01
-3.266579508781433105e-01 2.707698345184326172e-01 3.805657029151916504e-01
-2.597066462039947510e-01 2.409535944461822510e-01 -2.455470114946365356e-01
-3.335528075695037842e-01 3.137214481830596924e-01 3.121392428874969482e-02
-3.466041386127471924e-01 1.989621967077255249e-01 4.680979251861572266e-01
-3.659191429615020752e-01 2.220005393028259277e-01 -1.171170249581336975e-01
-3.510994613170623779e-01 1.308012157678604126e-01 -3.577479720115661621e-01
-3.690719306468963623e-01 1.885473728179931641e-01 1.994980424642562866e-01
-2.889379262924194336e-01 8.840885013341903687e-02 1.096326112747192383e-01
-3.576883673667907715e-01 2.596806883811950684e-01 -1.340562701225280762e-01
-3.620265126228332520e-01 2.236470878124237061e-01 -2.270982265472412109e-01
-3.270033895969390869e-01 3.244075179100036621e-01 -9.707040339708328247e-02
-2.858684659004211426e-01 1.613114178180694580e-01 -4.950073361396789551e-01
-2.776614129543304443e-01 1.674456596374511719e-01 -4.460911750793457031e-01
-3.301292061805725098e-01 1.319977790117263794e-01 -4.817104935646057129e-01
-2.783976793289184570e-01 3.204724192619323730e-01 -2.070513367652893066e-01
-3.429399132728576660e-01 2.494085729122161865e-01 -4.343459010124206543e-01
-3.562722504138946533e-01 1.892198622226715088e-01 -3.674126267433166504e-01
-3.490658700466156006e-01 1.075698584318161011e-01 4.200112223625183105e-01
-3.202987015247344971e-01 3.022994101047515869e-01 -4.280230998992919922e-01
-2.749416828155517578e-01 2.691594362258911133e-01 -4.656471014022827148e-01
-3.617707788944244385e-01 1.527095139026641846e-01 3.697414398193359375e-01
-3.479123711585998535e-01 1.959224045276641846e-01 -4.517024159431457520e-01
-3.502404689788818359e-01 2.267319262027740479e-01 -4.033553600311279297e-01
-2.646622061729431152e-01 1.577476859092712402e-01 -1.050606444478034973e-01
-2.899267971515655518e-01 3.319128155708312988e-01 -2.214934527873992920e-01
-3.459153473377227783e-01 1.389738321304321289e-01 -4.167568683624267578e-01
-2.704734802246093750e-01 3.036601543426513672e-01 -2.287215739488601685e-01
-2.602109909057617188e-01 2.393862158060073853e-01 1.383414119482040405e-02
-2.717590928077697754e-01 3.089169263839721680e-01 -1.646010130643844604e-01
-2.877716124057769775e-01 1.419828683137893677e-01 3.754645586013793945e-01
-2.803647816181182861e-01 1.540740728378295898e-01 3.234024047851562500e-01
-2.725566327571868896e-01 2.799234390258789062e-01 1.465728729963302612e-01
-3.481909632682800293e-01 7.492782920598983765e-02 -1.400582194328308105e-01
-2.948266565799713135e-01 3.354254364967346191e-01 -1.870098561048507690e-01
-3.352316617965698242e-01 6.808440387248992920e-02 -1.901529431343078613e-01
-2.651261091232299805e-01 2.107552438974380493e-01 1.633597761392593384e-01
-2.911260128021240234e-01 9.721909463405609131e-02 -2.607029080390930176e-01
-3.170163929462432861e-01 3.323419094085693359e-01 -5.828667432069778442e-02
-3.722298741340637207e-01 1.536582261323928833e-01 4.603031277656555176e-02
-3.721110522747039795e-01 1.686386764049530029e-01 2.943921834230422974e-03
-2.601655125617980957e-01 1.970895528793334961e-01 -2.857215702533721924e-03
-3.277408778667449951e-01 5.559822916984558105e-02 1.974032372236251831e-01
-3.368641436100006104e-01 2.450229525566101074e-01 -4.933184981346130371e-01
-2.939248085021972656e-01 1.513283699750900269e-01 -5.128283500671386719e-01
-3.201122283935546875e-01 2.008785456418991089e-01 -5.945063829421997070e-01
-3.250494301319122314e-01 1.492817252874374390e-01 -5.310913324356079102e-01
-2.645294070243835449e-01 2.385155558586120605e-01 1.318003535270690918e-01
-3.682297170162200928e-01 2.170005887746810913e-01 3.751400113105773926e-02
-3.349331915378570557e-01 3.143901228904724121e-01 -5.753200501203536987e-02
-3.190027475357055664e-01 2.325278520584106445e-01 -5.912768840789794922e-01
-3.629582524299621582e-01 1.020623743534088135e-01 2.366227358579635620e-01
-3.550878167152404785e-01 1.121007055044174194e-01 -2.628774642944335938e-01
-2.801245152950286865e-01 1.168817579746246338e-01 1.778426468372344971e-01
-3.499082922935485840e-01 6.788747012615203857e-02 -3.546648472547531128e-02
-3.632629513740539551e-01 1.453847736120223999e-01 3.464309573173522949e-01
-3.666104972362518311e-01 2.228368371725082397e-01 1.045068800449371338e-01
-3.647047281265258789e-01 2.159360647201538086e-01 -1.860048919916152954e-01
-3.005973398685455322e-01 2.510515153408050537e-01 -5.941250324249267578e-01
-3.606818914413452148e-01 9.566216915845870972e-02 -9.229355305433273315e-02
-3.188420534133911133e-01 3.040926158428192139e-01 2.480487972497940063e-01
-3.082479238510131836e-01 3.340164422988891602e-01 -8.301230147480964661e-03
-2.755540311336517334e-01 2.955233454704284668e-01 1.118042021989822388e-01
-2.704800069332122803e-01 1.459673792123794556e-01 -2.522456049919128418e-01
-2.924959659576416016e-01 3.302780985832214355e-01 -2.765000462532043457e-01
-3.478342294692993164e-01 6.214922666549682617e-02 3.778875619173049927e-02
-2.746055424213409424e-01 2.402909249067306519e-01 2.773591876029968262e-01
-2.757175266742706299e-01 2.584968209266662598e-01 -4.898060560226440430e-01
-3.631427288055419922e-01 9.269239753484725952e-02 1.298677623271942139e-01
-3.688458800315856934e-01 2.102968096733093262e-01 8.830803632736206055e-02
-3.351866900920867920e-01 2.910083532333374023e-01 2.392030507326126099e-01
-3.105880916118621826e-01 3.143406212329864502e-01 1.973016709089279175e-01
-2.799481153488159180e-01 1.789319515228271484e-01 3.534933924674987793e-01
-2.583314776420593262e-01 2.319636791944503784e-01 -8.018043637275695801e-02
-3.348297774791717529e-01 2.795023620128631592e-01 3.063995242118835449e-01
-3.394494354724884033e-01 3.072509765625000000e-01 -8.760161697864532471e-02
-3.471057116985321045e-01 2.907073795795440674e-01 -1.306155622005462646e-01
-3.566885292530059814e-01 2.653199732303619385e-01 6.072419136762619019e-02
-3.216216862201690674e-01 9.878414869308471680e-02 -3.942691683769226074e-01
-3.241820335388183594e-01 6.285744905471801758e-02 -1.720265448093414307e-01
-2.735565900802612305e-01 1.233440116047859192e-01 2.019090205430984497e-02
-3.519922494888305664e-01 8.906668424606323242e-02 -1.929739713668823242e-01
-3.151628077030181885e-01 3.304566144943237305e-01 1.746136695146560669e-02
-3.649959862232208252e-01 1.162150651216506958e-01 2.595095038414001465e-01
-2.592224180698394775e-01 2.471774518489837646e-01 -2.009849250316619873e-01
-3.703160881996154785e-01 1.285901069641113281e-01 2.481857314705848694e-02
-3.490118980407714844e-01 2.558180987834930420e-01 2.954633235931396484e-01
-3.639406859874725342e-01 2.157998234033584595e-01 2.369176894426345825e-01
-2.749968469142913818e-01 1.250157207250595093e-01 -1.990811526775360107e-01
-3.326783776283264160e-01 3.157773315906524658e-01 1.033008843660354614e-02
-2.729068398475646973e-01 1.290803849697113037e-01 -1.738614141941070557e-01
-3.314421474933624268e-01 3.015627264976501465e-01 -3.423095345497131348e-01
-2.951072752475738525e-01 9.230412542819976807e-02 2.624623179435729980e-01
-3.700851202011108398e-01 1.589206457138061523e-01 2.115862369537353516e-01
-2.792805731296539307e-01 1.129208952188491821e-01 1.239068359136581421e-01
-3.630949258804321289e-01 1.289860010147094727e-01 -2.041622847318649292e-01
-2.683317959308624268e-01 2.177018076181411743e-01 2.185811847448348999e-01
-3.270634114742279053e-01 3.201484680175781250e-01 -2.247612774372100830e-01
-3.597726821899414062e-01 1.449407637119293213e-01 -2.912847399711608887e-01
-2.952771186828613281e-01 3.311384320259094238e-01 1.207384839653968811e-02
-2.745415270328521729e-01 2.762722969055175781e-01 -4.458630681037902832e-01
-2.749013304710388184e-01 3.099520504474639893e-01 -1.463067904114723206e-02
-2.916878163814544678e-01 1.029946878552436829e-01 2.824285030364990234e-01
-3.106099069118499756e-01 2.901234030723571777e-01 3.270970582962036133e-01
-2.646144926548004150e-01 2.865352630615234375e-01 -1.823101788759231567e-01
-3.392844796180725098e-01 1.303006708621978760e-01 -4.392709732055664062e-01
-2.595168948173522949e-01 2.011872977018356323e-01 -2.746257930994033813e-02
-3.119705319404602051e-01 6.176020205020904541e-02 1.850558668375015259e-01
-2.705305516719818115e-01 1.388053596019744873e-01 7.676264643669128418e-02
-2.716452181339263916e-01 2.928530275821685791e-01 6.523499637842178345e-02
-3.359326720237731934e-01 2.376319319009780884e-01 4.474802017211914062e-01
-3.637510240077972412e-01 9.384853392839431763e-02 9.519454836845397949e-02
-3.656022250652313232e-01 1.587577760219573975e-01 3.144729137420654297e-01
-2.647027373313903809e-01 1.831837594509124756e-01 1.211340278387069702e-01
-3.438513278961181641e-01 2.928097248077392578e-01 -2.110510170459747314e-01
-3.158803582191467285e-01 3.170260488986968994e-01 1.670467853546142578e-01
-3.257445394992828369e-01 9.112674742937088013e-02 4.287154078483581543e-01
-3.644117712974548340e-01 9.923473745584487915e-02 -4.934290423989295959e-03
-2.641738355159759521e-01 2.212062925100326538e-01 1.422587186098098755e-01
-3.049717545509338379e-01 1.003476008772850037e-01 -3.779548406600952148e-01
-3.500413596630096436e-01 1.766882240772247314e-01 4.688567519187927246e-01
-3.483174145221710205e-01 2.834088802337646484e-01 1.115584373474121094e-01
-3.364605009555816650e-01 2.192268520593643188e-01 -5.255570411682128906e-01
-2.594567537307739258e-01 2.194282412528991699e-01 3.780566155910491943e-03
-2.627364993095397949e-01 1.817402243614196777e-01 -2.385070919990539551e-01
-2.797360420227050781e-01 3.088801205158233643e-01 7.984691858291625977e-02
-2.939452826976776123e-01 1.671953499317169189e-01 4.564369320869445801e-01
-3.700776100158691406e-01 1.983111947774887085e-01 1.089512258768081665e-01
-2.944277524948120117e-01 1.380493044853210449e-01 4.218300580978393555e-01
-3.099676072597503662e-01 1.498043090105056763e-01 5.147830843925476074e-01
-3.496381938457489014e-01 2.760500311851501465e-01 -2.291842997074127197e-01
-2.703425884246826172e-01 1.829340308904647827e-01 2.349672466516494751e-01
-2.810456752777099609e-01 3.167847096920013428e-01 -3.155698180198669434e-01
-2.635925412178039551e-01 1.708282083272933960e-01 3.371417522430419922e-02
-2.710901796817779541e-01 1.305244266986846924e-01 -8.634400367736816406e-02
-3.047198951244354248e-01 8.328574895858764648e-02 -2.771420478820800781e-01
-2.615873813629150391e-01 2.676572799682617188e-01 -2.226474732160568237e-01
-3.606714606285095215e-01 2.181737273931503296e-01 2.900598049163818359e-01
-2.611323595046997070e-01 1.855070739984512329e-01 -1.880273669958114624e-01
-3.657431006431579590e-01 2.277349680662155151e-01 -7.934173196554183960e-02
-2.905262112617492676e-01 1.429951339960098267e-01 4.014394879341125488e-01
-3.297657370567321777e-01 1.796492189168930054e-01 -5.547800660133361816e-01
-2.884601354598999023e-01 3.295862078666687012e-01 -2.491912245750427246e-01
-3.276242613792419434e-01 3.031435906887054443e-01 -3.706593513488769531e-01
-2.746970355510711670e-01 1.943614780902862549e-01 -4.729943275451660156e-01
-3.250101506710052490e-01 1.608494818210601807e-01 -5.495122671127319336e-01
-2.814433574676513672e-01 1.490315347909927368e-01 -4.265874624252319336e-01
-3.606597781181335449e-01 8.467678725719451904e-02 6.454846262931823730e-02
-2.586010694503784180e-01 2.255264371633529663e-01 -1.965936869382858276e-01
-2.675797045230865479e-01 2.758104801177978516e-01 8.057451248168945312e-02
-2.800864279270172119e-01 1.057940721511840820e-01 -1.143030151724815369e-01
-3.063729107379913330e-01 6.323960423469543457e-02 -6.445363909006118774e-02
-2.689316570758819580e-01 1.402631551027297974e-01 -1.358697116374969482e-01
-2.899313271045684814e-01 3.238610923290252686e-01 5.894075334072113037e-02
-2.722249925136566162e-01 1.469842195510864258e-01 1.749850660562515259e-01
-3.116286993026733398e-01 3.281582891941070557e-01 7.097065448760986328e-02
-3.212974965572357178e-01 6.492221355438232422e-02 2.810177803039550781e-01
-3.247258067131042480e-01 3.151533603668212891e-01 -3.127443194389343262e-01
-2.671296298503875732e-01 2.144075483083724976e-01 -4.092627763748168945e-01
-3.689632713794708252e-01 1.508481651544570923e-01 2.418057173490524292e-01
-2.787364125251770020e-01 2.203185111284255981e-01 3.419991135597229004e-01
-3.470689952373504639e-01 8.357512950897216797e-02 -2.128332853317260742e-01
-3.468174636363983154e-01 7.555445283651351929e-02 -1.606955528259277344e-01
-3.027699887752532959e-01 2.034160196781158447e-01 4.988529086112976074e-01
-3.033295571804046631e-01 7.618108391761779785e-02 -2.083339244127273560e-01
-3.667039573192596436e-01 1.493645310401916504e-01 2.920815348625183105e-01
-2.709789574146270752e-01 2.055035978555679321e-01 2.594667077064514160e-01
-3.075846731662750244e-01 1.077488511800765991e-01 4.281895160675048828e-01
-3.465556204319000244e-01 2.261231988668441772e-01 -4.420713782310485840e-01
-3.306829929351806641e-01 3.189519643783569336e-01 -1.565049886703491211e-01
-2.686185836791992188e-01 1.962961405515670776e-01 2.203395217657089233e-01
-2.913404703140258789e-01 2.999832630157470703e-01 -4.740719199180603027e-01
-3.153434991836547852e-01 3.336127102375030518e-01 -1.441978663206100464e-01
-3.717566132545471191e-01 1.498891115188598633e-01 1.245364546775817871e-01
-2.688762247562408447e-01 1.570864617824554443e-01 -2.817826867103576660e-01
-2.958407998085021973e-01 2.808640003204345703e-01 -5.407749414443969727e-01
-3.670772910118103027e-01 1.230851709842681885e-01 2.342054098844528198e-01
-3.184854090213775635e-01 1.569266915321350098e-01 5.380768179893493652e-01
-3.664209544658660889e-01 1.175920069217681885e-01 -8.474954217672348022e-02
-2.722781300544738770e-01 2.979226112365722656e-01 4.191998392343521118e-02
-2.659071087837219238e-01 2.420300543308258057e-01 -3.951484560966491699e-01
-2.667384743690490723e-01 2.844159603118896484e-01 1.089705154299736023e-02
-3.495370745658874512e-01 6.850372254848480225e-02 2.095252126455307007e-01
-3.718577623367309570e-01 1.449648290872573853e-01 8.319645375013351440e-02
-3.581618070602416992e-01 1.379889249801635742e-01 4.007411599159240723e-01
-3.020774722099304199e-01 1.300733536481857300e-01 -4.832885265350341797e-01
-2.691872119903564453e-01 1.588713526725769043e-01 1.551676541566848755e-01
-2.966951429843902588e-01 2.750603556632995605e-01 3.521215319633483887e-01
-3.695166409015655518e-01 1.421671509742736816e-01 -8.947344869375228882e-02
-2.905801534652709961e-01 9.287181496620178223e-02 -2.155003100633621216e-01
-2.994579970836639404e-01 2.934246659278869629e-01 -5.105350613594055176e-01
-2.749530076980590820e-01 1.689275205135345459e-01 2.824065685272216797e-01
-2.671800553798675537e-01 2.430428117513656616e-01 1.728434711694717407e-01
-3.290154337882995605e-01 1.771633923053741455e-01 5.416433811187744141e-01
-2.630837857723236084e-01 2.223045527935028076e-01 -3.455474376678466797e-01
-3.555418252944946289e-01 2.709417939186096191e-01 -1.746590249240398407e-02
-3.232514560222625732e-01 4.430357739329338074e-02 -2.261294573545455933e-01
-3.014004528522491455e-01 -4.156606737524271011e-03 4.348074495792388916e-01
-2.840679585933685303e-01 -8.665010333061218262e-03 1.804304122924804688e-01
-3.117636144161224365e-01 -2.905435115098953247e-02 2.032216489315032959e-01
-3.298064470291137695e-01 -2.835026010870933533e-02 -2.172445654869079590e-01
-3.699085414409637451e-01 -8.250833489000797272e-04 -2.684143185615539551e-01
-3.172964155673980713e-01 3.536167740821838379e-02 2.111252248287200928e-01
-3.304687142372131348e-01 3.771173581480979919e-02 8.942312002182006836e-02
-3.591703772544860840e-01 2.474945224821567535e-02 -6.083602458238601685e-02
-2.865359485149383545e-01 3.246368467807769775e-02 -4.208224117755889893e-01
-2.784725427627563477e-01 3.801355510950088501e-02 -1.569900661706924438e-01
-3.344607651233673096e-01 4.072215408086776733e-02 -1.474353671073913574e-01
-3.395280241966247559e-01 3.179932385683059692e-02 -4.204631149768829346e-01
-2.716619670391082764e-01 2.581161260604858398e-02 -2.705562859773635864e-03
-3.484432399272918701e-01 -3.382953256368637085e-02 2.352824956178665161e-01
-3.530961871147155762e-01 2.048088423907756805e-02 2.078902721405029297e-01
-3.703212440013885498e-01 -2.404861152172088623e-02 1.188207566738128662e-01
-3.470709025859832764e-01 -3.544428944587707520e-02 1.567504554986953735e-01
-3.324995040893554688e-01 -3.537121042609214783e-02 4.432572796940803528e-02
-3.255374133586883545e-01 -3.407416120171546936e-02 2.928185090422630310e-02
-3.099449276924133301e-01 4.350020736455917358e-02 3.252771869301795959e-02
-2.881703078746795654e-01 3.332216758280992508e-03 -3.901013135910034180e-01
