2.985917329788208008e-01 -7.118995487689971924e-02 9.622710198163986206e-02
1.092326045036315918e-01 -2.613880336284637451e-01 -7.458397746086120605e-01
-1.680709868669509888e-01 -3.824806213378906250e-01 1.586079299449920654e-01
3.277098387479782104e-02 2.802476286888122559e-03 5.457147955894470215e-02
1.742090582847595215e-01 -1.395812928676605225e-01 6.894173026084899902e-01
-5.255542695522308350e-03 -4.176849424839019775e-01 -3.038743138313293457e-01
-1.650889962911605835e-01 -7.890862226486206055e-02 2.023180574178695679e-01
3.327902853488922119e-01 -2.494577616453170776e-01 6.919641047716140747e-02
1.265687793493270874e-01 -3.266471326351165771e-01 -6.316805481910705566e-01
3.257562518119812012e-01 -1.042626500129699707e-01 -2.437497675418853760e-02
3.649744763970375061e-02 -3.420602083206176758e-01 6.089434027671813965e-01
2.674206793308258057e-01 -3.367050886154174805e-01 -8.812994509935379028e-02
5.166251212358474731e-03 -1.098832637071609497e-01 7.061598300933837891e-01
3.213736712932586670e-01 -1.627769172191619873e-01 -3.067644238471984863e-01
7.432371377944946289e-03 -1.172114908695220947e-02 2.938530147075653076e-01
7.731442153453826904e-02 -3.780866265296936035e-01 -5.122943520545959473e-01
2.830874919891357422e-01 -3.178855180740356445e-01 -1.601116657257080078e-01
-2.407575771212577820e-02 -4.301134943962097168e-01 -1.205585151910781860e-02
2.041229009628295898e-01 -2.730040252208709717e-02 -2.152591049671173096e-01
-1.247746646404266357e-01 -5.719700455665588379e-02 -1.738360077142715454e-01
-2.040978521108627319e-01 -2.601784467697143555e-01 4.665013551712036133e-01
-2.520828545093536377e-01 -2.908190488815307617e-01 -1.319837123155593872e-01
2.344935089349746704e-01 -2.628302872180938721e-01 5.454735755920410156e-01
2.006109058856964111e-01 -8.177784085273742676e-02 -4.971927404403686523e-01
2.112655788660049438e-01 -3.757313191890716553e-01 3.408585488796234131e-02
-1.869013160467147827e-01 -9.146837145090103149e-02 1.062196269631385803e-01
-2.173515707254409790e-01 -1.221960484981536865e-01 -5.345029756426811218e-03
-2.643661201000213623e-01 -2.440337389707565308e-01 -3.713239729404449463e-02
-8.266036212444305420e-02 -1.062383353710174561e-01 -5.416609048843383789e-01
-6.899906694889068604e-02 -3.436012566089630127e-02 3.051445484161376953e-01
3.442775011062622070e-01 -2.162220627069473267e-01 -6.419799476861953735e-02
-1.292151361703872681e-01 -5.245178937911987305e-02 1.664364933967590332e-01
-1.688200086355209351e-01 -2.665435671806335449e-01 5.600206851959228516e-01
2.239667475223541260e-01 -2.332757413387298584e-02 -6.335681676864624023e-02
1.743876039981842041e-01 -3.841415047645568848e-01 1.977695375680923462e-01
1.645332425832748413e-01 -3.091245889663696289e-01 -6.216906905174255371e-01
-1.498084515333175659e-03 -4.304843544960021973e-01 -8.921884000301361084e-02
-5.248469486832618713e-02 -4.180666208267211914e-01 1.901246309280395508e-01
1.814545691013336182e-01 -7.229566574096679688e-03 1.017344072461128235e-01
2.493002116680145264e-01 -3.351454436779022217e-02 6.298309564590454102e-02
1.761231422424316406e-01 -3.440186381340026855e-02 -3.336457610130310059e-01
2.748982906341552734e-01 -3.267196714878082275e-01 9.727996587753295898e-02
3.484310209751129150e-02 -1.229158788919448853e-01 7.379009127616882324e-01
-2.318792790174484253e-01 -1.471638679504394531e-01 1.533703207969665527e-01
5.152318254113197327e-02 -2.710977196693420410e-02 -3.642690181732177734e-01
-2.330536395311355591e-01 -2.640813589096069336e-01 -3.305619955062866211e-01
-5.004330351948738098e-02 -3.877276182174682617e-01 4.161892533302307129e-01
1.899738460779190063e-01 -8.969947695732116699e-03 5.551065504550933838e-02
7.757773995399475098e-02 -4.321515560150146484e-02 -4.549854397773742676e-01
-1.178612112998962402e-01 -4.122911691665649414e-01 -7.119100540876388550e-02
1.538383960723876953e-01 -3.949968814849853516e-01 -2.443084865808486938e-01
4.140930995345115662e-02 -1.577898859977722168e-02 -2.782976627349853516e-01
-1.153775602579116821e-01 -8.184303343296051025e-02 -3.781182467937469482e-01
-2.160262018442153931e-01 -1.442147046327590942e-01 -2.281399667263031006e-01
-1.683741062879562378e-01 -1.087320446968078613e-01 3.887018859386444092e-01
2.841439656913280487e-02 -4.226806163787841797e-01 -2.405782788991928101e-01
-1.504821479320526123e-01 -1.859511286020278931e-01 6.081929206848144531e-01
8.311150968074798584e-02 -4.225541949272155762e-01 -9.217304736375808716e-02
2.100454829633235931e-02 -3.436775505542755127e-02 -3.867308795452117920e-01
2.311007827520370483e-01 -3.142867088317871094e-01 -4.616213142871856689e-01
-2.495432272553443909e-02 -4.167599081993103027e-01 2.342505902051925659e-01
1.281505674123764038e-01 -6.674529612064361572e-02 -5.307399630546569824e-01
-1.138487011194229126e-01 -2.928837239742279053e-01 -6.381936073303222656e-01
3.386700153350830078e-01 -1.539168953895568848e-01 -1.583632379770278931e-01
1.673953831195831299e-01 -1.400351524353027344e-02 -1.912714093923568726e-01
2.925653755664825439e-01 -6.750676035881042480e-02 1.346547156572341919e-01
1.268012821674346924e-02 -4.273814558982849121e-01 1.001117751002311707e-01
5.307766795158386230e-02 -3.748261928558349609e-01 -5.426021814346313477e-01
3.871391341090202332e-02 -1.149070784449577332e-01 -6.730313897132873535e-01
-2.456809431314468384e-01 -2.494196593761444092e-01 -2.623954117298126221e-01
2.390567772090435028e-02 -3.813580870628356934e-01 4.678239822387695312e-01
2.627085149288177490e-01 -3.203831315040588379e-01 2.537706196308135986e-01
-1.502986103296279907e-01 -2.629742920398712158e-01 -5.979303121566772461e-01
2.379992306232452393e-01 -6.083291769027709961e-02 -3.323319554328918457e-01
1.459218412637710571e-01 -4.060822129249572754e-01 -5.861859768629074097e-02
-1.362556219100952148e-01 -6.822502613067626953e-02 -2.127161771059036255e-01
1.569272428750991821e-01 -3.687649965286254883e-01 -4.331454038619995117e-01
-2.069172114133834839e-01 -2.250748723745346069e-01 -4.445228874683380127e-01
-2.014414370059967041e-01 -1.606520861387252808e-01 -3.662843406200408936e-01
-2.470439299941062927e-02 -3.126965761184692383e-01 -6.990625262260437012e-01
-6.658194959163665771e-02 -3.277829885482788086e-01 -6.421432495117187500e-01
1.011103540658950806e-01 -4.121950268745422363e-01 1.579272001981735229e-01
9.012103080749511719e-02 -3.543632626533508301e-01 -5.902509093284606934e-01
-4.228336736559867859e-02 -4.052067399024963379e-01 3.173017501831054688e-01
2.579329311847686768e-01 -1.129716336727142334e-01 -4.593563079833984375e-01
3.136080205440521240e-01 -2.824603319168090820e-01 8.816048502922058105e-02
-1.020696759223937988e-02 -5.998484790325164795e-02 5.609898567199707031e-01
2.163134515285491943e-03 -3.721707165241241455e-01 -5.611861944198608398e-01
2.159001231193542480e-01 -3.410204052925109863e-01 -4.028081595897674561e-01
8.203591406345367432e-02 -3.897351622581481934e-01 3.846872150897979736e-01
1.056055277585983276e-01 -1.422137618064880371e-01 -7.131093144416809082e-01
2.761572599411010742e-01 -5.661974847316741943e-02 1.779589951038360596e-01
2.113429009914398193e-01 -3.540621697902679443e-01 2.868639528751373291e-01
-9.003467857837677002e-02 -1.752652227878570557e-01 -6.661059260368347168e-01
4.988458007574081421e-02 -4.269458055496215820e-01 4.211849719285964966e-02
-2.218648046255111694e-01 -3.163788914680480957e-01 2.768159210681915283e-01
1.434724330902099609e-01 -3.512859940528869629e-01 -5.355346202850341797e-01
1.290218532085418701e-01 -4.819929599761962891e-04 1.882205456495285034e-01
5.103625729680061340e-02 -3.705506324768066406e-01 5.047406554222106934e-01
2.346971780061721802e-01 -3.621882200241088867e-01 -3.760999999940395355e-03
2.892897129058837891e-01 -1.692707389593124390e-01 4.637970626354217529e-01
-1.081109941005706787e-01 -1.008139550685882568e-01 -4.740541279315948486e-01
3.183472454547882080e-01 -1.979756802320480347e-01 -3.388981223106384277e-01
3.193037807941436768e-01 -9.387195110321044922e-02 3.952616453170776367e-02
8.379854261875152588e-02 -7.083776593208312988e-02 6.297075152397155762e-01
-1.568589508533477783e-01 -3.529433012008666992e-01 3.890725672245025635e-01
-1.886365860700607300e-01 -2.135528326034545898e-01 -4.976113438606262207e-01
2.527376711368560791e-01 -3.495078086853027344e-01 -3.759273141622543335e-02
-1.769011020660400391e-01 -9.980818629264831543e-02 -2.216351330280303955e-01
-6.387354433536529541e-02 -1.267276555299758911e-01 6.773333549499511719e-01
2.596825361251831055e-01 -1.883999556303024292e-01 5.549752712249755859e-01
-7.655185461044311523e-02 -3.658744096755981445e-01 4.873749315738677979e-01
2.329010069370269775e-01 -8.275483548641204834e-02 4.876599609851837158e-01
1.826092004776000977e-01 -3.419024944305419922e-01 4.401258826255798340e-01
-3.287317231297492981e-02 -1.863998174667358398e-02 -1.677307635545730591e-01
-1.973980665206909180e-01 -1.092754304409027100e-01 -1.411768347024917603e-01
2.098890990018844604e-01 -2.605652213096618652e-01 6.033638715744018555e-01
9.680937230587005615e-02 -1.941592991352081299e-01 -7.629042267799377441e-01
2.472631782293319702e-01 -3.228890597820281982e-01 3.175121843814849854e-01
-8.062045276165008545e-02 -1.925979405641555786e-01 7.251796722412109375e-01
-1.419657170772552490e-01 -1.260129809379577637e-01 5.332729220390319824e-01
1.428785473108291626e-01 -4.853385686874389648e-02 5.217742323875427246e-01
2.532919645309448242e-01 -4.313075542449951172e-02 2.076447755098342896e-01
2.778886631131172180e-02 1.261338591575622559e-03 -2.132640779018402100e-02
2.548412978649139404e-02 -5.710870027542114258e-02 5.774098038673400879e-01
1.535979807376861572e-01 -8.408501744270324707e-03 2.485707700252532959e-01
1.760537028312683105e-01 -3.413896560668945312e-01 -5.100928544998168945e-01
-8.867444097995758057e-02 -3.240224719047546387e-02 1.750361770391464233e-01
-7.733789086341857910e-02 -5.656671524047851562e-02 -3.491533994674682617e-01
-1.561009734869003296e-01 -3.615316152572631836e-01 -3.882259726524353027e-01
3.477750122547149658e-01 -1.886242926120758057e-01 5.390286445617675781e-02
-2.027361243963241577e-01 -3.666324019432067871e-01 -2.725452743470668793e-02
9.724090993404388428e-02 -4.025198817253112793e-01 -3.433047533035278320e-01
6.137314438819885254e-02 -5.247771739959716797e-03 -1.918909251689910889e-01
2.334478497505187988e-01 -1.015994772315025330e-01 -4.907102286815643311e-01
6.456933170557022095e-02 -1.011777669191360474e-01 7.033652663230895996e-01
3.871804103255271912e-02 -4.113098382949829102e-01 -3.485992550849914551e-01
-2.585631236433982849e-02 -4.273795485496520996e-01 -1.594949364662170410e-01
1.433011442422866821e-01 -5.052997171878814697e-02 -4.570374488830566406e-01
-2.123698964715003967e-02 -4.233379662036895752e-02 -3.811528980731964111e-01
-5.181289836764335632e-02 -1.267320066690444946e-01 -6.358208060264587402e-01
4.412415996193885803e-02 -9.594077616930007935e-02 -6.310401558876037598e-01
-1.926173716783523560e-01 -1.214217618107795715e-01 -2.595978379249572754e-01
2.321107089519500732e-01 -2.299849390983581543e-01 -6.069823503494262695e-01
-1.374069303274154663e-01 -4.044096171855926514e-01 3.917124122381210327e-02
1.453624367713928223e-01 -2.936850190162658691e-01 6.457488536834716797e-01
2.141821384429931641e-01 -3.679725229740142822e-01 1.476946026086807251e-01
-2.143359333276748657e-01 -1.317880451679229736e-01 -1.683017909526824951e-01
-3.240591660141944885e-02 -3.490906953811645508e-02 4.074426889419555664e-01
2.842590510845184326e-01 -2.914549112319946289e-01 2.868545949459075928e-01
-2.119039744138717651e-01 -1.955350041389465332e-01 -3.954532146453857422e-01
3.091929554939270020e-01 -2.799326777458190918e-01 1.670181155204772949e-01
-2.195292860269546509e-01 -1.732783913612365723e-01 -3.138918578624725342e-01
-1.790820062160491943e-01 -8.712224662303924561e-02 1.577042937278747559e-01
1.303091272711753845e-02 -6.938818097114562988e-02 -5.374064445495605469e-01
-1.649228036403656006e-01 -2.000472098588943481e-01 -5.511853098869323730e-01
-2.226419597864151001e-01 -2.034952044486999512e-01 -3.594873845577239990e-01
2.742163538932800293e-01 -9.389866888523101807e-02 -3.524989187717437744e-01
2.937839031219482422e-01 -2.058893442153930664e-01 4.408192634582519531e-01
-8.268213272094726562e-02 -1.229183003306388855e-01 -5.856770873069763184e-01
2.833287417888641357e-01 -8.647301793098449707e-02 3.308039605617523193e-01
-2.639260590076446533e-01 -2.302579283714294434e-01 6.284979730844497681e-02
-1.358291059732437134e-01 -3.660161197185516357e-01 -4.251239299774169922e-01
2.679735049605369568e-02 1.485079526901245117e-03 1.089680790901184082e-01
-1.363361030817031860e-01 -3.141385316848754883e-01 5.521287918090820312e-01
-2.465928941965103149e-01 -1.775496453046798706e-01 -1.164081692695617676e-01
-1.711391061544418335e-01 -3.553911447525024414e-01 3.335274159908294678e-01
-1.669828891754150391e-01 -3.397643566131591797e-01 -4.363554418087005615e-01
2.095720022916793823e-01 -1.217308342456817627e-01 -5.799268484115600586e-01
1.530218496918678284e-02 -2.040386199951171875e-03 -6.642860174179077148e-02
7.299275696277618408e-02 -4.646782577037811279e-02 5.489140748977661133e-01
3.268914818763732910e-01 -2.055770605802536011e-01 2.769166529178619385e-01
2.651031911373138428e-01 -3.176502585411071777e-01 -3.064801692962646484e-01
2.044980674982070923e-01 -1.074191108345985413e-01 6.023391485214233398e-01
-6.833676993846893311e-02 -7.947753369808197021e-02 5.528637170791625977e-01
1.451605409383773804e-01 -3.316416740417480469e-01 5.489668846130371094e-01
3.890278562903404236e-02 -1.959040760993957520e-03 -1.244577467441558838e-01
-1.588922590017318726e-01 -3.884076476097106934e-01 -1.956051439046859741e-01
2.746751010417938232e-01 -2.042395025491714478e-01 5.071102976799011230e-01
1.826852113008499146e-01 -3.901664614677429199e-01 -1.129690855741500854e-01
2.806789278984069824e-01 -1.425197422504425049e-01 -4.504100680351257324e-01
3.476312011480331421e-02 -3.629311919212341309e-01 -5.918667316436767578e-01
-8.270817995071411133e-02 -2.810239791870117188e-02 -3.281711041927337646e-02
1.662114262580871582e-02 -3.335296213626861572e-01 -6.718986630439758301e-01
1.936455667018890381e-01 -6.605719029903411865e-02 -4.547840058803558350e-01
2.111808955669403076e-01 -2.919822037220001221e-01 -5.722503066062927246e-01
6.718067079782485962e-02 -2.965051829814910889e-01 -7.293426394462585449e-01
1.326069682836532593e-01 -4.005478620529174805e-01 1.935865134000778198e-01
-1.839290261268615723e-01 -3.778462111949920654e-01 -1.250585764646530151e-01
-5.775488540530204773e-02 -5.854389071464538574e-02 -4.037735462188720703e-01
-2.325467616319656372e-01 -3.034589886665344238e-01 -2.640806734561920166e-01
1.114328056573867798e-01 -2.977846860885620117e-01 -7.025417685508728027e-01
3.027015924453735352e-01 -2.303604930639266968e-01 -3.906861543655395508e-01
2.153824567794799805e-01 -5.112989246845245361e-02 4.109979569911956787e-01
2.234201133251190186e-01 -3.343259096145629883e-01 3.546745777130126953e-01
-1.953857541084289551e-01 -1.400693058967590332e-01 3.885777592658996582e-01
2.913018763065338135e-01 -3.142919540405273438e-01 8.084806613624095917e-03
1.431523412466049194e-01 -2.975450456142425537e-02 -3.524082005023956299e-01
-7.804617285728454590e-02 -2.491948008537292480e-02 5.105536431074142456e-02
-1.631936281919479370e-01 -2.435428500175476074e-01 5.897499918937683105e-01
1.384421139955520630e-01 -3.385692834854125977e-04 -6.560730934143066406e-02
2.090139091014862061e-01 -2.341181933879852295e-01 -6.488414406776428223e-01
1.910829842090606689e-01 -3.619027435779571533e-01 -3.747144341468811035e-01
1.039925888180732727e-01 -3.537709712982177734e-01 5.268358588218688965e-01
1.625827103853225708e-01 -3.356743454933166504e-01 5.063586235046386719e-01
-2.417453378438949585e-01 -1.574600934982299805e-01 4.746568389236927032e-03
2.449609041213989258e-01 -3.822968900203704834e-02 -1.390189528465270996e-01
-1.037706732749938965e-01 -8.978835493326187134e-02 5.181310176849365234e-01
5.803747475147247314e-02 -8.037725090980529785e-02 -5.910124182701110840e-01
2.386626154184341431e-01 -2.587937116622924805e-01 -5.651981234550476074e-01
7.136929035186767578e-02 5.416080355644226074e-03 8.209683746099472046e-02
1.323591321706771851e-01 -4.098069071769714355e-01 -1.069009602069854736e-01
-2.628833651542663574e-01 -2.175583541393280029e-01 -7.683596573770046234e-03
-5.206247791647911072e-02 -3.268177509307861328e-01 6.278491020202636719e-01
3.358866572380065918e-01 -2.460001856088638306e-01 -2.571400813758373260e-02
-1.979728341102600098e-01 -2.162427157163619995e-01 4.989157021045684814e-01
2.991909086704254150e-01 -2.877624332904815674e-01 2.067905068397521973e-01
2.239282615482807159e-02 -5.492419004440307617e-02 -4.879452586174011230e-01
2.837634384632110596e-01 -1.261112689971923828e-01 4.391405880451202393e-01
2.323053777217864990e-04 -3.609478473663330078e-03 1.399603039026260376e-01
1.019931584596633911e-01 -2.825112640857696533e-02 4.578235149383544922e-01
-1.215383112430572510e-01 -3.411264121532440186e-01 -5.378232598304748535e-01
-6.050559505820274353e-02 -1.924410462379455566e-02 1.165923923254013062e-01
-2.694096788763999939e-02 -7.807701826095581055e-02 6.051797866821289062e-01
-6.028543040156364441e-02 -3.887903690338134766e-02 -2.770611345767974854e-01
1.656572520732879639e-01 -9.795596450567245483e-02 6.388672590255737305e-01
-2.729823067784309387e-02 -2.967005074024200439e-01 7.020104527473449707e-01
3.065133988857269287e-01 -2.934046089649200439e-01 -1.170766353607177734e-01
5.743879824876785278e-02 -2.524264752864837646e-01 7.662409543991088867e-01
1.455574482679367065e-01 -1.049525216221809387e-01 6.725004315376281738e-01
1.685041040182113647e-01 -1.988385617733001709e-02 -2.446147352457046509e-01
6.798037886619567871e-02 -2.885914444923400879e-01 7.171745896339416504e-01
-7.170501351356506348e-02 -3.356793522834777832e-01 5.893658399581909180e-01
1.614878512918949127e-02 -8.556470274925231934e-03 -1.750059127807617188e-01
-8.866983652114868164e-02 -3.932394385337829590e-01 -3.910064697265625000e-01
-2.160108238458633423e-01 -3.532897531986236572e-01 4.863680899143218994e-02
-2.496166080236434937e-01 -2.144528776407241821e-01 -2.092614024877548218e-01
1.506358981132507324e-01 -3.826116025447845459e-02 -3.916833400726318359e-01
7.852188497781753540e-02 -3.441601991653442383e-03 2.736945450305938721e-01
2.615040838718414307e-01 -3.134171962738037109e-01 -3.473921716213226318e-01
-1.674517095088958740e-01 -1.678846627473831177e-01 5.470038056373596191e-01
-2.351194471120834351e-01 -1.987726390361785889e-01 3.238356411457061768e-01
2.823567390441894531e-01 -6.570427119731903076e-02 2.159177809953689575e-01
-1.452546566724777222e-02 -2.841177582740783691e-02 -3.027729988098144531e-01
2.695258259773254395e-01 -2.718787789344787598e-01 -4.513664543628692627e-01
-2.265975028276443481e-01 -1.437619328498840332e-01 -1.328247189521789551e-01
-3.715027496218681335e-02 -1.449619382619857788e-01 -6.843391060829162598e-01
-1.825203299522399902e-01 -8.696804940700531006e-02 -8.784928359091281891e-04
2.645606100559234619e-01 -1.700636744499206543e-01 -5.279398560523986816e-01
-3.029835596680641174e-02 -1.962339878082275391e-02 2.863686680793762207e-01
1.258559525012969971e-01 -3.709595501422882080e-01 -4.837704002857208252e-01
1.793960630893707275e-01 -8.085308969020843506e-02 5.824428796768188477e-01
3.324276506900787354e-01 -2.527177333831787109e-01 -6.403006613254547119e-02
3.404071927070617676e-01 -1.367997825145721436e-01 6.705874204635620117e-02
-2.623721584677696228e-02 -1.257215440273284912e-02 -1.052695214748382568e-01
-1.539721488952636719e-01 -1.225256025791168213e-01 -4.248907566070556641e-01
2.687416672706604004e-01 -8.918453007936477661e-02 4.011496007442474365e-01
2.338648587465286255e-01 -3.625547885894775391e-02 -1.797879040241241455e-01
1.762500256299972534e-01 -2.243826389312744141e-01 6.979671716690063477e-01
2.265937924385070801e-01 -1.163114383816719055e-01 -5.388836860656738281e-01
-1.869525164365768433e-01 -1.272110044956207275e-01 -3.163665533065795898e-01
3.216343224048614502e-01 -2.399145066738128662e-01 2.443414926528930664e-01
-2.329838722944259644e-01 -2.568625807762145996e-01 3.500424623489379883e-01
-3.863313421607017517e-02 -6.746304035186767578e-02 -4.763412773609161377e-01
2.410587817430496216e-01 -3.153158128261566162e-01 -4.245844483375549316e-01
2.728447020053863525e-01 -3.192918300628662109e-01 -2.452762573957443237e-01
1.217054277658462524e-01 -3.660282492637634277e-01 4.530285298824310303e-01
-1.993397995829582214e-02 -4.252778589725494385e-01 1.324451714754104614e-01
2.404481768608093262e-01 -3.541227877140045166e-01 1.048855260014533997e-01
1.869517713785171509e-01 -3.855248689651489258e-01 -1.733520627021789551e-01
8.590549230575561523e-02 -5.851352214813232422e-02 -5.180829763412475586e-01
-1.193986833095550537e-01 -5.059486627578735352e-02 -1.312883347272872925e-01
3.463266491889953613e-01 -1.727820336818695068e-01 9.008172154426574707e-02
3.403153717517852783e-01 -2.223941087722778320e-01 1.084314882755279541e-01
1.380825787782669067e-01 -1.766058802604675293e-02 -2.754063010215759277e-01
1.066109538078308105e-01 -1.045258343219757080e-01 6.983618736267089844e-01
1.344392001628875732e-01 -4.058120846748352051e-01 1.116669625043869019e-01
-1.972495466470718384e-01 -1.083050668239593506e-01 2.074530571699142456e-01
-6.558538973331451416e-02 -3.480277955532073975e-02 -2.263146489858627319e-01
8.440509438514709473e-02 -1.712481677532196045e-02 -3.040326833724975586e-01
-2.535218298435211182e-01 -2.180959433317184448e-01 2.118017524480819702e-01
-1.575388014316558838e-01 -7.840013504028320312e-02 -1.740197688341140747e-01
2.777648866176605225e-01 -6.661514937877655029e-02 -1.991640627384185791e-01
3.151791095733642578e-01 -2.360588759183883667e-01 -3.170298337936401367e-01
-2.090212553739547729e-01 -1.277559399604797363e-01 2.529986202716827393e-01
1.777932345867156982e-01 -1.927432119846343994e-01 -6.982215642929077148e-01
7.427252084016799927e-02 -3.893330097198486328e-01 -4.608218073844909668e-01
3.082010447978973389e-01 -1.368782967329025269e-01 -3.326241075992584229e-01
8.198051899671554565e-02 -1.017545536160469055e-01 -6.466358304023742676e-01
-7.201303541660308838e-02 -3.855056762695312500e-01 -4.570483565330505371e-01
-2.225133925676345825e-01 -3.068810701370239258e-01 -3.135972619056701660e-01
6.447789818048477173e-02 2.983614802360534668e-03 1.658591330051422119e-01
-5.293827876448631287e-02 -4.270370304584503174e-01 1.253365911543369293e-02
1.183113008737564087e-01 -5.496242642402648926e-02 -4.933905303478240967e-01
-3.645715489983558655e-02 -4.243140816688537598e-01 -2.002387046813964844e-01
-2.085928246378898621e-02 -7.178425788879394531e-03 9.716027230024337769e-02
2.897845208644866943e-01 -3.048487305641174316e-01 -2.141848355531692505e-01
4.025211185216903687e-02 -4.291111528873443604e-01 -4.221746325492858887e-02
-7.344906032085418701e-02 -3.176644444465637207e-02 -1.626736968755722046e-01
2.568970322608947754e-01 -8.930201828479766846e-02 4.411939084529876709e-01
1.989145949482917786e-02 -4.244459271430969238e-01 1.465405821800231934e-01
1.574060618877410889e-01 -7.805317640304565430e-03 -1.419375836849212646e-01
-1.656268835067749023e-01 1.561390459537506104e-01 1.112556234002113342e-01
-1.288708299398422241e-01 3.501610085368156433e-02 7.296589612960815430e-01
-3.173523843288421631e-01 7.319774478673934937e-02 8.956158757209777832e-01
-2.356141656637191772e-01 1.454795300960540771e-01 5.541673898696899414e-01
-4.569931924343109131e-01 1.543135792016983032e-01 3.455792367458343506e-02
-2.087894082069396973e-01 -4.937067255377769470e-02 3.347484767436981201e-02
-5.449200272560119629e-01 3.222645819187164307e-02 -4.623861014842987061e-01
-2.796462178230285645e-02 1.787299290299415588e-02 1.591051816940307617e-01
-1.585012972354888916e-01 -3.760057315230369568e-02 2.241125255823135376e-01
-3.362610936164855957e-01 -5.266244336962699890e-02 5.334510654211044312e-02
-3.380288481712341309e-01 1.665415763854980469e-01 2.396935075521469116e-01
-2.405053824186325073e-01 1.644706428050994873e-01 -1.658485531806945801e-01
-6.951075792312622070e-02 1.220067739486694336e-01 -1.057339087128639221e-01
-4.690536856651306152e-01 2.330411225557327271e-02 -6.910956501960754395e-01
-5.008711218833923340e-01 1.341127604246139526e-01 2.726909816265106201e-01
-4.112623333930969238e-01 4.302687942981719971e-02 -8.274956941604614258e-01
-3.066977858543395996e-02 2.773650549352169037e-02 -2.309922873973846436e-01
-2.590852081775665283e-01 -3.708659484982490540e-02 -4.705573618412017822e-01
-5.760341882705688477e-01 3.016889654099941254e-02 1.367607563734054565e-01
-1.279929876327514648e-01 1.021161079406738281e-01 6.636257171630859375e-01
-1.340151429176330566e-01 9.262999892234802246e-02 -6.428092718124389648e-01
-3.220706880092620850e-01 -2.744652330875396729e-03 7.420763969421386719e-01
-7.347390055656433105e-02 -1.370706781744956970e-02 1.255185902118682861e-01
-5.208963155746459961e-02 7.348971813917160034e-02 -4.099572002887725830e-01
-1.548680663108825684e-02 5.578666552901268005e-02 2.437468618154525757e-01
-3.735683560371398926e-01 1.804019510746002197e-02 7.950203418731689453e-01
-4.591377377510070801e-01 1.340782940387725830e-01 -4.566791951656341553e-01
-2.707094848155975342e-01 1.407729536294937134e-01 -5.684623718261718750e-01
-4.248032867908477783e-01 -9.590361267328262329e-03 5.748570561408996582e-01
-3.929958045482635498e-01 -3.579351678490638733e-02 -4.105585813522338867e-01
-3.760299086570739746e-01 2.547635883092880249e-02 -8.315030336380004883e-01
-5.721383094787597656e-01 2.116064354777336121e-02 -1.241657212376594543e-01
-3.027275502681732178e-01 1.537667363882064819e-01 4.969643354415893555e-01
-1.742854565382003784e-01 1.581489145755767822e-01 7.624492794275283813e-02
-3.810923099517822266e-01 -4.826210066676139832e-02 -1.293581128120422363e-01
-3.317296504974365234e-01 1.601810306310653687e-01 3.913407921791076660e-01
-4.221030175685882568e-01 5.275297909975051880e-03 -7.090473175048828125e-01
-2.229631841182708740e-01 1.350218206644058228e-01 -5.689762234687805176e-01
-2.958858609199523926e-01 9.354747831821441650e-03 -8.088906407356262207e-01
-4.496150016784667969e-01 1.545626819133758545e-01 -1.246980801224708557e-01
-3.025779128074645996e-01 -5.283072963356971741e-02 -1.550539582967758179e-01
-4.265275597572326660e-01 1.598663032054901123e-01 1.090057492256164551e-01
-7.139374315738677979e-02 1.255330741405487061e-01 6.439937278628349304e-03
-1.881223320960998535e-01 -3.668304160237312317e-02 -3.527778983116149902e-01
-4.181575775146484375e-02 2.222602441906929016e-02 -2.903797030448913574e-01
-5.243463516235351562e-01 1.204951256513595581e-01 -3.218710720539093018e-01
-3.622556924819946289e-01 -4.950739070773124695e-02 -1.695680320262908936e-01
-2.263589799404144287e-01 -1.380271837115287781e-02 6.573693752288818359e-01
-5.629742145538330078e-01 8.024367690086364746e-02 -3.790413141250610352e-01
-8.231528103351593018e-02 1.133959144353866577e-01 4.291569590568542480e-01
-1.653640270233154297e-01 -3.967388346791267395e-02 -1.946116983890533447e-01
-9.690055251121520996e-02 1.267550736665725708e-01 -2.641031742095947266e-01
-8.124102652072906494e-02 -4.832260310649871826e-04 4.087841510772705078e-01
-4.719095528125762939e-01 -2.545974031090736389e-02 2.227527201175689697e-01
-2.829270958900451660e-01 1.693395674228668213e-01 -6.659980118274688721e-02
-4.588008522987365723e-01 1.514054983854293823e-01 -1.654578894376754761e-01
-3.154790699481964111e-01 -5.146828666329383850e-02 -2.030918151140213013e-01
-2.013320773839950562e-01 -2.571191266179084778e-02 5.264077186584472656e-01
-4.348399043083190918e-01 1.320120990276336670e-01 -5.378979444503784180e-01
-2.053032219409942627e-01 1.596385389566421509e-01 2.641366720199584961e-01
-3.349598646163940430e-01 1.803359761834144592e-02 -8.338267207145690918e-01
-1.324089020490646362e-01 -2.938092127442359924e-02 2.730376124382019043e-01
-2.021211385726928711e-02 4.509023949503898621e-02 2.822502255439758301e-01
-2.474403679370880127e-01 -5.068801715970039368e-02 -1.830764412879943848e-01
-2.995239198207855225e-01 -3.762406483292579651e-02 -4.806639850139617920e-01
-1.775279194116592407e-01 -4.467200115323066711e-02 6.960614025592803955e-02
-4.419754147529602051e-01 1.549001485109329224e-01 1.949985623359680176e-01
-4.153696298599243164e-01 1.624037325382232666e-01 3.502287901937961578e-03
-5.141066312789916992e-01 -7.569234818220138550e-03 -3.165098130702972412e-01
-4.341796636581420898e-01 -4.042187705636024475e-02 -5.077391117811203003e-02
-3.369142115116119385e-01 1.318059265613555908e-01 -6.503305435180664062e-01
-7.726673781871795654e-02 1.049240455031394958e-01 -3.826707601547241211e-01
-5.576458573341369629e-02 3.459941595792770386e-03 2.854815721511840820e-01
-3.965662121772766113e-01 1.481087803840637207e-01 -4.438155591487884521e-01
-3.136325478553771973e-01 -4.868153110146522522e-02 -2.876533269882202148e-01
-1.434796154499053955e-01 1.411647647619247437e-01 3.857516646385192871e-01
-5.769415497779846191e-01 9.456919133663177490e-02 8.211415261030197144e-02
-4.576615095138549805e-01 1.138751059770584106e-01 -6.180475354194641113e-01
-4.250362515449523926e-01 -2.221157029271125793e-02 4.598220884799957275e-01
-5.029729604721069336e-01 1.321322321891784668e-01 -2.938401699066162109e-01
-4.180930852890014648e-01 9.049370884895324707e-02 -7.807578444480895996e-01
-3.349327445030212402e-01 1.394415497779846191e-01 6.319074630737304688e-01
-4.036065638065338135e-01 1.299340128898620605e-01 6.289497017860412598e-01
-2.130849957466125488e-01 1.639079004526138306e-01 1.269178688526153564e-01
-5.520857572555541992e-01 4.195515066385269165e-03 3.548704087734222412e-02
-1.101401448249816895e-02 5.754737928509712219e-02 -8.362228423357009888e-02
-1.824276149272918701e-01 -3.504370525479316711e-02 3.689431846141815186e-01
-4.054352045059204102e-01 1.179402023553848267e-01 -6.841902732849121094e-01
-5.146472454071044922e-01 1.320318430662155151e-01 2.010442316532135010e-01
-3.708156943321228027e-02 9.279078990221023560e-02 2.996019423007965088e-01
-2.243577539920806885e-01 -5.076218023896217346e-02 -7.417357712984085083e-02
-2.890588045120239258e-01 1.674129813909530640e-01 -1.667810231447219849e-01
-3.649369776248931885e-01 1.175153106451034546e-01 -7.248086333274841309e-01
-4.883793592453002930e-01 -2.503008022904396057e-02 -1.378730535507202148e-01
-4.553261995315551758e-01 -2.177740260958671570e-02 -4.218873977661132812e-01
-3.498653471469879150e-01 -3.755541518330574036e-02 -4.557196795940399170e-01
-1.431553512811660767e-01 -2.079011872410774231e-02 -4.248197078704833984e-01
-1.093714237213134766e-01 6.601523607969284058e-03 5.716575980186462402e-01
-4.828015565872192383e-01 -2.383934333920478821e-02 -2.408850193023681641e-01
-1.958754062652587891e-01 2.043903246521949768e-02 -7.712401747703552246e-01
-5.621228218078613281e-01 2.060924842953681946e-02 2.055945843458175659e-01
-4.686073064804077148e-01 -2.198971435427665710e-02 -3.632912933826446533e-01
-4.892357587814331055e-01 1.013776957988739014e-01 -6.040678024291992188e-01
-9.454058110713958740e-02 1.305380165576934814e-01 2.774634957313537598e-01
-8.443838357925415039e-02 9.050919115543365479e-02 5.790434479713439941e-01
-8.501456677913665771e-02 -1.835628226399421692e-02 -1.049637570977210999e-01
-3.773282766342163086e-01 -4.387830570340156555e-02 2.528613805770874023e-01
-1.339684128761291504e-01 1.301537007093429565e-01 -4.014013707637786865e-01
-5.853027105331420898e-02 1.130482926964759827e-02 -3.295101523399353027e-01
-5.040196180343627930e-01 4.193662852048873901e-02 6.055895686149597168e-01
-7.868097722530364990e-02 -1.228648796677589417e-02 -1.912989020347595215e-01
-4.604098796844482422e-01 4.584077745676040649e-03 5.848535299301147461e-01
-4.144343137741088867e-01 1.613779067993164062e-01 -1.089708209037780762e-01
-3.690858483314514160e-01 1.305855661630630493e-01 6.701793074607849121e-01
-4.033346176147460938e-01 1.363797783851623535e-01 5.795060992240905762e-01
-3.997788429260253906e-01 -2.720437571406364441e-02 -5.079342722892761230e-01
-4.570598006248474121e-01 1.198299825191497803e-01 5.852344632148742676e-01
-3.901420235633850098e-01 1.458418667316436768e-01 -4.811549782752990723e-01
-5.146504938602447510e-02 8.470275253057479858e-02 -3.653766810894012451e-01
-3.670707941055297852e-01 3.267277032136917114e-03 7.403872013092041016e-01
-1.716862171888351440e-01 1.275567710399627686e-01 6.120095849037170410e-01
-2.932552397251129150e-01 1.249061375856399536e-01 -6.968763470649719238e-01
-2.801165282726287842e-01 1.161107942461967468e-01 -7.413698434829711914e-01
-1.862444728612899780e-01 -4.334330931305885315e-02 2.010629028081893921e-01
-1.879149973392486572e-01 -2.938834205269813538e-02 4.611593186855316162e-01
-3.267738521099090576e-01 1.259820908308029175e-01 7.294709682464599609e-01
-3.329640924930572510e-01 9.647341072559356689e-02 8.489661216735839844e-01
-1.499739289283752441e-02 4.298459738492965698e-02 -1.281175762414932251e-01
-2.834189534187316895e-01 -5.059818550944328308e-02 -2.375183552503585815e-01
-2.675228118896484375e-01 1.578120738267898560e-01 -3.622223138809204102e-01
-3.814394474029541016e-01 -2.571077272295951843e-02 5.153816342353820801e-01
-3.829524517059326172e-01 1.576263904571533203e-01 -3.249239027500152588e-01
-1.051057726144790649e-01 1.490246877074241638e-02 -5.569223761558532715e-01
-5.616985559463500977e-01 1.056493669748306274e-01 -1.897299736738204956e-01
-1.867894530296325684e-01 6.388705223798751831e-02 -8.008807301521301270e-01
-3.472064733505249023e-01 -4.442052915692329407e-02 3.091680705547332764e-01
-1.821141839027404785e-01 -1.040961220860481262e-02 6.271917223930358887e-01
-3.354494273662567139e-01 -5.307548865675926208e-02 -2.708563767373561859e-02
-3.862682580947875977e-01 1.638970822095870972e-01 1.974073350429534912e-01
-4.737358093261718750e-01 1.220460683107376099e-01 5.223089456558227539e-01
-1.606479436159133911e-01 1.362149566411972046e-01 -4.255112707614898682e-01
-5.147484540939331055e-01 5.186813697218894958e-02 -6.243801712989807129e-01
-2.611477673053741455e-01 1.092238426208496094e-01 8.105567097663879395e-01
-1.147090941667556763e-01 -2.940348163247108459e-02 1.208571642637252808e-01
-2.384701669216156006e-01 1.580417156219482422e-01 -3.153653442859649658e-01
-4.945602416992187500e-01 1.301041394472122192e-01 -3.676484525203704834e-01
-1.962287127971649170e-01 -4.266920313239097595e-02 2.604380548000335693e-01
-5.847311615943908691e-01 7.106754183769226074e-02 1.634437739849090576e-01
-2.766984105110168457e-01 -3.534429147839546204e-02 4.864932000637054443e-01
-5.137650370597839355e-01 7.636498659849166870e-03 4.174806475639343262e-01
-1.426504850387573242e-01 3.588607907295227051e-02 -7.136326432228088379e-01
-2.460131794214248657e-01 1.612496376037597656e-01 -2.658181190490722656e-01
-1.362289935350418091e-01 5.329433828592300415e-02 7.683127522468566895e-01
-1.428103893995285034e-01 9.752946346998214722e-02 7.160004377365112305e-01
-4.044415354728698730e-01 -4.575948789715766907e-02 9.532121941447257996e-03
-8.670571446418762207e-02 1.160349771380424500e-01 -3.349185585975646973e-01
-1.955771446228027344e-02 2.421825751662254333e-02 5.315256863832473755e-02
-2.387898564338684082e-01 1.396669000387191772e-01 6.134696602821350098e-01
-3.958894908428192139e-01 -1.004110649228096008e-02 -6.607793569564819336e-01
-4.471645355224609375e-01 -1.763243600726127625e-02 -4.960698783397674561e-01
-2.346163392066955566e-01 1.668643057346343994e-01 1.460942253470420837e-02
-3.589085340499877930e-01 -4.822420701384544373e-02 1.879139244556427002e-01
-2.238035053014755249e-01 1.505143940448760986e-01 -4.058552682399749756e-01
-2.458689510822296143e-01 -5.158197507262229919e-02 1.222160756587982178e-01
-3.797475099563598633e-01 -1.623344793915748596e-02 6.032907366752624512e-01
-5.152688026428222656e-01 1.011386588215827942e-01 -5.204183459281921387e-01
-5.299921035766601562e-01 -3.965303301811218262e-03 -2.422996908426284790e-01
-2.762909531593322754e-01 -6.977226585149765015e-03 7.256081104278564453e-01
-5.757625699043273926e-01 6.781242787837982178e-02 -3.167287409305572510e-01
-2.579150199890136719e-01 -4.525412246584892273e-02 -3.423711359500885010e-01
-5.410557389259338379e-01 8.108154684305191040e-02 4.632769227027893066e-01
-2.999928891658782959e-01 -4.567373171448707581e-02 3.298751413822174072e-01
-5.447819828987121582e-01 1.185120493173599243e-01 1.512231081724166870e-01
-4.290195107460021973e-01 1.524994075298309326e-01 -2.953174114227294922e-01
-1.697627305984497070e-01 -2.359162643551826477e-02 -4.736527800559997559e-01
-1.154225617647171021e-01 -1.893273368477821350e-02 -3.336496651172637939e-01
-4.264392852783203125e-01 -3.858679905533790588e-02 -2.357434630393981934e-01
-1.459890455007553101e-01 1.128714233636856079e-01 -5.764558315277099609e-01
-5.212067067623138428e-02 1.276820898056030273e-03 -1.617793440818786621e-01
-5.360670685768127441e-01 1.182424947619438171e-01 -2.663742899894714355e-01
-2.196883112192153931e-01 1.514002233743667603e-01 4.596080482006072998e-01
-5.582280158996582031e-01 1.131624430418014526e-01 1.727315410971641541e-02
-2.349001169204711914e-01 -8.023325353860855103e-03 -6.975367069244384766e-01
-1.125780194997787476e-01 1.389227956533432007e-01 -1.452973335981369019e-01
-4.067133963108062744e-01 -3.539651632308959961e-03 6.506066918373107910e-01
-3.834100961685180664e-01 1.617760360240936279e-01 -2.336965650320053101e-01
-1.379220187664031982e-01 -2.189025655388832092e-02 4.161246418952941895e-01
-6.035389006137847900e-02 1.173858940601348877e-01 1.924265474081039429e-01
-3.196433782577514648e-01 -3.505069389939308167e-02 4.815835654735565186e-01
-4.665301442146301270e-01 -1.091462001204490662e-02 4.486584663391113281e-01
-3.609471917152404785e-01 -5.113683268427848816e-02 -5.248847603797912598e-02
-2.982118725776672363e-01 1.642630845308303833e-01 3.217955231666564941e-01
-3.011249005794525146e-01 -4.935343191027641296e-02 2.468635439872741699e-01
-3.495571017265319824e-01 7.178542762994766235e-02 -8.720738291740417480e-01
-9.903059899806976318e-02 3.466425463557243347e-02 6.546294689178466797e-01
-1.329219043254852295e-01 1.476090252399444580e-01 1.527958214282989502e-01
-4.374632835388183594e-01 1.502399444580078125e-01 3.273760080337524414e-01
-5.658398866653442383e-01 9.722038358449935913e-02 2.167107462882995605e-01
-8.893811702728271484e-02 1.322932094335556030e-01 1.644454598426818848e-01
-3.168762326240539551e-01 1.524582803249359131e-01 -4.596899449825286865e-01
-9.047758579254150391e-02 1.328252702951431274e-01 -7.071004807949066162e-02
-2.474058717489242554e-01 1.429878771305084229e-01 -5.269495248794555664e-01
-5.097020864486694336e-01 -1.813465729355812073e-02 -2.491391263902187347e-03
-1.557298451662063599e-01 -3.455497696995735168e-02 -2.700704336166381836e-01
-2.219170629978179932e-01 -2.813344076275825500e-02 -5.296342968940734863e-01
-1.086901575326919556e-01 6.445831805467605591e-02 7.063398957252502441e-01
-2.093500196933746338e-01 1.564016789197921753e-01 -2.753979563713073730e-01
-1.118190735578536987e-01 1.221351176500320435e-01 4.837379455566406250e-01
-1.937159597873687744e-01 1.581201404333114624e-01 -1.734416931867599487e-01
-5.736001133918762207e-01 2.549625188112258911e-02 -1.783997267484664917e-01
-1.735979318618774414e-02 4.989333450794219971e-02 -1.796195209026336670e-01
-4.348448216915130615e-01 3.939783573150634766e-02 -7.915002703666687012e-01
-4.742056131362915039e-02 1.073466464877128601e-01 -1.297352015972137451e-01
-2.568858861923217773e-01 1.661684513092041016e-01 2.253098487854003906e-01
-4.680148959159851074e-01 -3.187100961804389954e-02 3.750171512365341187e-02
-4.109055697917938232e-01 2.546180039644241333e-02 7.723852992057800293e-01
-3.182997405529022217e-01 -5.361546948552131653e-02 -7.470732927322387695e-02
-4.972892999649047852e-01 1.242369860410690308e-01 -4.206382632255554199e-01
-2.407829761505126953e-01 1.458938866853713989e-01 -4.886884689331054688e-01
-1.784735918045043945e-01 1.570787429809570312e-01 -1.148801296949386597e-01
-2.520847618579864502e-01 1.356783807277679443e-01 6.570981740951538086e-01
-4.694949984550476074e-01 1.505545526742935181e-01 -8.393314480781555176e-02
-8.065411448478698730e-02 6.207755580544471741e-02 6.249750256538391113e-01
-2.874076068401336670e-01 -5.282187834382057190e-02 1.291010677814483643e-01
-3.105289340019226074e-01 1.437069922685623169e-01 -5.555757284164428711e-01
-2.407854795455932617e-01 -4.608625546097755432e-02 -3.003880083560943604e-01
-1.647821068763732910e-02 3.054031915962696075e-02 -4.428991675376892090e-02
-4.835161566734313965e-02 5.524010583758354187e-02 4.925427138805389404e-01
-4.842511415481567383e-01 5.067146569490432739e-02 -7.082327008247375488e-01
-4.560477733612060547e-01 1.429056525230407715e-01 3.706628978252410889e-01
-4.125784635543823242e-01 -4.317859187722206116e-02 -1.596359461545944214e-01
-4.090478718280792236e-01 -3.780676797032356262e-02 -3.309850394725799561e-01
-4.367093443870544434e-01 1.372412294149398804e-01 -4.842970371246337891e-01
-5.469299554824829102e-01 1.194297447800636292e-01 -1.053888499736785889e-01
-2.546183764934539795e-01 1.679909974336624146e-01 1.279240399599075317e-01
-2.701962590217590332e-01 4.383590072393417358e-03 7.835273146629333496e-01
-4.295370578765869141e-01 -3.441030904650688171e-02 2.674070000648498535e-01
-5.372032523155212402e-02 1.205089315772056580e-02 3.605622947216033936e-01
-7.388614118099212646e-02 1.128795892000198364e-01 -2.916948497295379639e-01
-2.314013838768005371e-01 -4.187461361289024353e-02 3.575236201286315918e-01
-3.831607997417449951e-01 8.717554062604904175e-02 -8.251636624336242676e-01
-3.724314868450164795e-01 -2.104802802205085754e-02 -6.073634624481201172e-01
-1.428574770689010620e-01 1.511429250240325928e-01 1.653405651450157166e-02
-2.174329906702041626e-01 1.626717597246170044e-01 2.176432013511657715e-01
-4.906601905822753906e-01 1.449051201343536377e-01 4.816073179244995117e-02
-3.284888863563537598e-01 -1.610340550541877747e-02 6.545814871788024902e-01
-5.095114707946777344e-01 1.384393721818923950e-01 1.696425676345825195e-02
-3.625538945198059082e-01 -4.655366763472557068e-02 -2.693298757076263428e-01
-9.593762457370758057e-02 9.520278871059417725e-02 -5.191148519515991211e-01
-1.555215120315551758e-01 -1.500548049807548523e-02 5.386766791343688965e-01
-4.513791203498840332e-01 1.509549021720886230e-01 2.455129772424697876e-01
-1.868828386068344116e-01 -3.963736817240715027e-02 -2.944599390029907227e-01
-3.471668362617492676e-01 1.053163260221481323e-01 8.138603568077087402e-01
-1.959523260593414307e-01 1.156671270728111267e-01 -6.618232131004333496e-01
-3.585864603519439697e-01 -3.284320235252380371e-03 -7.376047372817993164e-01
-1.397313773632049561e-01 1.253124326467514038e-01 -4.681724011898040771e-01
-3.023361265659332275e-01 1.385683566331863403e-01 6.495062112808227539e-01
-3.847401738166809082e-01 1.663770973682403564e-01 4.072809964418411255e-02
-2.964678406715393066e-01 -4.644829407334327698e-02 -3.414065241813659668e-01
-4.616881012916564941e-01 -3.332242369651794434e-03 -5.771299004554748535e-01
-3.889141678810119629e-01 1.652674227952957153e-01 1.155904904007911682e-01
-2.108142375946044922e-01 -4.735449329018592834e-02 -1.805389076471328735e-01
-3.573629856109619141e-01 1.049891859292984009e-01 -7.864556312561035156e-01
-3.646135628223419189e-01 3.154635429382324219e-02 8.414984941482543945e-01
-2.176424711942672729e-01 1.686420291662216187e-03 7.427330613136291504e-01
-2.173895388841629028e-01 1.592169702053070068e-01 -2.388080209493637085e-01
-4.896642267704010010e-01 9.808190912008285522e-02 6.036142706871032715e-01
-2.579564750194549561e-01 3.778275102376937866e-02 -8.633180856704711914e-01
-3.722663819789886475e-01 1.344551295042037964e-01 -6.092038154602050781e-01
-2.440044730901718140e-01 -3.597875311970710754e-02 4.608345329761505127e-01
-4.193232059478759766e-01 -1.046369597315788269e-02 -6.210867762565612793e-01
-3.941174745559692383e-01 9.738881140947341919e-03 -7.655726671218872070e-01
-2.373515665531158447e-01 1.363073289394378662e-02 -7.955588102340698242e-01
-8.246040344238281250e-02 1.308952122926712036e-01 5.259862542152404785e-02
-5.026322603225708008e-01 6.164181977510452271e-02 -6.621920466423034668e-01
-1.847195327281951904e-01 1.429057419300079346e-01 4.952003359794616699e-01
-4.685826301574707031e-01 3.452950716018676758e-02 6.869903206825256348e-01
-5.869154930114746094e-01 6.635847687721252441e-02 -1.932071149349212646e-01
-4.571532011032104492e-01 1.528095006942749023e-01 1.433077603578567505e-01
-4.215261340141296387e-01 1.600911617279052734e-01 1.455895602703094482e-01
-2.792685031890869141e-01 -1.585097983479499817e-02 -6.775375008583068848e-01
-5.794603228569030762e-01 8.041808754205703735e-02 -2.340869456529617310e-01
-3.560848534107208252e-01 3.552218526601791382e-02 -8.634970784187316895e-01
-1.909136772155761719e-01 -1.383256167173385620e-03 -6.788625717163085938e-01
-2.844675183296203613e-01 1.465166807174682617e-01 5.769532322883605957e-01
-5.659428834915161133e-01 4.098918288946151733e-02 -3.664196133613586426e-01
-1.958377212285995483e-01 -1.965915784239768982e-02 5.754086375236511230e-01
-5.621757507324218750e-01 8.056719601154327393e-02 3.444477617740631104e-01
-1.779142022132873535e-02 3.479762002825737000e-02 1.986387073993682861e-01
-2.029737830162048340e-01 1.621025055646896362e-01 -7.245375216007232666e-02
-4.672148823738098145e-01 1.450512260198593140e-01 -2.716913819313049316e-01
-5.583824515342712402e-01 1.127874851226806641e-01 -6.353476643562316895e-02
-3.828728795051574707e-01 -4.854347184300422668e-02 -8.990561962127685547e-02
-1.612416654825210571e-01 8.047313243150711060e-02 7.948288321495056152e-01
-4.731679856777191162e-01 -3.044754639267921448e-02 -9.523256123065948486e-02
-5.341834425926208496e-01 3.982434421777725220e-02 -5.357671380043029785e-01
-2.793022096157073975e-01 -3.154888749122619629e-03 -7.515028715133666992e-01
-2.721214890480041504e-01 1.301277056336402893e-02 8.193694949150085449e-01
-3.368987739086151123e-01 -4.714164510369300842e-02 2.662633359432220459e-01
-2.786343395709991455e-01 4.883953183889389038e-02 8.994962573051452637e-01
-3.180593252182006836e-02 9.934560954570770264e-02 -7.034486159682273865e-03
-3.539937734603881836e-02 4.507298767566680908e-02 4.071619808673858643e-01
-5.711188912391662598e-02 -5.403321236371994019e-03 -7.052602618932723999e-02
-4.157209694385528564e-01 1.048078387975692749e-01 -7.347530722618103027e-01
-1.460576206445693970e-01 -2.494273707270622253e-02 -3.853624165058135986e-01
-4.508702158927917480e-01 9.951384365558624268e-02 6.965756416320800781e-01
-2.318179756402969360e-01 -5.071007832884788513e-02 -1.269571483135223389e-01
-3.831577301025390625e-01 1.659469306468963623e-01 -7.255888730287551880e-02
-2.704384028911590576e-01 -2.916871383786201477e-02 5.533659458160400391e-01
-1.294378489255905151e-01 -3.466797247529029846e-02 2.429581992328166962e-02
-2.826467752456665039e-01 -2.877708151936531067e-02 -5.748984217643737793e-01
-2.921130359172821045e-01 1.672127693891525269e-01 2.394282072782516479e-01
-1.977772712707519531e-01 -3.487612679600715637e-02 4.085537791252136230e-01
-5.908386707305908203e-01 7.149561494588851929e-02 1.579596474766731262e-02
-1.482897400856018066e-01 -3.129182383418083191e-02 3.145372569561004639e-01
-1.047944426536560059e-01 1.301193833351135254e-01 3.568623065948486328e-01
-7.789844274520874023e-02 1.150723397731781006e-01 3.871392607688903809e-01
-3.416877090930938721e-01 1.693800538778305054e-01 -3.705162554979324341e-02
-1.726979464292526245e-01 9.554572403430938721e-02 -7.134994268417358398e-01
-2.226609140634536743e-01 -4.754495248198509216e-02 2.106070816516876221e-01
-2.970321476459503174e-01 1.701541543006896973e-01 8.611809462308883667e-02
-1.175087392330169678e-01 1.031591221690177917e-01 -5.515041947364807129e-01
