-2.401864677667617798e-01 1.096989363431930542e-01 -7.154899239540100098e-01
-1.339983642101287842e-01 5.869754403829574585e-02 1.568039357662200928e-01
-1.580909490585327148e-01 1.110062748193740845e-01 8.062568306922912598e-01
-1.537886857986450195e-01 5.892318487167358398e-02 -2.070462331175804138e-03
1.285270899534225464e-01 1.864694654941558838e-01 6.783783435821533203e-01
-2.354000955820083618e-01 2.005739063024520874e-01 -2.710448205471038818e-01
2.423680014908313751e-02 5.381390452384948730e-02 5.776776373386383057e-02
1.986239254474639893e-01 2.055765986442565918e-01 -2.550129592418670654e-01
-3.218572735786437988e-01 1.863192915916442871e-01 2.508549392223358154e-01
3.955397009849548340e-01 9.252427518367767334e-02 -1.395977586507797241e-01
2.645523548126220703e-01 6.698708236217498779e-02 -1.027248799800872803e-05
-7.139144092798233032e-02 5.970586091279983521e-02 3.266428709030151367e-01
1.190477143973112106e-02 5.901406705379486084e-02 -2.879312932491302490e-01
6.740234792232513428e-02 7.951542735099792480e-02 6.865200996398925781e-01
4.327474161982536316e-02 8.954051882028579712e-02 -7.203225493431091309e-01
-2.111174017190933228e-01 2.039422243833541870e-01 1.918764263391494751e-01
-1.979099959135055542e-01 6.227916479110717773e-02 -1.742185465991497040e-02
-1.555420756340026855e-01 2.101875990629196167e-01 1.063931062817573547e-01
1.594762504100799561e-02 5.445994436740875244e-02 1.534333676099777222e-01
1.892879232764244080e-02 1.074625998735427856e-01 8.749341368675231934e-01
-3.216146230697631836e-01 9.552836418151855469e-02 4.544107019901275635e-01
2.339926064014434814e-01 6.467461585998535156e-02 1.876339763402938843e-01
4.386190176010131836e-01 1.073848083615303040e-01 2.608645260334014893e-01
-5.279524251818656921e-03 2.032342553138732910e-01 4.897529482841491699e-01
-4.133037477731704712e-02 6.586209684610366821e-02 -4.394560158252716064e-01
-1.607752591371536255e-01 5.980604141950607300e-02 -7.441485673189163208e-02
-4.563958644866943359e-01 1.303832530975341797e-01 -1.458899490535259247e-02
-2.199361920356750488e-01 7.069437205791473389e-02 3.365435004234313965e-01
3.191917538642883301e-01 1.928023397922515869e-01 -1.990394294261932373e-01
1.952213048934936523e-01 8.146090805530548096e-02 -5.351243019104003906e-01
1.697836443781852722e-03 1.931809782981872559e-01 6.335170865058898926e-01
-3.981869667768478394e-03 7.883551716804504395e-02 -6.280161738395690918e-01
3.042132854461669922e-01 1.773132681846618652e-01 -4.955045580863952637e-01
1.945737302303314209e-01 6.060564517974853516e-02 1.218804940581321716e-01
2.911844253540039062e-01 1.954141855239868164e-01 3.021188676357269287e-01
-8.594854176044464111e-02 5.563485622406005859e-02 7.908500730991363525e-02
3.398296236991882324e-01 1.839476823806762695e-01 3.810130059719085693e-01
-1.265422254800796509e-01 9.292790293693542480e-02 -7.176296114921569824e-01
-4.801094159483909607e-02 2.111480385065078735e-01 2.890997529029846191e-01
4.541383683681488037e-02 1.523587256669998169e-01 8.972859382629394531e-01
-3.196650743484497070e-01 7.750479131937026978e-02 3.475111350417137146e-02
-3.844086527824401855e-01 1.767749339342117310e-01 1.019430905580520630e-01
8.985599875450134277e-02 2.142570316791534424e-01 1.431777328252792358e-01
2.200414426624774933e-02 6.920432299375534058e-02 -4.999722838401794434e-01
3.880657628178596497e-02 2.118547111749649048e-01 2.924560606479644775e-01
7.446186244487762451e-02 6.518216431140899658e-02 4.843106269836425781e-01
3.159185647964477539e-01 1.647470295429229736e-01 6.402019858360290527e-01
-1.371153295040130615e-01 2.104915678501129150e-01 -1.980632543563842773e-01
3.928487896919250488e-01 8.828724920749664307e-02 2.858240529894828796e-02
3.248844146728515625e-01 1.828362941741943359e-01 4.449136853218078613e-01
-2.279645353555679321e-01 6.784780323505401611e-02 -2.100883871316909790e-01
-2.291672974824905396e-01 1.222457140684127808e-01 7.598487138748168945e-01
4.330737143754959106e-02 7.221437990665435791e-02 -5.391016006469726562e-01
-3.297941014170646667e-02 5.460999161005020142e-02 -7.165227830410003662e-02
-1.023656278848648071e-01 2.049672901630401611e-01 -4.218059778213500977e-01
-4.436196088790893555e-01 1.184852197766304016e-01 8.980167657136917114e-02
1.976650059223175049e-01 7.728509604930877686e-02 5.714425444602966309e-01
-2.503335475921630859e-01 1.907239258289337158e-01 -4.493511021137237549e-01
1.238992437720298767e-01 7.389199733734130859e-02 5.957918167114257812e-01
-2.488315552473068237e-01 1.774507164955139160e-01 -6.090028285980224609e-01
2.311218529939651489e-01 6.664066761732101440e-02 -1.860810518264770508e-01
4.469532966613769531e-01 1.057682186365127563e-01 9.166544675827026367e-02
-1.133338660001754761e-01 5.884636193513870239e-02 2.273368835449218750e-01
-3.913196921348571777e-01 1.763115972280502319e-01 -8.597749471664428711e-02
2.826882004737854004e-01 2.006894648075103760e-01 1.290317028760910034e-01
9.356153011322021484e-02 2.020089775323867798e-01 4.959077835083007812e-01
1.917110085487365723e-01 1.912259161472320557e-01 5.733846426010131836e-01
3.219815716147422791e-02 7.115417718887329102e-02 5.912263989448547363e-01
1.481336951255798340e-01 2.128623723983764648e-01 1.106877997517585754e-02
1.592340767383575439e-01 1.940176934003829956e-01 -5.413407087326049805e-01
-4.427834153175354004e-01 1.449312120676040649e-01 -2.257476001977920532e-01
-1.836216151714324951e-01 8.671909570693969727e-02 6.322504281997680664e-01
2.116194218397140503e-01 6.694151461124420166e-02 3.552762269973754883e-01
-8.996180444955825806e-02 1.012401729822158813e-01 -7.887583971023559570e-01
1.399845629930496216e-01 5.828921496868133545e-02 2.066640406847000122e-01
-3.004171252250671387e-01 1.811607778072357178e-01 4.129284620285034180e-01
2.134778201580047607e-01 7.248340547084808350e-02 -3.753924369812011719e-01
-3.612036705017089844e-01 1.803557276725769043e-01 -2.488686740398406982e-01
-1.371301412582397461e-01 1.692158132791519165e-01 -7.799968719482421875e-01
1.335546225309371948e-01 1.792574822902679443e-01 7.390785813331604004e-01
-9.499040246009826660e-02 1.759902834892272949e-01 -7.625071406364440918e-01
4.635815620422363281e-01 1.411720514297485352e-01 2.770680785179138184e-01
-1.737298518419265747e-01 2.050989568233489990e-01 2.689105868339538574e-01
-1.785431951284408569e-01 1.901104152202606201e-01 -5.748914480209350586e-01
2.515426278114318848e-01 2.003292143344879150e-01 -2.552617788314819336e-01
-4.192713499069213867e-01 1.080459654331207275e-01 -2.153055965900421143e-01
2.305745780467987061e-01 1.925771236419677734e-01 5.021009445190429688e-01
-7.135567814111709595e-02 1.665033698081970215e-01 -8.226733803749084473e-01
1.003580167889595032e-01 2.129264026880264282e-01 -1.942018121480941772e-01
6.860500574111938477e-02 5.876574665307998657e-02 3.310058712959289551e-01
1.852363497018814087e-01 6.084364652633666992e-02 1.981517225503921509e-01
2.057286947965621948e-01 2.029142677783966064e-01 -3.130631148815155029e-01
6.985877454280853271e-02 2.150871455669403076e-01 -1.163798272609710693e-01
-1.151137948036193848e-01 6.018838286399841309e-02 2.776593565940856934e-01
3.365210890769958496e-01 8.344538509845733643e-02 -2.443020939826965332e-01
-2.422682195901870728e-02 2.019683271646499634e-01 -5.168163180351257324e-01
3.528414368629455566e-01 1.062972843647003174e-01 -4.745917916297912598e-01
2.100092917680740356e-01 2.053118050098419189e-01 2.634961605072021484e-01
1.382887065410614014e-01 6.031749397516250610e-02 -2.116266936063766479e-01
-1.831053942441940308e-01 6.442155689001083374e-02 -2.349335104227066040e-01
4.559694528579711914e-01 1.512170732021331787e-01 -1.629442870616912842e-01
3.512030839920043945e-01 7.964375615119934082e-02 1.252870559692382812e-01
-9.020618349313735962e-02 1.752263754606246948e-01 7.586145997047424316e-01
-2.442481741309165955e-02 7.489691674709320068e-02 6.320728063583374023e-01
-1.255474239587783813e-01 9.583188593387603760e-02 7.602150440216064453e-01
4.490583539009094238e-01 1.619893014430999756e-01 -6.103004515171051025e-02
-3.511260747909545898e-01 1.197177544236183167e-01 -5.663300156593322754e-01
-3.159093856811523438e-01 7.968123257160186768e-02 -2.069093585014343262e-01
1.331948339939117432e-01 2.089453339576721191e-01 3.052390813827514648e-01
1.471972465515136719e-01 9.994088858366012573e-02 8.101492524147033691e-01
-1.599554419517517090e-01 8.938778191804885864e-02 -6.649374961853027344e-01
-1.845290958881378174e-01 6.620437651872634888e-02 -2.881411910057067871e-01
4.907993599772453308e-02 2.027757465839385986e-01 -4.959974884986877441e-01
-4.221009090542793274e-02 2.047954052686691284e-01 4.472667276859283447e-01
-3.540517687797546387e-01 9.442996978759765625e-02 3.327234387397766113e-01
4.528503417968750000e-01 1.614188998937606812e-01 -9.215826168656349182e-03
-4.721018671989440918e-02 1.968409866094589233e-01 5.725433230400085449e-01
3.801804184913635254e-01 1.845124214887619019e-01 -5.017369985580444336e-02
1.837705671787261963e-01 9.368117153644561768e-02 7.460848093032836914e-01
-3.725492581725120544e-02 5.418344587087631226e-02 1.289525907486677170e-02
-4.509536176919937134e-02 1.794046312570571899e-01 7.506122589111328125e-01
7.400348782539367676e-02 1.078062802553176880e-01 -8.186755180358886719e-01
1.412097662687301636e-01 2.130541801452636719e-01 6.441900879144668579e-02
4.486157894134521484e-01 1.175042763352394104e-01 3.142188787460327148e-01
-7.602701336145401001e-02 1.860013306140899658e-01 6.800525784492492676e-01
-2.600995302200317383e-01 1.308307945728302002e-01 -7.491499781608581543e-01
-1.532017290592193604e-01 6.907650828361511230e-02 4.395261108875274658e-01
-2.446189671754837036e-01 7.392763346433639526e-02 -3.324609398841857910e-01
-8.533069863915443420e-03 5.945223569869995117e-02 3.626309335231781006e-01
-3.993054032325744629e-01 9.700354933738708496e-02 9.210824966430664062e-02
1.960681825876235962e-01 8.500885963439941406e-02 6.621615886688232422e-01
1.453537642955780029e-01 5.982178449630737305e-02 2.684717476367950439e-01
4.128322601318359375e-01 1.086861267685890198e-01 4.182295203208923340e-01
4.675911068916320801e-01 1.488204002380371094e-01 1.826828718185424805e-01
-2.523061037063598633e-01 7.299675047397613525e-02 -2.864435315132141113e-01
-2.120806127786636353e-01 8.192752301692962646e-02 5.401265621185302734e-01
-1.259952783584594727e-01 1.287464797496795654e-01 -8.620957136154174805e-01
2.868849635124206543e-01 1.938196122646331787e-01 3.559255897998809814e-01
6.625551730394363403e-02 2.099258303642272949e-01 -3.372615277767181396e-01
2.536222934722900391e-01 8.221670985221862793e-02 5.537233948707580566e-01
1.463442593812942505e-01 7.394936680793762207e-02 -4.946900010108947754e-01
9.161357581615447998e-02 6.557589769363403320e-02 -4.046933352947235107e-01
-3.687738180160522461e-01 1.477411538362503052e-01 -5.367399454116821289e-01
4.646263122558593750e-01 1.217577233910560608e-01 2.257452309131622314e-01
2.138463109731674194e-01 6.357844918966293335e-02 -1.247553974390029907e-01
-1.667078137397766113e-01 2.099362909793853760e-01 5.778958648443222046e-02
1.900730729103088379e-01 2.094962596893310547e-01 -1.053501218557357788e-01
-1.883358955383300781e-01 8.678169548511505127e-02 -6.131003499031066895e-01
4.684783816337585449e-01 1.522844880819320679e-01 5.493226647377014160e-02
4.850446805357933044e-02 5.857402831315994263e-02 -2.618972659111022949e-01
-2.452554851770401001e-01 6.975528597831726074e-02 2.218008935451507568e-01
-2.641103267669677734e-01 7.289078831672668457e-02 -2.398409545421600342e-01
-3.559064865112304688e-01 8.962337672710418701e-02 2.383878082036972046e-01
-6.432860344648361206e-02 7.283519208431243896e-02 5.879471898078918457e-01
8.542857319116592407e-02 1.717611849308013916e-01 -7.842600345611572266e-01
-5.610781908035278320e-02 2.074998319149017334e-01 3.812555968761444092e-01
3.087381124496459961e-01 7.255058735609054565e-02 1.527069136500358582e-02
2.342250496149063110e-01 1.609906405210494995e-01 -7.136903405189514160e-01
-5.946132540702819824e-02 2.147146612405776978e-01 1.095344126224517822e-01
1.231966242194175720e-01 5.619552731513977051e-02 1.847659982740879059e-02
3.660465478897094727e-01 8.261519670486450195e-02 -1.114495471119880676e-02
1.640359312295913696e-02 1.756671220064163208e-01 7.908413410186767578e-01
2.298195213079452515e-01 1.649919301271438599e-01 7.574496865272521973e-01
1.876920610666275024e-01 6.295036524534225464e-02 2.884189486503601074e-01
7.517567276954650879e-02 5.621793866157531738e-02 -1.424750983715057373e-01
1.775843650102615356e-01 2.066077142953872681e-01 3.003562688827514648e-01
1.032939180731773376e-04 2.133828401565551758e-01 2.377952635288238525e-01
4.292815327644348145e-01 1.097948327660560608e-01 -2.305883765220642090e-01
2.948855161666870117e-01 1.948085129261016846e-01 -2.506424486637115479e-01
2.649957537651062012e-01 1.795728802680969238e-01 -5.506446957588195801e-01
3.235288858413696289e-01 8.331143856048583984e-02 -2.908116877079010010e-01
-3.015090227127075195e-01 7.533124089241027832e-02 1.151561662554740906e-01
3.932913541793823242e-01 1.111077368259429932e-01 5.059760212898254395e-01
4.162058234214782715e-01 9.705220162868499756e-02 -9.450703859329223633e-02
-9.932643920183181763e-02 2.008128017187118530e-01 -5.015543699264526367e-01
1.139169186353683472e-01 1.686730384826660156e-01 8.177502155303955078e-01
2.600908875465393066e-01 9.047786891460418701e-02 6.335797309875488281e-01
2.437527924776077271e-01 2.045102715492248535e-01 -1.231964677572250366e-01
2.342892140150070190e-01 1.964567303657531738e-01 4.301673769950866699e-01
3.776464462280273438e-01 1.800742596387863159e-01 -2.197153568267822266e-01
4.963426664471626282e-02 5.540701746940612793e-02 2.027623653411865234e-01
3.397395014762878418e-01 8.039695024490356445e-02 2.677493691444396973e-01
6.853832304477691650e-02 5.482945591211318970e-02 1.335431486368179321e-01
4.792584851384162903e-02 5.633669346570968628e-02 -1.775212734937667847e-01
-3.352364301681518555e-01 1.860483884811401367e-01 1.883946955204010010e-01
-2.825508713722229004e-01 1.458677649497985840e-01 -7.130914926528930664e-01
2.274542599916458130e-01 2.041997611522674561e-01 -2.124512940645217896e-01
3.309509158134460449e-01 1.687693297863006592e-01 5.824608206748962402e-01
2.284272909164428711e-01 6.861174851655960083e-02 -2.556454241275787354e-01
2.169562503695487976e-04 6.360977143049240112e-02 -4.016790091991424561e-01
2.565988004207611084e-01 1.744411736726760864e-01 -6.071925163269042969e-01
-2.184906452894210815e-01 6.586081534624099731e-02 -1.650854349136352539e-01
-3.652539849281311035e-01 9.302552044391632080e-02 -2.813142836093902588e-01
-2.688813209533691406e-01 7.059728354215621948e-02 -1.106041744351387024e-01
1.467257142066955566e-01 5.736051499843597412e-02 8.288230746984481812e-02
3.200044035911560059e-01 1.962236464023590088e-01 3.275150060653686523e-02
7.179880887269973755e-02 2.152313292026519775e-01 9.987781941890716553e-02
-2.068992257118225098e-01 6.371797621250152588e-02 -1.001521423459053040e-01
-3.143151402473449707e-01 1.691536307334899902e-01 5.040097832679748535e-01
2.976136207580566406e-01 7.837374508380889893e-02 3.918864428997039795e-01
2.216305285692214966e-01 2.056433856487274170e-01 2.109039872884750366e-01
4.136974215507507324e-01 9.527117758989334106e-02 1.858524680137634277e-01
-2.609734535217285156e-01 1.998010873794555664e-01 1.232475414872169495e-01
3.124372959136962891e-01 8.563052862882614136e-02 4.751686453819274902e-01
2.397439032793045044e-01 9.570789337158203125e-02 -6.116759181022644043e-01
3.398193717002868652e-01 1.149799153208732605e-01 -5.537047982215881348e-01
3.405653238296508789e-01 1.440278738737106323e-01 6.802418231964111328e-01
-2.565588355064392090e-01 1.851299554109573364e-01 4.676369428634643555e-01
6.513561308383941650e-02 2.138449698686599731e-01 2.005105614662170410e-01
3.726605772972106934e-01 8.549162745475769043e-02 2.165227979421615601e-01
-4.922201111912727356e-02 9.867319464683532715e-02 8.202790021896362305e-01
2.439788132905960083e-01 1.059666723012924194e-01 -6.721726655960083008e-01
-1.453842371702194214e-01 7.229424268007278442e-02 5.059506893157958984e-01
1.846072822809219360e-01 7.312765717506408691e-02 5.271991491317749023e-01
3.390989899635314941e-01 8.193765580654144287e-02 3.153011202812194824e-01
-9.354289621114730835e-02 9.943336248397827148e-02 8.029564023017883301e-01
-3.355069160461425781e-01 1.766129732131958008e-01 -4.251993894577026367e-01
-7.609265297651290894e-02 2.144749164581298828e-01 -1.117695271968841553e-01
-1.130695641040802002e-02 6.775605678558349609e-02 5.358727574348449707e-01
2.863711714744567871e-01 1.991621702909469604e-01 -1.421419680118560791e-01
4.340162277221679688e-01 1.009151712059974670e-01 -3.772042691707611084e-04
-3.101719021797180176e-01 8.536955714225769043e-02 3.552247881889343262e-01
1.037430241703987122e-01 5.605948716402053833e-02 -7.182067632675170898e-02
-1.744040250778198242e-01 2.019368410110473633e-01 -3.900918960571289062e-01
5.217084288597106934e-02 5.421727150678634644e-02 9.043607115745544434e-02
2.533684968948364258e-01 6.658948957920074463e-02 -7.666748762130737305e-02
2.092739939689636230e-01 1.807112097740173340e-01 6.676659584045410156e-01
1.558939665555953979e-01 5.829991400241851807e-02 -5.115523189306259155e-02
-1.913155019283294678e-01 7.501566410064697266e-02 4.799624383449554443e-01
-3.888540267944335938e-01 1.209976151585578918e-01 -4.665099382400512695e-01
3.716285824775695801e-01 8.903694897890090942e-02 -2.024073451757431030e-01
-1.419764161109924316e-01 2.118577659130096436e-01 8.984028361737728119e-03
3.999826908111572266e-01 9.575559198856353760e-02 3.079726397991180420e-01
-2.420031577348709106e-01 6.665786355733871460e-02 -3.200317174196243286e-02
-2.900035120546817780e-03 1.984606087207794189e-01 5.650320053100585938e-01
1.764577440917491913e-02 5.464679002761840820e-02 -9.869313240051269531e-02
-5.849187076091766357e-02 8.665531873703002930e-02 7.359370589256286621e-01
-3.491009473800659180e-01 1.486445069313049316e-01 5.355213284492492676e-01
-3.517510294914245605e-01 1.801243275403976440e-01 -3.064503073692321777e-01
-3.344640731811523438e-01 1.045500338077545166e-01 -5.213471055030822754e-01
-2.784755825996398926e-01 1.921114325523376465e-01 2.924723625183105469e-01
6.880833208560943604e-02 1.929027736186981201e-01 -6.224015355110168457e-01
-9.695243835449218750e-02 5.724334716796875000e-02 1.843756288290023804e-01
1.147351861000061035e-01 1.448516547679901123e-01 -8.559077382087707520e-01
-3.738714456558227539e-01 1.810755133628845215e-01 1.477452646940946579e-02
9.484596550464630127e-02 2.055444121360778809e-01 4.281167089939117432e-01
-1.554858386516571045e-01 6.374684721231460571e-02 3.101838231086730957e-01
3.427305817604064941e-01 1.878288537263870239e-01 2.867446243762969971e-01
3.769045472145080566e-01 1.729335486888885498e-01 4.175715744495391846e-01
-4.168989062309265137e-01 1.595411300659179688e-01 -2.789220809936523438e-01
-2.834546193480491638e-02 5.794981867074966431e-02 3.072544634342193604e-01
-3.143537640571594238e-01 8.442287147045135498e-02 -3.326979875564575195e-01
6.825270131230354309e-03 8.237026631832122803e-02 7.176362872123718262e-01
-2.160117775201797485e-01 1.987281739711761475e-01 -3.761067092418670654e-01
3.012207746505737305e-01 7.286912947893142700e-02 -9.550818055868148804e-02
7.503544539213180542e-02 7.786330580711364746e-02 -5.978424549102783203e-01
3.013129234313964844e-01 1.575074046850204468e-01 7.031125426292419434e-01
-2.268116921186447144e-01 6.561103463172912598e-02 1.154048666357994080e-01
-9.167384356260299683e-02 1.944243609905242920e-01 5.769105553627014160e-01
2.310673147439956665e-01 7.754267752170562744e-02 -4.277913272380828857e-01
-2.059643566608428955e-01 6.307792663574218750e-02 6.001777946949005127e-02
8.426223695278167725e-02 1.826943755149841309e-01 7.313295006752014160e-01
-2.094389498233795166e-02 2.147052139043807983e-01 -1.815104335546493530e-01
-3.931866884231567383e-01 1.662638038396835327e-01 -3.288027942180633545e-01
-9.774387627840042114e-02 8.023525029420852661e-02 -6.190209388732910156e-01
-1.093676686286926270e-01 5.645777285099029541e-02 7.653549779206514359e-03
2.109525948762893677e-01 7.902659475803375244e-02 -4.825431108474731445e-01
3.425991535186767578e-02 6.296624243259429932e-02 4.510588347911834717e-01
-1.450249254703521729e-01 5.985896289348602295e-02 -1.511213928461074829e-01
2.430989593267440796e-01 1.822080612182617188e-01 6.122654676437377930e-01
-1.007728651165962219e-01 2.139259576797485352e-01 2.758414298295974731e-02
-2.835194468498229980e-01 1.372351497411727905e-01 6.900672912597656250e-01
-3.415222167968750000e-01 8.469397574663162231e-02 1.971844285726547241e-01
-4.250355362892150879e-01 1.614680290222167969e-01 -1.818572282791137695e-01
1.592558063566684723e-02 1.152902245521545410e-01 -8.602197766304016113e-01
-3.628021478652954102e-01 1.102543100714683533e-01 4.558281004428863525e-01
1.253609955310821533e-01 6.717243045568466187e-02 4.885701239109039307e-01
-1.580069810152053833e-01 2.081471085548400879e-01 2.048663198947906494e-01
-1.381681710481643677e-01 5.830965936183929443e-02 1.024821102619171143e-01
-2.454601973295211792e-01 1.837930530309677124e-01 -5.516261458396911621e-01
-1.616873443126678467e-01 1.885788440704345703e-01 5.796198248863220215e-01
-2.550405859947204590e-01 1.927290707826614380e-01 -4.033861756324768066e-01
1.962660998106002808e-01 2.076890468597412109e-01 -1.822866648435592651e-01
-3.193020820617675781e-01 1.888077259063720703e-01 -2.610928118228912354e-01
-4.303067326545715332e-01 1.608061790466308594e-01 5.838309973478317261e-02
-8.267282694578170776e-02 6.919079273939132690e-02 5.217548608779907227e-01
3.437589406967163086e-01 9.818004071712493896e-02 -4.306492507457733154e-01
-3.156212568283081055e-01 1.921093314886093140e-01 -1.598180532455444336e-01
8.384952694177627563e-02 2.108758240938186646e-01 3.000021278858184814e-01
-1.094226911664009094e-02 9.945365786552429199e-02 -7.935246825218200684e-01
1.354247033596038818e-01 6.844282150268554688e-02 -4.172949492931365967e-01
-4.215884208679199219e-01 1.220784485340118408e-01 -3.403531908988952637e-01
5.811116471886634827e-02 5.706251412630081177e-02 2.767148911952972412e-01
1.668991297483444214e-01 2.042743861675262451e-01 3.817006349563598633e-01
-6.802222877740859985e-02 7.246899604797363281e-02 -5.367137789726257324e-01
7.957524806261062622e-02 6.077136844396591187e-02 3.824311494827270508e-01
-1.193226873874664307e-01 7.354539632797241211e-02 -5.205534100532531738e-01
-9.059308469295501709e-02 5.617659538984298706e-02 -7.729411125183105469e-02
4.438368976116180420e-02 1.806285977363586426e-01 7.550637125968933105e-01
-1.102301627397537231e-01 6.719572097063064575e-02 -4.224550724029541016e-01
4.410017728805541992e-01 1.320257484912872314e-01 -2.992601692676544189e-01
2.007373794913291931e-02 5.387675762176513672e-02 -1.117976382374763489e-02
-8.477339893579483032e-02 5.601564049720764160e-02 1.309180855751037598e-01
-1.490694098174571991e-02 2.130426466464996338e-01 -2.602072358131408691e-01
-3.471938967704772949e-01 9.519764780998229980e-02 -3.906939923763275146e-01
1.893764361739158630e-03 2.115537524223327637e-01 -3.133155703544616699e-01
2.902250885963439941e-01 1.900162100791931152e-01 -3.662221431732177734e-01
1.690905839204788208e-01 1.509719043970108032e-01 -8.095589280128479004e-01
-2.429420500993728638e-01 1.982476711273193359e-01 2.627817988395690918e-01
1.373000591993331909e-01 1.769625544548034668e-01 -7.219872474670410156e-01
5.406109988689422607e-02 2.064924240112304688e-01 -4.251406490802764893e-01
2.319614887237548828e-01 2.060492336750030518e-01 1.349394917488098145e-01
3.072963953018188477e-01 9.211802482604980469e-02 5.656914710998535156e-01
1.001265570521354675e-01 2.146013677120208740e-01 -7.769086956977844238e-02
-3.580870032310485840e-01 1.025574803352355957e-01 4.118243455886840820e-01
7.068584114313125610e-02 2.157139778137207031e-01 -2.670681662857532501e-02
1.874939724802970886e-02 5.798214673995971680e-02 3.222385048866271973e-01
1.712387800216674805e-01 6.663122773170471191e-02 4.242566525936126709e-01
3.036592602729797363e-01 1.887953877449035645e-01 4.074560701847076416e-01
-3.586490154266357422e-01 1.825116723775863647e-01 -2.030098289251327515e-01
-3.402978777885437012e-01 8.266907185316085815e-02 -1.456496715545654297e-01
1.064947172999382019e-01 2.107969224452972412e-01 -2.701244652271270752e-01
5.861262977123260498e-02 8.592241257429122925e-02 7.475951313972473145e-01
1.329308897256851196e-01 8.692554384469985962e-02 7.293233871459960938e-01
-8.749119192361831665e-02 2.116248309612274170e-01 -2.527103424072265625e-01
-2.387761324644088745e-02 6.127516180276870728e-02 -3.462671041488647461e-01
-3.018262982368469238e-01 1.171467378735542297e-01 -6.566213965415954590e-01
8.786448836326599121e-02 1.972147673368453979e-01 -5.597139000892639160e-01
3.502262234687805176e-01 7.916502654552459717e-02 6.379570811986923218e-02
-2.064799219369888306e-01 1.931408792734146118e-01 4.534055292606353760e-01
1.926641538739204407e-02 1.988041996955871582e-01 -5.639284849166870117e-01
1.756477206945419312e-01 1.672993004322052002e-01 -7.471802830696105957e-01
1.396531313657760620e-01 1.988362073898315430e-01 5.163843035697937012e-01
-3.541289269924163818e-02 2.159018814563751221e-01 3.182078152894973755e-02
-5.320414900779724121e-02 2.049342393875122070e-01 -4.562781155109405518e-01
-3.010107278823852539e-01 8.504694700241088867e-02 -3.873318433761596680e-01
2.772525548934936523e-01 2.017545998096466064e-01 -4.256695508956909180e-02
2.986370921134948730e-01 8.673948049545288086e-02 5.231954455375671387e-01
3.744939565658569336e-01 1.689428389072418213e-01 4.705333709716796875e-01
-1.762211769819259644e-01 9.355878829956054688e-02 6.973837018013000488e-01
-6.747644394636154175e-02 1.993018984794616699e-01 5.259379744529724121e-01
-2.927387952804565430e-01 1.737617105245590210e-01 -5.628346800804138184e-01
-2.887210249900817871e-02 5.514217168092727661e-02 1.789765954017639160e-01
1.683114618062973022e-01 5.857726931571960449e-02 2.030044607818126678e-02
4.316831827163696289e-01 1.072419732809066772e-01 -1.841058135032653809e-01
-3.238435387611389160e-01 1.603810787200927734e-01 -5.916753411293029785e-01
-1.719871759414672852e-01 1.912758797407150269e-01 5.337824225425720215e-01
2.004366219043731689e-01 1.447732299566268921e-01 8.526413440704345703e-01
-2.069406062364578247e-01 1.849883943796157837e-01 5.588458180427551270e-01
-3.965972065925598145e-01 1.516304165124893188e-01 3.766250312328338623e-01
-1.078165248036384583e-01 2.137095034122467041e-01 -1.832451857626438141e-02
4.671155810356140137e-01 1.257129311561584473e-01 -1.117995530366897583e-01
4.692780971527099609e-02 2.161279022693634033e-01 2.654057927429676056e-02
6.883013993501663208e-02 1.428485810756683350e-01 -8.780357241630554199e-01
2.444269955158233643e-01 1.110513806343078613e-01 7.815542221069335938e-01
8.686168491840362549e-02 6.221377849578857422e-02 -3.349753916263580322e-01
3.004996180534362793e-01 1.813164651393890381e-01 5.235775113105773926e-01
-6.716086715459823608e-02 1.082102432847023010e-01 -8.295375108718872070e-01
-9.592661634087562561e-03 8.497515320777893066e-02 -6.889128088951110840e-01
1.812122017145156860e-01 2.108037620782852173e-01 -2.336520887911319733e-02
3.026491999626159668e-01 1.648498177528381348e-01 -5.920332670211791992e-01
-3.958438038825988770e-01 1.608387529850006104e-01 -3.753659129142761230e-01
9.354832023382186890e-02 8.334645628929138184e-02 -6.461766362190246582e-01
3.945591449737548828e-01 1.175896674394607544e-01 -4.253197610378265381e-01
-3.710533976554870605e-01 1.598984003067016602e-01 -4.734538197517395020e-01
-1.867000013589859009e-01 7.611416280269622803e-02 -4.848894774913787842e-01
-3.283287882804870605e-01 9.415803849697113037e-02 -4.367712140083312988e-01
2.193102091550827026e-01 1.840212941169738770e-01 -5.795279741287231445e-01
1.854055821895599365e-01 6.235890835523605347e-02 -1.737617254257202148e-01
4.746144413948059082e-01 1.443479508161544800e-01 1.251680999994277954e-01
-4.166461229324340820e-01 1.105505526065826416e-01 -2.707004547119140625e-01
4.147911071777343750e-01 1.735247075557708740e-01 -1.209638714790344238e-01
4.691391587257385254e-01 1.190457865595817566e-01 2.340546064078807831e-02
-2.963384389877319336e-01 7.861609756946563721e-02 -2.717845737934112549e-01
4.087052345275878906e-01 1.718700230121612549e-01 2.906056642532348633e-01
-1.059152930974960327e-01 6.635766476392745972e-02 4.495816826820373535e-01
-1.543680727481842041e-01 1.860773265361785889e-01 -6.436558961868286133e-01
3.686518669128417969e-01 1.018378734588623047e-01 -3.943314552307128906e-01
-4.232497215270996094e-01 1.280417293310165405e-01 3.042753934860229492e-01
1.652402430772781372e-01 6.789147108793258667e-02 -3.678343296051025391e-01
1.418501585721969604e-01 2.099869698286056519e-01 -2.382625937461853027e-01
2.668471336364746094e-01 7.134982198476791382e-02 -2.104733735322952271e-01
-3.280150294303894043e-01 1.700397878885269165e-01 -5.156297683715820312e-01
-3.783335685729980469e-01 8.985061198472976685e-02 -3.830848634243011475e-02
-2.187835425138473511e-01 7.308324426412582397e-02 -3.769551217555999756e-01
-1.817435026168823242e-01 2.091103941202163696e-01 -4.675812274217605591e-02
1.289759874343872070e-01 2.032465636730194092e-01 -4.301838278770446777e-01
4.891257360577583313e-02 2.099730521440505981e-01 3.455204367637634277e-01
-4.355810284614562988e-01 1.285535246133804321e-01 2.356481850147247314e-01
-2.106535434722900391e-02 2.156274914741516113e-01 -1.161382794380187988e-01
-1.019624620676040649e-02 2.093220502138137817e-01 3.617412149906158447e-01
-3.441398739814758301e-01 8.290114998817443848e-02 1.027290299534797668e-01
3.969250321388244629e-01 1.785405874252319336e-01 2.117410153150558472e-01
2.122282087802886963e-01 2.085122615098953247e-01 4.053709656000137329e-02
-2.815873622894287109e-01 1.724779754877090454e-01 5.484670996665954590e-01
-3.039492964744567871e-01 1.058453842997550964e-01 5.783240199089050293e-01
3.406944870948791504e-01 1.924180239439010620e-01 1.124849990010261536e-01
1.109751462936401367e-01 6.147623807191848755e-02 -2.907190322875976562e-01
3.749828934669494629e-01 9.541285037994384766e-02 -2.986958026885986328e-01
1.561223417520523071e-01 6.531130522489547729e-02 -3.251205682754516602e-01
2.352664619684219360e-01 2.001562863588333130e-01 3.482903838157653809e-01
1.076902002096176147e-01 5.766783654689788818e-02 2.465903460979461670e-01
9.129559248685836792e-02 1.957001686096191406e-01 5.916690826416015625e-01
3.768888711929321289e-01 1.858166754245758057e-01 1.257765386253595352e-02
-4.200309514999389648e-01 1.665473729372024536e-01 1.149692572653293610e-03
3.433886766433715820e-01 1.905065774917602539e-01 1.957636475563049316e-01
-1.080657392740249634e-01 -2.667367458343505859e-01 1.299837045371532440e-02
1.299141645431518555e-01 -5.073239281773567200e-02 4.030153751373291016e-01
1.211947649717330933e-01 9.197625517845153809e-02 -1.305082291364669800e-01
-2.031629383563995361e-01 1.019907146692276001e-01 6.073234975337982178e-02
6.212236359715461731e-02 -2.123409360647201538e-01 3.086846470832824707e-01
3.096981346607208252e-01 -1.480430364608764648e-04 -1.302738338708877563e-01
-4.376990199089050293e-01 -6.244036182761192322e-02 -5.063726007938385010e-02
-2.330271899700164795e-01 -1.037381589412689209e-01 -4.232223033905029297e-01
-3.127230703830718994e-02 -3.807530552148818970e-02 -4.785636067390441895e-01
8.852751553058624268e-02 -1.913065910339355469e-01 -3.734426796436309814e-01
6.342096626758575439e-02 -8.708782494068145752e-03 -4.388719201087951660e-01
2.508937418460845947e-01 3.116571158170700073e-02 -1.870923340320587158e-01
-2.824560105800628662e-01 -1.277756392955780029e-01 -3.660406768321990967e-01
-4.203829765319824219e-01 -8.465379476547241211e-03 -1.282957661896944046e-02
2.945335209369659424e-01 -2.212835475802421570e-02 2.019675970077514648e-01
2.110466957092285156e-01 -1.992628574371337891e-01 2.318465709686279297e-01
-4.020082056522369385e-01 -1.429791748523712158e-02 -1.751949936151504517e-01
-1.411914080381393433e-01 6.857921183109283447e-02 2.731948196887969971e-01
1.907299906015396118e-01 -2.291871011257171631e-01 1.526926904916763306e-01
-3.220381438732147217e-01 -1.912924796342849731e-01 1.263056844472885132e-01
-2.300739660859107971e-02 -8.321282267570495605e-02 4.489209353923797607e-01
5.520439520478248596e-02 2.461571246385574341e-02 3.623668253421783447e-01
3.541014492511749268e-01 -1.225996017456054688e-01 6.366518139839172363e-02
1.363332271575927734e-01 -1.538492739200592041e-01 3.709130585193634033e-01
-3.008122146129608154e-01 6.998935341835021973e-02 8.777477592229843140e-02
1.441470980644226074e-01 -1.796596497297286987e-01 -3.624711334705352783e-01
-1.726102977991104126e-01 -1.543919593095779419e-01 3.745490908622741699e-01
-2.052892446517944336e-01 1.042988598346710205e-01 1.724417693912982941e-02
1.033531874418258667e-01 -9.431457519531250000e-02 4.212974607944488525e-01
-1.222440898418426514e-01 -2.537755370140075684e-01 1.385976821184158325e-01
8.563508093357086182e-02 -1.997214257717132568e-01 3.271977603435516357e-01
5.468232557177543640e-02 1.100650578737258911e-01 1.436070539057254791e-02
-1.681704632937908173e-02 7.992330193519592285e-02 2.551969885826110840e-01
-3.324681818485260010e-01 5.999243259429931641e-02 4.851258546113967896e-02
-3.115561902523040771e-01 -1.280075907707214355e-01 2.874598205089569092e-01
7.072943449020385742e-02 -3.756819292902946472e-02 -4.578005373477935791e-01
-5.700255930423736572e-02 -2.520858943462371826e-01 -2.211221903562545776e-01
-7.332038879394531250e-02 -1.277594417333602905e-01 -4.688473641872406006e-01
2.154730409383773804e-01 -1.077488064765930176e-01 -3.755854666233062744e-01
-4.000179097056388855e-02 5.573351681232452393e-02 -3.648023307323455811e-01
-3.478450477123260498e-01 -1.333544552326202393e-01 -2.748360633850097656e-01
-1.143968403339385986e-01 -2.569386363029479980e-01 -1.610234975814819336e-01
1.924482285976409912e-01 7.646238803863525391e-02 -4.749836027622222900e-02
1.803020238876342773e-01 -1.404896080493927002e-01 -3.849813938140869141e-01
-4.221599996089935303e-01 -1.136546432971954346e-01 3.874637931585311890e-02
2.996754646301269531e-01 -1.905279755592346191e-01 -7.823919504880905151e-02
6.647564470767974854e-02 9.193606674671173096e-02 1.675766855478286743e-01
1.583435386419296265e-01 8.255276083946228027e-02 -1.227976530790328979e-01
1.028458774089813232e-01 9.872277081012725830e-02 -1.043328940868377686e-01
-1.236990541219711304e-01 1.161568164825439453e-01 -1.341249048709869385e-02
6.969341635704040527e-02 2.372482419013977051e-02 -3.958059251308441162e-01
-1.290342211723327637e-01 1.020012199878692627e-01 1.471929401159286499e-01
-3.220487534999847412e-01 2.771562337875366211e-02 2.093896716833114624e-01
-8.041527867317199707e-02 9.216888248920440674e-02 2.116938978433609009e-01
-5.588277429342269897e-02 -2.687525153160095215e-01 6.241081655025482178e-02
-5.612231791019439697e-02 -2.714806795120239258e-01 -1.521769911050796509e-03
-2.100668996572494507e-01 -1.290501952171325684e-01 3.780514001846313477e-01
-2.015434354543685913e-01 -1.585962623357772827e-01 3.523805737495422363e-01
-3.241807818412780762e-01 -2.045142352581024170e-01 5.390755832195281982e-03
-9.619002789258956909e-02 3.907784074544906616e-02 -3.949835002422332764e-01
-2.656901776790618896e-01 9.007710218429565430e-02 -2.328617870807647705e-02
-7.138937711715698242e-02 -2.700693309307098389e-01 -5.314843356609344482e-02
-4.239932000637054443e-01 -3.160875290632247925e-02 -1.191903576254844666e-01
-2.885185778141021729e-01 -2.216930091381072998e-01 -6.826083175837993622e-03
-2.391936331987380981e-01 4.640301316976547241e-02 -3.141703605651855469e-01
-1.741718947887420654e-01 8.833520114421844482e-02 1.859687566757202148e-01
1.309742778539657593e-01 8.341200649738311768e-02 -1.743982136249542236e-01
-2.767591178417205811e-01 -4.203004390001296997e-02 3.455892503261566162e-01
3.511033952236175537e-01 -3.779135644435882568e-02 1.782739348709583282e-02
2.233263999223709106e-01 -5.558670684695243835e-02 3.355087339878082275e-01
-6.848779320716857910e-02 -2.214068025350570679e-01 -3.288966417312622070e-01
1.469443589448928833e-01 1.855773478746414185e-02 -3.569236993789672852e-01
-2.232681214809417725e-01 -1.826303601264953613e-01 -3.389924168586730957e-01
-4.245891869068145752e-01 -2.810847759246826172e-02 5.473044514656066895e-02
1.288333386182785034e-01 4.067547619342803955e-02 -3.279840350151062012e-01
4.263105615973472595e-02 -2.674528360366821289e-01 -1.024310290813446045e-01
1.257285475730895996e-01 -2.439661920070648193e-01 1.657554507255554199e-01
2.983716726303100586e-01 -4.723692685365676880e-02 -2.556864023208618164e-01
8.315505087375640869e-02 -2.273097783327102661e-01 -2.914571166038513184e-01
1.914604753255844116e-01 7.650484144687652588e-02 2.121502719819545746e-02
2.463760524988174438e-01 -5.299758911132812500e-02 -3.388461768627166748e-01
-1.334818750619888306e-01 7.703018188476562500e-02 -2.968295514583587646e-01
1.893402189016342163e-01 -2.387128174304962158e-01 -1.231338456273078918e-01
-6.205389276146888733e-02 -1.596417129039764404e-01 -4.412635564804077148e-01
-1.337810009717941284e-01 -2.599045634269714355e-01 -1.095527485013008118e-01
1.879693418741226196e-01 -2.001892328262329102e-01 2.560016214847564697e-01
1.238594353199005127e-01 1.287177950143814087e-02 -3.826578259468078613e-01
-2.679155468940734863e-01 -2.286411970853805542e-01 2.802871353924274445e-02
1.056232452392578125e-01 -2.564054429531097412e-01 1.099505051970481873e-01
1.517484337091445923e-01 9.847953915596008301e-04 3.452132344245910645e-01
2.759037017822265625e-01 3.186300396919250488e-02 6.843570619821548462e-02
-1.244148313999176025e-01 -1.950893402099609375e-01 -3.731729090213775635e-01
-1.718843579292297363e-01 -2.546589672565460205e-01 -8.960625529289245605e-02
2.510569095611572266e-01 4.316184669733047485e-02 9.477504342794418335e-02
-3.812597990036010742e-01 -1.354311406612396240e-01 1.515289247035980225e-01
1.054677218198776245e-01 -2.362969815731048584e-01 2.169165313243865967e-01
-2.840546071529388428e-01 8.334907889366149902e-02 9.267805144190788269e-03
6.033371016383171082e-02 -8.501149713993072510e-02 -4.720905125141143799e-01
1.521415710449218750e-01 4.463165998458862305e-02 2.620371282100677490e-01
-5.970411002635955811e-02 7.820855081081390381e-02 2.635741829872131348e-01
1.283751428127288818e-01 -2.074909359216690063e-01 -3.179949522018432617e-01
-2.616733908653259277e-01 -1.604981124401092529e-01 -3.442516326904296875e-01
3.444530963897705078e-01 -2.737519517540931702e-02 -5.061698704957962036e-02
1.412683278322219849e-01 -2.564660906791687012e-01 -5.948470532894134521e-02
-2.389226406812667847e-01 8.068889379501342773e-02 1.519127339124679565e-01
-3.997088372707366943e-01 7.511243224143981934e-03 6.665321439504623413e-02
2.408826500177383423e-01 -1.830308437347412109e-01 -2.583257555961608887e-01
-1.448601484298706055e-03 -2.536901831626892090e-01 1.845148801803588867e-01
-2.513006329536437988e-02 -1.714036464691162109e-01 3.923937380313873291e-01
-1.219842731952667236e-01 -1.333488672971725464e-01 -4.553880691528320312e-01
5.785511061549186707e-02 8.401855826377868652e-02 2.107850015163421631e-01
1.366656422615051270e-01 -1.412283927202224731e-01 -4.139783978462219238e-01
1.248100101947784424e-01 -2.607094645500183105e-01 -2.006205543875694275e-02
-2.669836580753326416e-01 -1.876429468393325806e-01 -2.825648784637451172e-01
-8.786498010158538818e-02 8.592295646667480469e-02 -2.789280414581298828e-01
1.372973471879959106e-01 -3.206736221909523010e-02 -4.220641851425170898e-01
-3.106214106082916260e-01 1.783335953950881958e-02 2.467246353626251221e-01
-2.831312716007232666e-01 -4.245092347264289856e-02 -3.876175284385681152e-01
2.686624228954315186e-01 -1.259600967168807983e-01 2.760418653488159180e-01
2.286999076604843140e-01 3.659363090991973877e-02 -2.148369699716567993e-01
1.932457089424133301e-01 -1.342824250459671021e-01 3.501230776309967041e-01
-4.134381115436553955e-01 -1.366414129734039307e-03 2.086811326444149017e-02
-1.027711331844329834e-01 1.934722065925598145e-03 4.020379185676574707e-01
-3.492359519004821777e-01 -5.120202898979187012e-03 2.271615117788314819e-01
-9.366242215037345886e-03 1.167591959238052368e-01 6.554208695888519287e-03
6.427370011806488037e-02 -2.560690045356750488e-01 -1.809902787208557129e-01
2.145398110151290894e-01 -2.369261234998703003e-01 -5.279444158077239990e-04
2.739618420600891113e-01 -1.979829967021942139e-01 -1.420358270406723022e-01
3.054195046424865723e-01 3.087222576141357422e-03 1.046453192830085754e-01
-1.931071132421493530e-01 -9.068390727043151855e-02 4.073390066623687744e-01
1.656181961297988892e-01 -3.872079402208328247e-02 -4.073430597782135010e-01
-1.747323423624038696e-01 -2.235687375068664551e-01 2.313477694988250732e-01
5.192128196358680725e-02 -2.648878991603851318e-01 9.174335002899169922e-02
-1.209746599197387695e-01 6.581075489521026611e-02 -3.328994512557983398e-01
1.666388213634490967e-01 -2.308518141508102417e-01 1.802361607551574707e-01
-3.099267184734344482e-01 5.678069591522216797e-02 1.379474252462387085e-01
2.081278264522552490e-01 -2.352360188961029053e-01 7.091870158910751343e-02
-2.232365757226943970e-01 1.646909117698669434e-02 3.333455324172973633e-01
-1.650390177965164185e-01 4.433401674032211304e-02 3.196595907211303711e-01
2.246795222163200378e-02 -2.700203657150268555e-01 5.052083730697631836e-02
2.444369643926620483e-01 1.658841222524642944e-02 2.140302211046218872e-01
-3.891295790672302246e-01 2.681577205657958984e-02 -3.342439234256744385e-02
-8.839096873998641968e-03 -2.481811344623565674e-01 -2.438559383153915405e-01
1.878999173641204834e-01 -2.201722413301467896e-01 -2.233497351408004761e-01
2.858404815196990967e-01 -1.803634762763977051e-01 -1.794084310531616211e-01
-1.122452020645141602e-01 1.121788024902343750e-01 7.980809360742568970e-02
-4.319048225879669189e-01 -6.483303755521774292e-02 -1.091574281454086304e-01
-2.170054018497467041e-01 -2.275885492563247681e-01 1.679935902357101440e-01
-1.776050776243209839e-03 -2.701559960842132568e-01 -9.141530096530914307e-02
7.463698089122772217e-02 -2.649748027324676514e-01 -9.633087366819381714e-02
2.386610582470893860e-02 -2.200981080532073975e-01 2.992106974124908447e-01
-1.704431176185607910e-01 1.708921045064926147e-02 3.622518479824066162e-01
-3.975386023521423340e-01 -5.037911236286163330e-02 -2.274250388145446777e-01
2.627031505107879639e-01 -7.541649043560028076e-03 -2.659408748149871826e-01
2.080367654561996460e-01 1.691534370183944702e-02 -2.985949516296386719e-01
1.249435096979141235e-01 9.646791219711303711e-02 2.072244323790073395e-02
9.966735541820526123e-02 -9.386436641216278076e-02 -4.565493166446685791e-01
5.492682382464408875e-02 -2.411036938428878784e-01 -2.573226392269134521e-01
-3.929394781589508057e-01 -1.075281277298927307e-01 -2.174537032842636108e-01
-3.244079351425170898e-01 -1.767284423112869263e-01 -2.217137664556503296e-01
2.699816226959228516e-01 -1.959652006626129150e-01 1.371921896934509277e-01
1.895990520715713501e-01 4.021035134792327881e-02 -2.659556567668914795e-01
2.277957051992416382e-01 -5.840130150318145752e-03 -3.140218257904052734e-01
1.505302265286445618e-02 2.670832723379135132e-02 3.703285455703735352e-01
-2.460243105888366699e-01 1.729331910610198975e-03 -3.833570182323455811e-01
-9.986138343811035156e-02 1.566680520772933960e-02 -4.294787645339965820e-01
3.837079182267189026e-02 -2.127962559461593628e-01 -3.469305932521820068e-01
2.510318756103515625e-01 -2.046701163053512573e-01 -1.728580743074417114e-01
2.575740218162536621e-01 -6.724078208208084106e-02 3.020064234733581543e-01
3.243348598480224609e-01 -1.013636589050292969e-02 7.745222002267837524e-02
-1.206775940954685211e-02 -2.692851126194000244e-01 7.129248976707458496e-02
1.299754679203033447e-01 -2.211689203977584839e-01 -2.800045609474182129e-01
-2.424111962318420410e-01 -6.037037819623947144e-02 3.784059882164001465e-01
6.941895186901092529e-02 -8.004665374755859375e-03 3.991210460662841797e-01
-2.827088534832000732e-01 1.582255959510803223e-02 2.833081185817718506e-01
-3.472671508789062500e-01 -7.248344272375106812e-02 2.721294164657592773e-01
3.472547531127929688e-01 -5.712555721402168274e-02 1.056463792920112610e-01
2.153332084417343140e-01 5.243963003158569336e-02 1.440507471561431885e-01
2.213899046182632446e-01 6.508864462375640869e-02 6.585136055946350098e-03
2.254813909530639648e-03 9.546004235744476318e-02 -2.307833433151245117e-01
9.627845883369445801e-02 -2.639915347099304199e-01 -6.816704571247100830e-02
3.462794423103332520e-01 -1.431581974029541016e-01 -6.980821490287780762e-02
-2.047606185078620911e-02 -2.724134922027587891e-01 -4.267395660281181335e-02
1.532358080148696899e-01 -2.467997521162033081e-01 1.107246354222297668e-01
-7.483188807964324951e-02 -2.579695284366607666e-01 1.461970210075378418e-01
-1.021393388509750366e-01 1.159108132123947144e-01 -8.392756432294845581e-02
1.840551942586898804e-02 1.975275576114654541e-03 4.025063514709472656e-01
-1.874319277703762054e-02 -2.590758502483367920e-01 -1.887246668338775635e-01
-3.025315403938293457e-01 -2.091159671545028687e-01 -1.258612722158432007e-01
-1.639932021498680115e-02 2.225524187088012695e-02 3.816975355148315430e-01
-2.476630508899688721e-01 -1.803715154528617859e-02 3.542137145996093750e-01
1.872014701366424561e-01 5.861951410770416260e-02 -2.054182887077331543e-01
-2.517878115177154541e-01 -1.446643173694610596e-01 -3.755184113979339600e-01
-2.253302633762359619e-01 -5.948164314031600952e-02 -4.350006580352783203e-01
9.453606605529785156e-02 3.162641823291778564e-02 -3.698017895221710205e-01
-2.282643318176269531e-02 6.815496087074279785e-02 2.910852134227752686e-01
3.322099149227142334e-01 -4.106441885232925415e-02 -1.636420637369155884e-01
-2.951200902462005615e-01 -2.180127203464508057e-01 -6.266382336616516113e-02
-3.376837968826293945e-01 -7.727707922458648682e-02 -3.334814608097076416e-01
-4.365203380584716797e-01 -4.791998863220214844e-02 -1.285469718277454376e-02
-6.686375290155410767e-02 1.070649772882461548e-01 -1.807391792535781860e-01
-2.477902024984359741e-01 8.466772735118865967e-02 1.151956096291542053e-01
-4.045635461807250977e-01 -1.372888684272766113e-01 -1.041171178221702576e-01
1.245130002498626709e-01 6.515049934387207031e-02 -2.639237940311431885e-01
-2.394436150789260864e-01 -2.636984363198280334e-02 -4.129604995250701904e-01
-3.724401295185089111e-01 -1.009032204747200012e-01 2.193186283111572266e-01
-6.728286296129226685e-02 -1.766492724418640137e-01 3.814277052879333496e-01
-4.114116728305816650e-02 -2.591087818145751953e-01 1.517384201288223267e-01
-2.718836665153503418e-01 5.355465412139892578e-02 -2.615338861942291260e-01
-3.315326273441314697e-01 6.332424283027648926e-02 -6.144099682569503784e-02
1.726765036582946777e-01 -2.479733824729919434e-01 -7.627443224191665649e-02
-4.285667836666107178e-02 8.458015322685241699e-02 -2.851046025753021240e-01
-1.895055919885635376e-01 1.061430126428604126e-01 -8.676563948392868042e-02
-1.852693259716033936e-01 6.353284418582916260e-02 2.638769149780273438e-01
-1.820105165243148804e-01 -2.414617687463760376e-01 1.447526812553405762e-01
-8.986186236143112183e-03 -2.158750593662261963e-01 -3.470627069473266602e-01
-3.558257222175598145e-01 9.680092334747314453e-04 -2.571728229522705078e-01
-3.125382065773010254e-01 -1.703463494777679443e-01 -2.609317302703857422e-01
-3.429886102676391602e-01 4.517415165901184082e-02 1.080480143427848816e-01
-1.238867342472076416e-01 -3.437411412596702576e-02 4.256288111209869385e-01
1.806752532720565796e-01 -2.113339602947235107e-01 -2.617398798465728760e-01
-2.881931960582733154e-01 3.584604710340499878e-02 -2.879361212253570557e-01
-1.559917628765106201e-02 -2.671775221824645996e-01 -1.276181936264038086e-01
