-3.122861385345458984e-01 7.573677897453308105e-01 6.172592937946319580e-02
-3.102353811264038086e-01 7.528907060623168945e-01 -6.802870333194732666e-02
-2.662919163703918457e-01 5.071050524711608887e-01 -2.926218211650848389e-01
-3.535031676292419434e-01 7.741014361381530762e-01 -1.577768623828887939e-01
-2.904760539531707764e-01 6.333229541778564453e-01 -3.326472342014312744e-01
-2.744148075580596924e-01 6.310085058212280273e-01 8.550594747066497803e-02
-2.892909049987792969e-01 5.396485924720764160e-01 3.483416438102722168e-01
-3.437843918800354004e-01 5.633032321929931641e-01 4.873984307050704956e-02
-3.169681727886199951e-01 7.446467876434326172e-01 -2.183097004890441895e-01
-2.716696858406066895e-01 5.647189617156982422e-01 -2.907237708568572998e-01
-2.810826599597930908e-01 6.624680161476135254e-01 6.026689708232879639e-02
-3.101364970207214355e-01 5.068137049674987793e-01 2.922873198986053467e-01
-3.353324532508850098e-01 6.972650289535522461e-01 -3.391339778900146484e-01
-3.626005351543426514e-01 7.147152423858642578e-01 -1.147489249706268311e-01
-3.115700781345367432e-01 5.583049654960632324e-01 -3.923476636409759521e-01
-2.667437493801116943e-01 5.635342001914978027e-01 1.778894364833831787e-01
-2.824166119098663330e-01 5.591811537742614746e-01 -3.694100081920623779e-01
-3.177360296249389648e-01 4.688450694084167480e-01 -1.222505699843168259e-02
-3.527247905731201172e-01 6.562905311584472656e-01 -2.179389446973800659e-01
-3.367509543895721436e-01 7.837377786636352539e-01 1.612145900726318359e-01
-2.794565260410308838e-01 6.549551486968994141e-01 -1.080524474382400513e-01
-3.612020909786224365e-01 6.688654422760009766e-01 -5.226913467049598694e-02
-2.670638859272003174e-01 6.024260520935058594e-01 -4.605802148580551147e-02
-3.604356050491333008e-01 6.616236567497253418e-01 5.934003740549087524e-02
-3.049446046352386475e-01 4.527864456176757812e-01 1.532967090606689453e-01
-2.626490294933319092e-01 5.474444627761840820e-01 1.432121247053146362e-01
-2.970462441444396973e-01 7.139430046081542969e-01 -1.214068681001663208e-01
-3.144360482692718506e-01 4.756427705287933350e-01 1.562413275241851807e-01
-3.116923272609710693e-01 5.216032862663269043e-01 3.138191103935241699e-01
-2.825316190719604492e-01 4.411264359951019287e-01 -2.812545895576477051e-01
-3.631489574909210205e-01 6.850143671035766602e-01 -1.988017931580543518e-02
-3.418893814086914062e-01 5.998791456222534180e-01 2.476723790168762207e-01
-2.835252881050109863e-01 5.472357273101806641e-01 3.304159939289093018e-01
-3.450026512145996094e-01 6.031310558319091797e-01 -2.234027236700057983e-01
-3.070693016052246094e-01 7.203009724617004395e-01 2.173033207654953003e-01
-3.651478886604309082e-01 7.458181381225585938e-01 4.520896449685096741e-02
-2.988930940628051758e-01 7.226014733314514160e-01 6.664535403251647949e-02
-3.622887730598449707e-01 7.676651477813720703e-01 8.826604485511779785e-02
-2.985620498657226562e-01 4.350420832633972168e-01 -1.740981042385101318e-01
-2.587674260139465332e-01 4.553381204605102539e-01 1.403718441724777222e-01
-2.684424519538879395e-01 5.504118204116821289e-01 2.213913500308990479e-01
-2.822591662406921387e-01 4.026835560798645020e-01 -9.965880215167999268e-02
-3.162254095077514648e-01 7.526125311851501465e-01 -1.749993860721588135e-01
-3.601456582546234131e-01 7.167453765869140625e-01 -1.614752262830734253e-01
-2.689245939254760742e-01 4.487262368202209473e-01 2.101642489433288574e-01
-3.517635166645050049e-01 6.422632336616516113e-01 2.108956426382064819e-01
-3.517002165317535400e-01 7.398544549942016602e-01 2.454945147037506104e-01
-3.048990368843078613e-01 4.455773532390594482e-01 1.095434352755546570e-01
-3.140027523040771484e-01 4.669557213783264160e-01 -1.481462419033050537e-01
-2.542123198509216309e-01 4.459369778633117676e-01 5.332811176776885986e-02
-3.085251450538635254e-01 4.593300223350524902e-01 -1.893751025199890137e-01
-3.655544817447662354e-01 7.301288247108459473e-01 1.331895869225263596e-02
-3.307963907718658447e-01 5.205923914909362793e-01 1.273674219846725464e-01
-3.065831363201141357e-01 7.424302101135253906e-01 7.949065417051315308e-02
-2.912798523902893066e-01 4.264983534812927246e-01 1.391245424747467041e-01
-3.215317130088806152e-01 7.377530336380004883e-01 -2.664479315280914307e-01
-2.960632741451263428e-01 4.193067550659179688e-01 -4.227099195122718811e-02
-2.918179929256439209e-01 6.616476774215698242e-01 2.513796389102935791e-01
-3.372636139392852783e-01 6.729434728622436523e-01 3.412251770496368408e-01
-2.554385066032409668e-01 5.160542130470275879e-01 3.571681305766105652e-02
-3.274476826190948486e-01 6.249079704284667969e-01 -3.787353932857513428e-01
-3.414506912231445312e-01 7.768277525901794434e-01 -1.879036128520965576e-01
-3.045283257961273193e-01 4.595812559127807617e-01 -2.344851344823837280e-01
-3.342154324054718018e-01 5.266649723052978516e-01 7.781299203634262085e-02
-2.968515157699584961e-01 7.042896151542663574e-01 -1.821913272142410278e-01
-3.478391766548156738e-01 6.221228837966918945e-01 2.233998775482177734e-01
-2.919407486915588379e-01 5.841090679168701172e-01 3.533067703247070312e-01
-2.883204221725463867e-01 5.906971096992492676e-01 3.341668546199798584e-01
-3.557446599006652832e-01 6.533983945846557617e-01 -1.643921732902526855e-01
-2.942046821117401123e-01 4.231924116611480713e-01 -1.457665413618087769e-01
-3.633685708045959473e-01 7.667084932327270508e-01 5.791854858398437500e-02
-3.595573604106903076e-01 6.580902338027954102e-01 -7.488258928060531616e-02
-2.599107921123504639e-01 4.046213626861572266e-01 -5.255720019340515137e-02
-2.683037519454956055e-01 5.748097300529479980e-01 -2.307468950748443604e-01
-2.623234093189239502e-01 4.159121811389923096e-01 9.309770911931991577e-02
-3.570131659507751465e-01 7.792543768882751465e-01 -1.112787798047065735e-01
-2.756489813327789307e-01 4.113354980945587158e-01 -1.912151277065277100e-01
-3.329488039016723633e-01 7.182547450065612793e-01 3.204452693462371826e-01
-3.470245897769927979e-01 5.869764685630798340e-01 1.195145025849342346e-01
-2.672664225101470947e-01 5.830675363540649414e-01 1.351659595966339111e-01
-3.645056784152984619e-01 7.154145240783691406e-01 -5.595797300338745117e-02
-2.522513270378112793e-01 4.725910425186157227e-01 -6.150276213884353638e-02
-2.594769299030303955e-01 4.984869956970214844e-01 1.573274433612823486e-01
-2.877364158630371094e-01 6.235416531562805176e-01 2.939322888851165771e-01
-2.652111053466796875e-01 5.232472419738769531e-01 2.124129384756088257e-01
-2.866435348987579346e-01 6.865280270576477051e-01 -1.053464785218238831e-02
-3.229883611202239990e-01 4.950277507305145264e-01 -1.591361910104751587e-01
-3.320645987987518311e-01 5.379854440689086914e-01 1.904739141464233398e-01
-3.127907514572143555e-01 6.165042519569396973e-01 -4.067544341087341309e-01
-3.557175397872924805e-01 6.487441658973693848e-01 1.585072427988052368e-01
-3.531374931335449219e-01 6.256418824195861816e-01 -1.406162381172180176e-01
-3.102048635482788086e-01 7.540578246116638184e-01 -4.308667033910751343e-02
-3.458622097969055176e-01 7.529474496841430664e-01 -2.414298653602600098e-01
-3.391792476177215576e-01 5.958864688873291016e-01 -2.780443131923675537e-01
-3.425365984439849854e-01 6.544105410575866699e-01 -3.137001991271972656e-01
-3.589975237846374512e-01 7.591300010681152344e-01 1.612275093793869019e-01
-2.683682739734649658e-01 5.969426035881042480e-01 -1.562923491001129150e-01
-3.549635410308837891e-01 6.631014347076416016e-01 -1.955849826335906982e-01
-3.567479848861694336e-01 6.359778046607971191e-01 7.564879953861236572e-02
-3.272435665130615234e-01 4.978993535041809082e-01 -5.599160678684711456e-03
-2.828913033008575439e-01 5.863131880760192871e-01 -3.506442904472351074e-01
-3.048781454563140869e-01 6.914781928062438965e-01 2.837755382061004639e-01
-3.140933811664581299e-01 4.943152368068695068e-01 2.350817620754241943e-01
-2.582783699035644531e-01 5.297554731369018555e-01 -1.535612642765045166e-01
-3.347221910953521729e-01 6.286303400993347168e-01 3.384575247764587402e-01
-3.624694049358367920e-01 7.537060379981994629e-01 -9.811972081661224365e-02
-3.578561544418334961e-01 6.568579077720642090e-01 -1.261181980371475220e-01
-3.582701683044433594e-01 6.435592770576477051e-01 -4.373562708497047424e-02
-3.567599952220916748e-01 7.247202396392822266e-01 -2.031062990427017212e-01
-2.668715119361877441e-01 5.729005932807922363e-01 1.580511927604675293e-01
-3.572022020816802979e-01 7.913646697998046875e-01 -3.999974951148033142e-02
-3.250132203102111816e-01 4.920811355113983154e-01 -6.857850402593612671e-02
-3.302424848079681396e-01 6.586247086524963379e-01 3.621719777584075928e-01
-3.490179777145385742e-01 8.009781241416931152e-01 5.272915214300155640e-02
-2.679636180400848389e-01 5.593359470367431641e-01 -2.582893967628479004e-01
-3.507374525070190430e-01 6.046733856201171875e-01 1.094585284590721130e-01
-3.487233519554138184e-01 6.028069853782653809e-01 1.527538746595382690e-01
-2.545383870601654053e-01 4.941710233688354492e-01 -1.317472606897354126e-01
-3.151506185531616211e-01 4.874579310417175293e-01 2.012960761785507202e-01
-3.248175382614135742e-01 5.315476655960083008e-01 2.523756623268127441e-01
-2.928772568702697754e-01 4.141704440116882324e-01 -3.431261517107486725e-03
-3.089586794376373291e-01 5.559521317481994629e-01 3.644876480102539062e-01
-2.700859904289245605e-01 6.073123216629028320e-01 9.992821514606475830e-02
-3.047508299350738525e-01 6.751319766044616699e-01 3.155706822872161865e-01
-3.250657021999359131e-01 7.710989713668823242e-01 -1.544920653104782104e-01
-2.569511234760284424e-01 5.332006812095642090e-01 2.447140589356422424e-02
-3.244175314903259277e-01 5.005913972854614258e-01 1.352392584085464478e-01
-2.684310972690582275e-01 4.615071713924407959e-01 -2.908198535442352295e-01
-2.798063755035400391e-01 4.044129252433776855e-01 7.202272117137908936e-02
-2.992994785308837891e-01 7.265809178352355957e-01 4.231753759086132050e-03
-3.449299037456512451e-01 6.497846245765686035e-01 2.916804850101470947e-01
-3.189568519592285156e-01 7.684816122055053711e-01 9.550651907920837402e-02
-2.554593384265899658e-01 4.637380838394165039e-01 9.728632122278213501e-02
-2.856680452823638916e-01 6.267311573028564453e-01 2.717629969120025635e-01
-2.754198908805847168e-01 6.408473253250122070e-01 3.402097523212432861e-02
-3.383486866950988770e-01 7.915963530540466309e-01 -1.109462529420852661e-01
-3.021942675113677979e-01 6.370896100997924805e-01 3.543130457401275635e-01
-2.799511849880218506e-01 6.334918737411499023e-01 1.903972327709197998e-01
-3.516952097415924072e-01 8.002297878265380859e-01 -2.101678401231765747e-02
-3.308363258838653564e-01 5.794438719749450684e-01 3.062761425971984863e-01
-2.939173281192779541e-01 7.094423770904541016e-01 3.700160607695579529e-02
-2.914213538169860840e-01 6.701576113700866699e-01 -2.528404295444488525e-01
-3.198648393154144287e-01 5.131490230560302734e-01 -2.748515307903289795e-01
-3.398427665233612061e-01 6.551944017410278320e-01 3.272630572319030762e-01
-3.232131302356719971e-01 7.800809144973754883e-01 3.824890777468681335e-02
-2.991672754287719727e-01 4.545058608055114746e-01 -2.572204470634460449e-01
-2.621777355670928955e-01 5.728093385696411133e-01 1.767181605100631714e-02
-2.977018952369689941e-01 4.864841401576995850e-01 2.960834205150604248e-01
-2.533187866210937500e-01 4.959653913974761963e-01 -6.805217266082763672e-02
-3.502985835075378418e-01 6.846887469291687012e-01 -2.658390104770660400e-01
-3.377877175807952881e-01 7.322856783866882324e-01 2.988363206386566162e-01
-3.116485774517059326e-01 6.206240057945251465e-01 3.823460936546325684e-01
-2.817797064781188965e-01 6.610240936279296875e-01 9.759358316659927368e-02
-3.009141683578491211e-01 7.217102050781250000e-01 -1.461099237203598022e-01
-3.387776613235473633e-01 5.426331162452697754e-01 5.785500258207321167e-02
-3.264196515083312988e-01 7.637765407562255859e-01 2.003342807292938232e-01
-2.885044217109680176e-01 6.570029258728027344e-01 2.294205576181411743e-01
-3.296024501323699951e-01 6.158091425895690918e-01 3.525123894214630127e-01
-2.748954296112060547e-01 5.728795528411865234e-01 2.591294348239898682e-01
-3.130177557468414307e-01 5.357587337493896484e-01 3.313908278942108154e-01
-3.003772795200347900e-01 6.554545164108276367e-01 3.245159983634948730e-01
-3.489202558994293213e-01 6.205531358718872070e-01 -2.068833112716674805e-01
-2.752312123775482178e-01 5.331671833992004395e-01 2.904363870620727539e-01
-3.543491363525390625e-01 7.504302859306335449e-01 -2.007243186235427856e-01
-2.760562896728515625e-01 6.073206663131713867e-01 2.102068662643432617e-01
-3.278040587902069092e-01 5.065897703170776367e-01 1.005064398050308228e-01
-2.577124238014221191e-01 4.640064835548400879e-01 -2.054054439067840576e-01
-2.720521390438079834e-01 5.483785867691040039e-01 2.590902149677276611e-01
-3.609225749969482422e-01 6.880676746368408203e-01 1.350569128990173340e-01
-3.337803184986114502e-01 5.286353826522827148e-01 -1.295995414257049561e-01
-3.580370247364044189e-01 7.104635834693908691e-01 2.034680843353271484e-01
-2.537409663200378418e-01 4.648378491401672363e-01 -1.329136192798614502e-01
-3.561174571514129639e-01 6.891731619834899902e-01 -2.068102806806564331e-01
-3.393093347549438477e-01 5.448268651962280273e-01 -7.435876131057739258e-02
-3.482336401939392090e-01 6.059731245040893555e-01 -1.783693730831146240e-01
-3.507734835147857666e-01 6.636035442352294922e-01 -2.494425028562545776e-01
-2.855060696601867676e-01 6.519041061401367188e-01 2.084612995386123657e-01
-2.831898629665374756e-01 6.258161067962646484e-01 2.502017915248870850e-01
-2.696085274219512939e-01 5.919161438941955566e-01 1.524927914142608643e-01
-3.062699139118194580e-01 5.325949192047119141e-01 -3.826944828033447266e-01
-2.574628591537475586e-01 5.393080115318298340e-01 -7.450437545776367188e-02
-2.934289276599884033e-01 6.559240818023681641e-01 -3.088923394680023193e-01
-3.094845712184906006e-01 7.443198561668395996e-01 -1.379617005586624146e-01
-3.233104944229125977e-01 7.789481878280639648e-01 -6.284773349761962891e-02
-3.248950242996215820e-01 7.511845231056213379e-01 2.375865280628204346e-01
-2.789861559867858887e-01 6.575862169265747070e-01 -1.040889136493206024e-02
-3.653794527053833008e-01 7.447187900543212891e-01 -3.671216778457164764e-03
-2.812124788761138916e-01 6.099151968955993652e-01 2.619740068912506104e-01
-3.630715906620025635e-01 6.998089551925659180e-01 -8.360001444816589355e-02
-2.910679876804351807e-01 6.804887056350708008e-01 -2.098355442285537720e-01
-3.303995430469512939e-01 5.616703629493713379e-01 2.767686545848846436e-01
-2.956981956958770752e-01 4.507125318050384521e-01 2.138244360685348511e-01
-2.738715708255767822e-01 6.284599304199218750e-01 -1.299955993890762329e-01
-3.621676564216613770e-01 7.286114692687988281e-01 1.437722146511077881e-01
-2.603887617588043213e-01 4.053128957748413086e-01 6.269414909183979034e-03
-2.659775614738464355e-01 4.535382390022277832e-01 -2.693112790584564209e-01
-2.659166157245635986e-01 4.248301386833190918e-01 1.459704637527465820e-01
-3.006798923015594482e-01 4.286323785781860352e-01 1.386405248194932938e-02
-3.597212135791778564e-01 7.461289763450622559e-01 -1.526914983987808228e-01
-3.443205654621124268e-01 6.271432042121887207e-01 -2.752478420734405518e-01
-3.220850229263305664e-01 6.806240081787109375e-01 3.572979569435119629e-01
-2.590723335742950439e-01 5.254499316215515137e-01 1.184078678488731384e-01
-3.123887181282043457e-01 7.593868374824523926e-01 2.208545058965682983e-02
-2.974649071693420410e-01 5.137718915939331055e-01 3.367827832698822021e-01
-3.526591658592224121e-01 7.652425765991210938e-01 2.013953328132629395e-01
-3.461947441101074219e-01 5.756099224090576172e-01 -7.249913364648818970e-02
-2.779298424720764160e-01 6.266881823539733887e-01 -2.241038233041763306e-01
-2.945035398006439209e-01 4.208375215530395508e-01 -1.199104860424995422e-01
-3.003798425197601318e-01 4.465584158897399902e-01 -2.163614332675933838e-01
-3.232976496219635010e-01 7.599542140960693359e-01 -1.977115422487258911e-01
-3.090168833732604980e-01 4.465919137001037598e-01 7.858051918447017670e-03
-2.781367003917694092e-01 4.882371425628662109e-01 2.906755506992340088e-01
-3.639577031135559082e-01 7.649291753768920898e-01 3.568039089441299438e-02
-2.567723691463470459e-01 5.230960249900817871e-01 -1.292099654674530029e-01
-2.535015940666198730e-01 4.884178042411804199e-01 -1.051075756549835205e-01
-3.335811197757720947e-01 7.325658798217773438e-01 -2.985472381114959717e-01
-3.281071484088897705e-01 7.778128981590270996e-01 1.418488472700119019e-01
-3.473344147205352783e-01 6.784441471099853516e-01 2.912941873073577881e-01
-2.612045109272003174e-01 5.071696043014526367e-01 1.757536530494689941e-01
-3.092611432075500488e-01 5.755918025970458984e-01 3.766988217830657959e-01
-3.431802690029144287e-01 6.162072420120239258e-01 2.650768160820007324e-01
-2.894488871097564697e-01 6.502105593681335449e-01 -2.898733913898468018e-01
-3.196429312229156494e-01 5.684827566146850586e-01 3.489406108856201172e-01
-2.885712385177612305e-01 6.066785454750061035e-01 -3.597477972507476807e-01
-3.191629648208618164e-01 5.655004382133483887e-01 -3.727784156799316406e-01
-3.492402732372283936e-01 5.883525609970092773e-01 -3.651932626962661743e-02
-2.753590047359466553e-01 5.548333525657653809e-01 -3.324209451675415039e-01
-3.114205896854400635e-01 4.870880544185638428e-01 -2.718001008033752441e-01
-3.004116714000701904e-01 7.051224708557128906e-01 2.044165581464767456e-01
-2.593828737735748291e-01 4.180404543876647949e-01 -1.452884823083877563e-01
-3.593110740184783936e-01 7.652338147163391113e-01 -1.255691498517990112e-01
-3.174376189708709717e-01 5.916703343391418457e-01 -3.972477614879608154e-01
-2.560859024524688721e-01 4.378253817558288574e-01 7.732457667589187622e-02
-3.003947138786315918e-01 7.242842912673950195e-01 9.525872021913528442e-02
-3.430072665214538574e-01 5.594485998153686523e-01 -5.489205569028854370e-02
-3.051711320877075195e-01 4.373487234115600586e-01 -3.342028707265853882e-02
-3.376985192298889160e-01 5.669405460357666016e-01 2.133218050003051758e-01
-3.061209917068481445e-01 7.117435336112976074e-01 2.381827235221862793e-01
-2.718123197555541992e-01 5.625719428062438965e-01 2.422282695770263672e-01
-2.744229137897491455e-01 4.721531867980957031e-01 -3.243970274925231934e-01
-3.637278974056243896e-01 7.669683098793029785e-01 -1.268129143863916397e-02
-2.526173293590545654e-01 4.753155708312988281e-01 -8.548798412084579468e-02
-2.919265627861022949e-01 6.967087388038635254e-01 -1.341360360383987427e-01
-3.078755438327789307e-01 7.279254794120788574e-01 -2.089458256959915161e-01
-2.661046683788299561e-01 5.970981717109680176e-01 -1.074438914656639099e-03
-3.032914698123931885e-01 7.250056266784667969e-01 -1.657859832048416138e-01
-2.530475258827209473e-01 4.414753615856170654e-01 5.111256614327430725e-04
-2.865735292434692383e-01 6.845014095306396484e-01 4.259765893220901489e-02
-2.632163166999816895e-01 5.598633289337158203e-01 1.223553046584129333e-01
-2.563249766826629639e-01 5.307469367980957031e-01 -4.656251519918441772e-03
-3.326629400253295898e-01 5.823383331298828125e-01 -3.138751387596130371e-01
-3.221385478973388672e-01 4.883766174316406250e-01 9.823892265558242798e-02
-3.594061732292175293e-01 7.347620725631713867e-01 1.833754777908325195e-01
-3.022041320800781250e-01 7.326790690422058105e-01 -7.261623442173004150e-02
-3.466852605342864990e-01 7.684623003005981445e-01 -2.047377526760101318e-01
-2.805889248847961426e-01 6.473866701126098633e-01 -1.860506981611251831e-01
-2.770012617111206055e-01 4.024419188499450684e-01 -1.361120045185089111e-01
-2.687639296054840088e-01 3.954906463623046875e-01 -6.823708862066268921e-02
-3.047322332859039307e-01 6.767022609710693359e-01 -3.340922296047210693e-01
-3.165008425712585449e-01 5.067837834358215332e-01 2.532016932964324951e-01
-2.932223975658416748e-01 7.067259550094604492e-01 -7.101377099752426147e-02
-3.058949410915374756e-01 7.332991361618041992e-01 1.407096982002258301e-01
-3.148297071456909180e-01 4.791864454746246338e-01 -2.064278125762939453e-01
-2.605109214782714844e-01 5.511295795440673828e-01 -1.427562832832336426e-01
-3.403739333152770996e-01 6.203900575637817383e-01 -3.027446866035461426e-01
-2.982654869556427002e-01 7.233048677444458008e-01 -3.855900466442108154e-02
-2.701947689056396484e-01 5.818846821784973145e-01 1.894513070583343506e-01
-3.063601851463317871e-01 6.322436928749084473e-01 -3.954633772373199463e-01
-2.955417037010192871e-01 6.812884807586669922e-01 2.334970086812973022e-01
-3.031837046146392822e-01 5.050458312034606934e-01 -3.561616837978363037e-01
-2.978944182395935059e-01 7.030632495880126953e-01 -2.033761888742446899e-01
-3.125335276126861572e-01 4.594771862030029297e-01 7.616427540779113770e-02
-2.807618379592895508e-01 4.339321851730346680e-01 2.024991214275360107e-01
-2.655372917652130127e-01 5.863906741142272949e-01 7.446649670600891113e-02
-2.672103941440582275e-01 5.770158171653747559e-01 -2.068462371826171875e-01
-2.856752574443817139e-01 6.713013052940368652e-01 1.292519569396972656e-01
-3.514116406440734863e-01 6.035316586494445801e-01 7.614646106958389282e-02
-2.794843912124633789e-01 6.376269459724426270e-01 1.683617830276489258e-01
-3.188979625701904297e-01 4.732054769992828369e-01 2.878093346953392029e-02
-3.565806448459625244e-01 7.397757768630981445e-01 2.098005861043930054e-01
-3.605220317840576172e-01 6.793426275253295898e-01 -1.155168935656547546e-01
-3.217494487762451172e-01 7.525334358215332031e-01 2.155356854200363159e-01
-2.704878449440002441e-01 5.230947732925415039e-01 -3.187051117420196533e-01
-3.477293848991394043e-01 5.980623364448547363e-01 -1.604325175285339355e-01
-3.536549508571624756e-01 6.412250399589538574e-01 1.786068975925445557e-01
-3.218925893306732178e-01 7.734745740890502930e-01 -1.003021225333213806e-01
-2.574401199817657471e-01 5.055109858512878418e-01 1.168575212359428406e-01
-2.851491570472717285e-01 6.810437440872192383e-01 -3.332151472568511963e-02
-3.452091813087463379e-01 5.783700346946716309e-01 -1.298733055591583252e-01
-3.003156185150146484e-01 7.199233770370483398e-01 1.280358582735061646e-01
-2.619127631187438965e-01 4.991250634193420410e-01 -2.539512813091278076e-01
-3.485748767852783203e-01 7.298861742019653320e-01 -2.618312537670135498e-01
-2.850318551063537598e-01 6.587092876434326172e-01 -2.121486216783523560e-01
-3.257408142089843750e-01 4.930422604084014893e-01 -2.794658392667770386e-02
-3.139549493789672852e-01 7.028819918632507324e-01 -3.212651312351226807e-01
-2.929460108280181885e-01 6.276794672012329102e-01 3.222199082374572754e-01
-2.941847443580627441e-01 6.033558249473571777e-01 -3.869708478450775146e-01
-2.715377211570739746e-01 6.248492002487182617e-01 -4.299031570553779602e-02
-3.181529641151428223e-01 4.721841812133789062e-01 -8.446225523948669434e-02
-2.774631083011627197e-01 5.090043544769287109e-01 -3.561867177486419678e-01
-3.127880096435546875e-01 4.587876796722412109e-01 -1.020033806562423706e-01
-3.481898605823516846e-01 5.823231935501098633e-01 -1.293355133384466171e-02
-2.983753681182861328e-01 4.602902829647064209e-01 2.313317209482192993e-01
-2.959199845790863037e-01 6.957517862319946289e-01 1.857755035161972046e-01
-3.393744826316833496e-01 5.572398304939270020e-01 1.476850062608718872e-01
-3.400053083896636963e-01 6.735942363739013672e-01 -3.320975005626678467e-01
-3.015638887882232666e-01 4.516986608505249023e-01 1.802263110876083374e-01
-2.594185769557952881e-01 5.561002492904663086e-01 -4.277846962213516235e-02
-3.477357923984527588e-01 7.047027945518493652e-01 -2.833792865276336670e-01
-3.028340935707092285e-01 6.573259234428405762e-01 -3.583259880542755127e-01
-3.630804419517517090e-01 6.877945661544799805e-01 5.870060622692108154e-02
-2.793800234794616699e-01 6.140454411506652832e-01 -2.778338789939880371e-01
-3.296893835067749023e-01 5.210310816764831543e-01 1.522655785083770752e-01
-2.568523883819580078e-01 4.153100252151489258e-01 -8.003418892621994019e-02
-2.575044631958007812e-01 4.859774708747863770e-01 1.330102533102035522e-01
-2.827948033809661865e-01 6.459940671920776367e-01 -2.278493642807006836e-01
-3.261327445507049561e-01 5.012448430061340332e-01 -1.301396340131759644e-01
-2.577817440032958984e-01 5.439217686653137207e-01 -2.493524551391601562e-02
-3.101164102554321289e-01 7.270536422729492188e-01 -2.332850247621536255e-01
-3.114619553089141846e-01 4.792562127113342285e-01 -2.450316250324249268e-01
-2.738082408905029297e-01 4.494056701660156250e-01 2.293546050786972046e-01
-3.171025812625885010e-01 4.818293452262878418e-01 -1.870555132627487183e-01
-2.567963600158691406e-01 4.640318751335144043e-01 1.201539710164070129e-01
-3.416435420513153076e-01 5.914165377616882324e-01 -2.406917810440063477e-01
-2.977456450462341309e-01 4.237587451934814453e-01 -8.205572515726089478e-02
-3.582811355590820312e-01 6.688084006309509277e-01 -1.459590047597885132e-01
-3.533450961112976074e-01 6.100793480873107910e-01 -1.700399816036224365e-02
-2.906434535980224609e-01 6.873542070388793945e-01 -1.686482429504394531e-01
-3.468904197216033936e-01 5.763892531394958496e-01 2.319183945655822754e-02
-3.640013039112091064e-01 7.286911606788635254e-01 1.018195599317550659e-01
-3.380826711654663086e-01 6.235014796257019043e-01 -3.233879506587982178e-01
-2.993030548095703125e-01 7.016074657440185547e-01 -2.268129736185073853e-01
-3.349471092224121094e-01 7.674164772033691406e-01 2.210882306098937988e-01
-3.512417078018188477e-01 8.012301921844482422e-01 5.792287178337574005e-03
-3.554113805294036865e-01 6.387364268302917480e-01 1.340444684028625488e-01
-2.968869209289550781e-01 4.259428083896636963e-01 7.530376315116882324e-02
-2.743425965309143066e-01 6.007809638977050781e-01 -2.504792213439941406e-01
-2.761915326118469238e-01 6.424367427825927734e-01 5.624226480722427368e-02
-3.048687279224395752e-01 6.887568235397338867e-01 -3.097396492958068848e-01
-3.350866436958312988e-01 5.337895154953002930e-01 1.102456301450729370e-01
-2.971615493297576904e-01 6.560025811195373535e-01 -3.331864774227142334e-01
-2.626332044601440430e-01 5.738245844841003418e-01 3.703811019659042358e-02
-2.621133923530578613e-01 5.272004604339599609e-01 -2.315412163734436035e-01
-2.870836555957794189e-01 6.815363168716430664e-01 9.480100125074386597e-02
-3.393797874450683594e-01 5.504614114761352539e-01 -1.229810491204261780e-01
-2.810966968536376953e-01 4.528779983520507812e-01 2.478217482566833496e-01
-3.102722465991973877e-01 5.029337406158447266e-01 -3.205585479736328125e-01
-3.053914010524749756e-01 4.796751737594604492e-01 2.510263919830322266e-01
-3.466027081012725830e-01 6.342621445655822754e-01 2.591874897480010986e-01
-2.838993668556213379e-01 5.673546195030212402e-01 3.261307477951049805e-01
-3.653208017349243164e-01 7.220495939254760742e-01 3.279770910739898682e-02
-3.367306888103485107e-01 6.020844578742980957e-01 -3.098483681678771973e-01
-2.716759741306304932e-01 6.247277855873107910e-01 -6.298635154962539673e-02
-3.573825657367706299e-01 6.472390294075012207e-01 -1.061675846576690674e-01
-3.336212933063507080e-01 5.504830479621887207e-01 -2.328661531209945679e-01
-2.551316618919372559e-01 5.177383422851562500e-01 -7.528772205114364624e-02
-3.141434490680694580e-01 7.305097579956054688e-01 2.405526638031005859e-01
-2.608197927474975586e-01 4.026219248771667480e-01 -3.232898563146591187e-02
-3.566780984401702881e-01 6.409628987312316895e-01 1.066385954618453979e-01
-3.290824294090270996e-01 5.350777506828308105e-01 2.190452665090560913e-01
-3.541496694087982178e-01 7.954154014587402344e-01 7.230816781520843506e-02
-2.847703099250793457e-01 6.762653589248657227e-01 -9.739460796117782593e-02
-3.013451099395751953e-01 6.399909257888793945e-01 -3.756513297557830811e-01
-2.922572493553161621e-01 7.051002979278564453e-01 -3.738608211278915405e-02
-2.798141837120056152e-01 5.868014693260192871e-01 -3.296780288219451904e-01
-3.031492829322814941e-01 4.383817911148071289e-01 -1.289877444505691528e-01
-3.257753252983093262e-01 5.575364232063293457e-01 3.028023242950439453e-01
-3.261139690876007080e-01 5.124570131301879883e-01 1.696589887142181396e-01
-3.421852290630340576e-01 5.585834980010986328e-01 7.628257572650909424e-02
-3.390286266803741455e-01 5.414789915084838867e-01 -3.327034041285514832e-02
-2.799850106239318848e-01 6.021508574485778809e-01 -3.076145648956298828e-01
-3.643198907375335693e-01 7.354640960693359375e-01 -7.233047485351562500e-02
-2.805984318256378174e-01 6.633952856063842773e-01 -5.262179300189018250e-02
-3.095999062061309814e-01 7.457504868507385254e-01 1.181057170033454895e-01
-3.523722589015960693e-01 7.004568576812744141e-01 2.585455179214477539e-01
-3.593177199363708496e-01 7.829619050025939941e-01 -6.096018850803375244e-02
-3.047251701354980469e-01 7.368531227111816406e-01 -1.028676405549049377e-01
-2.534254491329193115e-01 4.448773562908172607e-01 2.771404013037681580e-02
-3.505334854125976562e-01 5.978786349296569824e-01 -7.197383791208267212e-02
-3.565609455108642578e-01 6.332525610923767090e-01 -6.074317172169685364e-02
-2.853329777717590332e-01 6.671643853187561035e-01 -1.782926023006439209e-01
-3.650038540363311768e-01 7.538961172103881836e-01 1.759450510144233704e-02
-3.199855089187622070e-01 5.909852981567382812e-01 3.675567507743835449e-01
-2.528719604015350342e-01 4.907395243644714355e-01 -4.900475591421127319e-02
-2.590659558773040771e-01 4.143575429916381836e-01 -1.245759949088096619e-01
-2.736088335514068604e-01 6.134925484657287598e-01 1.534222662448883057e-01
-2.688536643981933594e-01 6.031551957130432129e-01 -1.363508999347686768e-01
-3.140924274921417236e-01 4.592419862747192383e-01 -4.624049738049507141e-02
-2.842607796192169189e-01 6.097024679183959961e-01 -3.289493918418884277e-01
-3.184582591056823730e-01 7.198175787925720215e-01 2.919984459877014160e-01
-3.245308697223663330e-01 5.149926543235778809e-01 -2.300429344177246094e-01
-2.524408996105194092e-01 4.817152619361877441e-01 -2.575628645718097687e-02
-2.880533039569854736e-01 6.666866540908813477e-01 1.920598149299621582e-01
-3.433789014816284180e-01 5.829481482505798340e-01 -1.902033537626266479e-01
-3.631149828433990479e-01 6.837177872657775879e-01 1.928933709859848022e-02
-2.851934134960174561e-01 6.801875829696655273e-01 -6.289356201887130737e-02
-3.227996826171875000e-01 5.067061185836791992e-01 1.907771974802017212e-01
-3.298476934432983398e-01 7.906692624092102051e-01 -7.514594588428735733e-03
-3.261021971702575684e-01 5.115236639976501465e-01 -1.927628517150878906e-01
-3.319032192230224609e-01 7.898606657981872559e-01 8.312324434518814087e-02
-3.344795107841491699e-01 5.737541913986206055e-01 -2.824687361717224121e-01
-2.720641493797302246e-01 6.034905314445495605e-01 -2.081483304500579834e-01
-3.418975770473480225e-01 5.601621270179748535e-01 1.002442985773086548e-01
-2.571951746940612793e-01 5.203561782836914062e-01 8.431068807840347290e-02
-2.967875897884368896e-01 6.034430265426635742e-01 3.607449829578399658e-01
-2.801608741283416748e-01 5.402694344520568848e-01 -3.667133450508117676e-01
-2.941534817218780518e-01 5.423796176910400391e-01 -4.003410935401916504e-01
-3.208169937133789062e-01 6.419485211372375488e-01 3.777720630168914795e-01
-3.045226931571960449e-01 5.803250670433044434e-01 -4.110296070575714111e-01
-2.801464796066284180e-01 5.938421487808227539e-01 2.777146399021148682e-01
-3.648939132690429688e-01 7.155368328094482422e-01 -3.456887230277061462e-02
-3.474718928337097168e-01 6.758121252059936523e-01 -2.863046824932098389e-01
-3.493395447731018066e-01 7.135041356086730957e-01 2.777348756790161133e-01
-2.615214884281158447e-01 5.624433755874633789e-01 6.397973001003265381e-02
-3.587907850742340088e-01 7.705160379409790039e-01 1.386580169200897217e-01
-2.593580484390258789e-01 5.492970347404479980e-01 -1.101345196366310120e-01
-2.934624850749969482e-01 4.235230386257171631e-01 1.016161218285560608e-01
-3.614359796047210693e-01 7.810364365577697754e-01 2.455357089638710022e-02
-3.350213468074798584e-01 5.375566482543945312e-01 1.359710395336151123e-01
-2.753125727176666260e-01 6.278855204582214355e-01 -1.715767234563827515e-01
-2.527258694171905518e-01 4.839757084846496582e-01 -3.291890025138854980e-04
-3.589600324630737305e-01 7.315085530281066895e-01 -1.745782643556594849e-01
-2.608442306518554688e-01 4.088819026947021484e-01 4.377291351556777954e-02
-2.531545162200927734e-01 4.692983031272888184e-01 4.042561352252960205e-02
-2.638107538223266602e-01 5.518638491630554199e-01 -2.132308930158615112e-01
-2.572176754474639893e-01 4.171245694160461426e-01 2.679987996816635132e-02
-3.060118257999420166e-01 4.404618740081787109e-01 -7.465676963329315186e-02
-3.208254575729370117e-01 7.189894318580627441e-01 -3.096472918987274170e-01
-3.267427980899810791e-01 7.855290174484252930e-01 -3.919471427798271179e-02
-2.643621861934661865e-01 4.411274790763854980e-01 1.719687581062316895e-01
-3.611045479774475098e-01 7.717273831367492676e-01 -7.827845960855484009e-02
-3.530791699886322021e-01 6.782903671264648438e-01 2.423801422119140625e-01
-2.977856695652008057e-01 4.246798753738403320e-01 4.230546951293945312e-02
-3.281421959400177002e-01 6.539459228515625000e-01 -3.773659467697143555e-01
-2.543613016605377197e-01 4.980362057685852051e-01 4.757535830140113831e-02
-3.447722494602203369e-01 6.106542944908142090e-01 -2.431268692016601562e-01
-3.650495707988739014e-01 7.360815405845642090e-01 6.286504864692687988e-02
-3.510169386863708496e-01 6.576383709907531738e-01 2.439408004283905029e-01
-3.088971674442291260e-01 4.924210906028747559e-01 2.652760446071624756e-01
-3.314599394798278809e-01 5.328247547149658203e-01 -2.003395259380340576e-01
-2.617368400096893311e-01 5.718662738800048828e-01 -2.668922580778598785e-02
-2.526683509349822998e-01 4.424169063568115234e-01 -4.426396265625953674e-02
-3.356673717498779297e-01 5.530424714088439941e-01 -2.121420502662658691e-01
-2.622979879379272461e-01 5.616830587387084961e-01 9.291968494653701782e-02
-2.840266227722167969e-01 6.766659021377563477e-01 1.175807323306798935e-02
-3.413969874382019043e-01 5.801626443862915039e-01 -2.138495594263076782e-01
-2.868621647357940674e-01 4.064771831035614014e-01 -7.863405346870422363e-02
-2.758863866329193115e-01 6.185696125030517578e-01 1.758223921060562134e-01
-3.541770875453948975e-01 6.276552081108093262e-01 -1.210122406482696533e-01
-2.720863819122314453e-01 5.987255573272705078e-01 1.751041859388351440e-01
-2.764016389846801758e-01 6.466473340988159180e-01 -4.135707393288612366e-02
-3.390699923038482666e-01 7.572888731956481934e-01 2.529003322124481201e-01
-3.087626099586486816e-01 7.359591126441955566e-01 1.673425137996673584e-01
-3.433355093002319336e-01 5.948089957237243652e-01 2.179755568504333496e-01
-3.298138678073883057e-01 5.103057622909545898e-01 -9.685479104518890381e-02
-2.957994341850280762e-01 6.622824668884277344e-01 2.838058769702911377e-01
-3.210121095180511475e-01 5.121010541915893555e-01 2.302903980016708374e-01
-3.440327644348144531e-01 5.771911144256591797e-01 1.439003050327301025e-01
-3.444632887840270996e-01 7.994110584259033203e-01 -6.243859231472015381e-02
-2.749389708042144775e-01 4.280476570129394531e-01 -2.498041391372680664e-01
-3.274402618408203125e-01 4.995796680450439453e-01 3.145528584718704224e-02
-3.463233411312103271e-01 6.536960601806640625e-01 -2.841295003890991211e-01
-2.625301182270050049e-01 5.676376223564147949e-01 -1.308223307132720947e-01
-2.707983255386352539e-01 6.051484942436218262e-01 -1.769858002662658691e-01
-2.594124674797058105e-01 5.422296524047851562e-01 8.223623037338256836e-02
-3.470830917358398438e-01 5.840190649032592773e-01 9.917960315942764282e-02
-3.371226787567138672e-01 7.798241376876831055e-01 1.805694252252578735e-01
-2.985670566558837891e-01 4.617602825164794922e-01 -2.835451066493988037e-01
-2.651660442352294922e-01 4.797599911689758301e-01 2.177051305770874023e-01
-3.562264442443847656e-01 6.910904049873352051e-01 2.163813114166259766e-01
-3.547292649745941162e-01 6.181488633155822754e-01 9.481691755354404449e-03
-3.079080879688262939e-01 7.493206262588500977e-01 -2.423705533146858215e-03
-2.629024982452392578e-01 5.788045525550842285e-01 -8.185707032680511475e-03
-2.741690874099731445e-01 5.654471516609191895e-01 -3.124945759773254395e-01
-3.187567889690399170e-01 5.485734939575195312e-01 -3.542632162570953369e-01
-2.607809603214263916e-01 5.350557565689086914e-01 -1.961866915225982666e-01
-3.393756151199340820e-01 5.612891316413879395e-01 1.664755344390869141e-01
-3.496600687503814697e-01 6.635751128196716309e-01 2.638044953346252441e-01
-2.867925763130187988e-01 6.669563055038452148e-01 1.718196272850036621e-01
-3.620688617229461670e-01 6.871480345726013184e-01 1.009406968951225281e-01
-2.547264993190765381e-01 4.760739803314208984e-01 -1.553706675767898560e-01
-2.527364492416381836e-01 4.423434436321258545e-01 -2.031076326966285706e-02
-3.624233305454254150e-01 7.001547813415527344e-01 1.184026524424552917e-01
-3.162527382373809814e-01 4.878570437431335449e-01 -2.266685962677001953e-01
-2.656947374343872070e-01 5.923087596893310547e-01 -8.946680277585983276e-02
-2.936078906059265137e-01 4.650020599365234375e-01 2.612208127975463867e-01
-3.415896594524383545e-01 7.032932043075561523e-01 -3.150012195110321045e-01
-3.319824337959289551e-01 6.054622530937194824e-01 -3.465065956115722656e-01
-2.686966657638549805e-01 6.053988933563232422e-01 6.566369533538818359e-02
-2.551451027393341064e-01 4.884749650955200195e-01 8.537135273218154907e-02
-2.617349028587341309e-01 4.109712839126586914e-01 6.620986759662628174e-02
-3.396793603897094727e-01 7.462402582168579102e-01 -2.685247361660003662e-01
-2.827817797660827637e-01 6.349346041679382324e-01 2.238873839378356934e-01
-3.193947076797485352e-01 7.564672231674194336e-01 1.807750761508941650e-01
-3.372128605842590332e-01 5.695633888244628906e-01 -2.419188022613525391e-01
4.580459892749786377e-01 -1.743238270282745361e-01 -1.481981873512268066e-01
4.260775148868560791e-01 -1.267547011375427246e-01 2.113771140575408936e-01
4.533423781394958496e-01 -2.031251192092895508e-01 -1.845966279506683350e-01
4.343073666095733643e-01 -2.476994395256042480e-01 1.637463271617889404e-01
4.124313592910766602e-01 -2.407743781805038452e-01 -5.526978150010108948e-02
4.477984607219696045e-01 -2.128466963768005371e-01 2.730900645256042480e-01
4.101458191871643066e-01 -2.393413782119750977e-01 -3.223124518990516663e-02
4.233902990818023682e-01 -1.299141198396682739e-01 2.274932116270065308e-01
3.966372609138488770e-01 -1.573504656553268433e-01 -1.097995042800903320e-01
4.480918943881988525e-01 -2.163922786712646484e-01 -1.950681209564208984e-01
4.547449052333831787e-01 -1.870658695697784424e-01 2.277852743864059448e-01
4.361301362514495850e-01 -1.129685714840888977e-01 3.439971059560775757e-02
4.187417924404144287e-01 -2.021508961915969849e-01 3.518710434436798096e-01
4.413474500179290771e-01 -1.587788909673690796e-01 -3.140896260738372803e-01
4.112252891063690186e-01 -1.169011294841766357e-01 -5.044551193714141846e-02
4.228413999080657959e-01 -2.508198618888854980e-01 1.015738099813461304e-01
4.306723773479461670e-01 -2.406100928783416748e-01 2.436376661062240601e-01
4.335750937461853027e-01 -1.361422389745712280e-01 2.538076639175415039e-01
3.977120816707611084e-01 -1.873734891414642334e-01 1.788683086633682251e-01
4.544770419597625732e-01 -1.545956432819366455e-01 -1.787635236978530884e-01
4.478477835655212402e-01 -2.291600108146667480e-01 2.035936415195465088e-01
4.573954343795776367e-01 -2.118651717901229858e-01 1.153054386377334595e-01
4.497930407524108887e-01 -2.338623404502868652e-01 1.193004995584487915e-01
3.997516930103302002e-01 -1.407569646835327148e-01 5.697841197252273560e-02
4.015399813652038574e-01 -2.106645703315734863e-01 -1.424566805362701416e-01
4.071049392223358154e-01 -2.028506994247436523e-01 -2.402047961950302124e-01
4.383312165737152100e-01 -1.378193199634552002e-01 -2.822202146053314209e-01
4.123545885086059570e-01 -2.357920855283737183e-01 2.017120122909545898e-01
4.459885358810424805e-01 -1.278661340475082397e-01 1.126110553741455078e-01
4.542085528373718262e-01 -2.252013832330703735e-01 9.083434939384460449e-02
4.611271023750305176e-01 -1.718329042196273804e-01 1.933114603161811829e-02
4.606546759605407715e-01 -1.682643890380859375e-01 4.149156808853149414e-02
4.567310810089111328e-01 -1.607201397418975830e-01 1.465053558349609375e-01
4.058639407157897949e-01 -1.845566034317016602e-01 2.862234115600585938e-01
4.114696383476257324e-01 -2.140635102987289429e-01 2.961602807044982910e-01
4.131102859973907471e-01 -2.361343502998352051e-01 -1.186305731534957886e-01
4.603808224201202393e-01 -2.004198133945465088e-01 6.279331166297197342e-03
4.102422893047332764e-01 -1.957473903894424438e-01 -2.811757922172546387e-01
4.397753477096557617e-01 -1.143544986844062805e-01 -5.446290597319602966e-02
4.605161249637603760e-01 -1.939634233713150024e-01 -4.581847041845321655e-02
4.441941380500793457e-01 -1.233232095837593079e-01 -1.446479856967926025e-01
4.192769825458526611e-01 -2.323276698589324951e-01 -1.892703920602798462e-01
4.058842658996582031e-01 -1.252709776163101196e-01 2.599366940557956696e-02
4.551891088485717773e-01 -2.233710289001464844e-01 6.498505920171737671e-02
4.594171047210693359e-01 -2.070267647504806519e-01 3.534325212240219116e-02
4.102559983730316162e-01 -1.719128489494323730e-01 3.095635473728179932e-01
3.994436860084533691e-01 -1.388714909553527832e-01 -1.343970932066440582e-02
4.009132981300354004e-01 -2.213689535856246948e-01 -3.841569274663925171e-02
4.085979759693145752e-01 -2.126767188310623169e-01 2.773122489452362061e-01
4.493779540061950684e-01 -1.511854380369186401e-01 -2.393355220556259155e-01
3.936771452426910400e-01 -1.736703217029571533e-01 9.794220328330993652e-03
4.089555740356445312e-01 -1.703126132488250732e-01 -2.962449193000793457e-01
3.945771455764770508e-01 -1.627273112535476685e-01 2.566762268543243408e-02
4.300516545772552490e-01 -1.400858163833618164e-01 -3.132385909557342529e-01
4.022618234157562256e-01 -2.267125546932220459e-01 2.118843607604503632e-03
4.480733573436737061e-01 -1.590820401906967163e-01 -2.683481574058532715e-01
4.152295589447021484e-01 -1.263342201709747314e-01 -2.276460528373718262e-01
3.950744867324829102e-01 -1.995387077331542969e-01 4.169893637299537659e-02
4.557401537895202637e-01 -2.176434397697448730e-01 1.255014240741729736e-01
3.937899172306060791e-01 -1.822652816772460938e-01 4.453442245721817017e-02
4.146239757537841797e-01 -1.340180486440658569e-01 -2.625472545623779297e-01
3.986381888389587402e-01 -1.770914047956466675e-01 -1.833016872406005859e-01
4.497558176517486572e-01 -2.314932942390441895e-01 1.516080796718597412e-01
4.167764782905578613e-01 -1.199731528759002686e-01 -1.918864697217941284e-01
4.571152925491333008e-01 -1.976625919342041016e-01 -1.385194659233093262e-01
4.111296236515045166e-01 -2.263152003288269043e-01 2.493962943553924561e-01
4.158847033977508545e-01 -1.231518834829330444e-01 -2.109540402889251709e-01
4.365419149398803711e-01 -2.287119328975677490e-01 2.918634712696075439e-01
4.182466566562652588e-01 -1.519911289215087891e-01 3.056696057319641113e-01
4.610973596572875977e-01 -1.782431602478027344e-01 6.101290136575698853e-02
4.089584946632385254e-01 -2.229802459478378296e-01 -1.730931401252746582e-01
4.074145257472991943e-01 -2.164697051048278809e-01 2.543800473213195801e-01
4.110465347766876221e-01 -1.201631352305412292e-01 6.710062921047210693e-02
4.459968209266662598e-01 -1.628193557262420654e-01 2.848200500011444092e-01
4.425882995128631592e-01 -2.456788122653961182e-01 3.837019577622413635e-02
4.006169438362121582e-01 -1.748675853013992310e-01 2.221247851848602295e-01
4.611707627773284912e-01 -1.740783751010894775e-01 -2.562137693166732788e-02
4.523505866527557373e-01 -1.707843244075775146e-01 -2.366353124380111694e-01
4.584804177284240723e-01 -2.118049710988998413e-01 2.145542949438095093e-02
4.573229253292083740e-01 -1.592698395252227783e-01 -1.345020532608032227e-01
3.967724740505218506e-01 -1.488806754350662231e-01 5.384310148656368256e-03
4.495213627815246582e-01 -1.274106502532958984e-01 1.000995747745037079e-02
4.503088891506195068e-01 -2.206654250621795654e-01 -1.471708714962005615e-01
4.609605073928833008e-01 -1.908463686704635620e-01 6.530325114727020264e-02
4.555348753929138184e-01 -1.417341083288192749e-01 -4.511066153645515442e-02
4.605411887168884277e-01 -1.687986105680465698e-01 -5.105717107653617859e-02
4.025090932846069336e-01 -1.436342895030975342e-01 -1.810173243284225464e-01
4.573168754577636719e-01 -1.998892575502395630e-01 -1.266704797744750977e-01
4.406165480613708496e-01 -1.202817633748054504e-01 -1.604122966527938843e-01
3.973980247974395752e-01 -1.649433225393295288e-01 1.472087502479553223e-01
4.026222527027130127e-01 -1.728729009628295898e-01 2.449982315301895142e-01
4.221959412097930908e-01 -1.959576159715652466e-01 -3.282296359539031982e-01
4.031851589679718018e-01 -1.309573352336883545e-01 3.873516246676445007e-02
4.529617130756378174e-01 -2.034799158573150635e-01 2.371517568826675415e-01
3.959126770496368408e-01 -1.883772909641265869e-01 -1.096801608800888062e-01
4.109961390495300293e-01 -2.410523444414138794e-01 -1.842745020985603333e-02
4.172264039516448975e-01 -1.692416816949844360e-01 -3.376928269863128662e-01
3.952773213386535645e-01 -1.610537022352218628e-01 -7.270571589469909668e-02
4.322171509265899658e-01 -1.189966127276420593e-01 1.445956379175186157e-01
4.407950937747955322e-01 -1.208304166793823242e-01 1.043650209903717041e-01
4.450075328350067139e-01 -1.948966532945632935e-01 3.197135925292968750e-01
4.547313153743743896e-01 -1.474513113498687744e-01 1.168728023767471313e-01
4.419867396354675293e-01 -1.344075053930282593e-01 2.043125927448272705e-01
4.098258018493652344e-01 -2.345197498798370361e-01 1.798928976058959961e-01
4.018876850605010986e-01 -1.538997292518615723e-01 1.887740790843963623e-01
4.508299827575683594e-01 -1.411110609769821167e-01 -1.811604946851730347e-01
4.009020924568176270e-01 -2.182675749063491821e-01 -7.517997920513153076e-02
4.545477330684661865e-01 -2.150789797306060791e-01 -1.100997477769851685e-01
4.046160876750946045e-01 -1.344822198152542114e-01 1.181233674287796021e-01
4.366750717163085938e-01 -1.124398559331893921e-01 7.515646051615476608e-03
4.084533751010894775e-01 -1.225252598524093628e-01 5.161342397332191467e-02
3.967931568622589111e-01 -1.751402765512466431e-01 1.554729938507080078e-01
4.035661220550537109e-01 -2.235737740993499756e-01 -9.017264842987060547e-02
3.961720168590545654e-01 -1.721031665802001953e-01 -1.314277052879333496e-01
4.088769853115081787e-01 -1.859200894832611084e-01 3.103531897068023682e-01
4.538468718528747559e-01 -2.205378115177154541e-01 -8.478662371635437012e-02
4.591930210590362549e-01 -1.600744277238845825e-01 -7.340066134929656982e-02
4.517000913619995117e-01 -1.373431533575057983e-01 1.009553223848342896e-01
4.492606520652770996e-01 -2.368859797716140747e-01 5.461288988590240479e-02
4.512856900691986084e-01 -2.306223809719085693e-01 -3.802274912595748901e-02
4.272318184375762939e-01 -2.135160416364669800e-01 -2.897515594959259033e-01
4.494404196739196777e-01 -1.569419950246810913e-01 2.394474744796752930e-01
4.033830463886260986e-01 -1.295701861381530762e-01 1.501301303505897522e-02
3.994803130626678467e-01 -1.407000124454498291e-01 -8.067096769809722900e-02
3.938096165657043457e-01 -1.837959289550781250e-01 -2.403065562248229980e-02
4.031652808189392090e-01 -1.365197300910949707e-01 -1.500074416399002075e-01
4.251104295253753662e-01 -2.142318189144134521e-01 3.468933999538421631e-01
4.290711879730224609e-01 -2.498001009225845337e-01 1.494074463844299316e-01
4.521982371807098389e-01 -1.966046392917633057e-01 2.560979127883911133e-01
4.283842742443084717e-01 -1.124124974012374878e-01 7.582706212997436523e-02
4.511575698852539062e-01 -1.327228993177413940e-01 -1.022857874631881714e-01
4.348933398723602295e-01 -2.417674511671066284e-01 2.234472483396530151e-01
