1.397106349468231201e-01 -3.920133411884307861e-02 1.210221052169799805e-01
-1.568498313426971436e-01 -8.251041918992996216e-02 3.581241071224212646e-01
7.242747396230697632e-02 4.347632080316543579e-02 3.582454025745391846e-01
-2.876653149724006653e-02 -1.103855744004249573e-01 -4.997730255126953125e-01
1.807649806141853333e-02 1.099676638841629028e-01 -3.108251094818115234e-01
-4.440398514270782471e-02 1.005260944366455078e-01 -5.549697875976562500e-01
-2.288502454757690430e-01 -4.862872883677482605e-02 -2.565180659294128418e-01
-1.516918838024139404e-01 6.174127757549285889e-02 -6.062663793563842773e-01
1.683718115091323853e-01 1.000612601637840271e-02 -5.099288821220397949e-01
-2.003061920404434204e-01 3.324220702052116394e-02 3.701246082782745361e-01
8.406013995409011841e-02 -8.644875884056091309e-02 -5.654138326644897461e-01
1.098008900880813599e-01 6.734422594308853149e-02 -6.103320717811584473e-01
-1.019365265965461731e-01 -1.129553690552711487e-01 1.632268726825714111e-01
-1.369864940643310547e-01 -2.525859698653221130e-02 5.971510410308837891e-01
1.301404386758804321e-01 7.120446115732192993e-02 -3.267322182655334473e-01
-1.952448636293411255e-01 5.242090299725532532e-02 2.843076586723327637e-01
3.087457269430160522e-03 -4.784041084349155426e-04 -9.650315046310424805e-01
8.856189250946044922e-02 -1.001343876123428345e-01 -1.601763218641281128e-01
-6.025981158018112183e-03 1.084995195269584656e-01 -4.334357976913452148e-01
-8.612452074885368347e-03 -1.218842864036560059e-01 -2.404482811689376831e-01
3.851568698883056641e-02 9.637019783258438110e-02 -5.592733621597290039e-01
-2.361792773008346558e-01 2.763489633798599243e-02 -2.393172532320022583e-01
-1.411825865507125854e-01 4.359093680977821350e-02 4.967792332172393799e-01
-2.392291277647018433e-01 -4.110288247466087341e-02 -1.735639572143554688e-01
-2.273682951927185059e-01 4.753232374787330627e-02 1.094348728656768799e-02
-5.769927054643630981e-02 -1.232377737760543823e-01 -3.029532730579376221e-02
-7.208357006311416626e-02 -1.141163632273674011e-01 -4.013546407222747803e-01
3.129365295171737671e-02 -1.466815825551748276e-02 5.464923381805419922e-01
-2.242873013019561768e-01 4.208984225988388062e-02 1.541692018508911133e-01
4.116881638765335083e-02 4.988630488514900208e-02 4.153058230876922607e-01
-6.743782758712768555e-02 8.225626498460769653e-02 -6.950051784515380859e-01
1.633119285106658936e-01 -4.440098628401756287e-02 -3.524937629699707031e-01
-7.907865941524505615e-02 4.264732822775840759e-03 -9.119572639465332031e-01
-1.585333049297332764e-01 -1.026207357645034790e-01 7.798302173614501953e-02
-7.651868462562561035e-02 -8.433492481708526611e-02 -6.863758563995361328e-01
-1.417619287967681885e-01 8.989495038986206055e-02 -3.931016325950622559e-01
-1.241033449769020081e-01 1.005451679229736328e-01 -2.929303944110870361e-01
-1.351426094770431519e-01 6.559667736291885376e-02 3.961564004421234131e-01
4.283599555492401123e-02 -1.138745024800300598e-01 -8.035872876644134521e-02
-7.710218429565429688e-03 3.948383778333663940e-02 5.327731370925903320e-01
-1.739628463983535767e-01 -5.589469149708747864e-02 4.556237161159515381e-01
-1.622074991464614868e-01 -9.939986467361450195e-02 -2.326048314571380615e-01
2.954571694135665894e-02 7.541759312152862549e-02 3.046251237392425537e-01
-2.357247471809387207e-01 -5.027144774794578552e-02 -1.235687807202339172e-01
1.818984001874923706e-02 1.044946387410163879e-01 -4.762144684791564941e-01
8.215096592903137207e-02 -6.677354127168655396e-02 -7.244219779968261719e-01
-8.570548146963119507e-02 3.843931853771209717e-02 -8.587296009063720703e-01
-6.773857772350311279e-02 7.378233224153518677e-02 -7.483698129653930664e-01
1.580441594123840332e-01 1.517518702894449234e-02 -5.982843637466430664e-01
1.486253440380096436e-01 -1.101176161319017410e-02 -6.701927185058593750e-01
-8.196949958801269531e-02 -7.414585351943969727e-02 5.149018764495849609e-01
1.179385483264923096e-01 -8.507893979549407959e-02 -3.127480745315551758e-01
-1.508724093437194824e-01 -1.007916331291198730e-01 -2.971019744873046875e-01
-7.701845467090606689e-02 -1.188601776957511902e-01 9.373518824577331543e-02
1.689600497484207153e-01 -3.673051670193672180e-02 -2.986177504062652588e-01
-1.417580544948577881e-01 9.466180205345153809e-02 4.306949675083160400e-02
5.930577963590621948e-02 -9.095447510480880737e-02 -6.024667024612426758e-01
-1.946855634450912476e-01 4.418393597006797791e-02 -4.987550675868988037e-01
9.055320918560028076e-02 8.480788767337799072e-02 -5.123150348663330078e-01
-2.122215740382671356e-02 2.477023750543594360e-02 5.835121870040893555e-01
3.695484250783920288e-02 1.069183200597763062e-01 -1.713385283946990967e-01
5.294352024793624878e-02 1.022195070981979370e-01 -1.242045164108276367e-01
7.163587957620620728e-02 3.290185704827308655e-02 3.957981765270233154e-01
8.862605690956115723e-02 2.065867185592651367e-02 3.729834854602813721e-01
-1.610995233058929443e-01 1.009281352162361145e-02 5.488359928131103516e-01
1.116390079259872437e-01 6.250956654548645020e-02 -6.413947343826293945e-01
1.690230965614318848e-01 8.983312174677848816e-03 -8.471839874982833862e-02
1.392148137092590332e-01 6.198978424072265625e-02 -1.643305569887161255e-01
-1.979231536388397217e-01 5.779080092906951904e-02 2.229538261890411377e-01
-5.334236472845077515e-02 1.132451295852661133e-01 -1.377011388540267944e-01
-1.367453485727310181e-03 -7.346177101135253906e-02 -7.942863702774047852e-01
-2.323196977376937866e-01 -5.169477313756942749e-02 1.261693537235260010e-01
-6.771100312471389771e-02 9.234261512756347656e-02 2.642665207386016846e-01
-1.114019751548767090e-01 1.026605665683746338e-01 2.847692370414733887e-02
1.279978305101394653e-01 7.233104109764099121e-02 -2.315349876880645752e-01
-4.195174574851989746e-02 -1.205696389079093933e-01 7.319714128971099854e-02
-2.162284404039382935e-02 8.354518562555313110e-02 3.270801603794097900e-01
4.686897248029708862e-02 8.528406918048858643e-02 -6.635497808456420898e-01
9.828720986843109131e-02 -9.364740550518035889e-02 -3.601747155189514160e-01
-1.228852346539497375e-01 -8.424811810255050659e-02 -5.884363055229187012e-01
9.050844609737396240e-02 6.486773490905761719e-02 1.806723475456237793e-01
-2.032474577426910400e-01 -3.238962218165397644e-02 -5.221169590950012207e-01
-2.188417911529541016e-01 2.178448066115379333e-02 -4.349034130573272705e-01
-2.169368863105773926e-01 -5.383561179041862488e-02 2.692563533782958984e-01
-1.516885161399841309e-01 -6.361880898475646973e-02 -6.218724250793457031e-01
3.958865255117416382e-02 -8.263631165027618408e-02 -7.090314626693725586e-01
1.506817489862442017e-01 -3.978651389479637146e-02 3.130298852920532227e-02
1.382645368576049805e-01 5.994379520416259766e-02 -1.110511347651481628e-01
1.422202587127685547e-01 2.766376733779907227e-02 1.011280715465545654e-01
1.012348830699920654e-01 5.742125958204269409e-02 -7.173415422439575195e-01
6.822156906127929688e-02 -3.819151967763900757e-02 4.353149831295013428e-01
1.041152179241180420e-01 7.676138728857040405e-02 -1.076449453830718994e-02
-1.093613579869270325e-01 -1.126092523336410522e-01 -3.098746538162231445e-01
1.188167929649353027e-01 7.126549631357192993e-02 -6.020346283912658691e-02
-2.831829339265823364e-02 -9.435460716485977173e-02 3.845641314983367920e-01
5.815485119819641113e-02 8.730431646108627319e-02 -6.169948577880859375e-01
-1.074885018169879913e-02 -1.218544915318489075e-01 -3.031341731548309326e-02
1.337810009717941284e-01 -7.439521700143814087e-02 -1.590319871902465820e-01
-1.050256192684173584e-01 -1.186811700463294983e-01 -1.150704026222229004e-01
3.059240430593490601e-02 -9.600397944450378418e-02 2.660652101039886475e-01
8.649999648332595825e-02 -7.926337420940399170e-03 -8.844745159149169922e-01
5.536913871765136719e-03 1.073507666587829590e-01 -6.197676062583923340e-03
-1.147663369774818420e-01 -1.154005974531173706e-01 -1.999668329954147339e-01
-1.956989616155624390e-01 -5.943878367543220520e-02 -4.488450586795806885e-01
-1.534550786018371582e-01 -1.215782947838306427e-03 -7.551411390304565430e-01
-1.345193684101104736e-01 -5.781043320894241333e-02 5.331016778945922852e-01
-2.087514400482177734e-01 -2.698288112878799438e-02 4.109711349010467529e-01
-2.486182004213333130e-01 -8.738269098103046417e-03 -1.722393035888671875e-01
-2.435171604156494141e-01 -4.072804749011993408e-02 -1.692451536655426025e-02
-1.668003946542739868e-01 -5.079108290374279022e-03 -7.120770215988159180e-01
-5.043631792068481445e-02 -1.184024587273597717e-01 -3.576764464378356934e-01
-1.754546761512756348e-01 7.852557301521301270e-02 1.173714101314544678e-01
-1.328961551189422607e-01 9.131020307540893555e-02 1.562884747982025146e-01
-2.342655956745147705e-01 3.815173730254173279e-02 -1.516480892896652222e-01
1.137548238039016724e-01 4.581820219755172729e-03 3.026971817016601562e-01
1.682116389274597168e-01 2.810265496373176575e-02 -4.100842177867889404e-01
-1.494635492563247681e-01 -9.070832282304763794e-02 3.114672601222991943e-01
-1.190184503793716431e-01 2.035829797387123108e-02 -8.294601440429687500e-01
-1.932745128870010376e-01 -6.905129551887512207e-02 3.098753690719604492e-01
-3.195850923657417297e-02 1.087082847952842712e-01 3.230528533458709717e-02
-1.472821235656738281e-01 7.523960620164871216e-02 2.928093671798706055e-01
-7.547271251678466797e-02 1.060192435979843140e-01 6.637904047966003418e-02
-4.390012472867965698e-02 1.130695864558219910e-01 -2.874226570129394531e-01
1.121364533901214600e-01 8.133140206336975098e-02 -2.054036408662796021e-01
-8.609554916620254517e-02 1.076104212552309036e-02 6.273467540740966797e-01
-1.664465516805648804e-01 3.093319013714790344e-02 -6.743210554122924805e-01
2.827002853155136108e-02 4.672810062766075134e-02 4.541837275028228760e-01
1.500116661190986633e-02 -1.157617792487144470e-01 -3.660581409931182861e-01
-4.410713538527488708e-02 6.281658262014389038e-02 -8.285423517227172852e-01
-1.417170614004135132e-01 5.522932112216949463e-02 -6.743766069412231445e-01
-1.105679273605346680e-01 8.335252851247787476e-02 3.055270910263061523e-01
3.265847265720367432e-02 1.082374975085258484e-01 -2.544236183166503906e-01
-2.122549861669540405e-01 5.942274630069732666e-02 -2.039414793252944946e-01
8.364035189151763916e-02 -9.879525750875473022e-02 -3.136213123798370361e-02
1.512161195278167725e-01 -5.948816239833831787e-02 -1.874655783176422119e-01
-2.443765476346015930e-02 3.871368989348411560e-02 -9.184585809707641602e-01
-1.786652766168117523e-02 -5.912652984261512756e-02 -8.569740056991577148e-01
3.951419889926910400e-02 -1.108374223113059998e-01 3.857246041297912598e-02
-6.645143032073974609e-02 8.848664909601211548e-02 3.017230927944183350e-01
3.932555764913558960e-02 7.250200957059860229e-02 -7.695671319961547852e-01
9.210550785064697266e-02 -1.240601390600204468e-02 3.904511630535125732e-01
8.901688456535339355e-02 -9.257166087627410889e-02 3.872101008892059326e-02
-1.049908250570297241e-02 9.920594841241836548e-02 -5.844747424125671387e-01
-2.224847525358200073e-01 -5.242351070046424866e-02 2.344358563423156738e-01
-1.770124286413192749e-01 -4.355091229081153870e-02 -6.103221178054809570e-01
1.227637231349945068e-01 -5.725385993719100952e-02 1.458871960639953613e-01
-1.727673113346099854e-01 8.596353232860565186e-02 -1.142446324229240417e-01
1.662182435393333435e-02 9.466563910245895386e-02 -6.178038120269775391e-01
-1.307093352079391479e-01 5.039145424962043762e-02 -7.271579504013061523e-01
-3.895804658532142639e-02 -1.207272559404373169e-01 -3.122366666793823242e-01
-7.832473516464233398e-02 -1.207815706729888916e-01 -2.268961519002914429e-01
1.033712178468704224e-01 -8.608687669038772583e-02 -4.648341238498687744e-01
-8.820331841707229614e-02 9.705766290426254272e-02 1.919372975826263428e-01
-1.148512586951255798e-01 6.904704868793487549e-02 -6.818079948425292969e-01
4.841475933790206909e-02 -5.512674525380134583e-02 -8.409461975097656250e-01
-1.069417223334312439e-01 -8.150661736726760864e-02 4.616263210773468018e-01
2.526881173253059387e-02 8.472270518541336060e-02 2.422668933868408203e-01
-2.079049497842788696e-01 3.683258220553398132e-02 3.156670331954956055e-01
1.704728603363037109e-02 -6.309334933757781982e-02 -8.360494375228881836e-01
-1.271544098854064941e-01 9.005849063396453857e-02 1.945034265518188477e-01
-2.509693205356597900e-01 -1.285661384463310242e-02 5.148243904113769531e-02
-2.424126118421554565e-01 8.756540715694427490e-03 1.736024320125579834e-01
1.103319674730300903e-01 -5.282177403569221497e-02 2.362043857574462891e-01
-2.379228174686431885e-02 7.361494749784469604e-02 3.977400958538055420e-01
-1.494730412960052490e-01 -1.077977120876312256e-01 -5.467669665813446045e-02
1.089927405118942261e-01 -9.093802422285079956e-02 -2.264240533113479614e-01
-1.339217834174633026e-02 1.133871227502822876e-01 -2.508218884468078613e-01
-5.379001051187515259e-02 -8.521572500467300415e-02 -7.083967924118041992e-01
-1.400960795581340790e-02 -1.232089698314666748e-01 -1.582887917757034302e-01
3.895878046751022339e-02 9.876971691846847534e-02 3.780335187911987305e-02
-1.662714332342147827e-01 -9.136112034320831299e-02 -3.389861583709716797e-01
-4.726722836494445801e-04 -1.047415509819984436e-01 2.560686171054840088e-01
-2.519986927509307861e-01 -7.288618013262748718e-03 -6.281246989965438843e-02
1.404054611921310425e-01 1.956339925527572632e-02 -6.997001171112060547e-01
1.441241800785064697e-02 -1.031987741589546204e-01 -5.624777078628540039e-01
2.009467035531997681e-02 -1.075567379593849182e-01 1.724455654621124268e-01
-2.334758639335632324e-02 7.872632890939712524e-02 3.639298379421234131e-01
1.081933379173278809e-01 -7.225994486361742020e-03 3.315804004669189453e-01
-9.757059812545776367e-02 -9.626906365156173706e-02 3.695806562900543213e-01
-4.145195335149765015e-02 -7.989798486232757568e-02 -7.503217458724975586e-01
7.786845415830612183e-02 -1.042874380946159363e-01 -2.468075752258300781e-01
7.106146961450576782e-02 7.981128990650177002e-03 -9.123951196670532227e-01
1.612174212932586670e-01 -7.695784792304039001e-03 1.947659254074096680e-02
-1.475089974701404572e-02 -1.229521483182907104e-01 -1.974553167819976807e-01
1.546601057052612305e-01 2.464979887008666992e-02 1.553957164287567139e-02
-2.443718463182449341e-01 2.203033491969108582e-02 4.395325481891632080e-02
-2.062906622886657715e-01 6.297643482685089111e-02 7.688859105110168457e-02
1.457991153001785278e-01 -6.344210356473922729e-02 -3.687228560447692871e-01
2.446449175477027893e-02 2.959039434790611267e-02 -9.348309040069580078e-01
-1.925327926874160767e-01 7.517602294683456421e-02 -2.999486029148101807e-02
-1.296896040439605713e-01 2.335166931152343750e-02 -8.002907037734985352e-01
1.172332465648651123e-01 -6.893040984869003296e-02 -5.750679373741149902e-01
-2.043021023273468018e-01 6.799495220184326172e-02 -1.137562096118927002e-01
8.605781942605972290e-02 -7.160716503858566284e-02 -6.832722425460815430e-01
-4.523750767111778259e-02 1.094198375940322876e-01 -4.069731831550598145e-01
1.367696076631546021e-01 2.434916049242019653e-02 1.481345593929290771e-01
9.590978920459747314e-02 8.587550371885299683e-02 -4.519643783569335938e-01
8.449830114841461182e-03 1.010392308235168457e-01 -5.484133958816528320e-01
3.164225071668624878e-02 -4.936863481998443604e-02 4.980482161045074463e-01
-2.460853904485702515e-01 -1.698831282556056976e-02 -2.033258676528930664e-01
1.074363440275192261e-01 -8.939468115568161011e-02 -8.964692056179046631e-02
1.362641602754592896e-01 5.879626423120498657e-02 -5.101119279861450195e-01
2.770794928073883057e-02 -9.393724054098129272e-02 -6.372051239013671875e-01
-4.981714487075805664e-02 9.294808655977249146e-02 -6.310318112373352051e-01
-2.700401842594146729e-02 -6.972444057464599609e-02 5.168268680572509766e-01
-2.248453646898269653e-01 -3.511148691177368164e-02 3.039378225803375244e-01
-2.508147358894348145e-01 -1.978068239986896515e-02 1.229652762413024902e-02
-1.749861091375350952e-01 -8.972542732954025269e-02 2.036469280719757080e-01
-1.430691033601760864e-01 -7.798744738101959229e-02 4.253143966197967529e-01
1.401798427104949951e-01 -2.062601596117019653e-02 -6.992539167404174805e-01
-2.248649299144744873e-01 5.093073844909667969e-02 -9.481546282768249512e-02
-1.437745243310928345e-01 -9.339719265699386597e-02 -4.356554150581359863e-01
-7.983259856700897217e-04 -9.974397718906402588e-02 3.048054873943328857e-01
5.599483847618103027e-02 -3.592095896601676941e-02 -8.908276557922363281e-01
-1.320579349994659424e-01 1.795239746570587158e-02 5.827559232711791992e-01
1.205106824636459351e-01 -2.244723960757255554e-02 2.692425251007080078e-01
-9.120628237724304199e-05 -5.265542492270469666e-02 5.427707433700561523e-01
-1.495274603366851807e-01 9.455379843711853027e-02 -2.061907649040222168e-01
-3.384970873594284058e-02 1.073424443602561951e-01 -4.612480998039245605e-01
-6.150305271148681641e-02 1.090221181511878967e-01 1.889429986476898193e-02
4.154505580663681030e-02 -6.040151417255401611e-02 4.428915083408355713e-01
-2.239205837249755859e-01 5.185618251562118530e-02 -2.986510097980499268e-02
-9.011456370353698730e-02 4.797566682100296021e-02 -8.250563144683837891e-01
-1.034938022494316101e-01 -1.076918691396713257e-01 2.421482801437377930e-01
-2.639741450548171997e-02 1.125992909073829651e-01 -8.684995770454406738e-02
-2.407147586345672607e-01 2.346104010939598083e-02 -1.980776488780975342e-01
-2.169278264045715332e-02 8.474100381135940552e-02 -7.179261445999145508e-01
-7.082621753215789795e-02 1.086807474493980408e-01 -3.669300675392150879e-01
6.353013217449188232e-03 5.036580562591552734e-02 4.771922528743743896e-01
-7.714316248893737793e-03 -3.486588224768638611e-02 -9.282515048980712891e-01
1.662252098321914673e-01 3.278661891818046570e-02 -2.045476585626602173e-01
1.408654898405075073e-01 -5.535031482577323914e-02 -5.337442159652709961e-01
-2.329548597335815430e-01 -2.365532889962196350e-02 -3.416059017181396484e-01
-3.978575021028518677e-02 -4.747799038887023926e-02 -8.857043981552124023e-01
-1.128606349229812622e-01 1.022772267460823059e-01 -3.289448022842407227e-01
-3.556889668107032776e-02 -2.328614145517349243e-02 -9.386968612670898438e-01
-1.845732480287551880e-01 -7.895022630691528320e-02 2.723655104637145996e-01
-7.844096422195434570e-02 -1.135182380676269531e-01 1.966153979301452637e-01
-9.452736377716064453e-02 -1.170443147420883179e-01 -2.736982107162475586e-01
5.918134748935699463e-02 -1.104818433523178101e-01 -1.584696173667907715e-01
-7.296898961067199707e-02 -1.039015203714370728e-01 3.187261521816253662e-01
-2.489506602287292480e-01 -1.927261427044868469e-02 8.741617202758789062e-02
1.143893003463745117e-01 3.899575769901275635e-02 -7.551860809326171875e-01
-5.559802800416946411e-02 -1.236824616789817810e-01 -1.623011231422424316e-01
-2.171253412961959839e-01 6.522768177092075348e-03 3.713743984699249268e-01
4.816602915525436401e-02 1.028126403689384460e-01 -3.969202637672424316e-01
-2.444267272949218750e-01 1.660038530826568604e-02 1.009681224822998047e-01
-1.354136765003204346e-01 7.690576463937759399e-02 -5.643510818481445312e-01
-1.895364969968795776e-01 6.810351461172103882e-02 1.655305624008178711e-01
-2.049176692962646484e-01 -4.654623195528984070e-02 3.758802115917205811e-01
8.804298937320709229e-02 9.298896789550781250e-02 -2.767960429191589355e-01
-2.452359050512313843e-01 -5.068921949714422226e-03 -2.311946153640747070e-01
-1.177030503749847412e-01 9.971807152032852173e-02 6.908088922500610352e-02
-2.235083840787410736e-02 1.109138205647468567e-01 -3.310830891132354736e-02
-1.208154857158660889e-01 9.687550365924835205e-02 1.124070882797241211e-01
-2.423721700906753540e-01 -1.345302164554595947e-02 -2.637568414211273193e-01
-1.104239821434020996e-01 4.713611304759979248e-02 5.232658386230468750e-01
1.596189662814140320e-02 -1.186899468302726746e-01 -2.702880203723907471e-01
-2.267968803644180298e-01 1.593948900699615479e-02 -3.906764388084411621e-01
1.243961751461029053e-01 3.638872876763343811e-02 1.747184693813323975e-01
1.398822069168090820e-01 -7.061766833066940308e-02 -2.131415456533432007e-01
2.869141101837158203e-02 8.373962342739105225e-02 -7.049635648727416992e-01
-1.307177543640136719e-01 -3.383965045213699341e-02 -7.820955514907836914e-01
-1.107848584651947021e-01 -6.781457364559173584e-02 -7.143397331237792969e-01
5.145210027694702148e-02 9.299712628126144409e-02 7.232706248760223389e-02
-1.177497431635856628e-01 -1.141289994120597839e-01 7.016418874263763428e-02
-1.082279905676841736e-02 9.314680099487304688e-02 2.299450635910034180e-01
-1.401082873344421387e-01 -4.540268704295158386e-02 5.602818727493286133e-01
-7.326416671276092529e-02 1.104076504707336426e-01 -3.022903203964233398e-01
1.555553078651428223e-01 4.857489094138145447e-02 -3.696812987327575684e-01
-1.908045858144760132e-01 4.126396775245666504e-02 -5.337740182876586914e-01
-1.813949942588806152e-01 2.649711817502975464e-02 -6.262035369873046875e-01
6.292339414358139038e-03 1.110102683305740356e-01 -1.260956674814224243e-01
-1.920399963855743408e-01 7.348947227001190186e-02 4.335016012191772461e-02
9.260861575603485107e-02 -8.489502221345901489e-02 1.116386950016021729e-01
1.596374362707138062e-01 -4.551871493458747864e-02 -4.192839860916137695e-01
8.551017194986343384e-02 -3.855916112661361694e-02 -8.346831798553466797e-01
-4.738056287169456482e-02 -7.282453775405883789e-02 -7.834479808807373047e-01
-1.500837951898574829e-01 2.807343006134033203e-02 -7.356429100036621094e-01
-1.530308127403259277e-01 -9.989178180694580078e-02 1.816132962703704834e-01
1.341569870710372925e-01 -7.078050076961517334e-02 -4.135206937789916992e-01
1.082237660884857178e-01 -8.995192497968673706e-02 -1.210672110319137573e-01
1.647745519876480103e-01 3.742944821715354919e-02 -3.392533063888549805e-01
-8.903091400861740112e-02 1.016286686062812805e-01 -4.500600695610046387e-01
1.767023056745529175e-01 6.359815597534179688e-03 -2.456223070621490479e-01
-3.642087057232856750e-02 -1.105380728840827942e-01 2.403475940227508545e-01
-2.438956648111343384e-01 2.345740795135498047e-02 -1.197086349129676819e-01
-2.206837944686412811e-02 1.118042618036270142e-01 -3.549761772155761719e-01
-1.908361762762069702e-01 -3.111120685935020447e-02 -5.864510536193847656e-01
8.018293231725692749e-02 -7.567642629146575928e-02 2.492479979991912842e-01
-2.109706103801727295e-01 -7.064931094646453857e-02 -2.254398018121719360e-01
7.855898141860961914e-02 -1.025007292628288269e-01 -7.687386870384216309e-02
-1.350201070308685303e-01 8.113383501768112183e-02 -5.293384790420532227e-01
1.393557637929916382e-01 -6.008011847734451294e-02 -5.017027258872985840e-03
1.634087711572647095e-01 3.482574969530105591e-02 -1.655942201614379883e-01
-1.581893265247344971e-01 -1.003427207469940186e-01 1.391912102699279785e-01
-1.822340041399002075e-01 -2.447656169533729553e-02 -6.367113590240478516e-01
-6.962417066097259521e-02 -1.209787949919700623e-01 4.618963599205017090e-02
-1.839632093906402588e-01 -9.069256484508514404e-02 1.068597733974456787e-01
-1.445277035236358643e-01 -8.816786110401153564e-02 -4.839189648628234863e-01
7.280630618333816528e-02 -3.665180504322052002e-02 -8.642201423645019531e-01
-1.643391996622085571e-01 6.536966562271118164e-02 -5.292422771453857422e-01
-1.615882366895675659e-01 8.608277142047882080e-02 8.524516224861145020e-02
-1.425703167915344238e-01 8.164500445127487183e-02 2.444498538970947266e-01
-8.323046565055847168e-02 6.909435242414474487e-02 4.364651143550872803e-01
-1.974467039108276367e-01 4.692545905709266663e-02 -4.674080908298492432e-01
1.601435542106628418e-01 -2.095518633723258972e-02 -5.703140497207641602e-01
1.070630699396133423e-01 7.036364078521728516e-02 4.486554861068725586e-02
-9.024456888437271118e-02 -8.956339210271835327e-02 4.258552491664886475e-01
-1.422966420650482178e-01 -5.178148671984672546e-02 -7.010512351989746094e-01
2.721472084522247314e-02 1.048262715339660645e-01 -2.980795502662658691e-02
-1.164183169603347778e-01 1.044306457042694092e-01 -2.090311199426651001e-01
1.416228413581848145e-01 -6.289922446012496948e-02 -4.442382156848907471e-01
9.855297207832336426e-02 8.791338652372360229e-02 -3.535936474800109863e-01
-1.951395124197006226e-01 -8.635102957487106323e-02 -1.269662678241729736e-01
4.811345785856246948e-02 -7.302637398242950439e-02 -7.570997476577758789e-01
6.630148738622665405e-02 -1.400550920516252518e-02 4.678846895694732666e-01
1.272449791431427002e-01 7.217088341712951660e-02 -3.768330514430999756e-01
-1.376500129699707031e-01 -4.634170979261398315e-02 -7.320744991302490234e-01
6.047952175140380859e-02 7.300604879856109619e-02 2.369717955589294434e-01
-8.902625739574432373e-02 8.092464506626129150e-02 3.524371087551116943e-01
3.143181651830673218e-02 -1.171677187085151672e-01 -1.381337642669677734e-01
3.187008202075958252e-02 -1.145581752061843872e-01 -8.389398455619812012e-03
-1.141938269138336182e-01 -1.093906089663505554e-01 1.905376315116882324e-01
2.037889510393142700e-02 1.077696010470390320e-01 -7.637932896614074707e-02
-3.560657799243927002e-02 -1.021944433450698853e-01 -5.888322591781616211e-01
-1.537988334894180298e-01 -1.062053218483924866e-01 -2.162072062492370605e-02
-1.305380165576934814e-01 1.010109558701515198e-01 -9.017474949359893799e-02
-2.285859435796737671e-01 1.531865447759628296e-03 3.123108148574829102e-01
1.506602764129638672e-02 -1.086930260062217712e-01 -4.926319718360900879e-01
1.768693476915359497e-01 4.623645916581153870e-03 -3.536058068275451660e-01
7.431415468454360962e-02 5.422427132725715637e-02 3.054947853088378906e-01
5.131457746028900146e-02 -1.006222814321517944e-01 -5.165002346038818359e-01
-1.535103619098663330e-01 -9.258738905191421509e-02 -3.981158137321472168e-01
5.192404985427856445e-02 -1.027413904666900635e-01 1.146222352981567383e-01
-1.448715329170227051e-01 -8.215424418449401855e-02 3.941356241703033447e-01
-9.220710396766662598e-02 -1.127591952681541443e-01 -3.725818395614624023e-01
-7.671029865741729736e-02 -5.187024921178817749e-02 5.931148529052734375e-01
7.216069102287292480e-02 4.618221893906593323e-02 -8.406367301940917969e-01
9.542277455329895020e-02 3.600632399320602417e-02 -8.216989040374755859e-01
-1.470910757780075073e-01 7.119968533515930176e-02 3.277852237224578857e-01
7.229305803775787354e-02 -5.371028929948806763e-02 3.820502460002899170e-01
-3.399983048439025879e-02 4.174060001969337463e-02 5.494579076766967773e-01
1.708951592445373535e-01 2.687519043684005737e-02 -2.806878983974456787e-01
-8.284477889537811279e-02 1.003102064132690430e-01 1.543233096599578857e-01
-2.315425872802734375e-01 1.131146494299173355e-02 2.706099748611450195e-01
-2.088915258646011353e-01 -3.800470754504203796e-02 -4.726898372173309326e-01
-1.087180078029632568e-01 -1.039922833442687988e-01 -4.471204578876495361e-01
-1.257017850875854492e-01 -1.678700186312198639e-02 -8.201811313629150391e-01
-2.164325267076492310e-01 -6.999979913234710693e-02 9.571608901023864746e-02
-1.557967811822891235e-01 2.736615389585494995e-02 5.234810113906860352e-01
5.377454310655593872e-02 -1.104521304368972778e-01 -3.076402544975280762e-01
9.199845790863037109e-02 -4.407032951712608337e-02 -8.025305271148681641e-01
-8.592079579830169678e-02 -1.214586943387985229e-01 -5.798532813787460327e-02
-1.629765331745147705e-01 -2.567553892731666565e-02 5.530371665954589844e-01
1.147066205739974976e-01 -2.559195086359977722e-02 -7.901569604873657227e-01
-1.636935397982597351e-02 -4.336782544851303101e-02 5.834621191024780273e-01
1.005321145057678223e-01 -4.951769858598709106e-02 2.934303283691406250e-01
1.647966802120208740e-01 -2.690871804952621460e-02 -5.987442284822463989e-02
-1.212704181671142578e-01 8.908925205469131470e-02 -5.024913549423217773e-01
-1.720852702856063843e-01 -2.146098390221595764e-02 -6.802253723144531250e-01
2.798331528902053833e-02 1.011129766702651978e-01 -5.137829184532165527e-01
-1.596889197826385498e-01 8.906031399965286255e-02 -2.610809803009033203e-01
-4.803905636072158813e-02 -1.049329787492752075e-01 -5.528727173805236816e-01
1.550710573792457581e-02 -9.196296334266662598e-02 3.355720341205596924e-01
2.138055860996246338e-02 -1.108843386173248291e-01 -4.463411271572113037e-01
-1.628442704677581787e-01 -5.047819763422012329e-02 5.034954547882080078e-01
3.889154642820358276e-03 5.163853615522384644e-02 -8.862923383712768555e-01
-2.380897700786590576e-01 -4.920114204287528992e-02 1.684018969535827637e-02
3.065459430217742920e-02 -7.039037067443132401e-03 -9.539607763290405273e-01
1.539437025785446167e-01 -5.193528253585100174e-03 8.200854063034057617e-02
-1.094906553626060486e-01 8.374927192926406860e-02 -5.937279462814331055e-01
-4.265777021646499634e-02 1.046492606401443481e-01 -4.994902014732360840e-01
1.620839685201644897e-01 -3.921058401465415955e-02 -9.919825196266174316e-02
8.892458677291870117e-02 7.248252630233764648e-02 1.272777020931243896e-01
1.195460557937622070e-02 7.270030677318572998e-02 -7.916471958160400391e-01
9.406088292598724365e-02 4.506744444370269775e-02 2.771692574024200439e-01
6.344009935855865479e-02 -1.020305305719375610e-01 -4.481980502605438232e-01
-8.933941274881362915e-02 -1.160312443971633911e-01 1.335339844226837158e-01
-2.140807211399078369e-01 -6.655505299568176270e-02 1.818950474262237549e-01
7.107548415660858154e-03 2.280747517943382263e-02 5.549730062484741211e-01
-2.079440951347351074e-01 4.322237335145473480e-03 4.176464974880218506e-01
-1.786787211894989014e-01 -1.680217916145920753e-03 5.211819410324096680e-01
-1.646545529365539551e-01 8.827446401119232178e-02 -9.292766451835632324e-03
1.817886531352996826e-02 -8.412135392427444458e-02 3.823656737804412842e-01
-1.935898214578628540e-01 -8.841215819120407104e-02 -3.814287483692169189e-02
1.400415301322937012e-01 -6.810323148965835571e-02 -1.276296377182006836e-01
-1.165621951222419739e-01 6.425902992486953735e-02 4.348280131816864014e-01
2.676903456449508667e-02 -1.176406666636466980e-01 -2.353006005287170410e-01
-5.765792354941368103e-02 -2.513571828603744507e-02 6.350069046020507812e-01
5.108027905225753784e-02 -7.196945697069168091e-02 3.694505393505096436e-01
1.241936683654785156e-01 3.732087463140487671e-02 -7.231607437133789062e-01
-1.909207105636596680e-01 -8.979213237762451172e-02 -6.901445984840393066e-02
7.819844782352447510e-02 9.153859317302703857e-02 -5.575346946716308594e-02
4.494617134332656860e-02 -1.123861819505691528e-01 -4.128210991621017456e-02
-1.746323853731155396e-01 6.432691961526870728e-02 -4.842310249805450439e-01
-1.027970686554908752e-01 -1.186184212565422058e-01 -1.577630639076232910e-01
1.040466427803039551e-01 6.881653517484664917e-02 7.917365431785583496e-02
-2.285277843475341797e-01 -6.041282415390014648e-02 -9.191124886274337769e-02
1.411641091108322144e-01 -6.272508203983306885e-02 -5.536995083093643188e-02
-2.023770362138748169e-01 6.885321438312530518e-02 -1.469368934631347656e-01
-1.022185161709785461e-01 3.672792389988899231e-02 5.655182600021362305e-01
-1.535362899303436279e-01 8.846603333950042725e-02 -3.350665569305419922e-01
1.646188646554946899e-02 -1.122930198907852173e-01 1.133786439895629883e-01
-1.662652008235454559e-02 -9.388772398233413696e-02 -6.657365560531616211e-01
-1.812642812728881836e-01 -9.449720382690429688e-02 1.794122159481048584e-02
-2.443674579262733459e-02 -1.160042509436607361e-01 -4.153687655925750732e-01
-3.850332275032997131e-02 8.954267948865890503e-02 -6.716705560684204102e-01
-3.384974226355552673e-02 -1.056225523352622986e-01 2.931944131851196289e-01
-1.238979995250701904e-01 -6.895571202039718628e-02 -6.776580810546875000e-01
1.734237670898437500e-01 2.593772951513528824e-03 -4.503045380115509033e-01
1.457855403423309326e-01 -5.491867288947105408e-02 -4.933364093303680420e-01
-1.378042995929718018e-01 -1.113210394978523254e-01 -8.408772945404052734e-02
-8.573444560170173645e-03 -1.186441108584403992e-01 6.490127742290496826e-02
1.453282684087753296e-01 2.529420703649520874e-02 -6.580524444580078125e-01
-1.906216740608215332e-01 -2.749899402260780334e-02 4.788078963756561279e-01
-3.041815198957920074e-02 5.371122434735298157e-02 -8.728338479995727539e-01
8.950985968112945557e-02 6.032090634107589722e-02 2.154075801372528076e-01
-1.611755788326263428e-01 4.661075770854949951e-02 -6.433512568473815918e-01
-1.118189245462417603e-01 -8.098553121089935303e-02 -6.394078731536865234e-01
6.834182143211364746e-02 6.748497486114501953e-02 -7.504960298538208008e-01
8.055798709392547607e-03 -4.739474505186080933e-02 -8.955754041671752930e-01
-6.288686394691467285e-02 2.572526410222053528e-02 6.031496524810791016e-01
1.307131648063659668e-01 -5.374442040920257568e-02 -6.141742467880249023e-01
-8.835693448781967163e-02 1.099195256829261780e-01 -1.285109966993331909e-01
-1.428359560668468475e-02 -1.211758702993392944e-01 -2.852177023887634277e-01
-2.011725008487701416e-01 6.484525650739669800e-02 1.072886586189270020e-01
7.024415582418441772e-02 -1.033968701958656311e-01 -3.797857761383056641e-01
1.167840510606765747e-02 1.033833101391792297e-01 5.441294610500335693e-02
-6.268906593322753906e-02 -1.131762489676475525e-01 -4.329541623592376709e-01
1.055568754673004150e-01 3.659681230783462524e-02 -7.920122146606445312e-01
-3.873579204082489014e-03 -8.964645117521286011e-02 -6.960484981536865234e-01
-6.468456983566284180e-02 4.055032879114151001e-02 5.644973516464233398e-01
-1.735881119966506958e-01 7.560671120882034302e-02 -3.796054720878601074e-01
7.575566321611404419e-02 -8.996896445751190186e-02 1.519303619861602783e-01
9.598862379789352417e-03 1.014453545212745667e-01 9.119075536727905273e-02
5.615704506635665894e-02 -9.612306952476501465e-02 1.771646738052368164e-01
9.611080586910247803e-02 7.818397134542465210e-02 -5.703169703483581543e-01
-2.054179310798645020e-01 -5.822870880365371704e-02 -3.944333791732788086e-01
7.628298550844192505e-02 9.670351445674896240e-02 -1.970271319150924683e-01
6.356047838926315308e-02 1.985669136047363281e-02 4.488958418369293213e-01
-8.991417288780212402e-02 7.532721757888793945e-02 3.927681744098663330e-01
5.750840902328491211e-02 -1.056705862283706665e-01 -4.101612269878387451e-01
6.624761968851089478e-02 -1.042488515377044678e-01 1.201927661895751953e-03
-4.165678471326828003e-02 -1.228651478886604309e-01 -1.985415816307067871e-03
4.827416688203811646e-02 -6.641377508640289307e-02 4.027042686939239502e-01
1.432723104953765869e-01 -4.013452678918838501e-03 1.562812626361846924e-01
1.437606215476989746e-01 -6.257342547178268433e-02 -8.999190479516983032e-02
-1.981905847787857056e-01 6.213967502117156982e-02 -3.392584919929504395e-01
1.491563767194747925e-01 -4.732905887067317963e-03 1.172985732555389404e-01
-8.398085832595825195e-03 -1.227050051093101501e-01 -1.070784926414489746e-01
-4.980260878801345825e-02 1.134854257106781006e-01 -2.358601093292236328e-01
-2.134834825992584229e-01 5.229362100362777710e-02 -2.952147126197814941e-01
-2.032625824213027954e-01 -8.139293640851974487e-02 5.016709864139556885e-02
5.628196150064468384e-02 -1.108745038509368896e-01 -1.154531463980674744e-01
-1.386887282133102417e-01 -1.105615720152854919e-01 -1.351067572832107544e-01
-9.468744695186614990e-02 -6.376386433839797974e-02 5.515712499618530273e-01
-2.010540664196014404e-01 -8.094248920679092407e-02 -1.743836551904678345e-01
-4.205251485109329224e-02 -6.300982087850570679e-02 -8.310986757278442383e-01
9.776005148887634277e-02 2.262454852461814880e-02 3.365388512611389160e-01
1.647146046161651611e-01 -2.514801919460296631e-02 -5.098683834075927734e-01
7.666026800870895386e-02 -9.504739940166473389e-02 8.707332611083984375e-02
-1.740399003028869629e-01 -5.896486341953277588e-02 -5.595936775207519531e-01
1.333648115396499634e-01 6.675373762845993042e-02 -4.143287837505340576e-01
5.356618762016296387e-02 9.826748818159103394e-02 -4.781650900840759277e-01
-4.819270223379135132e-03 1.050286740064620972e-01 -4.998508095741271973e-01
-7.839336246252059937e-02 8.698601275682449341e-02 -6.405253410339355469e-01
1.148214787244796753e-01 5.637219920754432678e-02 1.175279915332794189e-01
-2.002212256193161011e-01 1.785514503717422485e-02 -5.566682815551757812e-01
9.801267087459564209e-02 -9.070973098278045654e-02 -4.287188351154327393e-01
-7.225057482719421387e-02 4.897508770227432251e-02 5.353195667266845703e-01
-1.319038867950439453e-01 -1.097127944231033325e-01 1.059174835681915283e-01
1.187649518251419067e-01 7.560294866561889648e-02 -1.414984464645385742e-01
1.517947316169738770e-01 5.359347537159919739e-02 -2.828906178474426270e-01
1.461661756038665771e-01 -6.479085236787796021e-02 -3.154642879962921143e-01
-1.721993386745452881e-01 5.391233414411544800e-02 3.713541924953460693e-01
1.321564614772796631e-01 8.597469888627529144e-03 -7.526305913925170898e-01
1.216378808021545410e-01 -8.370397984981536865e-02 -2.531027495861053467e-01
-1.523863077163696289e-01 8.304120600223541260e-02 -4.254019260406494141e-01
-2.293646037578582764e-01 4.224576428532600403e-02 8.039970695972442627e-02
-2.492608129978179932e-01 1.245698425918817520e-02 -3.522932529449462891e-02
-1.019810214638710022e-01 -6.298856437206268311e-02 -7.540146112442016602e-01
-1.061256825923919678e-01 -1.002311185002326965e-01 -4.974862039089202881e-01
-1.512285917997360229e-01 -7.206180691719055176e-02 -5.773813724517822266e-01
-1.772916913032531738e-01 6.648186594247817993e-02 -4.510156810283660889e-01
1.736436784267425537e-01 -2.532732672989368439e-03 -1.380519270896911621e-01
1.993955671787261963e-02 1.089868545532226562e-01 -3.491569757461547852e-01
6.241831928491592407e-03 1.119817346334457397e-01 -2.175353020429611206e-01
-5.681797862052917480e-03 -7.575984299182891846e-02 4.670269191265106201e-01
3.884647041559219360e-02 9.119779616594314575e-02 1.411480009555816650e-01
-1.922728568315505981e-01 -5.338232591748237610e-02 -5.008718967437744141e-01
7.078069448471069336e-02 3.038834035396575928e-02 -8.854707479476928711e-01
8.555131405591964722e-02 -1.031029820442199707e-01 6.721958518028259277e-02
1.352211833000183105e-01 -1.432486176490783691e-01 -5.090208649635314941e-01
1.020556837320327759e-01 -2.004895061254501343e-01 4.458934664726257324e-01
-5.946267396211624146e-02 -7.898692786693572998e-02 -6.373342126607894897e-02
1.682538352906703949e-02 -3.153367042541503906e-01 -5.989995002746582031e-01
-2.745044976472854614e-02 -3.379532098770141602e-01 -3.322621583938598633e-01
-1.225011870265007019e-01 -2.208458781242370605e-01 4.085398316383361816e-01
1.329441666603088379e-01 -2.939693033695220947e-01 -2.315328121185302734e-01
7.026896346360445023e-04 -2.878046929836273193e-01 -7.698844075202941895e-01
-2.267197519540786743e-02 -3.314859867095947266e-01 2.518955469131469727e-01
9.591287001967430115e-03 -9.111569076776504517e-02 1.768114417791366577e-01
9.266482293605804443e-02 -3.245216012001037598e-01 -3.061744570732116699e-02
9.905108809471130371e-02 -2.210281938314437866e-01 4.685541391372680664e-01
-1.075932011008262634e-01 -1.322085410356521606e-01 2.575770020484924316e-01
-9.786819666624069214e-02 -1.929838657379150391e-01 -8.466804027557373047e-01
-1.063051521778106689e-01 -9.366989880800247192e-02 -1.770512461662292480e-01
1.616728752851486206e-01 -2.395381480455398560e-01 -3.401862382888793945e-01
1.266647130250930786e-01 -1.556256711483001709e-01 -6.373835206031799316e-01
-5.521073937416076660e-02 -3.379410505294799805e-01 2.008013427257537842e-02
1.090264245867729187e-01 -1.626724749803543091e-01 3.344717621803283691e-01
7.826364785432815552e-02 -8.645771443843841553e-02 -2.128809094429016113e-01
6.187026202678680420e-02 -8.186286687850952148e-02 -1.273025274276733398e-01
3.454497829079627991e-02 -8.735755831003189087e-02 -6.105857491493225098e-01
7.451531291007995605e-02 -3.310406208038330078e-01 3.808242082595825195e-02
8.345603197813034058e-02 -3.192094564437866211e-01 1.757100969552993774e-01
1.688429862260818481e-01 -1.942116469144821167e-01 -2.216459512710571289e-01
-1.199471801519393921e-01 -2.084059417247772217e-01 -7.624600529670715332e-01
5.197376385331153870e-02 -3.062952756881713867e-01 3.936228752136230469e-01
1.262387037277221680e-01 -1.251832544803619385e-01 -2.110840380191802979e-02
-1.212019696831703186e-01 -3.070501685142517090e-01 -1.689403355121612549e-01
-1.508416682481765747e-01 -1.323749721050262451e-01 -3.223392963409423828e-01
-4.781922325491905212e-02 -8.683934062719345093e-02 9.710790216922760010e-02
-7.543459534645080566e-02 -2.957714200019836426e-01 -6.253985762596130371e-01
-7.323539257049560547e-02 -1.210382059216499329e-01 -7.745239138603210449e-01
-5.509672313928604126e-02 -7.450011372566223145e-02 -3.617119193077087402e-01
1.392500698566436768e-01 -1.373174786567687988e-01 -4.679343104362487793e-02
8.547762781381607056e-02 -1.766301840543746948e-01 4.580419063568115234e-01
1.076474338769912720e-01 -1.029304414987564087e-01 -2.011766880750656128e-01
-6.377273239195346832e-04 -7.349902391433715820e-02 -4.809111356735229492e-01
-1.129468977451324463e-01 -2.011343985795974731e-01 4.397665262222290039e-01
6.269700080156326294e-02 -2.395671159029006958e-01 5.568651556968688965e-01
-1.531529724597930908e-01 -2.173161059617996216e-01 2.332706302404403687e-01
6.384938210248947144e-02 -1.150359958410263062e-01 2.613479495048522949e-01
8.585381507873535156e-02 -2.780475914478302002e-01 4.253568053245544434e-01
-4.205816611647605896e-02 -9.214095026254653931e-02 1.648169904947280884e-01
-1.384660154581069946e-01 -1.520936638116836548e-01 1.924909502267837524e-01
-1.671205610036849976e-01 -1.675256192684173584e-01 -3.718965947628021240e-01
-2.691044658422470093e-02 -6.972095370292663574e-02 -3.497756123542785645e-01
5.728734284639358521e-02 -3.314736485481262207e-01 -3.418517708778381348e-01
1.565077155828475952e-01 -2.380634099245071411e-01 1.078724414110183716e-01
-6.300400011241436005e-03 -1.415338218212127686e-01 4.801583886146545410e-01
1.388655155897140503e-01 -1.637314409017562866e-01 1.620758324861526489e-01
-1.299851089715957642e-01 -2.402916848659515381e-01 3.559849858283996582e-01
1.661980748176574707e-01 -2.265762090682983398e-01 -3.103402853012084961e-01
-5.720541626214981079e-02 -7.410040497779846191e-02 -2.181152403354644775e-01
1.329421158879995346e-02 -3.364297151565551758e-01 -3.816304504871368408e-01
-5.740766413509845734e-03 -2.656735181808471680e-01 5.840788483619689941e-01
-5.547181144356727600e-02 -3.385814428329467773e-01 -1.316589117050170898e-02
-8.799754083156585693e-02 -3.049172461032867432e-01 -5.109559893608093262e-01
6.771987676620483398e-02 -3.103852868080139160e-01 3.254556655883789062e-01
-1.056745182722806931e-03 -7.276114821434020996e-02 -6.452704966068267822e-02
1.517094075679779053e-01 -2.159896045923233032e-01 1.820916682481765747e-01
1.339158862829208374e-01 -2.511961460113525391e-01 -5.743585228919982910e-01
1.982997730374336243e-02 -3.437723815441131592e-01 -2.175034135580062866e-01
-1.218275576829910278e-01 -2.920805215835571289e-01 -4.211946725845336914e-01
-4.920113831758499146e-02 -1.353453099727630615e-01 4.274196624755859375e-01
-1.242577359080314636e-01 -3.052666783332824707e-01 -9.956945478916168213e-02
1.022430211305618286e-01 -1.158650666475296021e-01 9.520001709461212158e-02
5.035959556698799133e-02 -7.706359028816223145e-02 -3.534057438373565674e-01
-1.504448801279067993e-01 -1.919693201780319214e-01 -6.026058197021484375e-01
3.629987686872482300e-02 -7.797189056873321533e-02 -4.889847338199615479e-02
-4.714829102158546448e-02 -1.485457122325897217e-01 4.801210761070251465e-01
-5.390714481472969055e-02 -2.896147370338439941e-01 -7.131069302558898926e-01
7.161693274974822998e-02 -3.238009512424468994e-01 -3.863097429275512695e-01
1.628396809101104736e-01 -1.741094589233398438e-01 -2.962295413017272949e-01
1.227765604853630066e-01 -2.599198520183563232e-01 3.211180567741394043e-01
-4.217113181948661804e-02 -3.389599919319152832e-01 8.472143113613128662e-02
1.246595755219459534e-01 -1.814763844013214111e-01 3.151563405990600586e-01
-1.713330745697021484e-01 -1.752745658159255981e-01 -3.260647058486938477e-01
-9.066615253686904907e-02 -8.561453968286514282e-02 -3.178727328777313232e-01
-1.646943092346191406e-01 -1.672762781381607056e-01 1.487016677856445312e-02
1.302387416362762451e-01 -1.288575530052185059e-01 -4.364864230155944824e-01
-1.020438075065612793e-01 -9.921362251043319702e-02 2.872511744499206543e-03
-1.357079148292541504e-01 -1.207718998193740845e-01 -4.244409203529357910e-01
-1.562992632389068604e-01 -2.265093326568603516e-01 1.994047611951828003e-01
-5.162065103650093079e-02 -7.262362539768218994e-02 -2.752512395381927490e-01
-8.379884809255599976e-02 -2.701033055782318115e-01 -7.335527539253234863e-01
-2.080890350043773651e-02 -2.788623571395874023e-01 5.479626059532165527e-01
1.252276450395584106e-01 -1.365134418010711670e-01 1.043029576539993286e-01
-3.899823129177093506e-02 -2.312880754470825195e-01 6.056928634643554688e-01
-1.091947928071022034e-01 -1.109737455844879150e-01 -5.677430033683776855e-01
1.558003574609756470e-01 -1.588995456695556641e-01 -3.279480934143066406e-01
1.735143363475799561e-02 -1.842996478080749512e-01 5.852299928665161133e-01
7.831949740648269653e-02 -2.231392115354537964e-01 -8.621669411659240723e-01
3.145642206072807312e-02 -1.060865148901939392e-01 2.722224593162536621e-01
1.303225904703140259e-01 -2.891763150691986084e-01 1.047570258378982544e-01
-1.419917494058609009e-01 -2.868824601173400879e-01 -1.245826482772827148e-02
1.502825021743774414e-01 -1.872919797897338867e-01 -5.370442271232604980e-01
-1.332822889089584351e-01 -2.825329601764678955e-01 1.665191799402236938e-01
6.858932226896286011e-02 -9.710110723972320557e-02 -5.906857848167419434e-01
-1.207103654742240906e-01 -2.727702856063842773e-01 3.128331303596496582e-01
-7.407685369253158569e-02 -2.441182136535644531e-01 5.429953336715698242e-01
-1.579647064208984375e-01 -2.548113763332366943e-01 8.567775785923004150e-02
-5.356162786483764648e-03 -3.264534473419189453e-01 -5.066306591033935547e-01
-1.694828867912292480e-01 -2.456712126731872559e-01 -1.796337515115737915e-01
-1.060211807489395142e-01 -2.647617757320404053e-01 -6.801684498786926270e-01
-1.260786801576614380e-01 -3.022072613239288330e-01 -2.110764980316162109e-01
-4.495396837592124939e-02 -2.592294812202453613e-01 5.701602697372436523e-01
9.834460169076919556e-02 -1.092552840709686279e-01 -5.385502576828002930e-01
1.615483015775680542e-01 -2.324250340461730957e-01 5.205193161964416504e-02
-5.635510757565498352e-02 -7.402041554450988770e-02 -3.189699649810791016e-01
6.313463672995567322e-03 -3.465145230293273926e-01 -9.110560268163681030e-02
4.872740805149078369e-02 -3.015229701995849609e-01 -6.531961560249328613e-01
-1.043964177370071411e-01 -3.073478937149047852e-01 -3.905416131019592285e-01
-1.027746275067329407e-01 -2.258671224117279053e-01 4.807330369949340820e-01
5.497637763619422913e-02 -1.283162981271743774e-01 -8.205239176750183105e-01
7.780576124787330627e-03 -2.956023514270782471e-01 4.958675503730773926e-01
-8.690475672483444214e-02 -9.551826119422912598e-02 -5.499094724655151367e-01
4.140866920351982117e-02 -1.556730270385742188e-01 4.946998953819274902e-01
-7.344598416239023209e-04 -3.092609047889709473e-01 4.333596825599670410e-01
1.488077361136674881e-02 -3.333201408386230469e-01 -4.235331118106842041e-01
1.422211080789566040e-01 -1.623920947313308716e-01 1.263724416494369507e-01
1.560860127210617065e-01 -2.079410851001739502e-01 -4.918267130851745605e-01
1.205044910311698914e-01 -1.979372352361679077e-01 3.672187924385070801e-01
-9.089374542236328125e-02 -2.873121798038482666e-01 3.843147754669189453e-01
2.514285966753959656e-02 -7.872843742370605469e-02 -5.264121890068054199e-01
-1.469038128852844238e-01 -1.315133720636367798e-01 -3.944991230964660645e-01
-7.300983369350433350e-02 -7.901240885257720947e-02 -1.846872717142105103e-01
1.163083035498857498e-02 -2.799039781093597412e-01 5.475038290023803711e-01
3.767722100019454956e-02 -3.400850296020507812e-01 -2.570804953575134277e-01
2.604206278920173645e-02 -2.112186998128890991e-01 -9.555668830871582031e-01
1.207112371921539307e-01 -1.133254691958427429e-01 -1.704457104206085205e-01
9.350988268852233887e-02 -9.872737526893615723e-02 -6.068161875009536743e-02
