4.048804342746734619e-01 1.167385205626487732e-01 3.610208630561828613e-02
5.037158131599426270e-01 7.876022160053253174e-02 -6.424679607152938843e-02
5.320202112197875977e-01 2.656569704413414001e-02 2.154606394469738007e-02
3.658993244171142578e-01 -3.163057565689086914e-02 -7.633112370967864990e-02
3.777416944503784180e-01 1.050841584801673889e-01 -4.601601511240005493e-02
2.868115603923797607e-01 1.476450264453887939e-02 -3.041733987629413605e-02
5.147862434387207031e-01 1.287762261927127838e-02 -4.334972053766250610e-02
4.974335432052612305e-01 9.430008381605148315e-02 -5.800347030162811279e-02
3.760343194007873535e-01 9.289246797561645508e-02 -6.478106230497360229e-02
3.721222281455993652e-01 4.882456362247467041e-02 8.874173462390899658e-02
3.284904956817626953e-01 -3.871347755193710327e-02 -5.394268035888671875e-02
3.367940783500671387e-01 -2.308329194784164429e-02 -7.343544811010360718e-02
4.732000231742858887e-01 -2.142561972141265869e-02 5.014352500438690186e-02
2.946671843528747559e-01 -1.883329823613166809e-02 2.509787119925022125e-02
4.290479421615600586e-01 8.737722039222717285e-02 8.120271563529968262e-02
5.394331216812133789e-01 6.016483530402183533e-02 2.183474972844123840e-02
3.139118552207946777e-01 3.467565774917602539e-02 -6.554950028657913208e-02
5.083664655685424805e-01 6.090511754155158997e-02 -6.652534008026123047e-02
4.822534918785095215e-01 6.474290788173675537e-02 8.200580626726150513e-02
3.633625507354736328e-01 -1.879487186670303345e-02 7.736396789550781250e-02
3.189816176891326904e-01 -9.203013032674789429e-03 6.048607081174850464e-02
4.809903502464294434e-01 1.510342769324779510e-02 7.715439051389694214e-02
3.475141525268554688e-01 -3.867466747760772705e-02 -6.430068612098693848e-02
3.412009477615356445e-01 -5.878824740648269653e-02 -1.333318557590246201e-02
3.248046040534973145e-01 -4.675697535276412964e-03 -7.571444660425186157e-02
4.750469326972961426e-01 8.497805148363113403e-02 -7.671381533145904541e-02
4.844067096710205078e-01 1.185268163681030273e-03 -6.771362572908401489e-02
3.368524610996246338e-01 9.035277366638183594e-02 -2.350982464849948883e-02
3.339553475379943848e-01 7.573570311069488525e-02 -5.167219042778015137e-02
4.421450197696685791e-01 1.050622686743736267e-01 6.521562486886978149e-02
3.491262793540954590e-01 -3.331982344388961792e-02 6.162923574447631836e-02
4.588379263877868652e-01 2.486871927976608276e-02 -9.294973313808441162e-02
3.929530978202819824e-01 6.310696899890899658e-02 -9.415790438652038574e-02
5.144309401512145996e-01 5.152474343776702881e-02 -6.162603199481964111e-02
2.964240610599517822e-01 4.534070938825607300e-02 -2.795394510030746460e-02
4.297544658184051514e-01 -5.521615594625473022e-02 -9.663780219852924347e-03
4.217123389244079590e-01 1.262605786323547363e-01 9.555337950587272644e-03
4.453913271427154541e-01 -4.875846952199935913e-02 -1.884470321238040924e-02
5.204474329948425293e-01 2.482855319976806641e-02 4.552246630191802979e-02
4.831863939762115479e-01 1.119008734822273254e-01 4.625047743320465088e-02
3.522524535655975342e-01 -2.433530986309051514e-02 7.028341293334960938e-02
4.634509384632110596e-01 1.441944390535354614e-03 7.901187986135482788e-02
4.789242148399353027e-01 -3.271022439002990723e-02 -1.140296086668968201e-02
5.296136736869812012e-01 5.179144442081451416e-02 4.359497129917144775e-02
4.473364353179931641e-01 -8.467968553304672241e-03 -8.303236216306686401e-02
4.376127719879150391e-01 -1.074073836207389832e-02 8.097139745950698853e-02
4.206765592098236084e-01 1.165950670838356018e-01 4.430285841226577759e-02
4.512006640434265137e-01 1.253215074539184570e-01 2.611978165805339813e-02
3.375489711761474609e-01 8.696291595697402954e-02 -3.588847815990447998e-02
5.116643905639648438e-01 4.478456452488899231e-03 3.764431178569793701e-02
4.749679863452911377e-01 1.026697233319282532e-01 6.208540499210357666e-02
4.420321583747863770e-01 -2.243130281567573547e-02 6.951708346605300903e-02
4.085547327995300293e-01 9.562481939792633057e-02 -7.412417232990264893e-02
4.722572565078735352e-01 1.159647405147552490e-01 4.434342682361602783e-02
3.714244663715362549e-01 -6.200347095727920532e-03 8.566796034574508667e-02
4.877748787403106689e-01 -1.185443624854087830e-02 4.860913753509521484e-02
4.594388306140899658e-01 1.264976859092712402e-01 1.920966058969497681e-02
4.033136367797851562e-01 5.067114531993865967e-02 9.550326317548751831e-02
3.917291462421417236e-01 -4.893985390663146973e-02 -5.607170611619949341e-02
3.624308407306671143e-01 -5.799416452646255493e-02 2.641353197395801544e-02
4.194777607917785645e-01 5.992554873228073120e-02 9.440524876117706299e-02
5.020797848701477051e-01 -4.537574946880340576e-03 -4.121371358633041382e-02
5.248378515243530273e-01 8.666326850652694702e-02 -3.600639104843139648e-02
4.232840538024902344e-01 7.531145215034484863e-02 -9.120714664459228516e-02
4.443727433681488037e-01 5.871250480413436890e-02 9.365613758563995361e-02
4.289408624172210693e-01 4.555357247591018677e-02 -1.005558818578720093e-01
4.711287617683410645e-01 1.332369260489940643e-02 8.166383951902389526e-02
4.230893254280090332e-01 9.641689807176589966e-02 -7.552018016576766968e-02
3.478564918041229248e-01 -4.819706082344055176e-02 -5.130627006292343140e-02
4.075292348861694336e-01 1.213783621788024902e-01 -2.531622722744941711e-02
4.199109673500061035e-01 -5.282498896121978760e-02 3.037471137940883636e-02
3.927443623542785645e-01 5.216844379901885986e-02 9.339877218008041382e-02
3.766618669033050537e-01 7.456443458795547485e-02 -8.289974182844161987e-02
3.980518877506256104e-01 -5.949988216161727905e-02 2.014272846281528473e-02
5.130640268325805664e-01 9.525141119956970215e-02 -4.293571412563323975e-02
4.928466081619262695e-01 3.290871158242225647e-03 -6.184174865484237671e-02
3.786184787750244141e-01 -6.314852088689804077e-02 -1.242667809128761292e-02
3.155305981636047363e-01 -4.825466126203536987e-02 3.098072018474340439e-03
3.416592180728912354e-01 9.266637265682220459e-02 2.130613662302494049e-02
4.062639772891998291e-01 9.850502759218215942e-02 6.728631258010864258e-02
2.986904382705688477e-01 4.990357533097267151e-02 1.737480983138084412e-02
5.394845008850097656e-01 5.073758959770202637e-02 -1.805285923182964325e-02
3.372761011123657227e-01 -5.064154416322708130e-02 -4.031917452812194824e-02
4.558523297309875488e-01 -4.125993698835372925e-02 2.753019891679286957e-02
3.787596821784973145e-01 1.074780225753784180e-01 3.731104731559753418e-02
3.963571786880493164e-01 -6.137850135564804077e-02 -1.803400367498397827e-02
4.642432630062103271e-01 -3.578449785709381104e-02 3.161449730396270752e-02
4.104771912097930908e-01 -3.507924079895019531e-02 -7.168255001306533813e-02
2.885573208332061768e-01 -1.911092549562454224e-03 2.377732098102569580e-02
4.620171189308166504e-01 -1.973546668887138367e-02 -6.486319750547409058e-02
3.896697461605072021e-01 -2.898156270384788513e-02 -8.037569373846054077e-02
3.702110350131988525e-01 -5.228950083255767822e-02 4.207645356655120850e-02
3.760733008384704590e-01 -1.474195718765258789e-02 -8.951687812805175781e-02
4.091243743896484375e-01 -5.091000348329544067e-02 -4.752407968044281006e-02
5.373009443283081055e-01 3.701578080654144287e-02 1.623603887856006622e-02
3.340077400207519531e-01 3.571112826466560364e-02 -8.135502040386199951e-02
4.402569234371185303e-01 2.095700614154338837e-02 -9.777335077524185181e-02
4.965644776821136475e-01 1.200354248285293579e-01 3.820198122411966324e-03
3.255779743194580078e-01 -3.599236905574798584e-02 4.522616416215896606e-02
3.706661760807037354e-01 1.097224727272987366e-01 -2.292886935174465179e-02
5.113752484321594238e-01 8.539918810129165649e-02 -5.367217212915420532e-02
4.553418159484863281e-01 1.281261444091796875e-01 9.669959545135498047e-03
4.190263748168945312e-01 4.947571828961372375e-02 -1.005543321371078491e-01
3.149488270282745361e-01 -3.539869934320449829e-02 3.575770556926727295e-02
3.422431945800781250e-01 -2.679773047566413879e-02 6.430516391992568970e-02
3.073989152908325195e-01 5.383119732141494751e-02 -4.177804291248321533e-02
3.294377326965332031e-01 1.882302761077880859e-02 7.300660014152526855e-02
4.949019253253936768e-01 1.027167141437530518e-01 5.193164944648742676e-02
3.885719478130340576e-01 4.744075238704681396e-03 9.230295568704605103e-02
4.897282123565673828e-01 -2.366442978382110596e-02 1.868125051259994507e-02
3.812163770198822021e-01 6.373911350965499878e-02 8.599230647087097168e-02
4.711782336235046387e-01 3.164810687303543091e-02 -8.913195878267288208e-02
2.895261347293853760e-01 3.817971423268318176e-02 -1.120010623708367348e-03
5.309597253799438477e-01 1.902344822883605957e-02 -2.623262582346796989e-03
3.706727027893066406e-01 3.663169592618942261e-02 -9.713608771562576294e-02
3.719668984413146973e-01 5.486305803060531616e-02 -9.231118857860565186e-02
3.565157055854797363e-01 1.134930737316608429e-02 -9.364449977874755859e-02
3.546167612075805664e-01 9.575105458498001099e-02 3.598979115486145020e-02
3.551737368106842041e-01 -5.971785634756088257e-02 -2.549475245177745819e-02
3.611255884170532227e-01 4.869760200381278992e-02 -9.080079197883605957e-02
4.267868399620056152e-01 -2.355596050620079041e-02 7.374721020460128784e-02
3.471166491508483887e-01 9.913370758295059204e-02 -1.096008624881505966e-02
3.452435135841369629e-01 -6.000716239213943481e-02 6.346898153424263000e-04
5.212371945381164551e-01 7.981811463832855225e-02 -4.658596962690353394e-02
4.089155793190002441e-01 3.198695555329322815e-02 -1.025053709745407104e-01
5.401861667633056641e-01 7.508565485477447510e-02 1.701672328636050224e-03
4.651042819023132324e-01 1.231426969170570374e-01 -2.996958605945110321e-02
4.404193162918090820e-01 -3.405325114727020264e-02 -6.078295409679412842e-02
4.146379530429840088e-01 1.233961060643196106e-01 2.049257606267929077e-02
4.962650537490844727e-01 7.604598999023437500e-02 -7.074304670095443726e-02
4.474615156650543213e-01 -4.074045270681381226e-02 3.892190009355545044e-02
4.455337226390838623e-01 4.598051309585571289e-02 -9.793626517057418823e-02
5.061899423599243164e-01 1.095093116164207458e-01 -2.865423075854778290e-02
4.318484067916870117e-01 1.279597282409667969e-01 2.498859073966741562e-03
3.423681259155273438e-01 7.293322682380676270e-02 -6.385308504104614258e-02
3.537355661392211914e-01 -5.185499787330627441e-02 3.805583715438842773e-02
3.619057536125183105e-01 -5.210203677415847778e-02 -4.915739595890045166e-02
3.832104206085205078e-01 3.949602693319320679e-02 9.398221224546432495e-02
5.117180943489074707e-01 4.921340942382812500e-02 6.473858654499053955e-02
3.884580135345458984e-01 7.324238121509552002e-02 8.312382549047470093e-02
3.218412399291992188e-01 3.581797331571578979e-02 6.399148702621459961e-02
3.664123415946960449e-01 -6.268112361431121826e-02 -1.423983834683895111e-02
3.586607277393341064e-01 -1.485515385866165161e-03 -9.160628169775009155e-02
3.580748736858367920e-01 7.603893429040908813e-02 -7.243788987398147583e-02
4.566998779773712158e-01 5.831011384725570679e-02 9.159550815820693970e-02
3.913554251194000244e-01 1.194443181157112122e-01 -8.533972315490245819e-03
4.623398482799530029e-01 -1.197408512234687805e-02 -7.252929359674453735e-02
3.301770985126495361e-01 3.948257863521575928e-02 6.951814144849777222e-02
3.790397346019744873e-01 1.329437084496021271e-02 -9.914024919271469116e-02
3.099177479743957520e-01 1.799029111862182617e-02 5.683154612779617310e-02
3.026962876319885254e-01 9.443968534469604492e-03 4.905907064676284790e-02
3.643151223659515381e-01 8.521613478660583496e-02 6.155823916196823120e-02
3.383237421512603760e-01 2.640572190284729004e-02 -8.589063584804534912e-02
3.788108229637145996e-01 4.473133012652397156e-02 -9.752226620912551880e-02
3.510475158691406250e-01 4.250700026750564575e-02 -8.858171105384826660e-02
5.044197440147399902e-01 8.732177317142486572e-02 5.950295925140380859e-02
4.470525681972503662e-01 -4.821746051311492920e-02 1.336930505931377411e-02
3.622120916843414307e-01 9.017178416252136230e-02 -5.906200408935546875e-02
3.417919278144836426e-01 -5.580901354551315308e-02 2.028159610927104950e-02
3.236080408096313477e-01 6.970715522766113281e-02 -4.648170620203018188e-02
4.149016737937927246e-01 1.076157912611961365e-01 5.816961824893951416e-02
2.871614396572113037e-01 -1.690347865223884583e-02 -1.347169280052185059e-02
4.850856661796569824e-01 -2.104103937745094299e-02 -3.847988694906234741e-02
4.987213015556335449e-01 1.140984371304512024e-01 2.895660512149333954e-02
4.053724706172943115e-01 3.892157971858978271e-02 9.750613570213317871e-02
4.432387948036193848e-01 9.123365581035614014e-02 -7.994070649147033691e-02
3.580136299133300781e-01 -3.978979587554931641e-02 5.789750814437866211e-02
3.137665688991546631e-01 6.502863764762878418e-02 -3.673554956912994385e-02
4.852744340896606445e-01 2.457332797348499298e-02 7.855939120054244995e-02
4.959044158458709717e-01 -1.405128091573715210e-02 -3.447332978248596191e-02
3.491021990776062012e-01 6.875182688236236572e-02 -7.300391048192977905e-02
5.351393222808837891e-01 8.033961057662963867e-02 2.266198210418224335e-02
2.972733378410339355e-01 3.185036405920982361e-02 -4.482103884220123291e-02
5.013645291328430176e-01 -7.904782891273498535e-03 3.537392616271972656e-02
3.689052462577819824e-01 3.166749328374862671e-02 9.096559882164001465e-02
4.994244277477264404e-01 -1.811828464269638062e-02 -6.515937857329845428e-03
3.717021048069000244e-01 9.810381382703781128e-02 -5.424623936414718628e-02
3.537314236164093018e-01 -3.646645694971084595e-03 8.158683776855468750e-02
3.895810544490814209e-01 1.005964726209640503e-01 5.773136764764785767e-02
3.774816393852233887e-01 -2.697005867958068848e-02 -8.167481422424316406e-02
5.045981407165527344e-01 5.047252029180526733e-02 -7.046218961477279663e-02
4.535054266452789307e-01 -2.747662737965583801e-02 -6.134632974863052368e-02
3.047789633274078369e-01 -3.593892604112625122e-02 1.924550160765647888e-02
3.037581443786621094e-01 5.856681242585182190e-02 -2.331289649009704590e-02
3.572339415550231934e-01 -4.169455170631408691e-02 -6.394538283348083496e-02
3.862906992435455322e-01 -2.589260786771774292e-02 7.600750029087066650e-02
3.460706472396850586e-01 5.183830112218856812e-02 -8.221676200628280640e-02
3.131140470504760742e-01 7.240007817745208740e-02 -5.180754233151674271e-03
5.067295432090759277e-01 3.330494463443756104e-02 -6.594955921173095703e-02
4.480677247047424316e-01 1.287275701761245728e-01 -3.169809700921177864e-03
3.047083318233489990e-01 -2.259514108300209045e-02 3.786315023899078369e-02
4.532343149185180664e-01 1.242017522454261780e-01 -3.019992075860500336e-02
4.819364547729492188e-01 1.247386410832405090e-01 3.901279997080564499e-03
5.237292647361755371e-01 1.801826432347297668e-02 3.241159021854400635e-02
3.963541388511657715e-01 1.133328080177307129e-01 -4.189341515302658081e-02
2.863614261150360107e-01 2.825752645730972290e-02 -1.553530804812908173e-02
4.615172743797302246e-01 3.045124933123588562e-02 9.075759351253509521e-02
4.222597479820251465e-01 -5.065440386533737183e-02 -4.077909886837005615e-02
3.159847855567932129e-01 -1.833395659923553467e-02 5.315304547548294067e-02
4.021685123443603516e-01 -4.518542438745498657e-03 8.957793563604354858e-02
3.473719060420989990e-01 9.789650887250900269e-02 -2.091868966817855835e-02
5.053783655166625977e-01 1.020297557115554810e-01 4.424329102039337158e-02
4.135435223579406738e-01 8.051715791225433350e-02 -8.754505217075347900e-02
4.809632897377014160e-01 -2.954091131687164307e-02 -2.226342819631099701e-02
4.871407449245452881e-01 2.403697744011878967e-02 -7.839428633451461792e-02
4.197262227535247803e-01 6.410523504018783569e-02 -9.633684158325195312e-02
5.020124912261962891e-01 1.168255805969238281e-01 -1.088152080774307251e-02
3.140903115272521973e-01 6.965881586074829102e-02 -2.678653411567211151e-02
4.939425289630889893e-01 8.812320232391357422e-02 -6.526978313922882080e-02
4.651608467102050781e-01 -3.955794125795364380e-02 -1.929419860243797302e-02
3.048642277717590332e-01 -1.211866736412048340e-03 4.997803270816802979e-02
4.676457345485687256e-01 4.499100893735885620e-02 8.992061018943786621e-02
4.518501460552215576e-01 -4.703244566917419434e-02 -1.106628216803073883e-02
4.091925323009490967e-01 1.048415601253509521e-01 -6.315590441226959229e-02
4.538102746009826660e-01 1.149585247039794922e-01 -5.130035430192947388e-02
5.380498170852661133e-01 7.837001979351043701e-02 -1.150289364159107208e-02
4.302697777748107910e-01 2.562233433127403259e-02 9.676329046487808228e-02
3.806217312812805176e-01 8.496929705142974854e-02 7.119244337081909180e-02
3.251415789127349854e-01 8.341541886329650879e-02 2.654396463185548782e-03
3.623529970645904541e-01 5.684193223714828491e-02 8.174435794353485107e-02
4.407885968685150146e-01 -1.673797145485877991e-02 -7.951582223176956177e-02
5.358757972717285156e-01 2.980492264032363892e-02 -6.785674951970577240e-03
4.909338355064392090e-01 8.791691809892654419e-02 6.770632416009902954e-02
3.291522264480590820e-01 -6.299287080764770508e-03 6.876893341541290283e-02
4.162596762180328369e-01 1.206829398870468140e-01 3.200166672468185425e-02
3.044221401214599609e-01 -3.719187527894973755e-02 -2.623007073998451233e-02
4.524995088577270508e-01 -4.695181548595428467e-02 3.902922850102186203e-03
3.283826708793640137e-01 8.252741396427154541e-02 -2.830221131443977356e-02
4.642157256603240967e-01 -4.037288576364517212e-02 1.371535472571849823e-02
4.652383625507354736e-01 -2.192390337586402893e-02 5.644835531711578369e-02
4.751151502132415771e-01 8.443307876586914062e-02 7.670894265174865723e-02
4.380604326725006104e-01 1.260384023189544678e-01 -2.317544817924499512e-02
4.204072356224060059e-01 2.886273711919784546e-02 9.784843772649765015e-02
4.443078935146331787e-01 -4.559645056724548340e-02 -3.399419039487838745e-02
3.821963071823120117e-01 -6.130291521549224854e-02 -2.490360103547573090e-02
4.630433320999145508e-01 8.633273839950561523e-02 7.897992432117462158e-02
4.115824997425079346e-01 5.784052982926368713e-02 -9.833831340074539185e-02
3.810805678367614746e-01 -6.267497688531875610e-02 8.630384691059589386e-03
3.560393452644348145e-01 9.467454254627227783e-02 -4.560718685388565063e-02
4.923848509788513184e-01 6.966120004653930664e-02 7.573918998241424561e-02
3.573155403137207031e-01 1.026398241519927979e-01 -2.543872222304344177e-02
5.339559912681579590e-01 8.874972164630889893e-02 1.028051227331161499e-02
4.894539117813110352e-01 1.130482777953147888e-01 -3.917009383440017700e-02
5.194423198699951172e-01 8.934399485588073730e-02 4.310853034257888794e-02
4.346440434455871582e-01 -5.089797079563140869e-02 2.252493798732757568e-02
4.225772917270660400e-01 -4.020439833402633667e-02 5.539672076702117920e-02
4.414907991886138916e-01 -2.733943983912467957e-02 -6.883575022220611572e-02
3.167658448219299316e-01 -4.318679124116897583e-02 2.441696450114250183e-02
3.351432383060455322e-01 6.307859718799591064e-02 -6.703931838274002075e-02
3.779181540012359619e-01 7.667881250381469727e-02 7.687892764806747437e-02
4.434303939342498779e-01 -4.681137949228286743e-02 2.633411996066570282e-02
4.334890246391296387e-01 1.610270887613296509e-02 9.440816193819046021e-02
3.961992263793945312e-01 1.211187765002250671e-01 5.770679563283920288e-04
3.470914959907531738e-01 7.777075469493865967e-02 5.625595152378082275e-02
5.413769483566284180e-01 6.363162398338317871e-02 -9.503990411758422852e-03
3.126883506774902344e-01 1.002136617898941040e-03 5.846655368804931641e-02
3.072966337203979492e-01 -4.266071319580078125e-02 2.853886689990758896e-03
4.286588430404663086e-01 -5.482693016529083252e-02 1.131587103009223938e-02
3.240428268909454346e-01 -5.033196508884429932e-02 -2.617670409381389618e-02
3.365555405616760254e-01 2.784376963973045349e-02 7.675843685865402222e-02
4.903370141983032227e-01 -1.241825893521308899e-02 -4.644723981618881226e-02
3.874880075454711914e-01 1.088153794407844543e-01 4.213485866785049438e-02
4.490616023540496826e-01 9.600496292114257812e-02 7.401905208826065063e-02
4.628927707672119141e-01 3.586085513234138489e-03 -8.329625427722930908e-02
4.183404445648193359e-01 4.441886022686958313e-02 9.758657217025756836e-02
5.189598798751831055e-01 5.296364426612854004e-03 -2.167356014251708984e-02
5.228950642049312592e-03 -9.269255399703979492e-02 -5.563984066247940063e-02
-6.149508804082870483e-02 4.014789685606956482e-02 3.328245878219604492e-02
1.040719002485275269e-01 1.989559084177017212e-02 -7.464044541120529175e-02
-5.854273587465286255e-02 -8.710955083370208740e-02 -1.628733798861503601e-02
7.451955229043960571e-03 -6.071922183036804199e-02 -1.641530990600585938e-01
2.745532244443893433e-02 -2.847851067781448364e-02 1.423227190971374512e-01
8.134728670120239258e-02 9.291898459196090698e-03 -1.485061049461364746e-01
9.619104117155075073e-02 1.407062076032161713e-02 -1.158040612936019897e-01
1.030230149626731873e-01 -4.199320450425148010e-02 -3.160493820905685425e-02
5.653920397162437439e-02 1.814329251646995544e-02 1.087640970945358276e-01
-9.106554090976715088e-03 3.939640894532203674e-02 -1.323121637105941772e-01
-1.076657250523567200e-01 -2.326733432710170746e-02 -3.528575971722602844e-02
-8.315189182758331299e-02 1.636134088039398193e-02 6.838183104991912842e-02
-5.181765928864479065e-02 -8.386099338531494141e-02 -7.160014659166336060e-02
7.242959737777709961e-02 2.718236297369003296e-02 7.576311379671096802e-02
-3.587950393557548523e-02 -9.055650234222412109e-02 2.703726105391979218e-02
6.293465197086334229e-02 3.857458010315895081e-02 -1.226981431245803833e-01
4.559107124805450439e-02 2.247191220521926880e-02 -1.652709990739822388e-01
3.028778173029422760e-02 -8.031585812568664551e-02 -1.076505705714225769e-01
-1.713151112198829651e-02 -5.760986357927322388e-02 -1.640641987323760986e-01
7.285537570714950562e-02 -5.148534476757049561e-02 -1.332917660474777222e-01
-9.475304931402206421e-02 -3.487434983253479004e-02 8.382082730531692505e-02
1.827746629714965820e-02 -3.364880383014678955e-02 -1.899202764034271240e-01
8.958414196968078613e-02 -5.796073004603385925e-02 -4.002364352345466614e-02
-4.845500737428665161e-02 8.852861821651458740e-03 -1.490469723939895630e-01
6.618292629718780518e-02 -6.989325582981109619e-02 2.302551455795764923e-02
-8.127890527248382568e-02 -7.565735280513763428e-02 -6.434191018342971802e-04
8.347997069358825684e-02 -6.147353351116180420e-02 -6.749734282493591309e-02
-4.473629221320152283e-02 5.017893388867378235e-02 5.531417205929756165e-03
9.310570359230041504e-02 3.216671571135520935e-02 1.042602583765983582e-02
5.634073540568351746e-02 5.194180086255073547e-02 2.701399289071559906e-02
-8.095622807741165161e-02 -2.103429660201072693e-02 -1.205486729741096497e-01
3.640636429190635681e-02 -4.549582302570343018e-02 1.229536086320877075e-01
-2.818505093455314636e-02 5.355062708258628845e-02 3.222608566284179688e-02
-1.057651713490486145e-01 -3.503648564219474792e-02 -4.320589080452919006e-02
-6.878227461129426956e-03 -7.855863869190216064e-02 -1.263130456209182739e-01
9.614250808954238892e-02 -2.627946808934211731e-02 -1.236436963081359863e-01
3.727967292070388794e-02 -7.654246874153614044e-03 1.394989341497421265e-01
-7.761785387992858887e-02 2.527135238051414490e-02 5.566457659006118774e-02
-7.289241254329681396e-02 -7.985961437225341797e-02 -3.059456497430801392e-02
-1.099783703684806824e-01 -2.847766503691673279e-02 1.268862746655941010e-02
-6.996490806341171265e-02 3.685981407761573792e-02 -1.844924129545688629e-02
-3.344039432704448700e-03 -4.198995232582092285e-02 -1.835904419422149658e-01
-8.503517508506774902e-02 -5.271005257964134216e-02 8.492791652679443359e-02
-1.272133924067020416e-02 -6.536014378070831299e-02 1.176136434078216553e-01
-6.273901462554931641e-02 2.372827008366584778e-02 9.404704719781875610e-02
-1.475513167679309845e-02 4.531560465693473816e-02 -1.115208715200424194e-01
4.216612875461578369e-02 3.702012449502944946e-02 9.350182116031646729e-02
-9.400156140327453613e-02 -5.842849239706993103e-02 4.651106894016265869e-02
-4.115581884980201721e-02 -7.622766494750976562e-02 -1.137253865599632263e-01
2.098358981311321259e-02 -7.969877123832702637e-02 6.689722836017608643e-02
8.924245834350585938e-03 -3.087739273905754089e-02 1.496251076459884644e-01
4.238498583436012268e-02 2.982238307595252991e-02 -1.557534933090209961e-01
1.016405224800109863e-02 6.125073507428169250e-02 5.039453506469726562e-03
-6.095762550830841064e-02 -6.325355172157287598e-02 -1.192931607365608215e-01
2.372086746618151665e-04 2.862327545881271362e-02 -1.583499908447265625e-01
8.701144158840179443e-02 -5.480562895536422729e-02 -8.819537609815597534e-02
8.845340460538864136e-02 2.044197916984558105e-02 5.551549792289733887e-02
-4.689504206180572510e-02 4.421260580420494080e-02 5.266987532377243042e-02
1.142512634396553040e-01 -6.404815241694450378e-03 -4.785533621907234192e-02
7.303331047296524048e-02 -3.835027664899826050e-02 -1.530345678329467773e-01
-1.051227096468210220e-03 -8.838501572608947754e-02 -8.960966020822525024e-02
6.627578288316726685e-02 5.250838026404380798e-02 -4.206047207117080688e-02
1.764432154595851898e-02 2.057309821248054504e-02 -1.730894744396209717e-01
-2.725861780345439911e-02 -1.540178619325160980e-02 -1.811873912811279297e-01
9.211069345474243164e-02 -2.452462166547775269e-02 -1.343526989221572876e-01
7.509805262088775635e-02 -6.162787601351737976e-02 -1.007512733340263367e-01
5.734469369053840637e-02 5.538258329033851624e-02 -6.703882478177547455e-03
3.051009029150009155e-02 -7.880537211894989014e-02 5.940088629722595215e-02
3.891892731189727783e-02 -8.023358881473541260e-02 4.022485762834548950e-02
1.099485345184803009e-02 3.895325213670730591e-02 -1.414957046508789062e-01
2.030062302947044373e-02 2.621009200811386108e-02 1.244127005338668823e-01
7.596614956855773926e-02 -6.874637305736541748e-02 -2.401076629757881165e-02
3.824701532721519470e-02 5.453888699412345886e-02 -8.664719760417938232e-02
-2.743093296885490417e-02 -9.412617981433868408e-02 -1.893595792353153229e-02
9.353701025247573853e-03 -6.476987898349761963e-02 1.126834899187088013e-01
8.224096149206161499e-03 -1.900584436953067780e-02 1.534318029880523682e-01
-1.100903972983360291e-01 -2.242288924753665924e-02 -3.725012764334678650e-03
3.005619347095489502e-02 1.885433495044708252e-02 -1.743529438972473145e-01
1.133315339684486389e-01 -1.627225615084171295e-02 -2.787164971232414246e-02
4.914594814181327820e-02 5.275648459792137146e-02 -8.568542450666427612e-02
-1.058215200901031494e-01 -5.294019356369972229e-03 -1.551447529345750809e-02
-6.875775288790464401e-03 -9.340411424636840820e-02 -5.432727187871932983e-02
-7.817753404378890991e-02 -2.422002144157886505e-02 1.176911294460296631e-01
-6.530193239450454712e-02 3.527627885341644287e-02 -5.832892656326293945e-02
7.129494100809097290e-02 4.809968546032905579e-02 -6.851529330015182495e-02
1.699382066726684570e-02 -8.881500363349914551e-02 -7.711391150951385498e-02
9.809465706348419189e-02 1.272346265614032745e-02 4.097446799278259277e-02
8.094386011362075806e-02 3.601819649338722229e-02 3.785855323076248169e-02
-3.609805554151535034e-02 4.151332005858421326e-02 -9.932271391153335571e-02
-1.967555377632379532e-03 5.989094451069831848e-02 1.464181579649448395e-02
-9.272350370883941650e-02 6.792144849896430969e-03 6.205797195434570312e-02
1.075939685106277466e-01 -3.361680358648300171e-02 -5.310923606157302856e-02
7.128833234310150146e-02 -4.580012708902359009e-02 7.910554856061935425e-02
1.092034429311752319e-01 1.003704778850078583e-02 -7.261417061090469360e-02
-5.845705792307853699e-02 4.341419786214828491e-02 -2.569559961557388306e-02
7.859866321086883545e-02 2.048411592841148376e-02 -1.394312083721160889e-01
5.444421432912349701e-03 -9.406633675098419189e-02 -2.017548307776451111e-02
1.038835197687149048e-01 2.101746574044227600e-02 -1.924946904182434082e-03
9.686098992824554443e-02 -3.856758587062358856e-03 -1.291131824254989624e-01
-7.204924523830413818e-02 1.743179187178611755e-02 9.171860665082931519e-02
-1.820554398000240326e-02 -9.159676730632781982e-02 -6.734605878591537476e-02
-5.696115270256996155e-02 1.798832789063453674e-02 1.127073764801025391e-01
-8.807682991027832031e-02 1.807862520217895508e-02 4.348478466272354126e-02
-1.086787804961204529e-01 -3.301037102937698364e-02 -2.290700003504753113e-02
-8.625807613134384155e-02 -3.837223351001739502e-02 9.940733015537261963e-02
1.062883287668228149e-01 -4.655133001506328583e-03 2.629939280450344086e-02
-2.283501625061035156e-02 -8.228094875812530518e-02 -1.094506159424781799e-01
7.709828019142150879e-02 1.833280175924301147e-02 8.103226870298385620e-02
8.146207034587860107e-02 -5.529011040925979614e-02 3.396908193826675415e-02
8.555543608963489532e-03 -8.611173927783966064e-02 5.186050385236740112e-02
8.888545632362365723e-02 -1.255671493709087372e-02 -1.453760266304016113e-01
-3.536256402730941772e-02 3.280249983072280884e-02 -1.247512474656105042e-01
-5.190883576869964600e-02 -8.715893328189849854e-02 -4.991870000958442688e-02
-5.712183192372322083e-02 -7.828437723219394684e-03 1.373807191848754883e-01
3.874689340591430664e-02 5.650654807686805725e-02 -7.441256195306777954e-02
5.308101326227188110e-02 -8.090384304523468018e-02 -5.345743149518966675e-02
-2.233582735061645508e-02 5.750446394085884094e-02 -1.380563154816627502e-02
-1.839162781834602356e-02 -1.427117921411991119e-02 1.559277623891830444e-01
6.388219445943832397e-02 1.776215434074401855e-02 -1.592099517583847046e-01
-8.397284895181655884e-02 -6.477126479148864746e-02 -6.873083114624023438e-02
-4.662077501416206360e-02 2.459504082798957825e-02 -1.281148046255111694e-01
-8.743360638618469238e-02 -1.141168177127838135e-04 -9.198115020990371704e-02
2.269442006945610046e-02 -1.616474427282810211e-02 1.482146084308624268e-01
6.006911024451255798e-02 -5.162705853581428528e-02 -1.506738364696502686e-01
-1.870343461632728577e-02 1.527805253863334656e-02 -1.674945354461669922e-01
3.308703750371932983e-02 -4.339970648288726807e-02 -1.796837002038955688e-01
1.660130172967910767e-02 -5.530968680977821350e-02 -1.709193587303161621e-01
-6.880268454551696777e-02 -6.086615100502967834e-02 9.682594239711761475e-02
3.541165962815284729e-02 5.433634296059608459e-02 4.494374245405197144e-02
-3.357336297631263733e-02 4.946343973278999329e-02 4.991321265697479248e-02
-2.509121783077716827e-03 8.521584793925285339e-03 -1.814336329698562622e-01
9.388191998004913330e-02 3.586750105023384094e-02 -2.459132671356201172e-02
-3.784940764307975769e-02 5.297838523983955383e-02 -1.132142823189496994e-02
6.372378021478652954e-02 -7.624340057373046875e-02 -4.426546767354011536e-02
6.045253248885273933e-04 -2.300789393484592438e-02 -1.923961043357849121e-01
-6.332886219024658203e-02 6.425209343433380127e-03 1.208867877721786499e-01
-1.958874054253101349e-02 4.993531480431556702e-02 -8.906246721744537354e-02
-3.189901635050773621e-02 -8.980348706245422363e-02 -6.792496889829635620e-02
9.503162652254104614e-02 -4.044753685593605042e-02 2.956813015043735504e-02
-1.018567197024822235e-02 4.808286204934120178e-02 7.802096754312515259e-02
-6.036910694092512131e-03 -4.413868486881256104e-02 1.442292183637619019e-01
4.585446417331695557e-02 -5.744462832808494568e-02 9.653545171022415161e-02
1.018361449241638184e-01 1.351859606802463531e-02 2.704670839011669159e-02
1.052372455596923828e-01 4.663191735744476318e-03 -1.004367396235466003e-01
9.404892474412918091e-02 -4.887684434652328491e-02 6.419584155082702637e-03
5.595688149333000183e-02 3.055446222424507141e-02 -1.467300653457641602e-01
-3.470566123723983765e-03 2.340723574161529541e-02 1.323896944522857666e-01
8.983543515205383301e-02 3.169273957610130310e-03 -1.397973597049713135e-01
1.038559898734092712e-01 -1.712674275040626526e-03 -1.098136305809020996e-01
-5.035700276494026184e-02 -6.915454566478729248e-02 -1.210763901472091675e-01
-1.081594303250312805e-01 -4.071696475148200989e-02 2.437395974993705750e-03
4.368693381547927856e-02 -7.876554131507873535e-02 -9.684523940086364746e-02
-7.829114049673080444e-02 2.966420724987983704e-02 -3.063726797699928284e-02
-6.963237654417753220e-03 1.285321265459060669e-02 1.439093649387359619e-01
8.840690134093165398e-04 5.366742610931396484e-03 1.491710245609283447e-01
-2.380468882620334625e-02 -4.581309854984283447e-02 -1.734161376953125000e-01
-1.028761193156242371e-01 -1.635035127401351929e-02 5.969680845737457275e-02
3.777457773685455322e-02 5.643537268042564392e-02 3.045251034200191498e-02
-4.443799331784248352e-02 -1.839197427034378052e-02 1.481444537639617920e-01
-3.611916303634643555e-02 -5.575057864189147949e-02 1.291211992502212524e-01
1.337527297437191010e-02 -8.815674483776092529e-02 3.646098822355270386e-02
-1.206430606544017792e-02 -8.817566931247711182e-02 -9.001816809177398682e-02
3.037259355187416077e-02 2.922737225890159607e-02 -1.602083593606948853e-01
-5.815470963716506958e-02 -3.928744047880172729e-02 -1.499817967414855957e-01
-9.108173847198486328e-02 -4.988557472825050354e-02 7.598587870597839355e-02
-1.775032468140125275e-02 -9.107795357704162598e-02 3.463963419198989868e-02
2.426194725558161736e-03 1.707046478986740112e-02 1.394875496625900269e-01
-1.353360945358872414e-03 6.077672168612480164e-02 6.398484110832214355e-04
-2.755042724311351776e-02 5.015022680163383484e-02 -7.645569741725921631e-02
-1.373221166431903839e-02 -3.160884231328964233e-02 -1.861371994018554688e-01
1.122579425573348999e-01 1.897640526294708252e-03 -1.231348887085914612e-02
1.183339208364486694e-02 -9.309521317481994629e-02 -3.595386445522308350e-02
-9.093981981277465820e-02 -1.500830985605716705e-03 8.255969732999801636e-02
-8.747417479753494263e-03 5.475099012255668640e-02 -7.744030654430389404e-02
-2.408205531537532806e-03 4.517216980457305908e-02 8.953047543764114380e-02
7.122281007468700409e-03 4.306923225522041321e-02 -1.304615885019302368e-01
3.586675599217414856e-02 -8.624821901321411133e-02 -6.356728821992874146e-02
6.676913797855377197e-02 4.561341181397438049e-02 3.623141348361968994e-02
-9.348354488611221313e-02 -5.345442146062850952e-02 6.231199949979782104e-02
2.504874020814895630e-02 -9.080305695533752441e-02 -2.301280573010444641e-02
-9.942365437746047974e-02 7.290761917829513550e-03 2.028629370033740997e-02
8.222732692956924438e-02 7.052682340145111084e-03 8.282268792390823364e-02
-1.812845654785633087e-02 -3.173490613698959351e-02 1.527493447065353394e-01
-5.096497014164924622e-02 -3.767663240432739258e-02 -1.586077809333801270e-01
-9.760952740907669067e-02 -4.039261490106582642e-02 -7.343245297670364380e-02
8.291098475456237793e-02 -5.935602262616157532e-02 1.185981556773185730e-02
-7.080176472663879395e-02 -7.627284526824951172e-02 -6.392265111207962036e-02
7.074159383773803711e-02 4.624977335333824158e-02 2.319711260497570038e-02
-2.916447818279266357e-02 4.641584679484367371e-02 7.036569714546203613e-02
3.454119339585304260e-02 6.064548715949058533e-02 -1.081439759582281113e-02
1.160005293786525726e-02 6.193415448069572449e-02 -1.824499480426311493e-02
5.118647217750549316e-02 -3.960571065545082092e-02 1.149905025959014893e-01
-2.852133102715015411e-02 -7.442913949489593506e-02 -1.284647732973098755e-01
-7.382124662399291992e-02 -5.200899764895439148e-02 -1.166364774107933044e-01
-6.788992136716842651e-02 -7.980288565158843994e-02 3.714462369680404663e-02
-6.114524602890014648e-02 -8.549158275127410889e-02 -3.096985816955566406e-02
-6.515696644783020020e-02 -1.925763674080371857e-03 -1.375653445720672607e-01
1.660717651247978210e-02 5.424377694725990295e-02 5.653063952922821045e-02
-8.070872724056243896e-02 2.913902699947357178e-02 -8.703126572072505951e-03
-8.969294279813766479e-02 -6.896834075450897217e-02 4.379887133836746216e-03
-4.269574210047721863e-02 -9.163835644721984863e-02 -7.301838137209415436e-03
6.061894446611404419e-02 -6.877253949642181396e-02 -1.079349443316459656e-01
8.157766610383987427e-02 -6.413093954324722290e-02 -5.571660399436950684e-02
-6.086922436952590942e-02 -7.531929016113281250e-02 7.092853635549545288e-02
9.842582792043685913e-02 -4.447339102625846863e-02 -7.712545990943908691e-02
2.112939395010471344e-02 6.145331636071205139e-02 -1.162169501185417175e-03
-8.564251661300659180e-02 1.090509071946144104e-02 -7.736375182867050171e-02
-9.377218037843704224e-02 -1.324032433331012726e-02 -8.789718151092529297e-02
-4.447592049837112427e-02 1.163003034889698029e-02 1.323715448379516602e-01
2.158353850245475769e-02 -6.657359004020690918e-02 -1.513339430093765259e-01
-2.686662413179874420e-02 -4.687242209911346436e-02 1.414031088352203369e-01
-3.755760192871093750e-02 -2.875554561614990234e-02 1.496682167053222656e-01
-9.296042844653129578e-03 5.414401367306709290e-02 5.253665894269943237e-02
-3.095853514969348907e-02 -9.364132583141326904e-02 -8.276190608739852905e-03
9.586899727582931519e-02 -5.097834393382072449e-02 -5.258210003376007080e-02
9.200242906808853149e-02 -5.356863886117935181e-02 -6.803210824728012085e-02
-6.824169307947158813e-02 2.528299018740653992e-02 8.028826117515563965e-02
-5.072366073727607727e-02 -8.945602178573608398e-02 4.014018923044204712e-04
1.647436060011386871e-02 4.750734195113182068e-02 8.157960325479507446e-02
1.044431105256080627e-01 1.544767618179321289e-02 1.198321953415870667e-02
8.375487523153424263e-04 -9.356267750263214111e-02 4.865840077400207520e-03
-3.466590866446495056e-02 -1.842076890170574188e-03 1.482587158679962158e-01
7.981083542108535767e-02 -4.330708831548690796e-02 6.635575741529464722e-02
-6.478893011808395386e-02 -7.291948795318603516e-02 -9.032112360000610352e-02
-8.713548630475997925e-02 2.228089794516563416e-02 2.228085510432720184e-02
-4.760219901800155640e-02 -8.173039555549621582e-02 -8.811462670564651489e-02
-2.825888991355895996e-02 5.491079762578010559e-02 1.802849583327770233e-02
-1.065992489457130432e-01 -1.681619882583618164e-02 4.108905047178268433e-02
2.283998765051364899e-03 -6.827591359615325928e-02 -1.511491537094116211e-01
-9.857495874166488647e-02 -4.545421153306961060e-02 -6.334561854600906372e-02
9.392563253641128540e-03 -7.872994057834148407e-03 1.527768820524215698e-01
-7.153598219156265259e-02 1.816481351852416992e-02 -9.828936308622360229e-02
-9.991753846406936646e-02 7.622903212904930115e-03 1.376314088702201843e-03
5.674266442656517029e-02 5.300531908869743347e-02 -7.202573865652084351e-02
-1.668616943061351776e-02 5.753641203045845032e-02 -4.273813590407371521e-02
-7.691974937915802002e-02 2.564716711640357971e-02 -6.099247932434082031e-02
1.024902909994125366e-01 -2.523893117904663086e-02 2.950939349830150604e-02
-6.367813795804977417e-02 4.095191508531570435e-02 7.664207369089126587e-03
6.437748670578002930e-02 -2.760162763297557831e-02 1.089157760143280029e-01
1.502816565334796906e-02 -9.223598241806030273e-02 -3.988455981016159058e-03
3.341398388147354126e-02 -6.707894802093505859e-02 9.045743197202682495e-02
4.438946023583412170e-02 -6.614092737436294556e-02 -1.379608958959579468e-01
3.331577032804489136e-02 -7.238270342350006104e-02 7.699776440858840942e-02
-1.959141343832015991e-02 5.123564973473548889e-02 5.891487002372741699e-02
1.368743926286697388e-02 6.173687800765037537e-02 -3.137955069541931152e-02
3.518905490636825562e-02 6.069084629416465759e-02 -2.718107029795646667e-02
3.466496989130973816e-02 -8.332112431526184082e-02 -8.780122548341751099e-02
5.909859389066696167e-02 -7.561686635017395020e-02 -7.798726856708526611e-02
-1.838335394859313965e-02 -7.341622561216354370e-02 -1.360951364040374756e-01
4.421435762196779251e-03 -7.386851310729980469e-02 9.539090842008590698e-02
4.498120397329330444e-04 -8.255915343761444092e-02 7.126180827617645264e-02
-4.190773703157901764e-03 6.012400612235069275e-02 -3.696007654070854187e-02
-6.646517664194107056e-02 -5.134688690304756165e-02 1.141663789749145508e-01
-8.161710947751998901e-02 -4.531985521316528320e-02 -1.097018569707870483e-01
7.126602530479431152e-02 -6.349758803844451904e-02 3.578662872314453125e-02
-1.076999381184577942e-01 -3.050411120057106018e-02 3.660561889410018921e-02
9.114001691341400146e-02 2.804241329431533813e-02 -1.001355201005935669e-01
-6.811740342527627945e-03 1.796338707208633423e-02 -1.704985052347183228e-01
-7.105068862438201904e-02 -8.175905048847198486e-02 -8.610604330897331238e-03
3.332968801259994507e-02 -1.769501715898513794e-02 1.420285850763320923e-01
-4.613855853676795959e-02 4.111271724104881287e-02 6.841488182544708252e-02
-2.437799982726573944e-02 -9.235499799251556396e-02 2.213506586849689484e-02
-4.853704944252967834e-02 4.778803512454032898e-02 -3.342565149068832397e-02
-1.036486774682998657e-01 -2.290372736752033234e-02 -5.780367553234100342e-02
-1.040494767948985100e-03 5.079399421811103821e-02 7.105252146720886230e-02
9.556841850280761719e-02 3.436270728707313538e-02 -4.233540594577789307e-02
-2.941874973475933075e-02 -8.482877910137176514e-02 -9.565380215644836426e-02
-8.745598793029785156e-02 -6.950128078460693359e-02 -3.097429499030113220e-02
1.196457445621490479e-02 6.012531742453575134e-02 1.968577317893505096e-02
1.932217553257942200e-02 3.466085344552993774e-02 -1.514096856117248535e-01
-1.606485620141029358e-02 5.622709915041923523e-02 3.222952783107757568e-02
-6.107239425182342529e-02 4.181150719523429871e-02 1.867053471505641937e-02
8.664878085255622864e-03 2.332994714379310608e-03 -1.883017867803573608e-01
1.757340505719184875e-02 -4.893871769309043884e-02 1.317715048789978027e-01
9.717094153165817261e-02 -2.994422242045402527e-02 4.172331094741821289e-02
1.043357998132705688e-01 -3.786940127611160278e-02 -6.559254229068756104e-02
7.744924724102020264e-02 4.708388075232505798e-02 -1.373302564024925232e-02
2.588463388383388519e-02 5.037164315581321716e-02 6.838750839233398438e-02
2.089245431125164032e-02 -7.966972887516021729e-02 -1.174034997820854187e-01
-1.023503765463829041e-01 -1.951213926076889038e-04 -2.992958575487136841e-02
-7.040570676326751709e-02 1.216668635606765747e-03 -1.264085769653320312e-01
-7.774160057306289673e-02 -1.922622323036193848e-04 -1.143686324357986450e-01
6.513565778732299805e-02 -7.411475479602813721e-02 -6.466733664274215698e-02
8.407871425151824951e-02 2.889881655573844910e-02 -1.146473884582519531e-01
2.693409845232963562e-02 6.103431805968284607e-02 -4.047971591353416443e-02
8.037579804658889771e-02 -2.737446874380111694e-02 8.428196609020233154e-02
1.430203393101692200e-02 4.832205548882484436e-02 -1.166737899184226990e-01
4.083437845110893250e-03 -6.004393100738525391e-02 1.228620707988739014e-01
-1.312696002423763275e-02 4.254139959812164307e-03 -1.804992556571960449e-01
-7.240465283393859863e-02 -6.222056597471237183e-02 -1.026631370186805725e-01
-3.968148678541183472e-02 4.939315095543861389e-02 -5.395152419805526733e-02
9.979800879955291748e-02 -1.333491597324609756e-02 -1.223304867744445801e-01
-7.712062448263168335e-02 -3.810014575719833374e-02 1.139611601829528809e-01
-4.949394240975379944e-02 -3.741434216499328613e-02 1.400509327650070190e-01
-4.641404747962951660e-02 -8.069854974746704102e-02 6.874875724315643311e-02
-1.004718914628028870e-01 -2.211141213774681091e-02 -7.054189592599868774e-02
6.722402572631835938e-02 -7.153330743312835693e-02 9.113505482673645020e-03
6.836346536874771118e-02 -2.662488073110580444e-02 -1.679651588201522827e-01
1.053279042243957520e-01 2.145890891551971436e-02 -1.686789281666278839e-02
4.550584778189659119e-02 5.898780748248100281e-02 -2.203846164047718048e-02
1.132997572422027588e-01 -5.162420682609081268e-03 -6.315954774618148804e-02
8.531326800584793091e-02 4.175459593534469604e-02 -5.531775951385498047e-02
-4.463640227913856506e-02 3.148963302373886108e-02 9.967828541994094849e-02
-8.204266428947448730e-02 2.783616632223129272e-02 1.052722893655300140e-02
-5.692767724394798279e-02 2.281417325139045715e-02 -1.164498403668403625e-01
1.981326751410961151e-02 4.204051196575164795e-02 9.544449299573898315e-02
5.532653257250785828e-02 -7.895925641059875488e-02 1.784702762961387634e-03
6.316459923982620239e-02 -7.670621573925018311e-02 -2.871775999665260315e-02
2.610457129776477814e-02 9.231282398104667664e-03 -1.839824467897415161e-01
-5.875014886260032654e-02 -2.477661147713661194e-02 -1.539526581764221191e-01
-9.857971221208572388e-02 -5.599314346909523010e-02 3.244600445032119751e-02
6.735457479953765869e-02 -7.317081093788146973e-02 -5.873875692486763000e-03
-1.107535883784294128e-02 5.957044288516044617e-02 -2.605634182691574097e-02
5.622926726937294006e-02 5.366360768675804138e-02 1.567358337342739105e-02
-3.343848045915365219e-03 -9.431864321231842041e-02 -3.961536660790443420e-02
6.461974233388900757e-02 -6.440816819667816162e-02 4.959554970264434814e-02
-2.872958220541477203e-02 -2.290457487106323242e-03 -1.756631880998611450e-01
3.022290533408522606e-03 4.155721142888069153e-02 9.957158565521240234e-02
2.665465883910655975e-02 5.150193348526954651e-02 -1.052933111786842346e-01
-1.837640628218650818e-02 4.486985132098197937e-02 8.461917191743850708e-02
-6.980177015066146851e-02 -7.278597354888916016e-02 -8.035797625780105591e-02
1.948639936745166779e-02 -8.880001306533813477e-02 2.371960692107677460e-02
5.411331355571746826e-02 -2.100776880979537964e-02 1.239541620016098022e-01
6.605125963687896729e-04 -9.188044071197509766e-02 -6.663951277732849121e-02
6.124311126768589020e-03 5.362403765320777893e-02 6.038257479667663574e-02
7.164268940687179565e-02 3.814805299043655396e-02 -1.121620684862136841e-01
-4.516860470175743103e-02 -8.753898739814758301e-02 -6.268897652626037598e-02
-8.197633922100067139e-02 -6.511290371417999268e-02 6.352884322404861450e-02
-7.841834425926208496e-02 2.844832092523574829e-02 3.571842610836029053e-02
-4.554621130228042603e-02 3.990417718887329102e-02 -8.915336430072784424e-02
-4.445960745215415955e-02 -9.122762084007263184e-02 -2.033786289393901825e-02
1.128208562731742859e-01 -1.188343763351440430e-02 -1.280817203223705292e-02
-5.761884152889251709e-02 -8.003497123718261719e-02 5.776634812355041504e-02
9.256587922573089600e-02 -3.070693276822566986e-02 5.415415763854980469e-02
3.876720741391181946e-02 2.275936678051948547e-02 1.190138310194015503e-01
-7.278829813003540039e-02 -3.241180442273616791e-03 1.179990172386169434e-01
6.231759116053581238e-02 5.277818813920021057e-02 4.016935825347900391e-03
3.271593153476715088e-02 -5.871801450848579407e-02 -1.607552766799926758e-01
3.091604821383953094e-02 -7.440522313117980957e-02 -1.274520158767700195e-01
1.111833378672599792e-02 3.371534124016761780e-02 1.152000129222869873e-01
2.421649545431137085e-02 -1.718446612358093262e-03 -1.906999796628952026e-01
1.106426045298576355e-01 2.064416185021400452e-03 4.502404481172561646e-04
9.036505967378616333e-02 3.736438229680061340e-02 -5.171358585357666016e-03
3.815989941358566284e-03 5.266563966870307922e-02 -9.712520241737365723e-02
-5.811246111989021301e-02 3.435019776225090027e-02 -8.298408985137939453e-02
6.791051477193832397e-02 -6.226097419857978821e-02 -1.154818832874298096e-01
5.756559222936630249e-02 -3.919920325279235840e-02 -1.688180565834045410e-01
-4.143995791673660278e-02 2.618323639035224915e-02 1.137133836746215820e-01
1.105453744530677795e-01 -4.373208619654178619e-03 -8.354177325963973999e-02
8.756698668003082275e-02 -3.696988150477409363e-02 -1.304399669170379639e-01
4.229709506034851074e-03 -8.421075344085693359e-02 -1.074445024132728577e-01
5.048415437340736389e-02 3.975490853190422058e-02 -1.309766024351119995e-01
1.434558443725109100e-02 -8.671469986438751221e-02 -9.195069968700408936e-02
1.033394262194633484e-01 2.563864365220069885e-02 -3.998711705207824707e-02
-5.748788267374038696e-02 3.686844557523727417e-02 6.373860687017440796e-02
5.131759122014045715e-02 -8.237078785896301270e-02 -3.254935890436172485e-02
-5.981628224253654480e-02 3.951457887887954712e-02 4.422377049922943115e-02
-8.492037653923034668e-02 2.279197052121162415e-02 -3.694266080856323242e-02
-8.550358936190605164e-03 -9.472084045410156250e-02 -7.329201325774192810e-03
-9.398780018091201782e-02 -3.966438025236129761e-02 -8.541340380907058716e-02
8.588375151157379150e-02 -3.000972792506217957e-02 7.098110765218734741e-02
5.259786546230316162e-02 5.728463456034660339e-02 -3.038565069437026978e-02
