-4.734156653285026550e-02 2.574551999568939209e-01 -7.194047793745994568e-04
1.931946352124214172e-02 2.377092689275741577e-01 -8.222629874944686890e-02
1.157253533601760864e-01 2.413483560085296631e-01 5.539395660161972046e-02
-4.885235056281089783e-02 2.050869017839431763e-01 -2.019511163234710693e-02
-4.058503732085227966e-02 1.982367783784866333e-01 -2.130809798836708069e-02
-3.623098134994506836e-03 2.616103887557983398e-01 -4.829932749271392822e-02
-5.958748236298561096e-02 2.166038751602172852e-01 -1.019202452152967453e-02
7.525365799665451050e-04 2.668316960334777832e-01 -3.844912722706794739e-02
-2.829762920737266541e-02 2.598817050457000732e-01 7.193222641944885254e-02
9.546816349029541016e-02 1.953047066926956177e-01 -3.612644970417022705e-02
5.176801234483718872e-02 1.776910424232482910e-01 -1.837276294827461243e-02
-4.945522174239158630e-02 2.569547295570373535e-01 3.184174746274948120e-02
-3.452289476990699768e-02 2.042512893676757812e-01 6.889913231134414673e-02
1.045042872428894043e-01 1.979202330112457275e-01 4.993380978703498840e-02
4.324513673782348633e-02 2.783444523811340332e-01 1.367690041661262512e-02
2.806859649717807770e-02 2.633915841579437256e-01 -5.253764241933822632e-02
8.530628681182861328e-02 2.688024640083312988e-01 1.423568371683359146e-02
1.024295091629028320e-01 2.605192959308624268e-01 1.787959970533847809e-02
1.192182749509811401e-01 2.064744234085083008e-01 -6.726657040417194366e-03
-4.398889467120170593e-02 2.615671753883361816e-01 1.747154630720615387e-02
1.100859940052032471e-01 2.542024552822113037e-01 4.978644661605358124e-03
5.607506260275840759e-02 2.600111663341522217e-01 9.419768303632736206e-02
-6.446628272533416748e-02 2.280304580926895142e-01 2.754823118448257446e-02
-4.510527476668357849e-02 2.036426365375518799e-01 4.927513375878334045e-02
2.364646457135677338e-02 1.830582171678543091e-01 -4.405062273144721985e-02
3.699533641338348389e-02 1.838911771774291992e-01 -4.759982228279113770e-02
4.540335759520530701e-02 2.451224327087402344e-01 1.125852614641189575e-01
-3.685622289776802063e-02 1.926840543746948242e-01 -4.636823199689388275e-03
-5.367211997509002686e-04 2.752863466739654541e-01 -3.668253310024738312e-03
1.168332695960998535e-01 2.129053920507431030e-01 -2.619452029466629028e-02
5.569916218519210815e-03 2.768505215644836426e-01 1.695794984698295593e-03
4.498440399765968323e-02 2.053730636835098267e-01 1.041045486927032471e-01
-3.420710936188697815e-02 2.305830866098403931e-01 -5.923993885517120361e-02
7.826022058725357056e-02 2.689328789710998535e-01 -7.547476328909397125e-03
6.331862509250640869e-02 2.444472014904022217e-01 -7.119034975767135620e-02
1.228945255279541016e-01 2.092994451522827148e-01 1.888161338865756989e-02
1.002055853605270386e-01 2.612387537956237793e-01 7.633037865161895752e-03
4.239530488848686218e-02 2.764171063899993896e-01 -6.554805673658847809e-03
-8.035697042942047119e-03 2.070586085319519043e-01 -7.125435769557952881e-02
7.924967259168624878e-02 2.082065790891647339e-01 -6.822206825017929077e-02
4.907579347491264343e-02 1.947819143533706665e-01 -6.742031872272491455e-02
4.487504810094833374e-02 1.779758334159851074e-01 -2.366669848561286926e-02
3.607256338000297546e-02 1.963105648756027222e-01 9.308727830648422241e-02
4.418409615755081177e-02 2.080508023500442505e-01 -8.134847879409790039e-02
4.930397123098373413e-02 1.996302902698516846e-01 9.644404798746109009e-02
2.052542567253112793e-02 2.285737991333007812e-01 -8.570445328950881958e-02
2.973624318838119507e-02 2.460061162710189819e-01 -7.683757692575454712e-02
1.568991504609584808e-02 2.789580225944519043e-01 2.482908591628074646e-02
6.062423810362815857e-03 2.479766011238098145e-01 -7.175355404615402222e-02
8.212237805128097534e-02 2.545241713523864746e-01 8.596735447645187378e-02
8.935831487178802490e-02 2.527801692485809326e-01 -4.215835034847259521e-02
9.963231161236763000e-03 2.753619551658630371e-01 -1.190384197980165482e-02
-3.145879879593849182e-02 1.904464513063430786e-01 2.975053712725639343e-02
9.513917565345764160e-02 2.511915564537048340e-01 7.706782966852188110e-02
-1.261952146887779236e-02 2.357589602470397949e-01 -7.314497977495193481e-02
8.907127380371093750e-02 2.577794492244720459e-01 -3.184550255537033081e-02
1.542239263653755188e-02 2.773820459842681885e-01 -1.787162385880947113e-03
1.717997714877128601e-02 1.873827576637268066e-01 -5.373680591583251953e-02
1.080066114664077759e-01 2.559027373790740967e-01 3.475511446595191956e-02
6.252962350845336914e-02 1.874629110097885132e-01 6.870371103286743164e-02
-2.290274575352668762e-02 1.878979355096817017e-01 3.784831985831260681e-02
-5.858858302235603333e-02 2.115819305181503296e-01 -5.245124921202659607e-04
1.064108461141586304e-01 1.933510154485702515e-01 2.994481474161148071e-05
-1.812990009784698486e-02 2.096434384584426880e-01 -6.699183583259582520e-02
-4.623490199446678162e-02 1.983633339405059814e-01 2.002878859639167786e-02
4.405292496085166931e-02 2.562717497348785400e-01 -6.320243328809738159e-02
5.023076757788658142e-02 1.790066957473754883e-01 4.387789964675903320e-02
1.254362612962722778e-01 2.185627520084381104e-01 3.184205293655395508e-02
6.163205578923225403e-02 2.049738913774490356e-01 9.951931238174438477e-02
-4.199972376227378845e-02 2.626370489597320557e-01 2.767873741686344147e-02
1.155016720294952393e-01 2.051848620176315308e-01 -1.727671176195144653e-02
-3.144226595759391785e-02 1.966296136379241943e-01 5.614084377884864807e-02
-5.970737710595130920e-02 2.450789958238601685e-01 3.172820433974266052e-03
-6.974235177040100098e-03 1.934822797775268555e-01 -5.434009432792663574e-02
-5.531159415841102600e-02 2.436893582344055176e-01 -1.762515306472778320e-02
1.205413639545440674e-01 2.362964302301406860e-01 -1.378859113901853561e-02
-5.383261665701866150e-02 2.487077862024307251e-01 4.750305786728858948e-02
2.646905183792114258e-02 2.083588242530822754e-01 -8.219340443611145020e-02
2.961462736129760742e-02 2.789044678211212158e-01 3.575810045003890991e-02
4.850029200315475464e-02 1.845627278089523315e-01 -4.753082245588302612e-02
-1.478102058172225952e-02 2.730094790458679199e-01 2.850016579031944275e-03
1.030188053846359253e-01 2.577192187309265137e-01 4.562472552061080933e-02
5.846472457051277161e-02 1.887634694576263428e-01 -5.400335043668746948e-02
4.443993419408798218e-02 2.202103883028030396e-01 1.147374436259269714e-01
5.748115479946136475e-02 2.152577936649322510e-01 1.094852238893508911e-01
-3.276488557457923889e-02 1.898534893989562988e-01 3.919008187949657440e-03
-5.011919513344764709e-02 2.515570521354675293e-01 -1.415184978395700455e-02
-5.233417078852653503e-02 2.036099880933761597e-01 2.087984979152679443e-02
2.888799458742141724e-02 1.765643656253814697e-01 -1.528052520006895065e-02
4.027764871716499329e-02 2.777474820613861084e-01 4.362585023045539856e-02
7.009722292423248291e-02 2.127249538898468018e-01 1.030463725328445435e-01
6.277613341808319092e-02 1.775075495243072510e-01 -1.478432677686214447e-03
3.458537161350250244e-03 1.792954355478286743e-01 3.054198250174522400e-02
6.835334002971649170e-02 1.846212148666381836e-01 -3.734770044684410095e-02
-2.314746379852294922e-03 1.957985162734985352e-01 8.258441090583801270e-02
2.930118143558502197e-02 2.787649333477020264e-01 8.486959151923656464e-03
1.497140526771545410e-02 2.033406198024749756e-01 1.005191206932067871e-01
2.291708067059516907e-02 2.379294633865356445e-01 1.165756359696388245e-01
7.469357550144195557e-02 2.129681706428527832e-01 -7.360755652189254761e-02
1.120657622814178467e-01 2.315906286239624023e-01 -3.739419206976890564e-02
3.023585677146911621e-02 1.888875812292098999e-01 -5.921780318021774292e-02
-1.674327626824378967e-02 2.730399072170257568e-01 3.500354290008544922e-02
-3.645102307200431824e-02 2.315614819526672363e-01 8.827514201402664185e-02
4.859563335776329041e-02 2.702051699161529541e-01 7.519003748893737793e-02
1.152654141187667847e-01 2.449785619974136353e-01 -1.264484506100416183e-02
-6.489095091819763184e-02 2.337892800569534302e-01 1.694529317319393158e-02
-1.991653814911842346e-02 2.725613117218017578e-01 1.969286613166332245e-02
-1.127256825566291809e-02 2.738543748855590820e-01 4.204378277063369751e-02
6.929989159107208252e-02 1.790427118539810181e-01 2.307862229645252228e-02
-6.268876791000366211e-02 2.323031574487686157e-01 -6.826736964285373688e-03
-8.639488369226455688e-03 2.675462961196899414e-01 -3.044253587722778320e-02
9.170923382043838501e-02 2.475920915603637695e-01 8.573230355978012085e-02
-2.451889216899871826e-03 1.792808324098587036e-01 2.433747053146362305e-03
1.080994494259357452e-02 2.317122668027877808e-01 1.154624596238136292e-01
1.505749486386775970e-02 2.541892230510711670e-01 1.054420024156570435e-01
1.175232976675033569e-01 2.186729162931442261e-01 5.820430815219879150e-02
3.264136239886283875e-02 1.854516416788101196e-01 7.037610560655593872e-02
1.254006773233413696e-01 2.357618361711502075e-01 2.000386081635951996e-02
-2.982679381966590881e-02 2.675617039203643799e-01 4.216097295284271240e-04
-3.349060937762260437e-02 2.669123411178588867e-01 9.541039355099201202e-03
3.642935305833816528e-02 2.546683549880981445e-01 1.059465780854225159e-01
7.597315311431884766e-02 2.403002679347991943e-01 1.036508083343505859e-01
-6.397809833288192749e-03 2.266039848327636719e-01 1.091102808713912964e-01
1.683459058403968811e-02 2.048038840293884277e-01 -7.840505987405776978e-02
1.242252737283706665e-01 2.130089402198791504e-01 2.627754025161266327e-02
-3.598088398575782776e-02 2.493871152400970459e-01 7.949344813823699951e-02
3.666775673627853394e-02 1.752811074256896973e-01 1.685209572315216064e-02
1.032338291406631470e-01 2.465586811304092407e-01 7.247422635555267334e-02
-8.196905255317687988e-04 2.585673332214355469e-01 -5.528216063976287842e-02
6.736269593238830566e-02 2.108763754367828369e-01 -7.625480741262435913e-02
8.873517811298370361e-02 1.934931427240371704e-01 -4.092676192522048950e-02
-4.928867146372795105e-02 2.417111098766326904e-01 -3.326911479234695435e-02
1.969377323985099792e-02 2.135714590549468994e-01 1.109804436564445496e-01
5.691204965114593506e-02 2.664420902729034424e-01 -3.823120892047882080e-02
8.534640073776245117e-06 2.065098881721496582e-01 9.919303655624389648e-02
9.550784528255462646e-02 2.612958252429962158e-01 5.085655674338340759e-02
9.879150986671447754e-02 2.577432096004486084e-01 -1.579855009913444519e-02
1.198769807815551758e-01 2.127564847469329834e-01 4.557303339242935181e-02
-2.786793559789657593e-02 2.115303426980972290e-01 -6.053161621093750000e-02
6.936526298522949219e-02 2.625136375427246094e-01 -4.013280570507049561e-02
8.038282394409179688e-04 1.818720698356628418e-01 -2.656055241823196411e-02
1.010087877511978149e-01 1.905039846897125244e-01 -4.722871817648410797e-03
3.072510100901126862e-02 2.532686293125152588e-01 -6.893190741539001465e-02
1.035941243171691895e-01 2.151709347963333130e-01 -5.004304647445678711e-02
2.492316067218780518e-03 2.734782099723815918e-01 6.103888526558876038e-02
-2.057351171970367432e-03 2.732286453247070312e-01 -1.412748079746961594e-02
-4.469957575201988220e-02 2.596900165081024170e-01 3.852747753262519836e-02
-3.068900480866432190e-02 2.450073957443237305e-01 8.919569849967956543e-02
3.243467584252357483e-02 2.609587013721466064e-01 9.813397377729415894e-02
-1.169799640774726868e-02 2.748487591743469238e-01 2.014615386724472046e-02
1.098716109991073608e-01 1.980335563421249390e-01 3.626906499266624451e-02
6.879140436649322510e-02 1.799131631851196289e-01 -1.498790178447961807e-02
1.209518015384674072e-01 2.439664453268051147e-01 1.757712848484516144e-02
2.126986905932426453e-02 1.910617351531982422e-01 8.234193176031112671e-02
6.202114373445510864e-02 2.149616479873657227e-01 -8.009703457355499268e-02
7.392321527004241943e-02 2.366761416196823120e-01 -7.190456241369247437e-02
8.373559266328811646e-02 2.175716757774353027e-01 9.828738123178482056e-02
4.873934388160705566e-02 2.772643864154815674e-01 6.348999217152595520e-03
7.021414488554000854e-02 2.575632035732269287e-01 9.051699936389923096e-02
6.784884631633758545e-02 2.496370673179626465e-01 -6.347689032554626465e-02
9.817872941493988037e-02 2.434111535549163818e-01 8.277312666177749634e-02
-5.257513001561164856e-02 2.197814136743545532e-01 6.096849590539932251e-02
-1.189982518553733826e-02 1.919933855533599854e-01 -4.733896255493164062e-02
1.087264120578765869e-01 2.043345719575881958e-01 -3.182046860456466675e-02
1.629654318094253540e-02 1.917258054018020630e-01 -6.217848509550094604e-02
-2.380637824535369873e-02 1.933044195175170898e-01 -3.744363412261009216e-02
-3.507744148373603821e-02 2.009206265211105347e-01 6.137690693140029907e-02
6.584174931049346924e-02 2.370289117097854614e-01 1.100256443023681641e-01
1.413599215447902679e-02 1.823233962059020996e-01 -3.829762712121009827e-02
2.336763218045234680e-02 1.793678402900695801e-01 4.698356986045837402e-02
6.817650049924850464e-03 2.165795266628265381e-01 1.100310161709785461e-01
1.265095770359039307e-01 2.315855473279953003e-01 9.654939174652099609e-03
7.979347556829452515e-02 1.810830980539321899e-01 8.452177047729492188e-03
1.818074658513069153e-02 1.760904043912887573e-01 -6.835209205746650696e-04
-2.087525650858879089e-02 2.610552310943603516e-01 -3.712179139256477356e-02
5.797123163938522339e-02 2.682437896728515625e-01 7.591038197278976440e-02
7.297608256340026855e-02 1.973323225975036621e-01 -6.112360209226608276e-02
5.554219335317611694e-02 2.767686545848846436e-01 1.364123821258544922e-02
7.274641096591949463e-02 1.832725107669830322e-01 -2.810820564627647400e-02
9.884151816368103027e-02 2.321916669607162476e-01 -5.481097102165222168e-02
3.648163378238677979e-02 2.020625174045562744e-01 1.011096611618995667e-01
1.229606755077838898e-02 1.968132406473159790e-01 -6.884887069463729858e-02
-9.997468441724777222e-03 2.116387933492660522e-01 9.933230280876159668e-02
-2.868654578924179077e-02 2.627732455730438232e-01 -2.335631474852561951e-02
2.552558295428752899e-02 2.717227637767791748e-01 7.508561760187149048e-02
9.972965717315673828e-02 1.890058368444442749e-01 1.327320281416177750e-02
9.172618389129638672e-02 2.045505791902542114e-01 -5.510380119085311890e-02
4.219799861311912537e-02 1.857731044292449951e-01 7.080917060375213623e-02
4.930664598941802979e-02 2.614370584487915039e-01 -5.294431746006011963e-02
1.235414147377014160e-01 2.375656366348266602e-01 2.154802903532981873e-03
1.174625009298324585e-01 2.026408016681671143e-01 2.323984540998935699e-02
-4.513420537114143372e-02 2.170907557010650635e-01 7.137199491262435913e-02
4.329712688922882080e-02 2.231831252574920654e-01 -8.594355732202529907e-02
8.584348484873771667e-03 2.780034840106964111e-01 1.115264557301998138e-02
-2.004861459136009216e-02 2.706184685230255127e-01 -3.529896028339862823e-03
-8.025351911783218384e-03 1.836460977792739868e-01 4.187822714447975159e-02
3.826035186648368835e-02 1.830534785985946655e-01 6.311832368373870850e-02
5.264220759272575378e-02 2.666353583335876465e-01 8.284384757280349731e-02
-5.430736765265464783e-02 2.052289694547653198e-01 8.156344294548034668e-03
-1.079659536480903625e-02 1.866427212953567505e-01 5.177646875381469727e-02
1.181354224681854248e-01 2.462898939847946167e-01 3.339559212327003479e-02
-3.683849051594734192e-02 2.657237648963928223e-01 2.122507244348526001e-02
4.549622908234596252e-02 2.689559459686279297e-01 -3.629143163561820984e-02
7.946942746639251709e-02 1.935554146766662598e-01 7.195013016462326050e-02
-3.950802609324455261e-02 2.193310558795928955e-01 8.074007928371429443e-02
1.227675229310989380e-01 2.234460115432739258e-01 4.701484367251396179e-02
1.512342505156993866e-02 1.860761940479278564e-01 6.854572147130966187e-02
1.149118989706039429e-01 2.466104477643966675e-01 4.695411771535873413e-02
4.191290959715843201e-02 2.651259005069732666e-01 8.962255716323852539e-02
1.049552261829376221e-01 2.465512454509735107e-01 -3.212128952145576477e-02
-3.746768459677696228e-02 1.924969702959060669e-01 1.800355687737464905e-02
9.936609864234924316e-02 2.013142108917236328e-01 -4.211471602320671082e-02
5.340232700109481812e-02 1.845019161701202393e-01 6.433710455894470215e-02
2.770559117197990417e-02 2.574992775917053223e-01 -6.300193071365356445e-02
3.009234555065631866e-02 1.766078472137451172e-01 3.195220604538917542e-02
-1.172231882810592651e-02 2.206018120050430298e-01 -7.584236562252044678e-02
4.644720628857612610e-02 2.510876953601837158e-01 1.079515144228935242e-01
9.006945788860321045e-02 2.664301693439483643e-01 3.512978181242942810e-02
2.720852196216583252e-02 2.676718533039093018e-01 8.577314764261245728e-02
-3.435034677386283875e-02 2.622404992580413818e-01 -1.567566022276878357e-02
-8.836261928081512451e-03 1.810323596000671387e-01 1.818705350160598755e-02
2.979240007698535919e-02 1.782251298427581787e-01 -2.623804286122322083e-02
-3.081222623586654663e-02 1.927990317344665527e-01 4.419478029012680054e-02
4.458980634808540344e-02 1.999661028385162354e-01 -7.461572438478469849e-02
2.241399139165878296e-03 1.835595816373825073e-01 5.279660969972610474e-02
9.572269022464752197e-02 2.433132976293563843e-01 -4.909861832857131958e-02
9.311955422163009644e-02 2.651630342006683350e-01 9.884476661682128906e-03
8.292227238416671753e-02 2.482687830924987793e-01 9.306357055902481079e-02
1.093509495258331299e-01 2.444344460964202881e-01 6.495457887649536133e-02
-2.037984505295753479e-02 2.709529101848602295e-01 4.385887831449508667e-02
1.169919520616531372e-01 2.266782373189926147e-01 -3.036132454872131348e-02
-2.304822206497192383e-03 2.750998139381408691e-01 4.767061769962310791e-02
6.691324710845947266e-02 2.302295863628387451e-01 -7.825130969285964966e-02
8.665728569030761719e-02 1.943880915641784668e-01 6.708879768848419189e-02
2.049123495817184448e-02 2.764440178871154785e-01 5.543965846300125122e-02
4.931958019733428955e-02 2.654297351837158203e-01 -4.427634924650192261e-02
-2.314769476652145386e-02 2.447871416807174683e-01 -6.018331646919250488e-02
7.271192967891693115e-02 2.338156998157501221e-01 1.075572147965431213e-01
1.742118969559669495e-02 2.651465833187103271e-01 -4.794680327177047729e-02
1.189871318638324738e-02 1.795663088560104370e-01 -2.507586404681205750e-02
-1.390520483255386353e-02 2.507805526256561279e-01 9.741153568029403687e-02
-2.091751620173454285e-02 2.166100442409515381e-01 9.629447758197784424e-02
6.335096806287765503e-02 2.619561851024627686e-01 -4.548558965325355530e-02
6.454897671937942505e-02 2.561611533164978027e-01 9.588611871004104614e-02
7.406900823116302490e-02 2.727136015892028809e-01 1.687583141028881073e-02
6.130366772413253784e-02 2.759363353252410889e-01 2.169336006045341492e-02
3.352841362357139587e-02 1.794348359107971191e-01 4.925629869103431702e-02
-2.392079681158065796e-03 2.482266128063201904e-01 1.054736524820327759e-01
7.487861067056655884e-02 2.690407633781433105e-01 5.671614781022071838e-02
-5.626338347792625427e-02 2.420622408390045166e-01 5.212030932307243347e-02
5.145868659019470215e-02 2.162626385688781738e-01 -8.358662575483322144e-02
-5.064184591174125671e-02 2.566871047019958496e-01 1.977351121604442596e-02
1.080522686243057251e-01 1.982336193323135376e-01 -1.927352696657180786e-02
-1.892236620187759399e-02 1.949367225170135498e-01 6.790068000555038452e-02
2.550591155886650085e-02 2.752319574356079102e-01 -1.695741340517997742e-02
7.458962500095367432e-02 1.813021898269653320e-01 3.282026201486587524e-02
1.190135776996612549e-01 2.037041038274765015e-01 1.353506743907928467e-02
2.629980444908142090e-03 2.395093441009521484e-01 1.119126752018928528e-01
1.122981607913970947e-01 2.244844436645507812e-01 7.059890776872634888e-02
5.108694732189178467e-02 1.760992705821990967e-01 1.929850690066814423e-02
1.075521260499954224e-01 2.105625867843627930e-01 6.848388910293579102e-02
6.285986304283142090e-02 1.814225763082504272e-01 4.765981435775756836e-02
-4.821855574846267700e-03 1.868640929460525513e-01 5.876975506544113159e-02
-8.798059076070785522e-03 2.709491550922393799e-01 6.163185089826583862e-02
8.274129778146743774e-02 2.312417924404144287e-01 1.019537001848220825e-01
2.077322453260421753e-02 1.800155341625213623e-01 -3.220522031188011169e-02
4.276543855667114258e-02 1.873815804719924927e-01 -5.556436628103256226e-02
8.140977472066879272e-03 2.583963274955749512e-01 -5.877413600683212280e-02
5.507512390613555908e-02 2.423730641603469849e-01 1.117820888757705688e-01
1.319329254329204559e-02 2.715431749820709229e-01 -2.941733598709106445e-02
1.352426595985889435e-02 2.463464736938476562e-01 -7.507974654436111450e-02
1.155274212360382080e-01 2.002722918987274170e-01 5.006697960197925568e-03
-4.185320809483528137e-02 2.529539465904235840e-01 6.604802608489990234e-02
-3.075584769248962402e-02 2.378365248441696167e-01 -5.935292690992355347e-02
-4.531185701489448547e-02 2.521302402019500732e-01 -2.372270822525024414e-02
3.377433493733406067e-02 2.764315307140350342e-01 -9.918036870658397675e-03
8.687706664204597473e-03 1.770985722541809082e-01 9.444987401366233826e-03
1.135088950395584106e-01 2.400581389665603638e-01 -2.643254026770591736e-02
-4.596143588423728943e-02 2.084695398807525635e-01 -3.376527503132820129e-02
-3.064682334661483765e-02 2.214500457048416138e-01 -6.268217414617538452e-02
9.477734565734863281e-02 1.947515308856964111e-01 5.796688422560691833e-02
-6.013608351349830627e-02 2.457514554262161255e-01 2.410101145505905151e-02
5.677100270986557007e-02 9.826061129570007324e-02 -9.421631693840026855e-03
-4.287774488329887390e-02 1.158560290932655334e-01 5.910926684737205505e-02
7.675359398126602173e-02 1.217102706432342529e-01 4.133106395602226257e-02
-4.971680231392383575e-03 1.535574346780776978e-01 -5.473068915307521820e-03
-2.312338352203369141e-02 1.474590897560119629e-01 2.857946231961250305e-02
5.093032866716384888e-02 1.515023410320281982e-01 1.318311691284179688e-02
3.497539833188056946e-02 8.948647975921630859e-02 2.371139824390411377e-02
7.591759413480758667e-02 1.371357142925262451e-01 2.951099909842014313e-02
-2.554572001099586487e-02 1.386823952198028564e-01 5.001773312687873840e-02
3.660387918353080750e-02 1.355903744697570801e-01 6.067692115902900696e-02
3.488547727465629578e-02 1.544665694236755371e-01 -3.075923770666122437e-03
4.634450748562812805e-02 1.156376376748085022e-01 -4.583833366632461548e-02
-1.501224283128976822e-02 8.716594427824020386e-02 3.140822798013687134e-02
1.088758092373609543e-02 9.546083211898803711e-02 -3.058620169758796692e-02
2.739480510354042053e-02 1.533106118440628052e-01 2.252257242798805237e-02
1.179621927440166473e-02 1.393307298421859741e-01 5.944895744323730469e-02
4.639106988906860352e-02 9.565824270248413086e-02 -1.335361041128635406e-02
3.734869509935379028e-02 9.119290858507156372e-02 3.304452449083328247e-02
1.733597740530967712e-02 1.447265446186065674e-01 -4.252649098634719849e-02
8.205479942262172699e-03 1.526100039482116699e-01 2.623946405947208405e-02
2.466595172882080078e-02 1.302698850631713867e-01 6.798777729272842407e-02
5.948298610746860504e-03 1.548525840044021606e-01 -1.689951866865158081e-03
-2.851079776883125305e-02 8.852159976959228516e-02 2.763612940907478333e-02
-1.315645966678857803e-02 1.479708403348922729e-01 -2.798907458782196045e-02
-4.585689678788185120e-02 1.113067939877510071e-01 5.653155967593193054e-02
-4.840220138430595398e-02 9.797113388776779175e-02 -1.267235167324542999e-02
4.170073941349983215e-02 9.325787425041198730e-02 -8.919263258576393127e-03
1.435636729001998901e-02 1.534624099731445312e-01 2.294809184968471527e-02
-1.258343551307916641e-02 1.395819336175918579e-01 -4.429748654365539551e-02
-1.661059260368347168e-02 1.103443875908851624e-01 7.021913677453994751e-02
1.729131303727626801e-02 1.503790318965911865e-01 3.606876358389854431e-02
4.475973546504974365e-02 9.231750667095184326e-02 1.414820086210966110e-03
-4.395952448248863220e-02 1.417622715234756470e-01 2.195934951305389404e-02
3.623526915907859802e-02 1.544343382120132446e-01 2.321318723261356354e-03
-2.923866733908653259e-02 9.747013449668884277e-02 -2.742288261651992798e-02
1.890152692794799805e-02 1.270646601915359497e-01 7.069465517997741699e-02
-9.441734291613101959e-03 1.007622182369232178e-01 -3.938863053917884827e-02
5.617787316441535950e-02 1.482309848070144653e-01 2.478045970201492310e-02
-2.476858347654342651e-02 9.059257805347442627e-02 4.160751029849052429e-02
7.030795514583587646e-02 1.073583066463470459e-01 -1.568437181413173676e-02
1.631514728069305420e-02 1.063991934061050415e-01 -4.674702137708663940e-02
5.526475608348846436e-02 1.008697450160980225e-01 4.500433802604675293e-02
8.147419989109039307e-02 1.358605027198791504e-01 -9.100101888179779053e-03
-2.448815107345581055e-02 8.729831874370574951e-02 2.089115977287292480e-02
-5.258930847048759460e-02 1.372251659631729126e-01 -1.043657585978507996e-02
-6.643032282590866089e-02 1.267310976982116699e-01 1.455775275826454163e-02
2.566813305020332336e-02 1.319494247436523438e-01 -5.355857685208320618e-02
6.150546297430992126e-02 1.097579449415206909e-01 5.200975388288497925e-02
7.095386087894439697e-02 1.048454567790031433e-01 -7.157290354371070862e-03
-5.567614734172821045e-02 1.197250783443450928e-01 4.672712087631225586e-02
7.346437778323888779e-03 9.636999666690826416e-02 6.050977110862731934e-02
3.552022576332092285e-02 1.451837867498397827e-01 4.639514535665512085e-02
6.969109177589416504e-02 1.449416577816009521e-01 -8.666289970278739929e-03
3.138150088489055634e-03 1.004417911171913147e-01 6.607504189014434814e-02
-4.775620624423027039e-02 1.202435344457626343e-01 -3.576659783720970154e-02
-7.552026771008968353e-03 1.463350802659988403e-01 -3.507110476493835449e-02
-1.805821806192398071e-02 1.509622782468795776e-01 1.462250575423240662e-02
-5.845205485820770264e-02 9.929825365543365479e-02 2.404337748885154724e-02
4.637939110398292542e-02 1.014872267842292786e-01 -2.875326201319694519e-02
3.961548581719398499e-02 1.521227508783340454e-01 2.263821661472320557e-02
-6.402986496686935425e-02 1.110145822167396545e-01 3.471196442842483521e-02
-6.183256208896636963e-02 1.311264038085937500e-01 -4.214289598166942596e-03
3.543074056506156921e-02 9.192391484975814819e-02 -9.553771466016769409e-03
-6.672976911067962646e-02 1.150318682193756104e-01 2.999222092330455780e-02
2.588813751935958862e-02 1.073463261127471924e-01 -4.600366577506065369e-02
-6.248856335878372192e-02 1.282878369092941284e-01 2.569722943007946014e-02
-2.791008353233337402e-02 1.466099321842193604e-01 -1.905716769397258759e-02
1.440543960779905319e-02 8.758313208818435669e-02 -2.590254880487918854e-03
3.328471258282661438e-02 1.545665264129638672e-01 7.813776843249797821e-03
-4.022327437996864319e-02 1.449647694826126099e-01 6.967916153371334076e-03
-1.093017589300870895e-02 1.433679610490798950e-01 -3.943564370274543762e-02
-3.741119801998138428e-02 1.384078562259674072e-01 4.159961640834808350e-02
7.879713922739028931e-02 1.080051064491271973e-01 1.296375319361686707e-02
-3.259046003222465515e-02 1.101437658071517944e-01 6.435911357402801514e-02
5.820069089531898499e-02 1.023216769099235535e-01 -2.008121460676193237e-02
-3.966610878705978394e-02 9.049007296562194824e-02 1.072528213262557983e-02
7.966905832290649414e-02 1.398254185914993286e-01 4.625649191439151764e-03
-3.887413069605827332e-02 1.451828479766845703e-01 -4.041362553834915161e-03
3.406110778450965881e-02 1.271883100271224976e-01 6.792646646499633789e-02
7.753167301416397095e-02 1.139514893293380737e-01 -1.611665822565555573e-02
1.184429507702589035e-03 1.011792272329330444e-01 -4.105254262685775757e-02
3.596720099449157715e-02 1.449772566556930542e-01 -3.911370038986206055e-02
1.741335541009902954e-02 1.115102320909500122e-01 -5.118608102202415466e-02
5.088139697909355164e-02 1.043166890740394592e-01 -3.073834255337715149e-02
-4.609389975666999817e-02 1.046250760555267334e-01 5.252671614289283752e-02
3.918442130088806152e-02 1.029622405767440796e-01 -3.559128940105438232e-02
-4.264739155769348145e-02 9.671339392662048340e-02 4.398626834154129028e-02
-1.173874456435441971e-02 1.527817696332931519e-01 1.484656240791082382e-03
5.032669380307197571e-02 1.150193884968757629e-01 6.303294003009796143e-02
6.631344556808471680e-02 1.002851426601409912e-01 3.074112813919782639e-03
-3.932944685220718384e-02 1.328719556331634521e-01 -3.641111403703689575e-02
5.229011923074722290e-02 1.374160200357437134e-01 5.195300653576850891e-02
-2.131175622344017029e-02 1.320829242467880249e-01 -4.776331782341003418e-02
5.468244105577468872e-02 9.472877532243728638e-02 1.704476773738861084e-02
2.122851833701133728e-02 1.478115618228912354e-01 4.326197504997253418e-02
-5.439827591180801392e-02 1.007964387536048889e-01 -1.146132871508598328e-02
-5.408047139644622803e-02 9.605075418949127197e-02 1.876422390341758728e-02
4.795664548873901367e-02 1.312132477760314941e-01 -4.737590253353118896e-02
2.583081275224685669e-02 1.543150395154953003e-01 1.630776189267635345e-02
5.188450217247009277e-02 1.128433644771575928e-01 -4.080769419670104980e-02
7.623908668756484985e-02 1.389916837215423584e-01 -1.482582278549671173e-02
-5.926068127155303955e-02 1.244056597352027893e-01 3.844471275806427002e-02
-2.768037095665931702e-02 1.040598303079605103e-01 -3.831838443875312805e-02
9.786636568605899811e-03 1.459501236677169800e-01 4.761146008968353271e-02
1.695057377219200134e-02 1.545933485031127930e-01 -1.143064163625240326e-02
-6.592459231615066528e-02 1.055366620421409607e-01 4.674946423619985580e-03
7.243663072586059570e-02 1.037257015705108643e-01 2.035800181329250336e-02
-2.079830318689346313e-02 1.287713944911956787e-01 6.448020040988922119e-02
8.406121283769607544e-02 1.342802196741104126e-01 1.479455456137657166e-02
-3.929666429758071899e-02 1.293926239013671875e-01 5.405433103442192078e-02
4.811055958271026611e-02 1.520664095878601074e-01 -8.857758715748786926e-03
-7.079041562974452972e-03 1.082770600914955139e-01 7.127486169338226318e-02
5.855583585798740387e-03 8.704666793346405029e-02 3.388471156358718872e-02
8.218100666999816895e-02 1.116843521595001221e-01 4.504621028900146484e-03
4.728207364678382874e-02 1.477435976266860962e-01 -2.819557860493659973e-02
2.178924158215522766e-02 8.841817080974578857e-02 -3.022686578333377838e-03
2.165962010622024536e-02 1.535352766513824463e-01 2.250580675899982452e-02
-4.474275559186935425e-02 1.259395778179168701e-01 -3.697616234421730042e-02
4.326768592000007629e-02 1.533870995044708252e-01 7.257971912622451782e-03
7.415726035833358765e-02 1.090147644281387329e-01 3.455192595720291138e-02
4.397923871874809265e-02 1.418713331222534180e-01 4.946992918848991394e-02
-6.707852333784103394e-02 1.263638734817504883e-01 9.005746804177761078e-03
1.212430465966463089e-02 1.551430970430374146e-01 -2.855239436030387878e-03
-6.452180445194244385e-02 1.032599210739135742e-01 1.239029038697481155e-02
4.678741842508316040e-02 1.441948115825653076e-01 -3.592187166213989258e-02
2.131358161568641663e-02 1.553300768136978149e-01 1.535489689558744431e-03
-3.731621429324150085e-02 8.975224941968917847e-02 1.654732972383499146e-02
-4.901140555739402771e-02 1.016115471720695496e-01 4.629524052143096924e-02
2.896668761968612671e-02 1.184810474514961243e-01 -5.310196802020072937e-02
1.457621622830629349e-02 1.516394019126892090e-01 3.147603571414947510e-02
-5.136564746499061584e-02 9.616689383983612061e-02 2.963420189917087555e-02
8.170002698898315430e-02 1.133867725729942322e-01 2.493550628423690796e-02
2.165370807051658630e-02 1.192164272069931030e-01 7.285986840724945068e-02
8.006027340888977051e-02 1.269994080066680908e-01 3.512839972972869873e-02
5.064085125923156738e-02 1.497994065284729004e-01 2.421264164149761200e-02
-4.302126169204711914e-02 1.119032427668571472e-01 -3.685809671878814697e-02
2.067416161298751831e-02 1.522518694400787354e-01 2.892946824431419373e-02
8.431975543498992920e-02 1.264760494232177734e-01 -1.207856647670269012e-02
-1.927691698074340820e-02 1.051614508032798767e-01 6.698903441429138184e-02
1.197737641632556915e-03 1.492694616317749023e-01 -3.104102984070777893e-02
4.356833919882774353e-02 1.211702227592468262e-01 -4.952241852879524231e-02
-9.034741669893264771e-04 9.479643404483795166e-02 -2.966631948947906494e-02
3.809157386422157288e-02 9.429701417684555054e-02 -1.644117757678031921e-02
-4.414205998182296753e-02 9.276796877384185791e-02 2.814465388655662537e-02
2.161404117941856384e-04 1.479299217462539673e-01 4.094649478793144226e-02
6.834911555051803589e-02 1.075372621417045593e-01 4.150721430778503418e-02
-3.493269160389900208e-02 1.062025874853134155e-01 -3.716537728905677795e-02
2.078508585691452026e-02 8.686658740043640137e-02 1.331502664834260941e-02
-1.251416746526956558e-02 8.604707568883895874e-02 1.036498788744211197e-02
6.285393238067626953e-02 1.207864433526992798e-01 -3.852382302284240723e-02
7.724639028310775757e-02 1.155893504619598389e-01 3.801235929131507874e-02
-4.833848401904106140e-02 1.022091507911682129e-01 -2.191721461713314056e-02
-1.068725530058145523e-02 9.326398372650146484e-02 5.400586873292922974e-02
4.548983648419380188e-02 1.041461229324340820e-01 5.813352018594741821e-02
-2.516698837280273438e-02 8.777792751789093018e-02 5.420660600066184998e-03
8.537397719919681549e-03 1.507746875286102295e-01 -2.845545485615730286e-02
-1.163502130657434464e-02 9.319601953029632568e-02 -2.449510991573333740e-02
5.486871302127838135e-02 1.035166829824447632e-01 5.029546096920967102e-02
6.734314374625682831e-03 1.532967984676361084e-01 -1.755962893366813660e-02
-5.764977633953094482e-02 1.302334070205688477e-01 -1.760463975369930267e-02
2.338890731334686279e-02 8.878466486930847168e-02 3.460225090384483337e-02
-4.959153383970260620e-02 1.369834393262863159e-01 2.954384684562683105e-02
6.385558098554611206e-02 1.415893286466598511e-01 -2.758173644542694092e-02
2.897388115525245667e-02 9.049459546804428101e-02 -8.638367056846618652e-03
6.447092443704605103e-02 1.324278265237808228e-01 4.911182820796966553e-02
7.340164482593536377e-02 1.435747444629669189e-01 -4.125675186514854431e-03
5.423674359917640686e-02 1.032429635524749756e-01 -2.606117352843284607e-02
1.401205733418464661e-02 1.551938802003860474e-01 6.702106911689043045e-03
2.964444831013679504e-02 1.456356942653656006e-01 4.701799526810646057e-02
8.397020399570465088e-03 1.085241287946701050e-01 -4.942091181874275208e-02
4.090169072151184082e-02 9.702458977699279785e-02 -2.242885157465934753e-02
4.774643108248710632e-03 1.059199497103691101e-01 7.075557857751846313e-02
4.871571436524391174e-02 1.354353874921798706e-01 5.617643892765045166e-02
5.577320605516433716e-02 9.856416285037994385e-02 3.834161907434463501e-02
2.943037077784538269e-02 9.004992991685867310e-02 3.598134964704513550e-02
5.688034743070602417e-02 1.431354582309722900e-01 3.926648944616317749e-02
-7.488206028938293457e-05 1.517568230628967285e-01 2.723721601068973541e-02
7.104329764842987061e-02 1.126914545893669128e-01 -2.409663051366806030e-02
-9.354663081467151642e-03 1.230261474847793579e-01 7.113565504550933838e-02
7.471466809511184692e-02 1.417048126459121704e-01 -9.984245523810386658e-03
-4.230187460780143738e-02 1.440945565700531006e-01 1.110184937715530396e-03
1.792316138744354248e-02 1.552240252494812012e-01 -3.701996989548206329e-03
2.633429691195487976e-02 8.779524266719818115e-02 8.782828226685523987e-03
2.791105955839157104e-02 1.233409270644187927e-01 7.093854248523712158e-02
3.185631707310676575e-03 1.183142438530921936e-01 7.384891808032989502e-02
9.488044306635856628e-04 8.946965634822845459e-02 4.514733701944351196e-02
1.019121333956718445e-02 1.256943196058273315e-01 -5.612200126051902771e-02
7.125673443078994751e-02 1.431434005498886108e-01 2.094465494155883789e-02
2.588775753974914551e-02 9.899907559156417847e-02 -3.420356288552284241e-02
3.147456794977188110e-02 8.856347203254699707e-02 1.072593405842781067e-02
8.432051166892051697e-03 1.020607650279998779e-01 6.755053997039794922e-02
-5.155095458030700684e-02 1.180825382471084595e-01 -3.220773115754127502e-02
8.112550526857376099e-02 1.339535117149353027e-01 2.534426748752593994e-02
-2.890048548579216003e-02 1.326614767313003540e-01 5.694406479597091675e-02
-7.863680832087993622e-03 1.455275118350982666e-01 4.446988925337791443e-02
7.128177583217620850e-02 1.172484904527664185e-01 -2.864415943622589111e-02
-4.423794336616992950e-03 1.029907539486885071e-01 -4.307830706238746643e-02
8.734064549207687378e-02 1.214864701032638550e-01 1.810272689908742905e-03
-6.801681220531463623e-02 1.118349805474281311e-01 2.485650777816772461e-02
5.316265672445297241e-02 1.280841678380966187e-01 -4.559981450438499451e-02
7.577491551637649536e-02 1.062246561050415039e-01 2.132222056388854980e-03
1.276630442589521408e-03 9.100514650344848633e-02 -1.983716897666454315e-02
6.635420024394989014e-02 1.067265495657920837e-01 -2.007322944700717926e-02
2.127473708242177963e-03 8.685225993394851685e-02 -1.723369583487510681e-03
1.742287725210189819e-02 1.409857422113418579e-01 -4.756553843617439270e-02
1.040740218013525009e-02 9.237104654312133789e-02 5.232183635234832764e-02
3.188496083021163940e-02 9.413938969373703003e-02 -2.024476230144500732e-02
-1.265620719641447067e-02 1.521145552396774292e-01 1.345894858241081238e-02
6.566940993070602417e-02 1.037940680980682373e-01 -1.394977048039436340e-02
1.035049371421337128e-02 1.129775121808052063e-01 7.358269393444061279e-02
7.503129541873931885e-03 1.261269897222518921e-01 7.157738506793975830e-02
-6.730584055185317993e-02 1.071933954954147339e-01 1.842824555933475494e-02
1.763376034796237946e-02 1.489680707454681396e-01 -3.422155603766441345e-02
5.297786742448806763e-02 9.492684900760650635e-02 8.866731077432632446e-04
-5.089928209781646729e-02 1.397928297519683838e-01 1.098290085792541504e-02
2.174573764204978943e-02 1.182917430996894836e-01 -5.432279035449028015e-02
-2.973417192697525024e-02 1.198900043964385986e-01 -4.723597690463066101e-02
1.280306279659271240e-02 9.654659777879714966e-02 6.012778356671333313e-02
2.986954152584075928e-02 1.510532945394515991e-01 3.194085881114006042e-02
4.088352620601654053e-02 1.535120010375976562e-01 -6.787713617086410522e-03
2.502073347568511963e-02 1.546536386013031006e-01 -9.786654263734817505e-03
-2.523999661207199097e-02 1.124636754393577576e-01 -4.658025503158569336e-02
4.834440071135759354e-03 1.318728327751159668e-01 -5.423510447144508362e-02
7.017061114311218262e-02 1.364225894212722778e-01 -2.812946587800979614e-02
4.028929769992828369e-02 9.385108947753906250e-02 4.124423116445541382e-02
-4.687063395977020264e-03 1.421052068471908569e-01 5.271240696310997009e-02
5.381743609905242920e-02 1.192476600408554077e-01 6.175884976983070374e-02
8.285907655954360962e-02 1.366548240184783936e-01 1.295951660722494125e-03
-2.152173966169357300e-02 1.194900795817375183e-01 6.906305253505706787e-02
-6.008476018905639648e-03 1.522080004215240479e-01 -1.589396223425865173e-02
-6.231939792633056641e-02 1.015032976865768433e-01 1.836878620088100433e-02
8.608026802539825439e-02 1.285741329193115234e-01 -5.597765557467937469e-03
-4.768647253513336182e-02 1.305724680423736572e-01 -3.096737712621688843e-02
1.339673157781362534e-02 1.442558616399765015e-01 5.133609846234321594e-02
6.843604147434234619e-02 1.419264674186706543e-01 -2.139881625771522522e-02
9.587554261088371277e-03 8.887052536010742188e-02 -1.112611405551433563e-02
7.763787358999252319e-02 1.071222946047782898e-01 7.330591324716806412e-03
1.309947576373815536e-02 8.608054369688034058e-02 1.504679769277572632e-02
5.161491036415100098e-02 1.067086011171340942e-01 5.695315822958946228e-02
8.023939281702041626e-02 1.386959850788116455e-01 -3.359760157763957977e-03
7.848020642995834351e-02 1.182553768157958984e-01 -1.978762447834014893e-02
-6.199045106768608093e-03 1.423235833644866943e-01 -4.277601838111877441e-02
-1.765532046556472778e-02 1.121293082833290100e-01 -4.887602850794792175e-02
6.159062311053276062e-02 1.473133563995361328e-01 2.108053117990493774e-02
-2.130893245339393616e-02 1.019404605031013489e-01 -3.805547952651977539e-02
-2.844194322824478149e-02 1.485108882188796997e-01 -6.777321919798851013e-03
5.953729152679443359e-03 1.496616005897521973e-01 3.721557557582855225e-02
-5.273021385073661804e-02 1.098717972636222839e-01 4.993774369359016418e-02
-1.884455233812332153e-02 1.512996256351470947e-01 -2.164267934858798981e-03
6.221906468272209167e-02 1.456544846296310425e-01 2.695410512387752533e-02
-6.129927933216094971e-02 1.270792633295059204e-01 3.105952776968479156e-02
-2.100783400237560272e-03 8.936776220798492432e-02 -1.414499245584011078e-02
7.327936589717864990e-02 1.368948370218276978e-01 -2.362695708870887756e-02
4.158857092261314392e-02 1.460797488689422607e-01 4.207041114568710327e-02
8.487593382596969604e-03 8.880878239870071411e-02 4.184737056493759155e-02
-2.190086245536804199e-02 1.231236010789871216e-01 -5.056099593639373779e-02
-2.839355915784835815e-02 9.395419061183929443e-02 -1.981278881430625916e-02
2.430221065878868103e-02 9.427011013031005859e-02 5.266927555203437805e-02
-3.188189864158630371e-02 1.469189077615737915e-01 -1.085524260997772217e-02
-5.975136905908584595e-02 1.214834302663803101e-01 -2.219758927822113037e-02
-5.901068449020385742e-02 1.138384044170379639e-01 4.373729601502418518e-02
-2.616709843277931213e-02 1.430156677961349487e-01 4.033720120787620544e-02
6.268507242202758789e-02 1.002975925803184509e-01 3.264533728361129761e-02
7.032401114702224731e-02 1.319452971220016479e-01 -3.160715103149414062e-02
7.199974358081817627e-02 1.209351643919944763e-01 4.717089235782623291e-02
-6.586574018001556396e-02 1.157923415303230286e-01 -1.148667000234127045e-02
4.096438363194465637e-02 1.082542911171913147e-01 6.434762477874755859e-02
4.129912704229354858e-04 9.433911740779876709e-02 5.725994706153869629e-02
-3.083210065960884094e-02 8.844047784805297852e-02 2.154352515935897827e-02
-1.582241803407669067e-02 9.524440020322799683e-02 5.660003051161766052e-02
1.426792796701192856e-02 1.517801135778427124e-01 -2.586305513978004456e-02
-4.998026415705680847e-03 9.405720233917236328e-02 5.643254891037940979e-02
-6.699690595269203186e-03 9.503683447837829590e-02 -2.967290952801704407e-02
3.448012098670005798e-02 8.965294063091278076e-02 3.440232016146183014e-03
-4.470227658748626709e-02 1.424629241228103638e-01 -5.875985138118267059e-03
1.759408973157405853e-02 1.019029989838600159e-01 6.627059727907180786e-02
-1.256688032299280167e-02 1.493541002273559570e-01 3.012850321829319000e-02
7.686250656843185425e-02 1.092348694801330566e-01 2.891214750707149506e-02
4.440919309854507446e-02 9.143637865781784058e-02 1.279195956885814667e-02
3.336267545819282532e-02 1.514129191637039185e-01 -2.436032891273498535e-02
6.969792395830154419e-02 1.241032481193542480e-01 -3.357573226094245911e-02
8.459141477942466736e-03 8.728521317243576050e-02 -3.219664096832275391e-03
5.234477296471595764e-02 1.405619829893112183e-01 4.730818048119544983e-02
-3.754590824246406555e-02 1.182050555944442749e-01 6.213740631937980652e-02
2.210469916462898254e-03 1.514279395341873169e-01 -2.437350526452064514e-02
2.444036304950714111e-02 1.091750264167785645e-01 7.040283083915710449e-02
-6.773754209280014038e-02 1.207871884107589722e-01 -5.405802279710769653e-03
-4.264160059392452240e-03 1.509321928024291992e-01 -2.323201671242713928e-02
3.534035384654998779e-02 1.114059984683990479e-01 6.837556511163711548e-02
-1.311477739363908768e-02 8.826176822185516357e-02 -7.171161472797393799e-03
5.750550702214241028e-02 1.486393064260482788e-01 -1.522303186357021332e-02
-3.969789296388626099e-02 9.941649436950683594e-02 5.144397541880607605e-02
-5.920509994029998779e-02 1.317443102598190308e-01 -1.096347905695438385e-02
8.091977983713150024e-02 1.332900524139404297e-01 -1.515794917941093445e-02
-4.817451350390911102e-03 9.876329451799392700e-02 -3.693450987339019775e-02
2.387602254748344421e-02 1.398819833993911743e-01 5.804680660367012024e-02
3.782697767019271851e-02 1.536988019943237305e-01 1.315335836261510849e-02
5.191521719098091125e-02 9.473760426044464111e-02 2.825070172548294067e-02
6.780885159969329834e-02 1.443068087100982666e-01 -1.571247354149818420e-02
9.697970002889633179e-03 1.416509896516799927e-01 -4.662458971142768860e-02
-1.126531790941953659e-02 9.074565023183822632e-02 4.772513732314109802e-02
5.793429538607597351e-02 9.605558216571807861e-02 8.563874289393424988e-03
6.529605388641357422e-02 1.407609730958938599e-01 3.646991401910781860e-02
-3.349442780017852783e-02 1.006638780236244202e-01 5.712514370679855347e-02
3.320992365479469299e-02 8.880561590194702148e-02 1.595941744744777679e-02
1.292031910270452499e-02 8.656370639801025391e-02 2.675139345228672028e-02
-6.053976714611053467e-02 1.156141683459281921e-01 -2.104892395436763763e-02
-4.147937893867492676e-02 9.401834011077880859e-02 -8.805872872471809387e-03
8.445719629526138306e-02 1.154745966196060181e-01 1.885522343218326569e-02
-5.073111504316329956e-02 1.396235972642898560e-01 -3.236122429370880127e-03
6.615920364856719971e-02 1.469579339027404785e-01 1.245995797216892242e-02
8.593751490116119385e-02 1.212262064218521118e-01 -5.184532143175601959e-03
-4.986596852540969849e-02 1.301488578319549561e-01 4.352855309844017029e-02
6.273876875638961792e-02 1.381630152463912964e-01 -3.351951763033866882e-02
-5.891570448875427246e-02 1.339261680841445923e-01 1.681312918663024902e-02
5.083983391523361206e-02 1.262174248695373535e-01 6.199857220053672791e-02
-3.521778061985969543e-02 9.050676971673965454e-02 -6.050588563084602356e-04
-5.341013520956039429e-02 1.378107964992523193e-01 1.609202846884727478e-02
-6.307736039161682129e-03 8.660953491926193237e-02 3.122015297412872314e-02
4.489672556519508362e-02 9.284003078937530518e-02 3.080930374562740326e-02
-2.431562542915344238e-02 1.454679071903228760e-01 -2.674807608127593994e-02
-4.812913388013839722e-02 9.323509782552719116e-02 1.609687507152557373e-02
7.590351253747940063e-02 1.223624870181083679e-01 -2.613798901438713074e-02
3.355385735630989075e-02 1.478033214807510376e-01 4.087121039628982544e-02
5.404687672853469849e-02 1.325039118528366089e-01 5.624386668205261230e-02
2.506668865680694580e-02 9.691700339317321777e-02 5.759691074490547180e-02
-5.304393544793128967e-02 1.262376457452774048e-01 -2.863045036792755127e-02
2.419679798185825348e-02 1.495428234338760376e-01 3.815992176532745361e-02
-3.080963343381881714e-02 1.436629593372344971e-01 3.434374183416366577e-02
-9.545703418552875519e-03 1.513880640268325806e-01 2.279735729098320007e-02
5.842475220561027527e-02 1.203132718801498413e-01 5.887600407004356384e-02
-2.050083875656127930e-02 1.441061198711395264e-01 -3.301297873258590698e-02
4.702416062355041504e-02 1.446424573659896851e-01 4.260338470339775085e-02
6.135114282369613647e-02 1.019030809402465820e-01 3.982583805918693542e-02
2.481547370553016663e-02 9.491392970085144043e-02 -2.578397467732429504e-02
2.827764675021171570e-02 8.852092921733856201e-02 2.719440311193466187e-02
-3.517409041523933411e-02 9.219017624855041504e-02 3.873652219772338867e-02
-5.347334593534469604e-02 1.058591827750205994e-01 -2.194284461438655853e-02
-1.312118489295244217e-02 8.875422924757003784e-02 4.047668725252151489e-02
-5.644748359918594360e-02 1.321216374635696411e-01 3.020470775663852692e-02
-6.259438581764698029e-03 8.572266995906829834e-02 2.138289436697959900e-02
8.375187218189239502e-02 1.326514184474945068e-01 2.067221328616142273e-02
-6.172478199005126953e-02 1.322315931320190430e-01 1.172337215393781662e-02
-5.758661776781082153e-02 1.350565701723098755e-01 -3.359120339155197144e-03
-6.962115876376628876e-03 8.722989261150360107e-02 -3.483083099126815796e-03
-2.184094116091728210e-02 1.493609696626663208e-01 2.047268301248550415e-02
5.179977789521217346e-02 1.083805784583091736e-01 -3.609797731041908264e-02
4.990389570593833923e-02 1.000078395009040833e-01 4.849877581000328064e-02
4.007399827241897583e-02 1.502538770437240601e-01 -2.520886063575744629e-02
-2.741838246583938599e-02 9.007807821035385132e-02 -7.101284340023994446e-03
-2.537252008914947510e-02 1.236516088247299194e-01 6.607802212238311768e-02
