-1.748142689466476440e-01 -7.788005471229553223e-01 -7.488121092319488525e-02
-1.439968347549438477e-01 -7.811303734779357910e-01 -1.372933983802795410e-01
-1.336242258548736572e-01 -6.841174960136413574e-01 -4.056942090392112732e-02
-1.819105595350265503e-01 -7.175746560096740723e-01 -1.174272745847702026e-01
-1.426141262054443359e-01 -6.849480271339416504e-01 1.213133931159973145e-01
-1.619114726781845093e-01 -7.575083971023559570e-01 -2.294165045022964478e-01
-1.432170718908309937e-01 -7.065984606742858887e-01 1.157748699188232422e-01
-1.825635731220245361e-01 -6.111031174659729004e-01 3.335671499371528625e-02
-1.541359424591064453e-01 -8.032872676849365234e-01 -2.856623567640781403e-02
-1.737722754478454590e-01 -6.706919670104980469e-01 1.739914864301681519e-01
-1.553261578083038330e-01 -5.676636695861816406e-01 -8.008181303739547729e-02
-1.358489096164703369e-01 -7.346502542495727539e-01 -2.507251501083374023e-02
-1.782090812921524048e-01 -7.198066115379333496e-01 -1.663110107183456421e-01
-1.834726035594940186e-01 -7.004199028015136719e-01 -1.027269661426544189e-01
-1.789069026708602905e-01 -7.611441016197204590e-01 -2.096789702773094177e-02
-1.816732138395309448e-01 -7.409222126007080078e-01 8.337602019309997559e-03
-1.731017976999282837e-01 -6.599304080009460449e-01 1.781835407018661499e-01
-1.346180140972137451e-01 -6.954480409622192383e-01 4.788473248481750488e-03
-1.375728100538253784e-01 -6.221784949302673340e-01 -4.186380282044410706e-02
-1.533498615026473999e-01 -5.737897753715515137e-01 9.162701666355133057e-02
-1.694251298904418945e-01 -5.612523555755615234e-01 3.274131193757057190e-02
-1.810406893491744995e-01 -6.542088389396667480e-01 -1.316971480846405029e-01
-1.664759665727615356e-01 -6.186426877975463867e-01 1.824229210615158081e-01
-1.828307658433914185e-01 -6.464934945106506348e-01 -9.785047173500061035e-02
-1.381845921277999878e-01 -6.937955021858215332e-01 -1.804935932159423828e-01
-1.597359627485275269e-01 -6.281513571739196777e-01 1.881569027900695801e-01
-1.816340237855911255e-01 -6.683171391487121582e-01 -1.329688876867294312e-01
-1.415585875511169434e-01 -6.756811738014221191e-01 1.137825548648834229e-01
-1.465140283107757568e-01 -7.565747499465942383e-01 -2.126471698284149170e-01
-1.404314637184143066e-01 -7.302603721618652344e-01 6.690806150436401367e-02
-1.643106788396835327e-01 -6.675785183906555176e-01 -2.418438345193862915e-01
-1.648582667112350464e-01 -6.560473442077636719e-01 -2.338924556970596313e-01
-1.725836545228958130e-01 -7.158780097961425781e-01 1.522292941808700562e-01
-1.340544223785400391e-01 -6.960562467575073242e-01 -1.572179421782493591e-02
-1.657148003578186035e-01 -7.119171619415283203e-01 -2.455748915672302246e-01
-1.453269273042678833e-01 -7.500295639038085938e-01 8.220140635967254639e-02
-1.335513591766357422e-01 -6.864485144615173340e-01 -5.822809785604476929e-02
-1.414967030286788940e-01 -6.886022686958312988e-01 -2.095422893762588501e-01
-1.748124063014984131e-01 -5.732725262641906738e-01 3.609395399689674377e-02
-1.849967241287231445e-01 -7.100144028663635254e-01 -2.669477835297584534e-02
-1.623654812574386597e-01 -8.005196452140808105e-01 -3.140846267342567444e-03
-1.340034455060958862e-01 -7.007296085357666016e-01 -9.729753434658050537e-02
-1.616873741149902344e-01 -5.800112485885620117e-01 1.357949525117874146e-01
-1.839750856161117554e-01 -7.176098823547363281e-01 2.149027213454246521e-02
-1.841929852962493896e-01 -7.127542495727539062e-01 -6.794029474258422852e-02
-1.787221133708953857e-01 -5.959265232086181641e-01 -5.530884116888046265e-02
-1.811951398849487305e-01 -7.396538257598876953e-01 -9.083253145217895508e-02
-1.435812711715698242e-01 -6.582303047180175781e-01 -2.060543447732925415e-01
-1.468960791826248169e-01 -5.885861515998840332e-01 -1.027292311191558838e-01
-1.423967629671096802e-01 -6.601775884628295898e-01 1.203592419624328613e-01
-1.770796775817871094e-01 -7.104961872100830078e-01 -1.823144108057022095e-01
-1.860365867614746094e-01 -6.588063240051269531e-01 2.090714871883392334e-03
-1.418737024068832397e-01 -6.426044106483459473e-01 1.077655106782913208e-01
-1.394304186105728149e-01 -7.519095540046691895e-01 1.259887963533401489e-02
-1.376923769712448120e-01 -6.516929864883422852e-01 5.961981788277626038e-02
-1.495695412158966064e-01 -5.723865032196044922e-01 4.376387223601341248e-02
-1.460259407758712769e-01 -7.915592193603515625e-01 -4.655182734131813049e-02
-1.798100471496582031e-01 -7.284651994705200195e-01 8.163243532180786133e-02
-1.460810303688049316e-01 -7.009483575820922852e-01 1.390465199947357178e-01
-1.422827839851379395e-01 -6.994529962539672852e-01 -2.171329259872436523e-01
-1.828267276287078857e-01 -6.552485227584838867e-01 1.018576622009277344e-01
-1.376188248395919800e-01 -7.243082523345947266e-01 -1.658291965723037720e-01
-1.745851486921310425e-01 -7.051720619201660156e-01 -2.036310136318206787e-01
-1.838827729225158691e-01 -7.076805233955383301e-01 -8.627311885356903076e-02
-1.430327892303466797e-01 -6.075415611267089844e-01 -1.203357726335525513e-01
-1.759552359580993652e-01 -7.710059285163879395e-01 7.061939686536788940e-03
-1.735429912805557251e-01 -7.656590938568115234e-01 -1.529537886381149292e-01
-1.403748095035552979e-01 -6.796455383300781250e-01 -1.971173286437988281e-01
-1.674823015928268433e-01 -7.275424003601074219e-01 -2.344951927661895752e-01
-1.654644757509231567e-01 -6.012515425682067871e-01 -1.691204905509948730e-01
-1.728142648935317993e-01 -7.268787622451782227e-01 1.390370726585388184e-01
-1.376927196979522705e-01 -6.571297049522399902e-01 -1.493581831455230713e-01
-1.373973190784454346e-01 -7.415611743927001953e-01 -4.578512161970138550e-04
-1.424922347068786621e-01 -7.712584733963012695e-01 -1.517717093229293823e-01
-1.699187606573104858e-01 -7.916247844696044922e-01 -1.005650758743286133e-01
-1.754726916551589966e-01 -6.006578207015991211e-01 1.285748779773712158e-01
-1.344095766544342041e-01 -6.632021069526672363e-01 -7.923259586095809937e-02
-1.632721424102783203e-01 -7.888204455375671387e-01 -1.710849553346633911e-01
-1.732575446367263794e-01 -7.841985225677490234e-01 -2.675073035061359406e-02
-1.752090901136398315e-01 -6.132651567459106445e-01 -1.390564739704132080e-01
-1.759710460901260376e-01 -5.765067934989929199e-01 6.033878773450851440e-03
-1.557715833187103271e-01 -8.059499859809875488e-01 -1.030206829309463501e-01
-1.843348145484924316e-01 -6.266982555389404297e-01 2.310585230588912964e-03
-1.822853237390518188e-01 -7.391432523727416992e-01 -4.493057727813720703e-02
-1.566993147134780884e-01 -5.623557567596435547e-01 6.526370346546173096e-02
-1.641868799924850464e-01 -7.359666824340820312e-01 1.519852280616760254e-01
-1.829898208379745483e-01 -6.291381716728210449e-01 7.807938754558563232e-02
-1.676031798124313354e-01 -6.801372766494750977e-01 -2.373348474502563477e-01
-1.821768134832382202e-01 -6.604126095771789551e-01 -1.209326684474945068e-01
-1.794416308403015137e-01 -6.543528437614440918e-01 -1.501562446355819702e-01
-1.494256705045700073e-01 -7.146038413047790527e-01 -2.489528357982635498e-01
-1.790639311075210571e-01 -5.907284021377563477e-01 -1.816491410136222839e-02
-1.362751275300979614e-01 -6.475296020507812500e-01 2.473147213459014893e-02
-1.482381969690322876e-01 -5.727407932281494141e-01 -2.282663062214851379e-02
-1.572327613830566406e-01 -7.762489914894104004e-01 8.325235545635223389e-02
-1.786395162343978882e-01 -7.471442222595214844e-01 5.467226728796958923e-02
-1.827853173017501831e-01 -6.182669401168823242e-01 -4.027700424194335938e-02
-1.735362112522125244e-01 -7.760990858078002930e-01 2.376810833811759949e-02
-1.776846796274185181e-01 -6.477308273315429688e-01 -1.616553366184234619e-01
-1.428495645523071289e-01 -7.622633576393127441e-01 3.431804850697517395e-02
-1.435205489397048950e-01 -6.206966638565063477e-01 1.036938726902008057e-01
-1.708965748548507690e-01 -6.089056730270385742e-01 1.637766212224960327e-01
-1.699173003435134888e-01 -7.800812721252441406e-01 4.513433948159217834e-02
-1.841607540845870972e-01 -6.257831454277038574e-01 -1.080716587603092194e-02
-1.382707208395004272e-01 -6.209663748741149902e-01 -7.437592744827270508e-02
-1.407395899295806885e-01 -7.590153217315673828e-01 -1.596490889787673950e-01
-1.425326913595199585e-01 -7.279955148696899414e-01 -2.128696441650390625e-01
-1.846247911453247070e-01 -7.029936909675598145e-01 3.800254687666893005e-02
-1.513431221246719360e-01 -7.757855057716369629e-01 -2.036100625991821289e-01
-1.339439600706100464e-01 -7.087666392326354980e-01 -4.183813929557800293e-02
-1.336333751678466797e-01 -6.884105205535888672e-01 -7.513107359409332275e-02
-1.819171011447906494e-01 -6.293907165527343750e-01 9.797830879688262939e-02
-1.762102246284484863e-01 -6.268958449363708496e-01 1.527609527111053467e-01
-1.807445734739303589e-01 -7.509121298789978027e-01 -3.398646414279937744e-02
-1.789988577365875244e-01 -7.593837380409240723e-01 -6.939411163330078125e-03
-1.803510934114456177e-01 -6.953429579734802246e-01 1.178781241178512573e-01
-1.374694257974624634e-01 -7.338727712631225586e-01 1.868670806288719177e-02
-1.588516384363174438e-01 -7.923039197921752930e-01 3.890189900994300842e-02
-1.753630787134170532e-01 -7.666186094284057617e-01 -1.267800927162170410e-01
-1.774630397558212280e-01 -5.877819061279296875e-01 -4.437899589538574219e-02
-1.436125338077545166e-01 -6.399888396263122559e-01 1.225837171077728271e-01
-1.852565705776214600e-01 -6.435417532920837402e-01 3.174925222992897034e-02
-1.365951299667358398e-01 -7.238532304763793945e-01 -1.495053619146347046e-01
-1.690411269664764404e-01 -6.899356245994567871e-01 1.826655417680740356e-01
-1.466638296842575073e-01 -7.864331603050231934e-01 -1.497759670019149780e-01
-1.796823441982269287e-01 -7.472671270370483398e-01 -1.051972806453704834e-01
-1.738797575235366821e-01 -7.794955372810363770e-01 -9.867213666439056396e-02
-1.691987365484237671e-01 -7.435194253921508789e-01 -2.162501513957977295e-01
-1.631903797388076782e-01 -6.321255564689636230e-01 -2.169669717550277710e-01
-1.651923060417175293e-01 -5.775317549705505371e-01 -1.161300539970397949e-01
-1.345235556364059448e-01 -6.719866991043090820e-01 1.115091145038604736e-03
-1.707076728343963623e-01 -7.923203706741333008e-01 -5.762656405568122864e-02
-1.760253608226776123e-01 -7.273898124694824219e-01 -1.821896135807037354e-01
-1.416023969650268555e-01 -7.111124396324157715e-01 -2.119294106960296631e-01
-1.374016255140304565e-01 -6.835448145866394043e-01 -1.676295995712280273e-01
-1.588124185800552368e-01 -5.784525275230407715e-01 -1.266811490058898926e-01
-1.724268496036529541e-01 -6.457366347312927246e-01 1.796167343854904175e-01
-1.496450901031494141e-01 -7.811661958694458008e-01 -1.862280219793319702e-01
-1.814947873353958130e-01 -7.042474746704101562e-01 -1.347522288560867310e-01
-1.769974678754806519e-01 -6.955823302268981934e-01 -1.863046884536743164e-01
-1.452277600765228271e-01 -7.172898650169372559e-01 1.219758391380310059e-01
-1.463285982608795166e-01 -6.728499531745910645e-01 -2.304457575082778931e-01
-1.338716149330139160e-01 -6.874566078186035156e-01 -9.101627767086029053e-02
-1.833337545394897461e-01 -6.253952980041503906e-01 6.216455623507499695e-02
-1.861500442028045654e-01 -6.690127849578857422e-01 7.501021027565002441e-03
-1.371069997549057007e-01 -6.961453557014465332e-01 -1.673830449581146240e-01
-1.836933940649032593e-01 -6.412654519081115723e-01 -7.349031418561935425e-02
-1.346819400787353516e-01 -7.056025862693786621e-01 -2.098137512803077698e-03
-1.712550222873687744e-01 -5.713557004928588867e-01 8.515310287475585938e-02
-1.350577175617218018e-01 -6.700374484062194824e-01 -1.154260635375976562e-01
-1.653553694486618042e-01 -5.629547834396362305e-01 -5.889975279569625854e-02
-1.398080289363861084e-01 -6.292966604232788086e-01 -1.323277950286865234e-01
-1.427189260721206665e-01 -5.926358699798583984e-01 -4.217930138111114502e-02
-1.479636728763580322e-01 -5.983387231826782227e-01 -1.409878879785537720e-01
-1.729837805032730103e-01 -6.434237360954284668e-01 -1.917749494314193726e-01
-1.343110352754592896e-01 -6.631684899330139160e-01 -2.286465466022491455e-02
-1.411410570144653320e-01 -6.942107081413269043e-01 1.049794405698776245e-01
-1.775396168231964111e-01 -6.861742138862609863e-01 1.474582552909851074e-01
-1.739300191402435303e-01 -6.888758540153503418e-01 1.665392518043518066e-01
-1.476539075374603271e-01 -7.848384976387023926e-01 1.500567421317100525e-02
-1.852018386125564575e-01 -7.011564373970031738e-01 1.887908950448036194e-02
-1.834254115819931030e-01 -6.738086342811584473e-01 -1.075952500104904175e-01
-1.619288921356201172e-01 -7.333075404167175293e-01 -2.478278726339340210e-01
-1.852697134017944336e-01 -6.931233406066894531e-01 -5.856194347143173218e-02
-1.853298991918563843e-01 -6.553942561149597168e-01 4.738437756896018982e-02
-1.748169362545013428e-01 -7.798106074333190918e-01 -5.327112972736358643e-02
-1.352122277021408081e-01 -7.248252630233764648e-01 -1.911165937781333923e-02
-1.742246001958847046e-01 -6.042441129684448242e-01 1.425581425428390503e-01
-1.817721724510192871e-01 -6.482546925544738770e-01 1.140213161706924438e-01
-1.476976126432418823e-01 -7.178735733032226562e-01 1.361844688653945923e-01
-1.829021573066711426e-01 -6.966115832328796387e-01 -1.156799644231796265e-01
-1.347057074308395386e-01 -7.258529663085937500e-01 -5.172325670719146729e-02
-1.546058803796768188e-01 -6.603842377662658691e-01 1.861135065555572510e-01
-1.816983520984649658e-01 -7.365804314613342285e-01 2.739217132329940796e-02
-1.582496762275695801e-01 -8.074377775192260742e-01 -7.735539227724075317e-02
-1.861750185489654541e-01 -6.686776876449584961e-01 -9.245218709111213684e-03
-1.475667953491210938e-01 -6.987639665603637695e-01 -2.435038238763809204e-01
-1.382528394460678101e-01 -6.189205050468444824e-01 5.193129181861877441e-04
-1.550906747579574585e-01 -5.624392032623291016e-01 5.239908769726753235e-02
-1.829912066459655762e-01 -6.835722327232360840e-01 9.391416609287261963e-02
-1.518978923559188843e-01 -6.885193586349487305e-01 1.724205315113067627e-01
-1.369631141424179077e-01 -6.326408982276916504e-01 -8.153608441352844238e-02
-1.660489588975906372e-01 -7.025988101959228516e-01 1.807996332645416260e-01
-1.803279966115951538e-01 -6.232122182846069336e-01 1.127083152532577515e-01
-1.422952264547348022e-01 -6.036955118179321289e-01 -9.705041348934173584e-02
-1.823300123214721680e-01 -6.993011832237243652e-01 9.034648537635803223e-02
-1.351640075445175171e-01 -6.592274904251098633e-01 -1.009805351495742798e-01
-1.801349222660064697e-01 -6.075148582458496094e-01 8.901132643222808838e-02
-1.470769047737121582e-01 -7.678444385528564453e-01 5.998544767498970032e-02
-1.345745623111724854e-01 -6.549863815307617188e-01 -4.825691506266593933e-02
-1.357411444187164307e-01 -6.976920366287231445e-01 3.077890723943710327e-02
-1.791857630014419556e-01 -6.437653303146362305e-01 -1.434861570596694946e-01
-1.765339523553848267e-01 -7.249050140380859375e-01 1.190316975116729736e-01
-1.364967525005340576e-01 -7.084981203079223633e-01 -1.572957038879394531e-01
-1.410055756568908691e-01 -6.076915264129638672e-01 3.982746973633766174e-02
-1.356283128261566162e-01 -6.412040591239929199e-01 -5.531461164355278015e-02
-1.356755197048187256e-01 -6.620892882347106934e-01 2.725930884480476379e-02
-1.554111987352371216e-01 -6.536954045295715332e-01 -2.401719391345977783e-01
-1.700481474399566650e-01 -7.615566253662109375e-01 9.518241882324218750e-02
-1.851988434791564941e-01 -6.402000784873962402e-01 -1.470595784485340118e-02
-1.419141888618469238e-01 -7.492386698722839355e-01 5.262817814946174622e-02
-1.654816418886184692e-01 -7.993125915527343750e-01 -1.526484824717044830e-02
-1.797969043254852295e-01 -7.142624258995056152e-01 1.039038300514221191e-01
-1.435396671295166016e-01 -7.796030640602111816e-01 -1.660664193332195282e-02
-1.432413309812545776e-01 -5.894320011138916016e-01 -1.157364249229431152e-02
-1.373309493064880371e-01 -6.336182951927185059e-01 -9.646305441856384277e-02
-1.363366693258285522e-01 -7.157914042472839355e-01 2.579593285918235779e-02
-1.753815710544586182e-01 -5.753499269485473633e-01 -8.086660876870155334e-03
-1.743792444467544556e-01 -6.891453266143798828e-01 -2.057239115238189697e-01
-1.403179764747619629e-01 -6.383576989173889160e-01 8.638447523117065430e-02
-1.403600871562957764e-01 -7.621741890907287598e-01 -2.200268208980560303e-03
-1.406887173652648926e-01 -4.924429357051849365e-01 -1.309008449316024780e-01
-1.957479268312454224e-01 -4.336692988872528076e-01 1.225143820047378540e-01
-2.044384777545928955e-01 -4.276089370250701904e-01 -6.343780457973480225e-02
-1.676754206418991089e-01 -5.450121760368347168e-01 -2.578008919954299927e-03
-1.494541466236114502e-01 -4.055618047714233398e-01 -1.324051022529602051e-01
-1.648426055908203125e-01 -5.450058579444885254e-01 4.686728119850158691e-02
-1.418542116880416870e-01 -4.551604092121124268e-01 -1.416202783584594727e-01
-1.954405903816223145e-01 -4.834369122982025146e-01 2.527159824967384338e-02
-1.340594887733459473e-01 -5.038423538208007812e-01 -9.230338037014007568e-05
-1.927907168865203857e-01 -3.495565056800842285e-01 -6.959147751331329346e-02
-1.633637398481369019e-01 -4.459284543991088867e-01 -2.304007560014724731e-01
-2.026283144950866699e-01 -4.302651286125183105e-01 -1.020551994442939758e-01
-1.822672188282012939e-01 -4.861144423484802246e-01 1.524670571088790894e-01
-1.924062073230743408e-01 -4.307020306587219238e-01 1.447126567363739014e-01
-1.397229284048080444e-01 -4.750695526599884033e-01 -1.293440610170364380e-01
-1.669168919324874878e-01 -4.991011917591094971e-01 -1.955755949020385742e-01
-1.616354137659072876e-01 -4.031214118003845215e-01 -1.992551982402801514e-01
-1.338879317045211792e-01 -5.000381469726562500e-01 1.673053950071334839e-02
-1.652785837650299072e-01 -3.630347847938537598e-01 -1.134639531373977661e-01
-1.427031308412551880e-01 -4.126500785350799561e-01 -5.472606420516967773e-02
-1.420975923538208008e-01 -4.491028487682342529e-01 1.211554706096649170e-01
-1.441625058650970459e-01 -4.432756304740905762e-01 1.307076215744018555e-01
-1.880602836608886719e-01 -4.056684970855712891e-01 -2.082544416189193726e-01
-1.537398397922515869e-01 -5.489368438720703125e-01 3.782076761126518250e-02
-2.007460892200469971e-01 -4.009671211242675781e-01 7.624312490224838257e-02
-1.450065821409225464e-01 -4.215752184391021729e-01 9.909575432538986206e-02
-1.928355842828750610e-01 -4.201165437698364258e-01 -1.927851289510726929e-01
-1.788053065538406372e-01 -3.970774710178375244e-01 -2.172573655843734741e-01
-1.994030922651290894e-01 -4.622704386711120605e-01 -7.964017242193222046e-02
-1.616944819688796997e-01 -3.774464726448059082e-01 -1.462786197662353516e-01
-1.834636330604553223e-01 -4.827280342578887939e-01 -1.802401989698410034e-01
-1.432499587535858154e-01 -4.743638932704925537e-01 1.455504447221755981e-01
-2.010365724563598633e-01 -4.551863074302673340e-01 2.435624599456787109e-02
-1.420527994632720947e-01 -4.226540923118591309e-01 -8.945945650339126587e-02
-1.512759327888488770e-01 -4.319976270198822021e-01 -1.869180351495742798e-01
-1.836649030447006226e-01 -4.662861227989196777e-01 1.690738350152969360e-01
-2.012839615345001221e-01 -4.584248065948486328e-01 -2.707924693822860718e-02
-1.342622637748718262e-01 -4.677609503269195557e-01 2.903640642762184143e-02
-1.900157928466796875e-01 -3.585501909255981445e-01 6.667599827051162720e-02
-1.910150647163391113e-01 -5.003296732902526855e-01 1.250450126826763153e-02
-1.469122916460037231e-01 -4.006684124469757080e-01 -8.148650079965591431e-02
-1.904947906732559204e-01 -3.475000262260437012e-01 3.502806648612022400e-03
-1.729884594678878784e-01 -4.052722454071044922e-01 1.785492151975631714e-01
-1.816590279340744019e-01 -5.229354500770568848e-01 -4.717281460762023926e-02
-1.397657692432403564e-01 -4.484827816486358643e-01 -1.138203293085098267e-01
-2.021288722753524780e-01 -4.248404800891876221e-01 -1.160385608673095703e-01
-1.900772154331207275e-01 -3.830572664737701416e-01 -1.834425181150436401e-01
-1.995754092931747437e-01 -4.676992297172546387e-01 -3.156820312142372131e-02
-1.363285481929779053e-01 -5.181310176849365234e-01 3.261902183294296265e-02
-1.674006581306457520e-01 -3.580572009086608887e-01 -1.021338626742362976e-01
-1.925494521856307983e-01 -3.927704989910125732e-01 1.261360198259353638e-01
-1.839123964309692383e-01 -4.030095040798187256e-01 1.651751399040222168e-01
-1.868326365947723389e-01 -4.693694710731506348e-01 1.511228680610656738e-01
-1.353999376296997070e-01 -4.506080150604248047e-01 -1.176207605749368668e-02
-1.889909356832504272e-01 -4.725208580493927002e-01 -1.683085560798645020e-01
-1.710392385721206665e-01 -3.498048186302185059e-01 7.288383319973945618e-03
-1.381626427173614502e-01 -5.263577103614807129e-01 -2.791628241539001465e-02
-2.037487030029296875e-01 -4.283821284770965576e-01 2.853014320135116577e-02
-1.994005888700485229e-01 -4.584113955497741699e-01 -9.411252290010452271e-02
-1.362166702747344971e-01 -5.194526314735412598e-01 -1.172033604234457016e-02
-1.777538359165191650e-01 -4.675729274749755859e-01 -2.177729755640029907e-01
-1.997472792863845825e-01 -4.647118449211120605e-01 1.439254917204380035e-02
-1.611975878477096558e-01 -4.202873110771179199e-01 -2.159349471330642700e-01
-1.523896157741546631e-01 -4.232287704944610596e-01 1.538929045200347900e-01
-1.366231441497802734e-01 -4.892726838588714600e-01 8.814828097820281982e-02
-1.551588922739028931e-01 -5.501326322555541992e-01 2.227317914366722107e-02
-1.602856069803237915e-01 -5.163425207138061523e-01 -1.669074594974517822e-01
-1.546657234430313110e-01 -3.744719028472900391e-01 -7.158972322940826416e-03
-1.911730319261550903e-01 -4.414231777191162109e-01 1.487158685922622681e-01
-1.988198459148406982e-01 -3.677539527416229248e-01 3.428887575864791870e-02
-1.931897550821304321e-01 -4.435381293296813965e-01 1.355228722095489502e-01
-2.044632434844970703e-01 -3.853516578674316406e-01 -3.182217851281166077e-02
-1.384911835193634033e-01 -4.822312593460083008e-01 -1.165068224072456360e-01
-1.991812437772750854e-01 -4.655544161796569824e-01 2.810424193739891052e-02
-1.461044549942016602e-01 -5.366261005401611328e-01 -7.625737786293029785e-02
-1.925541311502456665e-01 -3.721156120300292969e-01 9.310916811227798462e-02
-1.428819298744201660e-01 -4.262618720531463623e-01 8.729472011327743530e-02
-1.820359528064727783e-01 -5.230380296707153320e-01 -3.483762592077255249e-02
-1.386015415191650391e-01 -4.710587263107299805e-01 -1.177452951669692993e-01
-1.671209335327148438e-01 -3.530176281929016113e-01 -1.046984456479549408e-02
-1.693086475133895874e-01 -5.093480348587036133e-01 1.601504236459732056e-01
-1.393166184425354004e-01 -4.772377908229827881e-01 1.168352216482162476e-01
-1.828037500381469727e-01 -4.783478975296020508e-01 1.605217009782791138e-01
-1.772716194391250610e-01 -5.319643020629882812e-01 1.931414008140563965e-02
-1.789839416742324829e-01 -4.416464269161224365e-01 1.925049722194671631e-01
-1.534946262836456299e-01 -4.092189073562622070e-01 1.361082643270492554e-01
-1.349204480648040771e-01 -5.097113251686096191e-01 -2.353314310312271118e-02
-2.055334597826004028e-01 -4.086257517337799072e-01 -4.283122345805168152e-02
-1.762017458677291870e-01 -3.502532243728637695e-01 4.278466477990150452e-02
-1.974311321973800659e-01 -4.372446537017822266e-01 1.069178804755210876e-01
-1.524394452571868896e-01 -4.133811593055725098e-01 -1.710532605648040771e-01
-1.347838342189788818e-01 -4.982765018939971924e-01 5.191365629434585571e-02
-1.593161076307296753e-01 -3.782097101211547852e-01 -1.326519697904586792e-01
-1.628253459930419922e-01 -3.698252141475677490e-01 7.628740370273590088e-02
-1.365253627300262451e-01 -4.978776574134826660e-01 8.193561434745788574e-02
-1.354261785745620728e-01 -4.780287146568298340e-01 -7.640264928340911865e-02
-1.958325058221817017e-01 -3.855709731578826904e-01 9.914404898881912231e-02
-1.650010496377944946e-01 -3.570255339145660400e-01 -6.630199402570724487e-02
-1.419517397880554199e-01 -4.890163838863372803e-01 -1.426255255937576294e-01
-1.432149112224578857e-01 -5.135657191276550293e-01 -1.224419921636581421e-01
-1.636284738779067993e-01 -4.656093120574951172e-01 -2.266439050436019897e-01
-1.381825655698776245e-01 -4.351254999637603760e-01 -5.172430723905563354e-02
-2.049162089824676514e-01 -4.079423844814300537e-01 1.226196624338626862e-02
-2.001400291919708252e-01 -4.377265274524688721e-01 7.792400568723678589e-02
-1.997358053922653198e-01 -3.802782297134399414e-01 5.882109701633453369e-02
-1.438072919845581055e-01 -5.356961488723754883e-01 6.782202422618865967e-02
-1.864209920167922974e-01 -3.739632368087768555e-01 1.187369525432586670e-01
-1.873295903205871582e-01 -4.948410093784332275e-01 1.006573885679244995e-01
-1.942851245403289795e-01 -3.676788806915283203e-01 7.287427037954330444e-02
-1.521605700254440308e-01 -4.051735103130340576e-01 1.190961152315139771e-01
-1.359553188085556030e-01 -5.031849145889282227e-01 -6.723100692033767700e-02
-1.806877702474594116e-01 -4.625005424022674561e-01 1.823963820934295654e-01
-1.786407977342605591e-01 -3.434188067913055420e-01 -2.769157290458679199e-02
-2.046888172626495361e-01 -4.190117418766021729e-01 1.490721665322780609e-02
-1.600490659475326538e-01 -4.120276868343353271e-01 -2.047022879123687744e-01
-2.017486989498138428e-01 -3.978702127933502197e-01 6.235002726316452026e-02
-1.347903907299041748e-01 -4.576760232448577881e-01 1.415549963712692261e-02
-1.711744070053100586e-01 -5.395568609237670898e-01 -4.482091218233108521e-02
-1.789545565843582153e-01 -3.845083713531494141e-01 -2.028120309114456177e-01
-1.850321590900421143e-01 -5.164923071861267090e-01 1.530617848038673401e-02
-1.614961326122283936e-01 -3.706162571907043457e-01 -1.195751652121543884e-01
-1.538151502609252930e-01 -4.520491659641265869e-01 -2.076904177665710449e-01
-1.957567036151885986e-01 -4.714471995830535889e-01 7.193002104759216309e-02
-1.750493794679641724e-01 -4.587575197219848633e-01 -2.286404222249984741e-01
-1.774203479290008545e-01 -5.232041478157043457e-01 -9.937015920877456665e-02
-1.847649365663528442e-01 -4.987229406833648682e-01 -1.364803314208984375e-01
-1.343556791543960571e-01 -4.625315666198730469e-01 -2.408237010240554810e-02
-1.728054136037826538e-01 -3.469268679618835449e-01 -3.933990746736526489e-02
-1.995937228202819824e-01 -4.301729500293731689e-01 9.020548313856124878e-02
-1.427042782306671143e-01 -4.368117153644561768e-01 1.084791868925094604e-01
-2.021092921495437622e-01 -3.704456686973571777e-01 -3.340546041727066040e-02
-1.461977511644363403e-01 -4.172189235687255859e-01 -1.288025528192520142e-01
-1.413482278585433960e-01 -4.302451014518737793e-01 -1.006893068552017212e-01
-1.711759716272354126e-01 -3.621124029159545898e-01 -1.413362473249435425e-01
-1.720487922430038452e-01 -5.316447019577026367e-01 -9.504834562540054321e-02
-1.814684122800827026e-01 -5.178192853927612305e-01 7.132926583290100098e-02
-1.552860289812088013e-01 -4.761134088039398193e-01 -2.077168524265289307e-01
-1.849915534257888794e-01 -5.073317885398864746e-01 -1.033198460936546326e-01
-1.557613909244537354e-01 -3.718812763690948486e-01 -3.209759667515754700e-02
-1.799278408288955688e-01 -5.247628092765808105e-01 -6.216723844408988953e-02
-1.407528072595596313e-01 -5.260774493217468262e-01 7.606650888919830322e-02
-2.029738277196884155e-01 -3.887836337089538574e-01 -9.711825102567672729e-02
-1.987701207399368286e-01 -4.347085654735565186e-01 -1.454788297414779663e-01
-1.396865844726562500e-01 -4.244773387908935547e-01 -3.472865372896194458e-02
-1.358563303947448730e-01 -4.493040144443511963e-01 -3.712785243988037109e-02
-1.592792719602584839e-01 -3.814314901828765869e-01 9.799983352422714233e-02
-2.005773484706878662e-01 -4.588450193405151367e-01 -6.456667184829711914e-02
-1.672858744859695435e-01 -3.790154159069061279e-01 1.261070370674133301e-01
-1.888652145862579346e-01 -3.450464010238647461e-01 -5.730022117495536804e-02
-1.622710376977920532e-01 -3.872216939926147461e-01 -1.744610220193862915e-01
-1.708613932132720947e-01 -5.267945528030395508e-01 -1.220999881625175476e-01
-1.425918787717819214e-01 -5.079600811004638672e-01 1.258562058210372925e-01
-1.383076161146163940e-01 -4.671376347541809082e-01 1.021225526928901672e-01
-1.392062753438949585e-01 -5.142070651054382324e-01 -8.845003694295883179e-02
-1.925122290849685669e-01 -4.724997282028198242e-01 -1.422785818576812744e-01
-1.748356968164443970e-01 -3.500635027885437012e-01 -9.812811762094497681e-02
-2.034360766410827637e-01 -4.106861352920532227e-01 -1.040435284376144409e-01
-1.972903758287429810e-01 -3.811249434947967529e-01 -1.458315849304199219e-01
-1.512453109025955200e-01 -3.852642178535461426e-01 -6.798221170902252197e-02
-1.471909731626510620e-01 -4.615232050418853760e-01 -1.802479028701782227e-01
-1.973934769630432129e-01 -3.605407178401947021e-01 -8.973555266857147217e-02
-1.960785239934921265e-01 -4.576656520366668701e-01 -1.393755078315734863e-01
-1.800246238708496094e-01 -3.448334336280822754e-01 9.182875975966453552e-03
-1.871365010738372803e-01 -4.314741790294647217e-01 -2.137294709682464600e-01
-2.007721811532974243e-01 -4.335069358348846436e-01 -1.249153837561607361e-01
-1.498367935419082642e-01 -5.444029569625854492e-01 -5.643747001886367798e-02
-1.942968517541885376e-01 -4.166226983070373535e-01 1.330552101135253906e-01
-1.582550406455993652e-01 -3.757528066635131836e-01 6.730516254901885986e-02
-2.034844756126403809e-01 -3.806192874908447266e-01 -6.339259445667266846e-02
-2.031463682651519775e-01 -4.456656873226165771e-01 -2.724426053464412689e-02
-1.995876133441925049e-01 -4.024367928504943848e-01 -1.475824117660522461e-01
-1.476647704839706421e-01 -4.658972620964050293e-01 1.670242995023727417e-01
-1.986842453479766846e-01 -4.105143547058105469e-01 -1.567987203598022461e-01
-1.896503418684005737e-01 -3.689917027950286865e-01 -1.617222279310226440e-01
-1.374711394309997559e-01 -4.542722702026367188e-01 -8.984329551458358765e-02
-1.449586451053619385e-01 -5.247964859008789062e-01 -1.088359802961349487e-01
-1.341030895709991455e-01 -4.986524283885955811e-01 3.181742131710052490e-02
-1.349190473556518555e-01 -4.946921765804290771e-01 -6.021414324641227722e-02
-1.965753436088562012e-01 -3.671120703220367432e-01 5.477149784564971924e-02
-1.895611584186553955e-01 -4.590795040130615234e-01 1.462897062301635742e-01
-1.472544819116592407e-01 -4.873979687690734863e-01 -1.736805886030197144e-01
-2.014186680316925049e-01 -3.742398619651794434e-01 2.004104852676391602e-02
-1.552037596702575684e-01 -4.918318688869476318e-01 1.837442070245742798e-01
-1.354894936084747314e-01 -5.158129930496215820e-01 2.323234453797340393e-03
-1.554237157106399536e-01 -4.213242232799530029e-01 -1.965829581022262573e-01
-1.405266225337982178e-01 -4.198749363422393799e-01 1.986747607588768005e-03
-1.898153871297836304e-01 -4.849753081798553467e-01 -1.351277530193328857e-01
-1.403296291828155518e-01 -4.392903149127960205e-01 -1.063313707709312439e-01
-1.922041922807693481e-01 -4.169605672359466553e-01 1.445085555315017700e-01
-2.019164711236953735e-01 -4.543322920799255371e-01 -1.401161123067140579e-02
-1.487664580345153809e-01 -3.907340168952941895e-01 -5.117969214916229248e-02
-1.645746380090713501e-01 -5.354384183883666992e-01 1.035633757710456848e-01
-1.356052756309509277e-01 -5.095681548118591309e-01 4.785098880529403687e-02
-1.434964984655380249e-01 -4.529582858085632324e-01 1.361814588308334351e-01
-1.990409344434738159e-01 -4.237504899501800537e-01 -1.509579569101333618e-01
-1.660029739141464233e-01 -4.699709713459014893e-01 2.021091729402542114e-01
-1.445420533418655396e-01 -4.494447708129882812e-01 -1.591520309448242188e-01
-2.011786252260208130e-01 -4.457457661628723145e-01 5.009864270687103271e-02
-1.374973952770233154e-01 -4.966922104358673096e-01 -9.701151400804519653e-02
-1.988636404275894165e-01 -4.616034030914306641e-01 5.112926661968231201e-02
-1.983399540185928345e-01 -4.676208198070526123e-01 3.967738151550292969e-02
-1.334670931100845337e-01 -4.785561859607696533e-01 -1.673230901360511780e-02
-1.731321066617965698e-01 -5.054776668548583984e-01 -1.740562468767166138e-01
-1.827906668186187744e-01 -4.943664073944091797e-01 1.351898014545440674e-01
-1.868549585342407227e-01 -5.127591490745544434e-01 -1.331363338977098465e-02
-1.987137347459793091e-01 -4.406027197837829590e-01 9.157068282365798950e-02
-1.359648108482360840e-01 -4.620580375194549561e-01 6.294369697570800781e-02
-1.519390940666198730e-01 -3.931227922439575195e-01 -1.191541850566864014e-01
-2.036756873130798340e-01 -4.082256257534027100e-01 4.077050089836120605e-02
-1.750317364931106567e-01 -4.197809994220733643e-01 1.906211823225021362e-01
-1.821568906307220459e-01 -3.555721640586853027e-01 7.414309680461883545e-02
-1.456771045923233032e-01 -4.740772843360900879e-01 -1.716106384992599487e-01
-1.979440599679946899e-01 -3.735707402229309082e-01 -1.271238327026367188e-01
-1.870303750038146973e-01 -4.763905107975006104e-01 1.409613937139511108e-01
-1.897787004709243774e-01 -4.356732070446014404e-01 1.574778109788894653e-01
-1.588397473096847534e-01 -5.049000978469848633e-01 1.755032390356063843e-01
-1.915701478719711304e-01 -4.940489530563354492e-01 -7.903104275465011597e-02
-1.428284794092178345e-01 -4.809481501579284668e-01 -1.525153219699859619e-01
-1.793921887874603271e-01 -4.135938882827758789e-01 1.818654239177703857e-01
-1.526898145675659180e-01 -3.821506500244140625e-01 3.235749155282974243e-02
-1.796264797449111938e-01 -4.740497767925262451e-01 -2.065432220697402954e-01
-2.014176100492477417e-01 -4.494361877441406250e-01 3.563502803444862366e-02
-1.561340689659118652e-01 -4.002941846847534180e-01 -1.700158864259719849e-01
-1.486477106809616089e-01 -3.898039162158966064e-01 -1.480684056878089905e-02
-1.365289688110351562e-01 -4.832389652729034424e-01 -9.326601773500442505e-02
-1.370947211980819702e-01 -5.135246515274047852e-01 6.553664058446884155e-02
-1.442386806011199951e-01 -4.335018396377563477e-01 -1.400437057018280029e-01
-1.347852945327758789e-01 -4.724264740943908691e-01 -6.051431596279144287e-02
-1.985294520854949951e-01 -3.980988562107086182e-01 9.432227164506912231e-02
-1.341678202152252197e-01 -4.763878285884857178e-01 -4.717611521482467651e-02
-1.965746283531188965e-01 -3.785117268562316895e-01 8.243015408515930176e-02
-2.037473022937774658e-01 -3.852021992206573486e-01 7.109679281711578369e-03
-1.389683783054351807e-01 -4.391863048076629639e-01 6.583932787179946899e-02
-1.991732865571975708e-01 -3.906217515468597412e-01 8.098124712705612183e-02
-1.489894092082977295e-01 -4.240793287754058838e-01 -1.644467711448669434e-01
-1.462536305189132690e-01 -4.075768589973449707e-01 6.999509036540985107e-02
-1.971184760332107544e-01 -4.608390629291534424e-01 -1.212773695588111877e-01
-1.552577316761016846e-01 -3.859026134014129639e-01 -1.261776536703109741e-01
-1.813380271196365356e-01 -5.132178068161010742e-01 9.318806976079940796e-02
-1.391428858041763306e-01 -4.412367343902587891e-01 -9.278833866119384766e-02
-1.970385909080505371e-01 -4.212237894535064697e-01 1.153320819139480591e-01
-1.494966447353363037e-01 -3.983769416809082031e-01 7.471503317356109619e-02
-1.523233056068420410e-01 -5.499220490455627441e-01 -1.119202934205532074e-03
-1.461029648780822754e-01 -4.954421818256378174e-01 -1.619398742914199829e-01
-1.388345658779144287e-01 -5.178535580635070801e-01 -7.534538209438323975e-02
-2.032241821289062500e-01 -3.926422894001007080e-01 3.489370644092559814e-02
-1.559405624866485596e-01 -5.219632387161254883e-01 -1.514202952384948730e-01
-1.977993100881576538e-01 -3.899127840995788574e-01 -1.529881358146667480e-01
-1.398883610963821411e-01 -4.312385916709899902e-01 -7.869186997413635254e-02
-1.351427286863327026e-01 -4.598800539970397949e-01 -4.994127154350280762e-02
-1.708288341760635376e-01 -4.349341094493865967e-01 2.002679705619812012e-01
-1.955452263355255127e-01 -4.801503717899322510e-01 -7.818686217069625854e-02
-1.375999450683593750e-01 -4.406679272651672363e-01 4.142731428146362305e-02
-1.477788984775543213e-01 -4.107498824596405029e-01 9.799034893512725830e-02
-1.534872353076934814e-01 -5.314686298370361328e-01 -1.228072196245193481e-01
-1.534526795148849487e-01 -3.973778188228607178e-01 -1.456916779279708862e-01
-1.707174181938171387e-01 -4.163246452808380127e-01 -2.298613488674163818e-01
-1.968472599983215332e-01 -4.804650545120239258e-01 -1.770631037652492523e-02
-1.429253071546554565e-01 -4.095253348350524902e-01 -1.411107368767261505e-03
-1.850316971540451050e-01 -4.544032514095306396e-01 -2.089248448610305786e-01
-2.002358585596084595e-01 -4.643755555152893066e-01 -1.438487134873867035e-02
-1.989306211471557617e-01 -3.595997691154479980e-01 -2.267351746559143066e-02
-1.358770430088043213e-01 -4.495384991168975830e-01 2.466474100947380066e-02
-1.727664470672607422e-01 -3.476813435554504395e-01 -5.869215726852416992e-02
-1.890225708484649658e-01 -3.474501371383666992e-01 -8.349291235208511353e-02
-1.437874436378479004e-01 -4.128439426422119141e-01 5.345505475997924805e-02
-1.868200898170471191e-01 -3.979070484638214111e-01 1.529023200273513794e-01
-1.576942801475524902e-01 -5.411822795867919922e-01 9.149898588657379150e-02
-1.854434460401535034e-01 -4.558160305023193359e-01 1.691056787967681885e-01
-1.953643560409545898e-01 -4.465406239032745361e-01 1.174186021089553833e-01
-1.581089496612548828e-01 -3.703305125236511230e-01 3.204373270273208618e-02
-1.769014149904251099e-01 -5.239195823669433594e-01 8.600113540887832642e-02
-1.498212218284606934e-01 -4.505017995834350586e-01 1.696367561817169189e-01
-1.943729966878890991e-01 -4.802896976470947266e-01 -9.839261323213577271e-02
-1.696124076843261719e-01 -5.335717797279357910e-01 9.107594192028045654e-02
-1.782042235136032104e-01 -5.308921933174133301e-01 5.672650411725044250e-03
-1.973713338375091553e-01 -4.779235422611236572e-01 -4.237064160406589508e-03
-2.006284594535827637e-01 -4.612650275230407715e-01 1.139255240559577942e-03
-1.401814818382263184e-01 -5.257217884063720703e-01 -6.646281480789184570e-02
-1.428832709789276123e-01 -4.697817862033843994e-01 -1.546125411987304688e-01
-1.378103643655776978e-01 -4.652397930622100830e-01 -1.060040816664695740e-01
-1.343214064836502075e-01 -4.925598800182342529e-01 -4.866198822855949402e-02
-1.890110075473785400e-01 -4.846857786178588867e-01 1.117795854806900024e-01
-1.680504679679870605e-01 -5.436479449272155762e-01 -3.371114283800125122e-02
-1.469001024961471558e-01 -3.995636403560638428e-01 4.078211262822151184e-02
-1.893122643232345581e-01 -5.020421743392944336e-01 4.499579966068267822e-02
-1.335272192955017090e-01 -4.745053052902221680e-01 -6.615067832171916962e-03
-1.374927461147308350e-01 -4.445834457874298096e-01 5.307082831859588623e-02
-1.333145797252655029e-01 -4.856995344161987305e-01 -2.256706357002258301e-03
-1.611206233501434326e-01 -5.357628464698791504e-01 -1.127082332968711853e-01
-1.883644759654998779e-01 -4.152527153491973877e-01 1.604153215885162354e-01
-1.601197719573974609e-01 -3.640488088130950928e-01 2.897422760725021362e-03
-1.376552879810333252e-01 -5.227985978126525879e-01 -3.806876391172409058e-02
-1.600478440523147583e-01 -3.773197531700134277e-01 8.824806660413742065e-02
-1.524997204542160034e-01 -4.192025661468505859e-01 -1.797302514314651489e-01
-1.592214703559875488e-01 -5.208525657653808594e-01 1.506458967924118042e-01
-1.779180765151977539e-01 -4.546051025390625000e-01 1.930422931909561157e-01
-1.992975771427154541e-01 -3.616716861724853516e-01 -6.233983114361763000e-02
-1.440961211919784546e-01 -5.298873186111450195e-01 -8.829741179943084717e-02
-1.371627151966094971e-01 -4.554282724857330322e-01 7.280382513999938965e-02
-1.983879059553146362e-01 -3.619622588157653809e-01 1.350329071283340454e-02
-2.038576006889343262e-01 -4.012938141822814941e-01 -9.500748664140701294e-02
-1.594476252794265747e-01 -5.468875169754028320e-01 5.565979331731796265e-02
-1.409217566251754761e-01 -5.352460741996765137e-01 -2.201528474688529968e-02
-1.853568255901336670e-01 -5.141975879669189453e-01 3.414323180913925171e-02
-1.499618142843246460e-01 -3.913213908672332764e-01 4.671169072389602661e-02
-1.529176384210586548e-01 -4.380898475646972656e-01 1.728846728801727295e-01
-1.348457336425781250e-01 -4.821351766586303711e-01 -6.571599841117858887e-02
-1.476986259222030640e-01 -4.457229971885681152e-01 -1.773585528135299683e-01
-1.815114021301269531e-01 -5.119636058807373047e-01 -1.159600391983985901e-01
-1.667613238096237183e-01 -3.583364486694335938e-01 4.329477995634078979e-02
-1.444870829582214355e-01 -4.345642924308776855e-01 1.207117438316345215e-01
-1.461738497018814087e-01 -5.444451570510864258e-01 -2.231516502797603607e-02
-1.567266136407852173e-01 -5.045635700225830078e-01 -1.838099062442779541e-01
-1.894485205411911011e-01 -4.962364137172698975e-01 -1.004303246736526489e-01
-1.497762799263000488e-01 -3.869618773460388184e-01 -3.821241110563278198e-02
-1.935216039419174194e-01 -4.672980904579162598e-01 1.065632626414299011e-01
-1.945037841796875000e-01 -4.418341815471649170e-01 -1.730152219533920288e-01
-1.947579234838485718e-01 -3.509361743927001953e-01 -4.887015372514724731e-02
-1.544721275568008423e-01 -5.493229627609252930e-01 -3.053955361247062683e-02
-1.732525080442428589e-01 -3.622926473617553711e-01 9.129872918128967285e-02
-1.842834949493408203e-01 -5.133625268936157227e-01 -8.033214509487152100e-02
-1.952698975801467896e-01 -4.856767654418945312e-01 1.028712652623653412e-02
-2.029600143432617188e-01 -4.454719424247741699e-01 -4.904400557279586792e-02
-1.942263990640640259e-01 -3.590010404586791992e-01 4.444969072937965393e-02
-1.697091162204742432e-01 -3.613072633743286133e-01 7.626064121723175049e-02
-2.043983787298202515e-01 -4.079149961471557617e-01 2.601457759737968445e-02
-1.381273567676544189e-01 -4.328549802303314209e-01 1.244765147566795349e-02
-1.335932612419128418e-01 -4.852620363235473633e-01 -2.902881242334842682e-02
-1.787085831165313721e-01 -5.298614501953125000e-01 -2.346691302955150604e-02
-1.766854673624038696e-01 -3.919760882854461670e-01 1.614683866500854492e-01
-1.968659609556198120e-01 -4.333938360214233398e-01 -1.629388332366943359e-01
-1.472133100032806396e-01 -4.229611456394195557e-01 1.217348575592041016e-01
-1.696092933416366577e-01 -5.427156686782836914e-01 -2.134106308221817017e-02
-2.036709934473037720e-01 -3.890963196754455566e-01 -8.434180915355682373e-02
-1.906828135251998901e-01 -4.505819380283355713e-01 -1.877360194921493530e-01
-2.041002959012985229e-01 -4.370420873165130615e-01 -1.881557330489158630e-02
-1.948788762092590332e-01 -4.823128581047058105e-01 4.605308920145034790e-02
-1.458237618207931519e-01 -4.559510052204132080e-01 -1.710775345563888550e-01
-1.391781866550445557e-01 -4.310891330242156982e-01 -6.158575043082237244e-02
-1.761471331119537354e-01 -3.655005395412445068e-01 -1.641539335250854492e-01
-1.827038675546646118e-01 -5.040193200111389160e-01 1.125977784395217896e-01
-2.037727385759353638e-01 -4.212615191936492920e-01 -9.186409413814544678e-02
-1.763427257537841797e-01 -5.300206542015075684e-01 5.674863606691360474e-02
-1.559280008077621460e-01 -3.763203620910644531e-01 -8.880292624235153198e-02
-1.690949648618698120e-01 -5.384538769721984863e-01 -7.383868098258972168e-02
-1.624840050935745239e-01 -4.809507131576538086e-01 1.971471458673477173e-01
-1.821957528591156006e-01 -3.433161377906799316e-01 -8.375331759452819824e-03
-1.455979496240615845e-01 -4.518032670021057129e-01 1.490134000778198242e-01
-1.841056346893310547e-01 -5.115658044815063477e-01 -9.279053658246994019e-02
-2.045256197452545166e-01 -4.033628106117248535e-01 -8.187124133110046387e-02
-1.949878334999084473e-01 -4.539226591587066650e-01 -1.553574949502944946e-01
-1.875777244567871094e-01 -4.650236964225769043e-01 -1.873759329319000244e-01
-1.857692599296569824e-01 -4.283378124237060547e-01 1.734250634908676147e-01
-1.380275189876556396e-01 -4.989650845527648926e-01 9.863033145666122437e-02
-1.570739448070526123e-01 -5.448495149612426758e-01 -7.132686674594879150e-02
-1.482300758361816406e-01 -3.994499146938323975e-01 6.287990510463714600e-02
-2.044463008642196655e-01 -4.324101507663726807e-01 -4.289099574089050293e-02
-1.641452014446258545e-01 -3.775862455368041992e-01 1.112007349729537964e-01
-1.721721142530441284e-01 -4.572567939758300781e-01 2.016580998897552490e-01
-1.379042267799377441e-01 -4.575821459293365479e-01 8.721796423196792603e-02
-1.603273302316665649e-01 -5.427798032760620117e-01 -8.121325820684432983e-02
-2.044191658496856689e-01 -3.915604948997497559e-01 -7.022930681705474854e-02
-1.748605817556381226e-01 -5.001677870750427246e-01 1.604088991880416870e-01
-1.372756063938140869e-01 -4.467795789241790771e-01 -7.115888595581054688e-02
-1.368213593959808350e-01 -5.128431916236877441e-01 -6.030114367604255676e-02
-1.379716545343399048e-01 -4.784812331199645996e-01 1.039585545659065247e-01
-1.732443720102310181e-01 -5.118108391761779785e-01 -1.592143625020980835e-01
-2.003675848245620728e-01 -4.491289556026458740e-01 -1.035015285015106201e-01
-1.408440470695495605e-01 -4.244979321956634521e-01 4.886095225811004639e-02
-1.430304646492004395e-01 -4.324764609336853027e-01 -1.263873279094696045e-01
-1.479066908359527588e-01 -4.058066606521606445e-01 -1.167689040303230286e-01
-1.434289515018463135e-01 -4.927074313163757324e-01 1.433765739202499390e-01
-1.871998459100723267e-01 -4.404719769954681396e-01 1.679270416498184204e-01
-1.442582458257675171e-01 -5.408619642257690430e-01 3.959907218813896179e-02
-1.521481275558471680e-01 -3.976935148239135742e-01 9.858495742082595825e-02
-2.008149176836013794e-01 -4.159714877605438232e-01 -1.368710845708847046e-01
-1.462039649486541748e-01 -5.030713081359863281e-01 -1.542953848838806152e-01
-1.686496138572692871e-01 -5.379627943038940430e-01 7.381200790405273438e-02
-1.601933687925338745e-01 -4.062791168689727783e-01 1.596454530954360962e-01
-1.900219172239303589e-01 -5.039771795272827148e-01 -8.629066869616508484e-04
-2.055847793817520142e-01 -4.068757891654968262e-01 -2.608066610991954803e-02
-1.947715580463409424e-01 -3.984822034835815430e-01 -1.780120432376861572e-01
-1.437768489122390747e-01 -5.361453890800476074e-01 -5.969379842281341553e-02
-1.842403113842010498e-01 -5.151446461677551270e-01 -6.883298605680465698e-02
-2.014100551605224609e-01 -4.520108997821807861e-01 -7.291848957538604736e-02
-1.523447632789611816e-01 -4.782346785068511963e-01 1.836546361446380615e-01
-1.988545060157775879e-01 -4.551185965538024902e-01 -1.120767295360565186e-01
-1.841417849063873291e-01 -4.490824341773986816e-01 1.771634221076965332e-01
-2.002073824405670166e-01 -4.111691713333129883e-01 8.674683421850204468e-02
-2.048682421445846558e-01 -3.924076855182647705e-01 -5.486739426851272583e-02
-2.028810679912567139e-01 -4.010734260082244873e-01 4.986635595560073853e-02
-1.684315800666809082e-01 -4.760878384113311768e-01 -2.214047610759735107e-01
-1.827493011951446533e-01 -3.764422237873077393e-01 -1.886554211378097534e-01
-1.478319466114044189e-01 -3.927130401134490967e-01 1.327831298112869263e-03
-1.680969446897506714e-01 -5.414465069770812988e-01 -5.811584368348121643e-02
-1.950693130493164062e-01 -4.021258950233459473e-01 1.214464157819747925e-01
-1.865640729665756226e-01 -5.019112825393676758e-01 8.501568436622619629e-02
-1.636283397674560547e-01 -4.355326592922210693e-01 -2.292086631059646606e-01
-1.334830075502395630e-01 -4.828396141529083252e-01 1.858260110020637512e-02
-1.339559108018875122e-01 -4.927525222301483154e-01 -3.744653612375259399e-02
-1.560036391019821167e-01 -4.253038763999938965e-01 1.713744550943374634e-01
-2.032126784324645996e-01 -3.766106367111206055e-01 -2.147707156836986542e-02
-1.375215947628021240e-01 -4.389917552471160889e-01 3.100185096263885498e-02
-1.809890419244766235e-01 -5.258902311325073242e-01 -1.007161661982536316e-02
-1.391040831804275513e-01 -5.243774056434631348e-01 6.192210316658020020e-02
-1.961506009101867676e-01 -4.653819203376770020e-01 8.211922645568847656e-02
