-1.503351032733917236e-01 -2.241023778915405273e-01 -4.969087988138198853e-02
-4.301714897155761719e-01 -1.244617439806461334e-02 1.479482352733612061e-01
-9.121163189411163330e-02 -2.271286100149154663e-01 1.738291233777999878e-02
-3.243747055530548096e-01 -4.909353703260421753e-02 3.235230147838592529e-01
-3.264610469341278076e-01 -5.474076420068740845e-02 -2.912777662277221680e-01
4.166524708271026611e-01 2.369284629821777344e-05 2.063380181789398193e-01
-2.811937928199768066e-01 1.065694540739059448e-01 1.390933692455291748e-01
-5.279808863997459412e-02 -1.750994175672531128e-01 2.721952497959136963e-01
-2.418547868728637695e-02 1.373135447502136230e-01 -9.038142859935760498e-02
-2.126753032207489014e-01 -1.883785426616668701e-01 -2.475740909576416016e-01
-3.393518626689910889e-01 8.308149874210357666e-02 3.629084676504135132e-02
-2.608158290386199951e-01 1.009080260992050171e-01 2.309292852878570557e-01
2.512772567570209503e-02 5.590073764324188232e-03 -3.947005569934844971e-01
-8.267261832952499390e-02 -1.310063302516937256e-01 3.608591258525848389e-01
2.469623088836669922e-01 -4.384139925241470337e-02 3.876248002052307129e-01
3.579266965389251709e-01 8.845736086368560791e-02 2.550651319324970245e-02
-2.276518046855926514e-01 -2.099306136369705200e-01 -6.126782298088073730e-02
6.905788183212280273e-02 -7.096295803785324097e-02 -4.288984835147857666e-01
-1.074630171060562134e-01 1.173465251922607422e-01 -1.494032293558120728e-01
6.589587032794952393e-02 1.509928852319717407e-01 1.856485903263092041e-01
-5.236767977476119995e-02 1.486049145460128784e-01 1.944693326950073242e-01
2.997255325317382812e-01 1.133332401514053345e-01 4.347853362560272217e-02
2.505414187908172607e-01 1.204165965318679810e-01 -3.492210060358047485e-02
-1.775273680686950684e-01 -4.230021685361862183e-02 4.238182008266448975e-01
-1.725646257400512695e-01 -2.196451574563980103e-01 -1.169591955840587616e-02
9.992317110300064087e-02 1.432665735483169556e-01 2.304085344076156616e-01
1.180239766836166382e-01 1.254865974187850952e-01 3.036694526672363281e-01
-2.061761170625686646e-01 -7.932183146476745605e-02 3.857274353504180908e-01
-1.536462306976318359e-01 5.178661644458770752e-02 4.151951074600219727e-01
-2.614971995353698730e-01 2.834869176149368286e-02 -2.731265425682067871e-01
-2.290803790092468262e-01 -1.299805939197540283e-03 -3.335933089256286621e-01
-1.407065242528915405e-01 1.402885764837265015e-01 1.718780696392059326e-01
3.840328752994537354e-02 -1.447730660438537598e-01 3.404526710510253906e-01
-1.652634888887405396e-01 -7.615184411406517029e-03 -3.717744052410125732e-01
4.038912951946258545e-01 -1.264448761940002441e-01 -4.323578625917434692e-02
5.897237733006477356e-02 -2.289640456438064575e-01 -1.274959295988082886e-01
-1.163912415504455566e-01 -7.200936973094940186e-02 4.253094196319580078e-01
-4.082618951797485352e-01 9.720787405967712402e-03 -1.021312177181243896e-01
2.972854375839233398e-01 -1.189516112208366394e-01 -2.994272410869598389e-01
1.920876502990722656e-01 9.453271329402923584e-02 3.464165031909942627e-01
3.397713229060173035e-02 -1.656651496887207031e-03 4.669589400291442871e-01
4.133794307708740234e-01 -1.034103482961654663e-01 9.878640621900558472e-02
-4.086362943053245544e-02 -2.276598662137985229e-01 3.899650275707244873e-02
1.964939683675765991e-01 1.113360077142715454e-01 3.017891645431518555e-01
-2.489977777004241943e-01 9.972575306892395020e-02 -9.593935310840606689e-02
8.647915907204151154e-03 -2.308655828237533569e-01 1.949193887412548065e-03
1.623798757791519165e-01 -3.040636703372001648e-02 -3.958156704902648926e-01
-1.781325601041316986e-02 7.651784271001815796e-02 -2.883625030517578125e-01
-1.689194887876510620e-01 -1.722346693277359009e-01 -3.199953734874725342e-01
1.582658141851425171e-01 1.413072943687438965e-01 1.937487572431564331e-01
4.332332015037536621e-01 2.370631322264671326e-02 1.252114623785018921e-01
-3.794740140438079834e-01 -1.503520011901855469e-01 -3.783508390188217163e-02
2.729036211967468262e-01 -1.822317689657211304e-01 7.653304934501647949e-02
3.983010649681091309e-01 5.741774290800094604e-02 1.461810469627380371e-01
-2.538416087627410889e-01 -1.360208541154861450e-02 3.899194598197937012e-01
3.797328174114227295e-01 -7.543094456195831299e-03 2.731044888496398926e-01
3.952025473117828369e-01 -2.464080974459648132e-02 -2.088394314050674438e-01
-4.285147190093994141e-01 -9.783491492271423340e-02 -8.263854682445526123e-02
-1.475586593151092529e-01 1.132179796695709229e-01 -1.415847986936569214e-01
-4.020643979310989380e-02 -1.315908730030059814e-01 -4.097383320331573486e-01
-2.165281772613525391e-01 -1.037532985210418701e-01 -3.701587915420532227e-01
-2.511526942253112793e-01 8.958679437637329102e-02 -1.350378245115280151e-01
-3.796251118183135986e-01 5.372794717550277710e-02 -2.589344792068004608e-02
-3.414422571659088135e-01 -1.558256335556507111e-02 3.127996325492858887e-01
2.083946317434310913e-01 -4.645490273833274841e-02 -3.832826912403106689e-01
2.941974401473999023e-01 -8.349527418613433838e-02 -3.279282152652740479e-01
2.042101919651031494e-01 -1.314987838268280029e-01 3.086755275726318359e-01
3.460803627967834473e-01 -6.339438259601593018e-03 -2.592942714691162109e-01
2.578682303428649902e-01 -1.940011531114578247e-01 1.318517513573169708e-02
-4.398871660232543945e-01 -2.235493063926696777e-02 -6.187319755554199219e-02
3.125839531421661377e-01 9.514714777469635010e-02 -7.088932394981384277e-02
-2.657490074634552002e-01 -2.065092884004116058e-02 -3.261583447456359863e-01
-2.487770318984985352e-01 -5.621840804815292358e-02 3.797064721584320068e-01
-3.609741032123565674e-01 -8.056873083114624023e-02 2.560641467571258545e-01
-2.756665945053100586e-01 -1.859318017959594727e-01 -1.730687618255615234e-01
-3.486911058425903320e-01 -1.630680114030838013e-01 -1.105368286371231079e-01
3.325775265693664551e-01 -1.154452040791511536e-01 -2.638841271400451660e-01
-2.042274028062820435e-01 -1.222967132925987244e-01 3.325314819812774658e-01
3.476649820804595947e-01 8.975043892860412598e-02 1.514575630426406860e-01
3.283492326736450195e-01 -6.280033290386199951e-02 3.091591894626617432e-01
-2.600482404232025146e-01 -1.391180753707885742e-01 2.639659047126770020e-01
1.765751689672470093e-01 -2.140290737152099609e-01 -1.220480799674987793e-01
2.962610125541687012e-01 -1.827314645051956177e-01 -7.550554350018501282e-03
-3.893466591835021973e-01 -9.879976511001586914e-02 1.840347498655319214e-01
1.103655695915222168e-01 1.414586454629898071e-01 -4.813907295465469360e-02
-3.960016742348670959e-02 1.355393081903457642e-01 2.808646261692047119e-01
2.953051924705505371e-01 -1.831851154565811157e-01 -8.497725427150726318e-02
-3.947533369064331055e-01 4.965513199567794800e-02 7.309880107641220093e-02
2.048181742429733276e-01 1.388756185770034790e-01 1.112341731786727905e-01
-2.035840302705764771e-01 9.418277442455291748e-02 -1.672820001840591431e-01
4.480271041393280029e-01 -5.374451726675033569e-02 -8.654503524303436279e-02
-2.874370813369750977e-01 3.036447614431381226e-02 3.464877009391784668e-01
4.284767508506774902e-01 -1.041455566883087158e-01 -2.967202104628086090e-02
3.246850371360778809e-01 9.333025664091110229e-03 3.352017402648925781e-01
-1.829625517129898071e-01 -1.564925462007522583e-01 2.764986753463745117e-01
5.702964961528778076e-02 8.320747315883636475e-02 4.118108749389648438e-01
-6.965058390051126480e-03 -1.892818361520767212e-01 2.334013134241104126e-01
7.642348855733871460e-02 1.539032161235809326e-01 1.293761879205703735e-01
2.543502151966094971e-01 -1.695745438337326050e-01 1.667241305112838745e-01
-3.096036016941070557e-01 8.675059676170349121e-02 -5.003792792558670044e-02
-3.215007483959197998e-01 -1.770775914192199707e-01 2.789247408509254456e-02
-1.567930728197097778e-01 1.763994619250297546e-02 -3.491245210170745850e-01
2.180484235286712646e-01 -9.017491340637207031e-02 3.642931282520294189e-01
2.444059103727340698e-01 8.819316327571868896e-02 3.211119472980499268e-01
-1.628665030002593994e-01 -1.780456900596618652e-01 2.292797714471817017e-01
-3.615748584270477295e-01 -1.282865405082702637e-01 1.669103056192398071e-01
3.297520279884338379e-01 -1.700510382652282715e-01 -3.099002502858638763e-02
-1.988891698420047760e-02 1.033473163843154907e-01 3.789788782596588135e-01
-3.896224498748779297e-01 -1.242311298847198486e-01 -1.496167629957199097e-01
5.739990621805191040e-02 -1.852355003356933594e-01 -3.304763436317443848e-01
-1.385429650545120239e-01 -1.061861068010330200e-01 3.833202123641967773e-01
4.314160346984863281e-01 -2.970646694302558899e-02 1.747047454118728638e-01
-3.056600391864776611e-01 -1.508127450942993164e-01 1.874122768640518188e-01
-1.475432515144348145e-01 -1.380976438522338867e-01 3.306567072868347168e-01
-1.977043692022562027e-03 -2.010988891124725342e-01 1.916636526584625244e-01
-4.512901604175567627e-01 -6.089185550808906555e-02 -2.027861773967742920e-03
3.275395035743713379e-01 -8.903494477272033691e-02 -2.937420904636383057e-01
2.504681944847106934e-01 -1.207373291254043579e-01 2.976343333721160889e-01
2.583430707454681396e-01 -7.816853001713752747e-03 3.912372887134552002e-01
-3.663672208786010742e-01 4.783007502555847168e-02 2.092588543891906738e-01
1.086825430393218994e-01 -2.126459181308746338e-01 -2.196844667196273804e-01
1.668703407049179077e-01 1.025380939245223999e-01 -1.907001584768295288e-01
6.145929917693138123e-02 9.242238104343414307e-02 -2.508658170700073242e-01
4.074018299579620361e-01 5.908098816871643066e-02 4.757621884346008301e-02
-2.825358211994171143e-01 7.656642794609069824e-02 2.802886962890625000e-01
-2.997024543583393097e-02 -4.775859415531158447e-02 4.549780488014221191e-01
1.532870829105377197e-01 -1.890504509210586548e-01 -2.818290591239929199e-01
1.982952803373336792e-01 1.681185513734817505e-02 -3.432658612728118896e-01
1.333939880132675171e-01 -1.615952104330062866e-01 2.789594531059265137e-01
1.011380776762962341e-01 -2.262228727340698242e-01 -1.911762543022632599e-02
1.258486211299896240e-01 -2.217104882001876831e-01 8.004820905625820160e-03
-1.462912857532501221e-01 -2.088010311126708984e-03 4.430561661720275879e-01
1.585025936365127563e-01 -2.164626866579055786e-01 1.348492503166198730e-02
-2.609940171241760254e-01 -1.634924560785293579e-01 -2.676669657230377197e-01
-2.153878957033157349e-01 -3.878109157085418701e-02 4.076526463031768799e-01
4.294140636920928955e-01 -9.052789211273193359e-02 -1.019920557737350464e-01
-1.217637360095977783e-01 -2.126545608043670654e-01 1.108270436525344849e-01
1.773503050208091736e-02 2.997056394815444946e-02 4.609591364860534668e-01
2.968372106552124023e-01 -3.284546732902526855e-02 3.573881983757019043e-01
-2.332501113414764404e-01 -1.587935090065002441e-01 2.381690442562103271e-01
-2.316201627254486084e-01 -1.658818274736404419e-01 -2.898528575897216797e-01
-3.797692358493804932e-01 -9.496680647134780884e-02 -2.146298736333847046e-01
-2.254331111907958984e-01 4.889319837093353271e-02 3.786453306674957275e-01
1.050398033112287521e-02 1.256309002637863159e-01 -1.488660275936126709e-01
3.894996270537376404e-02 5.570396780967712402e-02 4.438735246658325195e-01
3.450396060943603516e-01 8.634851872920989990e-02 -4.457128047943115234e-02
-1.028995737433433533e-01 1.280337125062942505e-01 -1.052315980195999146e-01
-2.726239860057830811e-01 -1.850521266460418701e-01 9.722866863012313843e-02
2.145937383174896240e-01 -5.573986470699310303e-02 3.985539078712463379e-01
-5.980132147669792175e-02 1.361358761787414551e-01 -8.514977246522903442e-02
-4.368030130863189697e-01 -4.784030467271804810e-02 -9.885533899068832397e-02
-2.346484214067459106e-01 -2.066432982683181763e-01 -1.055549010634422302e-01
-3.934976160526275635e-01 -5.080094188451766968e-02 2.336756587028503418e-01
-3.190715312957763672e-01 -2.077083662152290344e-02 -2.806366384029388428e-01
-2.128738015890121460e-01 1.247798055410385132e-01 4.212033934891223907e-03
1.152655184268951416e-01 7.065407186746597290e-02 4.159971177577972412e-01
3.490759804844856262e-02 -1.788903772830963135e-01 2.612863779067993164e-01
-1.700915582478046417e-02 1.169411987066268921e-01 3.477879166603088379e-01
2.782994210720062256e-01 4.817279428243637085e-02 -2.481334805488586426e-01
1.684887856245040894e-01 1.170627027750015259e-01 -1.384905576705932617e-01
-1.895509809255599976e-01 1.127241104841232300e-01 -1.081879884004592896e-01
-1.700955182313919067e-01 -3.935404494404792786e-02 -3.907044529914855957e-01
-1.310167461633682251e-02 -1.951696872711181641e-01 -3.130632042884826660e-01
1.332310587167739868e-01 -1.831032484769821167e-01 2.175204455852508545e-01
-2.352733761072158813e-01 -2.016920596361160278e-01 -1.546002924442291260e-01
3.168368041515350342e-01 1.036554276943206787e-01 1.547927409410476685e-01
-5.808700621128082275e-02 -2.071412950754165649e-01 1.626080125570297241e-01
-1.144455671310424805e-01 1.471116691827774048e-01 9.123539924621582031e-02
1.247994378209114075e-01 1.270771473646163940e-01 -1.199669986963272095e-01
5.914212670177221298e-04 1.398387402296066284e-01 2.687268853187561035e-01
-3.331688344478607178e-01 -1.444096416234970093e-01 -2.173940390348434448e-01
-6.070085987448692322e-02 -6.144119799137115479e-02 -4.274095594882965088e-01
2.766349911689758301e-01 -1.874721944332122803e-01 -1.199782639741897583e-01
-3.415853902697563171e-02 -2.309412658214569092e-01 9.794440120458602905e-04
1.337121427059173584e-01 4.281105101108551025e-02 -3.329562544822692871e-01
-2.260261476039886475e-01 -1.899668723344802856e-01 1.371283978223800659e-01
1.647000610828399658e-01 5.522190779447555542e-02 -3.023042976856231689e-01
2.675448656082153320e-01 -1.191736161708831787e-01 -3.261198997497558594e-01
3.125718533992767334e-01 1.004062741994857788e-01 1.893440932035446167e-01
3.120805323123931885e-01 -1.516144275665283203e-01 1.539293080568313599e-01
-4.349511861801147461e-02 1.451328098773956299e-01 2.275113910436630249e-01
-1.307369619607925415e-01 1.311968266963958740e-01 2.509304583072662354e-01
-3.060418367385864258e-01 7.992036640644073486e-02 2.341288626194000244e-01
-1.387336701154708862e-01 5.922880023717880249e-02 -2.925839126110076904e-01
-3.293321132659912109e-01 7.945453375577926636e-02 1.834910511970520020e-01
-1.790431886911392212e-01 1.338551342487335205e-01 1.625104099512100220e-01
4.194862246513366699e-01 -1.113444045186042786e-01 2.452715858817100525e-02
-1.919144392013549805e-01 -2.387162297964096069e-03 4.245385229587554932e-01
-1.309486180543899536e-01 -1.560630053281784058e-01 3.000814914703369141e-01
4.082718789577484131e-01 -9.555619955062866211e-02 1.381866335868835449e-01
1.084763035178184509e-01 1.042685955762863159e-01 -2.088947892189025879e-01
8.701055496931076050e-02 -1.721549183130264282e-01 -3.498575687408447266e-01
1.215001121163368225e-01 -1.561917364597320557e-01 -3.649473786354064941e-01
-1.394866853952407837e-01 -1.705047339200973511e-01 -3.375292718410491943e-01
-1.258654743432998657e-01 -2.217558175325393677e-01 -1.618890166282653809e-01
1.876570880413055420e-01 -1.993870139122009277e-01 1.074243187904357910e-01
-2.005522251129150391e-01 -1.714363694190979004e-01 -3.020071387290954590e-01
-7.152773439884185791e-02 4.954315721988677979e-03 4.613857865333557129e-01
-4.401529133319854736e-01 -8.015718311071395874e-03 9.278002381324768066e-02
2.594642639160156250e-01 -1.345796734094619751e-01 2.624077498912811279e-01
-2.690448984503746033e-02 1.454381197690963745e-01 -3.835760056972503662e-02
4.655030742287635803e-02 -2.221794128417968750e-01 7.470528036355972290e-02
2.189837694168090820e-01 1.336489766836166382e-01 2.182701043784618378e-02
3.975929915904998779e-01 7.245052605867385864e-03 2.399407625198364258e-01
2.769095301628112793e-01 7.789522409439086914e-02 3.114925026893615723e-01
-1.116442978382110596e-01 -1.759610623121261597e-01 2.568586170673370361e-01
4.987010359764099121e-02 5.229675024747848511e-02 -3.336303532123565674e-01
-4.197659790515899658e-01 1.496837660670280457e-02 -4.774839431047439575e-02
-1.933602392673492432e-01 -1.499333828687667847e-01 -3.430825471878051758e-01
-3.031758032739162445e-02 -2.331788688898086548e-01 -6.698542088270187378e-02
-2.947584688663482666e-01 -9.421426057815551758e-02 -3.181684613227844238e-01
3.496977388858795166e-01 -1.337185502052307129e-01 -2.049449980258941650e-01
-4.661448299884796143e-02 1.686321943998336792e-02 -3.792539834976196289e-01
2.700191438198089600e-01 -1.678554862737655640e-01 -2.346114814281463623e-01
-1.523975431919097900e-01 1.208877712488174438e-01 -1.044127941131591797e-01
3.661437332630157471e-01 9.450815618038177490e-03 -2.177972644567489624e-01
1.603931561112403870e-02 1.526725739240646362e-01 1.783258467912673950e-01
-6.592367589473724365e-02 -2.318301945924758911e-01 -4.701603204011917114e-02
4.167571291327476501e-02 -2.123346775770187378e-01 -2.510627508163452148e-01
2.562609016895294189e-01 1.234401762485504150e-01 1.656685918569564819e-01
-2.964784204959869385e-01 7.096907496452331543e-02 -1.408727318048477173e-01
1.334567815065383911e-01 1.468250006437301636e-01 2.082131616771221161e-02
-7.705571502447128296e-02 -3.105404973030090332e-02 -4.139473438262939453e-01
3.467782437801361084e-01 -1.608112305402755737e-01 -7.974246144294738770e-02
2.126181274652481079e-01 7.462300360202789307e-02 -2.399270534515380859e-01
-8.640398085117340088e-02 1.105273514986038208e-01 -1.833871752023696899e-01
-2.681608200073242188e-01 -1.799446791410446167e-01 -2.118210792541503906e-01
-3.967605531215667725e-01 1.311531290411949158e-02 2.095367610454559326e-01
1.732903122901916504e-01 7.585621625185012817e-02 -2.578677833080291748e-01
3.283342719078063965e-01 8.215234428644180298e-02 -1.007283031940460205e-01
1.426297277212142944e-01 1.414575278759002686e-01 -2.343624643981456757e-02
-3.038108050823211670e-01 -1.869021505117416382e-01 -2.069795690476894379e-02
-2.929229103028774261e-02 -6.200149655342102051e-04 4.668117165565490723e-01
1.611270904541015625e-01 1.450852155685424805e-01 4.676745831966400146e-02
-1.410932987928390503e-01 -2.161584049463272095e-01 7.367072999477386475e-02
-3.169990479946136475e-01 -1.409888863563537598e-01 -2.478558719158172607e-01
1.612562090158462524e-01 -1.722022891044616699e-03 4.401737153530120850e-01
1.778189241886138916e-01 -1.250975131988525391e-01 3.345926403999328613e-01
-5.562545731663703918e-02 1.498091071844100952e-01 1.865832880139350891e-02
1.316023021936416626e-01 -5.853474140167236328e-02 4.300855994224548340e-01
-1.880076676607131958e-01 -8.666297793388366699e-02 -3.900658488273620605e-01
-1.210939139127731323e-02 -1.224462315440177917e-01 3.812491893768310547e-01
2.308302372694015503e-01 -2.035056501626968384e-01 -8.656182885169982910e-02
-3.229371607303619385e-01 -1.089837029576301575e-01 -2.812856733798980713e-01
-2.352903336286544800e-01 1.134067624807357788e-01 -4.216514527797698975e-02
-6.174874678254127502e-02 -1.593840718269348145e-01 3.094225823879241943e-01
-4.479188323020935059e-01 -5.174566432833671570e-02 -4.778324812650680542e-02
2.256176620721817017e-01 -1.854937374591827393e-01 -2.295226752758026123e-01
-1.099130585789680481e-01 -1.560868024826049805e-01 -3.706170618534088135e-01
-3.413895145058631897e-02 1.532614529132843018e-01 1.474153101444244385e-01
1.112207584083080292e-02 -2.182348221540451050e-01 1.098096519708633423e-01
-2.871764004230499268e-01 -1.155725345015525818e-01 2.859223783016204834e-01
-3.275921940803527832e-01 3.934776782989501953e-02 -1.843516081571578979e-01
-2.366465181112289429e-01 1.028535068035125732e-01 2.591976523399353027e-01
2.856569290161132812e-01 9.694573283195495605e-02 2.528403401374816895e-01
-2.739546597003936768e-01 -1.963597983121871948e-01 -6.865341216325759888e-03
1.171908229589462280e-01 -7.309819012880325317e-02 -4.196159839630126953e-01
2.463346272706985474e-01 5.939150601625442505e-02 -2.507946491241455078e-01
2.846636176109313965e-01 9.785552322864532471e-02 -1.043009161949157715e-01
-3.679286241531372070e-01 -1.795978471636772156e-02 -2.202268838882446289e-01
-3.506615385413169861e-02 -1.980698406696319580e-01 2.023123502731323242e-01
2.352938801050186157e-01 -1.659609675407409668e-01 -2.785822153091430664e-01
-1.193356961011886597e-01 -7.418210804462432861e-02 -4.162601530551910400e-01
-8.532857894897460938e-02 1.489734649658203125e-01 4.406356066465377808e-02
3.106411397457122803e-01 8.916743099689483643e-04 -2.873133122920989990e-01
-3.250328302383422852e-01 -1.786347329616546631e-01 -5.484570562839508057e-02
3.623021543025970459e-01 -1.097888648509979248e-01 1.963330060243606567e-01
-2.443251758813858032e-01 1.120733022689819336e-01 2.023432552814483643e-01
-5.545180756598711014e-03 1.167875677347183228e-01 -1.808397769927978516e-01
-3.783243298530578613e-01 -1.447999775409698486e-01 5.802232772111892700e-02
-8.472459763288497925e-02 1.384243071079254150e-01 -5.821003019809722900e-02
-1.756586730480194092e-01 -1.870345920324325562e-01 -2.813485562801361084e-01
-3.507426977157592773e-01 9.507086127996444702e-03 -2.093342244625091553e-01
1.456896215677261353e-01 1.129985600709915161e-01 3.288159370422363281e-01
-9.301004558801651001e-02 1.144655197858810425e-01 3.350152671337127686e-01
-1.150554642081260681e-01 1.585095748305320740e-02 4.495705962181091309e-01
2.765574157238006592e-01 -1.470924317836761475e-01 -2.780871093273162842e-01
-2.783501707017421722e-02 -2.143670469522476196e-01 -2.477743923664093018e-01
-2.948260903358459473e-01 -1.890569627285003662e-01 -9.136275202035903931e-02
1.850359290838241577e-01 -1.413647383451461792e-01 -3.566453158855438232e-01
1.098832339048385620e-01 1.353975981473922729e-01 2.679403424263000488e-01
-2.951417863368988037e-01 -5.093699693679809570e-02 3.490748703479766846e-01
1.964587420225143433e-01 -8.739475905895233154e-02 -3.894912600517272949e-01
3.259888589382171631e-01 -1.293170899152755737e-01 2.024553567171096802e-01
-1.036408990621566772e-01 -2.211202979087829590e-01 6.597372144460678101e-02
7.232758402824401855e-02 5.517446994781494141e-02 4.404801130294799805e-01
-8.388196676969528198e-02 -2.277628183364868164e-01 -1.418936103582382202e-01
1.947040855884552002e-01 -2.036435455083847046e-01 7.071430981159210205e-02
2.319078892469406128e-01 -1.823961734771728516e-01 1.407333612442016602e-01
-7.008573412895202637e-02 5.323304980993270874e-02 -3.244767487049102783e-01
2.125591635704040527e-01 1.227134317159652710e-01 2.444990873336791992e-01
-2.720178067684173584e-01 9.854058921337127686e-02 -6.407339125871658325e-02
-2.137955427169799805e-01 1.004856526851654053e-01 -1.351431757211685181e-01
-3.614787757396697998e-01 -3.937514498829841614e-02 2.858423590660095215e-01
4.361952841281890869e-01 -1.489015482366085052e-02 -1.157591789960861206e-01
1.899889111518859863e-01 -1.673472672700881958e-01 -3.116450607776641846e-01
8.267275243997573853e-02 6.937295198440551758e-03 4.606015086174011230e-01
1.206621155142784119e-02 -2.171661555767059326e-01 -2.346154451370239258e-01
1.776926517486572266e-01 8.963491022586822510e-02 -2.222523242235183716e-01
3.267678245902061462e-02 1.373330056667327881e-01 -9.517467021942138672e-02
1.447191685438156128e-01 -2.080107927322387695e-01 1.017394512891769409e-01
3.364233970642089844e-01 -1.521670818328857422e-01 1.053248122334480286e-01
-2.666219770908355713e-01 5.187468230724334717e-02 -2.251039743423461914e-01
-3.837505578994750977e-01 5.595549941062927246e-02 1.557481568306684494e-02
-1.644828170537948608e-01 1.286749690771102905e-01 -4.823110997676849365e-02
-1.479092389345169067e-01 -2.230493873357772827e-01 -1.128052920103073120e-01
1.175309345126152039e-01 -1.402176916599273682e-01 3.315858542919158936e-01
3.976108133792877197e-01 -6.105953454971313477e-02 2.201156467199325562e-01
2.327065914869308472e-01 1.112579703330993652e-01 2.690256536006927490e-01
-2.460964620113372803e-01 -1.328561305999755859e-01 -3.292351663112640381e-01
3.709741309285163879e-02 -1.063333898782730103e-01 4.016047120094299316e-01
-4.494407474994659424e-01 -2.421651221811771393e-02 5.280988290905952454e-03
9.411740303039550781e-02 -5.025089532136917114e-02 4.447871744632720947e-01
-3.647746443748474121e-01 9.616091847419738770e-04 2.776985764503479004e-01
4.478606283664703369e-01 -7.828377932310104370e-02 -1.589166186749935150e-02
2.490392923355102539e-01 1.280162930488586426e-01 4.074095934629440308e-02
3.403065502643585205e-01 -1.542361378669738770e-01 -1.555156856775283813e-01
7.253278046846389771e-02 -2.257821261882781982e-01 2.693140506744384766e-02
3.610463738441467285e-01 4.276698082685470581e-02 -1.669771075248718262e-01
-1.494890153408050537e-01 1.415967494249343872e-01 7.100623846054077148e-02
4.002062976360321045e-02 1.543478816747665405e-01 1.505801677703857422e-01
1.366055458784103394e-01 -2.149206548929214478e-01 6.235765665769577026e-02
-2.700533866882324219e-01 -1.519915759563446045e-01 2.241147458553314209e-01
2.491188943386077881e-01 6.870038807392120361e-02 3.512569069862365723e-01
-2.988091409206390381e-01 -1.643552929162979126e-01 -2.187143862247467041e-01
-4.166456758975982666e-01 -1.181727200746536255e-01 3.566200286149978638e-02
2.769605219364166260e-01 -8.460842072963714600e-02 3.316821455955505371e-01
1.860305070877075195e-01 -1.840355843305587769e-01 -2.731264233589172363e-01
-3.418320417404174805e-01 -1.084740310907363892e-01 2.401172816753387451e-01
2.393689155578613281e-01 -1.903640180826187134e-01 8.828392624855041504e-02
3.945879936218261719e-01 -8.764539659023284912e-02 -2.005417943000793457e-01
5.474107339978218079e-02 -2.197430431842803955e-01 -2.102105915546417236e-01
5.899842455983161926e-02 1.477228403091430664e-01 -2.365015260875225067e-02
1.059300228953361511e-01 1.510172635316848755e-01 4.614541679620742798e-02
2.020617276430130005e-01 1.119472384452819824e-01 -1.350236833095550537e-01
5.388986691832542419e-02 -2.299352884292602539e-01 -1.373614743351936340e-02
-5.803225934505462646e-02 1.178288459777832031e-01 3.374812602996826172e-01
4.540582895278930664e-01 -3.238270431756973267e-02 9.442101418972015381e-02
-2.083909213542938232e-01 -2.038216739892959595e-01 8.257752656936645508e-02
3.276070356369018555e-01 6.898732483386993408e-02 2.686083018779754639e-01
4.500870108604431152e-01 7.845956832170486450e-03 7.009769976139068604e-02
2.312664538621902466e-01 -1.093385070562362671e-01 3.302186131477355957e-01
-1.635618656873703003e-01 -1.919046193361282349e-01 1.815221905708312988e-01
4.003106653690338135e-01 5.872169137001037598e-02 -1.940381713211536407e-02
-1.631292551755905151e-01 -2.035567462444305420e-01 -2.346752583980560303e-01
3.318997025489807129e-01 9.797279536724090576e-02 -9.523741900920867920e-04
6.387335062026977539e-02 -1.975348144769668579e-01 1.944730728864669800e-01
-2.785584628582000732e-01 8.528236299753189087e-02 -1.150266528129577637e-01
2.395051419734954834e-01 1.314879208803176880e-01 1.031158864498138428e-01
-1.063155755400657654e-01 8.275122195482254028e-02 3.958614468574523926e-01
-8.011965453624725342e-02 -1.921867281198501587e-01 2.157019078731536865e-01
2.030527293682098389e-01 5.745188891887664795e-02 -2.808757722377777100e-01
3.615657985210418701e-01 -1.543662846088409424e-01 -3.081786073744297028e-02
-1.292144507169723511e-01 -1.075944826006889343e-01 -4.063736200332641602e-01
-1.270367801189422607e-01 8.507265895605087280e-02 -2.409038245677947998e-01
-3.302686810493469238e-01 -1.660035997629165649e-01 8.362859487533569336e-02
-3.109749853610992432e-01 9.701877832412719727e-02 6.745211035013198853e-02
3.252373635768890381e-01 -1.667733639478683472e-01 4.627205431461334229e-02
1.578843742609024048e-01 -2.126129120588302612e-01 -1.717519611120223999e-01
1.501960903406143188e-01 -1.464185267686843872e-01 3.065197765827178955e-01
2.173081338405609131e-01 -2.068992108106613159e-01 -2.618209086358547211e-02
-1.857997030019760132e-01 -2.185557782649993896e-01 -5.149889737367630005e-02
-2.266424149274826050e-01 -1.977993249893188477e-01 -1.930466592311859131e-01
1.990312933921813965e-01 -2.092470675706863403e-01 7.513942196965217590e-03
2.563571929931640625e-01 9.734609723091125488e-02 -1.406098455190658569e-01
-3.557915687561035156e-01 -1.451411843299865723e-01 -1.728105694055557251e-01
2.468056529760360718e-01 -1.862994581460952759e-01 -1.967293769121170044e-01
3.552809357643127441e-02 -6.626373529434204102e-01 -8.651409298181533813e-02
1.040374636650085449e-01 -6.441276669502258301e-01 -2.797453198581933975e-03
7.107141613960266113e-02 -8.709319233894348145e-01 1.662158779799938202e-02
-4.824004694819450378e-02 -3.375344872474670410e-01 -6.828226894140243530e-02
7.866153866052627563e-02 -5.964621901512145996e-01 6.502166390419006348e-02
5.194294825196266174e-02 -8.455197215080261230e-01 6.165601685643196106e-02
3.266671299934387207e-02 -7.686972618103027344e-01 8.470096439123153687e-02
6.810077279806137085e-02 -7.991034388542175293e-01 -4.434876143932342529e-02
5.052542686462402344e-02 -9.282572865486145020e-01 2.252958528697490692e-02
6.399149447679519653e-02 -8.078836202621459961e-01 5.920810997486114502e-02
3.452511504292488098e-02 -3.414843678474426270e-01 -8.529204130172729492e-02
-9.092042595148086548e-02 -4.564295709133148193e-01 -1.136987470090389252e-02
-7.956912368535995483e-02 -5.129624605178833008e-01 -5.139402300119400024e-02
-8.376923203468322754e-02 -7.541944384574890137e-01 -1.413213834166526794e-02
9.493929892778396606e-02 -3.667062520980834961e-01 -2.296589873731136322e-02
4.211994633078575134e-02 -7.819021940231323242e-01 7.927823066711425781e-02
5.740011110901832581e-04 -5.293973088264465332e-01 9.368875622749328613e-02
-5.880287662148475647e-02 -4.130510091781616211e-01 5.931428074836730957e-02
3.115145675837993622e-02 -5.090283155441284180e-01 -9.494197368621826172e-02
-3.961597103625535965e-03 -3.179900646209716797e-01 -8.531787991523742676e-02
4.131690040230751038e-02 -3.833618760108947754e-01 7.307877391576766968e-02
-7.595711201429367065e-02 -8.253055810928344727e-01 7.581797894090414047e-03
-4.296585172414779663e-02 -8.608135581016540527e-01 6.142004579305648804e-02
-8.997011184692382812e-02 -4.931564331054687500e-01 -2.723017707467079163e-02
1.318874396383762360e-02 -9.104784131050109863e-01 6.333629786968231201e-02
-5.614529922604560852e-02 -6.035176515579223633e-01 7.712231576442718506e-02
-6.585706770420074463e-02 -8.382163047790527344e-01 -2.261919155716896057e-02
-7.828616350889205933e-02 -5.727590918540954590e-01 5.444845184683799744e-02
5.840287730097770691e-02 -8.907420635223388672e-01 3.754292428493499756e-02
5.028221383690834045e-02 -1.844529509544372559e-01 -8.011323399841785431e-03
-2.144687250256538391e-02 -7.165809273719787598e-01 9.059125930070877075e-02
6.358763575553894043e-02 -4.056329131126403809e-01 6.399303674697875977e-02
1.001223772764205933e-01 -5.762096047401428223e-01 -3.504073992371559143e-02
9.691567718982696533e-02 -7.005292773246765137e-01 2.530368417501449585e-02
8.560045808553695679e-02 -3.146466314792633057e-01 -3.093471191823482513e-02
6.037648022174835205e-02 -4.748166799545288086e-01 -8.274278044700622559e-02
-8.471763879060745239e-02 -7.055775523185729980e-01 -2.754957787692546844e-02
-7.128710299730300903e-02 -6.458088159561157227e-01 6.334143131971359253e-02
5.876322463154792786e-02 -4.924651086330413818e-01 -8.398614078760147095e-02
-4.411839693784713745e-02 -5.225521326065063477e-01 8.138448745012283325e-02
-1.678367331624031067e-02 -5.522553920745849609e-01 -9.447259455919265747e-02
-5.540784448385238647e-02 -3.952569961547851562e-01 5.924730375409126282e-02
-4.365127906203269958e-02 -4.441869258880615234e-01 7.453591376543045044e-02
3.699478879570960999e-02 -9.557875394821166992e-01 4.984293598681688309e-03
1.022332832217216492e-01 -5.507314205169677734e-01 -3.057926334440708160e-02
-9.510894864797592163e-02 -5.520208477973937988e-01 -9.135076776146888733e-03
-2.825537510216236115e-02 -7.524085640907287598e-01 8.595097810029983521e-02
-8.147304505109786987e-02 -3.996030092239379883e-01 -3.233271464705467224e-02
-7.245732843875885010e-02 -7.264170646667480469e-01 -4.529817029833793640e-02
8.527389913797378540e-02 -7.849496006965637207e-01 3.077108971774578094e-02
8.672583848237991333e-02 -4.319140315055847168e-01 4.408868029713630676e-02
8.788856863975524902e-02 -5.669047236442565918e-01 5.401073396205902100e-02
8.936877548694610596e-02 -3.185880184173583984e-01 -7.936945185065269470e-03
3.505856171250343323e-02 -6.222559213638305664e-01 -8.991950750350952148e-02
6.234457716345787048e-02 -5.671050548553466797e-01 -8.071271330118179321e-02
-2.227805368602275848e-02 -8.865590095520019531e-01 6.654013693332672119e-02
-4.414852708578109741e-02 -3.531579375267028809e-01 -7.385779172182083130e-02
9.806312620639801025e-02 -5.312572717666625977e-01 3.564747795462608337e-02
-2.373257651925086975e-02 -3.814620375633239746e-01 7.479985803365707397e-02
-7.000071555376052856e-02 -4.781542122364044189e-01 -6.258619576692581177e-02
1.027124524116516113e-01 -6.461938619613647461e-01 1.581066101789474487e-02
-1.813231408596038818e-02 -3.621789216995239258e-01 -8.747080713510513306e-02
3.621551766991615295e-02 -9.015407562255859375e-01 5.679260939359664917e-02
-8.266906440258026123e-02 -6.283697485923767090e-01 -4.348868131637573242e-02
3.098027082160115242e-03 -9.820355176925659180e-01 1.779724657535552979e-02
-2.993209473788738251e-02 -5.852935910224914551e-01 9.021241217851638794e-02
-5.863623693585395813e-02 -7.095770835876464844e-01 7.222472131252288818e-02
-4.278999939560890198e-02 -7.636518478393554688e-01 7.827562838792800903e-02
-8.410187065601348877e-02 -4.231601357460021973e-01 -3.137622401118278503e-02
-2.733313012868165970e-03 -6.165128946304321289e-01 -9.394599497318267822e-02
-5.519626662135124207e-02 -9.063478708267211914e-01 1.935812830924987793e-02
-8.418124914169311523e-02 -4.199457466602325439e-01 2.143213711678981781e-02
-5.273371562361717224e-02 -5.522515773773193359e-01 7.793854922056198120e-02
5.851358175277709961e-03 -2.087605595588684082e-01 3.785132616758346558e-02
6.242422759532928467e-02 -6.767604351043701172e-01 7.659343630075454712e-02
-5.503183975815773010e-02 -2.792580127716064453e-01 2.724924683570861816e-02
-5.678334832191467285e-02 -5.328160524368286133e-01 7.406659424304962158e-02
-4.296176508069038391e-02 -2.920894324779510498e-01 4.540180787444114685e-02
-2.943281643092632294e-02 -8.554325103759765625e-01 7.088542729616165161e-02
-2.394006028771400452e-02 -6.461040377616882324e-01 -8.790676295757293701e-02
3.552619367837905884e-02 -5.800276398658752441e-01 -9.215711802244186401e-02
6.661814451217651367e-02 -4.764797091484069824e-01 6.998617202043533325e-02
-8.460962772369384766e-02 -3.878856003284454346e-01 -3.092742525041103363e-03
9.529233723878860474e-02 -5.981745123863220215e-01 4.224804043769836426e-02
-9.243721514940261841e-02 -6.567429900169372559e-01 2.033064700663089752e-02
6.124266609549522400e-02 -5.468723773956298828e-01 7.810612022876739502e-02
9.247361868619918823e-02 -5.797592997550964355e-01 -4.994357749819755554e-02
-8.719581365585327148e-02 -4.117274880409240723e-01 -9.531294927000999451e-03
8.973390609025955200e-02 -5.277546644210815430e-01 4.998510703444480896e-02
-6.797722727060317993e-02 -5.086831450462341309e-01 6.255675852298736572e-02
-5.449024587869644165e-02 -2.699240744113922119e-01 -4.281781613826751709e-02
-1.353560388088226318e-02 -9.717007875442504883e-01 2.890091016888618469e-02
4.765469208359718323e-02 -7.367844581604003906e-01 -7.268633693456649780e-02
1.014830991625785828e-01 -5.921547412872314453e-01 2.792069502174854279e-02
3.712035715579986572e-02 -2.368863523006439209e-01 -6.462526321411132812e-02
2.681745588779449463e-02 -3.035476207733154297e-01 -8.218047767877578735e-02
6.479352712631225586e-02 -5.236015319824218750e-01 -8.021166175603866577e-02
-8.315871655941009521e-02 -6.866291761398315430e-01 -3.493526205420494080e-02
6.722108274698257446e-02 -4.396646618843078613e-01 -7.678885012865066528e-02
-2.673611603677272797e-02 -9.141161441802978516e-01 -3.388386964797973633e-02
4.227070510387420654e-02 -9.383128881454467773e-01 -9.108802303671836853e-03
-4.223692044615745544e-02 -3.863515853881835938e-01 6.715583056211471558e-02
4.897555336356163025e-02 -5.782918334007263184e-01 8.574184030294418335e-02
-3.834498580545186996e-03 -7.187232375144958496e-01 9.329333901405334473e-02
-5.180010944604873657e-02 -7.292202115058898926e-01 -6.534692645072937012e-02
3.525712341070175171e-02 -4.831641614437103271e-01 -9.375961124897003174e-02
3.670923411846160889e-02 -9.166414141654968262e-01 -2.990958653390407562e-02
-8.313801884651184082e-02 -5.732311606407165527e-01 -4.589926823973655701e-02
-6.130185350775718689e-02 -2.703914046287536621e-01 -2.708633244037628174e-02
-9.386669844388961792e-02 -6.485289335250854492e-01 -6.792802363634109497e-03
-6.299727410078048706e-02 -8.003740906715393066e-01 -4.047891870141029358e-02
-8.019069582223892212e-02 -3.797552585601806641e-01 -2.920412458479404449e-02
-9.177775681018829346e-02 -6.843288540840148926e-01 1.595285162329673767e-02
8.978644013404846191e-02 -7.725382447242736816e-01 -1.095641590654850006e-02
-1.528388261795043945e-02 -8.185620307922363281e-01 8.196057379245758057e-02
4.252999648451805115e-02 -6.078202724456787109e-01 8.884989470243453979e-02
4.547426011413335800e-03 -1.750041842460632324e-01 -4.769570752978324890e-02
8.129990845918655396e-02 -4.869973361492156982e-01 5.758794769644737244e-02
-7.586150616407394409e-02 -5.327825546264648438e-01 5.545453354716300964e-02
-3.313434123992919922e-02 -2.089734077453613281e-01 -4.287301003932952881e-02
-8.933879435062408447e-04 -8.586702942848205566e-01 -5.927695706486701965e-02
7.457589358091354370e-02 -2.514869570732116699e-01 -2.019631117582321167e-02
9.628292918205261230e-02 -6.607740521430969238e-01 -3.283013775944709778e-02
-2.242866344749927521e-02 -8.143604397773742676e-01 -6.535325944423675537e-02
6.334952078759670258e-03 -9.781909584999084473e-01 -6.070646923035383224e-04
8.768680691719055176e-02 -6.576907038688659668e-01 -4.921108484268188477e-02
6.374580413103103638e-02 -7.027595043182373047e-01 7.393132150173187256e-02
-4.961162433028221130e-02 -8.759313225746154785e-01 -3.052641451358795166e-02
-4.666748270392417908e-02 -5.033793449401855469e-01 7.861603051424026489e-02
-8.258789777755737305e-02 -4.995875954627990723e-01 4.201065376400947571e-02
1.050044596195220947e-01 -4.958153963088989258e-01 -1.658918522298336029e-02
3.902891278266906738e-02 -2.214434444904327393e-01 3.410823643207550049e-02
7.995460182428359985e-02 -8.248667120933532715e-01 2.518459595739841461e-02
8.364786207675933838e-02 -8.087857961654663086e-01 2.246781811118125916e-02
2.943790890276432037e-02 -8.503264188766479492e-01 -5.717331543564796448e-02
2.536596730351448059e-04 -5.125266313552856445e-01 -9.747178107500076294e-02
-3.526053950190544128e-02 -2.362960278987884521e-01 -5.341939628124237061e-02
3.170894086360931396e-02 -6.437229514122009277e-01 9.224847704172134399e-02
-8.189292252063751221e-02 -4.947289824485778809e-01 -4.661564528942108154e-02
9.338845312595367432e-02 -4.295778870582580566e-01 -4.463250190019607544e-02
-3.147596865892410278e-02 -1.847015619277954102e-01 -1.420036889612674713e-03
-6.529571861028671265e-02 -7.478021383285522461e-01 6.212112680077552795e-02
1.325931586325168610e-02 -6.250330209732055664e-01 9.578661620616912842e-02
-4.442314803600311279e-02 -9.148522615432739258e-01 -1.668185740709304810e-02
-1.651597581803798676e-02 -9.458424448966979980e-01 4.710247740149497986e-02
-2.195899561047554016e-02 -9.324970245361328125e-01 -2.789751626551151276e-02
6.188831850886344910e-02 -2.494691908359527588e-01 2.545894682407379150e-02
6.097392179071903229e-04 -7.069011926651000977e-01 -8.628492802381515503e-02
7.509421557188034058e-02 -8.496369123458862305e-01 -8.015541359782218933e-03
2.029283717274665833e-02 -9.135204553604125977e-01 -3.966750949621200562e-02
-9.514728188514709473e-02 -5.711967349052429199e-01 1.132543385028839111e-02
3.931233286857604980e-02 -8.149334788322448730e-01 7.584507018327713013e-02
-1.234096847474575043e-02 -7.974916696548461914e-01 8.534536510705947876e-02
-6.634902209043502808e-02 -8.323743939399719238e-01 4.190814867615699768e-02
-7.293944060802459717e-02 -7.457054853439331055e-01 -4.064529389142990112e-02
3.659952804446220398e-02 -7.550742626190185547e-01 -7.452142238616943359e-02
8.947359770536422729e-02 -4.462199211120605469e-01 -5.330878496170043945e-02
3.735145926475524902e-02 -8.994754552841186523e-01 -3.725596517324447632e-02
5.188113078474998474e-02 -2.095657587051391602e-01 1.663437299430370331e-02
-2.079992927610874176e-02 -5.269337892532348633e-01 -9.387942403554916382e-02
-3.333235159516334534e-02 -9.513925313949584961e-01 -1.907391007989645004e-03
6.438859552145004272e-02 -4.351095557212829590e-01 6.731006503105163574e-02
-8.464729040861129761e-02 -6.847472786903381348e-01 4.054317995905876160e-02
3.945242986083030701e-02 -3.036744296550750732e-01 5.902383476495742798e-02
5.954102799296379089e-02 -3.831214904785156250e-01 -7.795061171054840088e-02
1.065684780478477478e-01 -5.707341432571411133e-01 -4.316796548664569855e-06
8.982495963573455811e-02 -5.244046449661254883e-01 -5.574630573391914368e-02
-4.764488711953163147e-02 -5.171141624450683594e-01 -8.239766210317611694e-02
9.678740799427032471e-02 -7.205730080604553223e-01 -1.086873747408390045e-02
-7.579082250595092773e-02 -6.601109504699707031e-01 -5.071191117167472839e-02
-2.616905979812145233e-02 -2.660484611988067627e-01 -6.877876818180084229e-02
8.946067094802856445e-02 -3.475376367568969727e-01 -3.447761014103889465e-02
-1.834270544350147247e-02 -1.707135438919067383e-01 5.337119102478027344e-03
8.598570525646209717e-02 -6.844217181205749512e-01 5.189025402069091797e-02
1.573130488395690918e-03 -3.658662736415863037e-01 -9.140462428331375122e-02
1.332117244601249695e-02 -1.884476840496063232e-01 2.840580604970455170e-02
1.740650646388530731e-02 -6.764934062957763672e-01 9.443037211894989014e-02
-9.302797168493270874e-02 -5.878919959068298340e-01 -2.106374688446521759e-02
-2.385442145168781281e-02 -8.314856290817260742e-01 -6.107886880636215210e-02
8.592106401920318604e-02 -8.044909834861755371e-01 -5.718196043744683266e-04
5.353111028671264648e-02 -8.750234842300415039e-01 5.132324621081352234e-02
-5.897642299532890320e-02 -2.608341276645660400e-01 6.928701419383287430e-03
2.569319680333137512e-02 -2.354529500007629395e-01 4.506007581949234009e-02
-6.008574739098548889e-02 -8.746814727783203125e-01 -1.435590721666812897e-02
-1.010479964315891266e-02 -6.854119300842285156e-01 -8.752264827489852905e-02
7.289337366819381714e-02 -2.548913657665252686e-01 7.859196513891220093e-03
7.798257470130920410e-02 -7.359608411788940430e-01 5.626529082655906677e-02
-7.273998856544494629e-02 -6.218351721763610840e-01 -5.806920677423477173e-02
-5.624300613999366760e-02 -5.827759504318237305e-01 -7.552798837423324585e-02
-2.011952921748161316e-02 -6.694199442863464355e-01 9.290337562561035156e-02
9.460569173097610474e-02 -6.774147748947143555e-01 -3.323953971266746521e-02
1.030476242303848267e-01 -5.034000873565673828e-01 1.936184056103229523e-02
-8.116963505744934082e-02 -7.393403053283691406e-01 -2.711417153477668762e-02
-4.818552732467651367e-02 -6.698116660118103027e-01 8.160641044378280640e-02
9.404284507036209106e-02 -6.562964320182800293e-01 4.095453023910522461e-02
-5.804913863539695740e-02 -4.556786715984344482e-01 6.606601923704147339e-02
4.624218493700027466e-02 -1.795187592506408691e-01 -2.476696297526359558e-02
-8.794933557510375977e-03 -7.495490312576293945e-01 9.069146960973739624e-02
8.573169261217117310e-02 -7.647426724433898926e-01 3.716792166233062744e-02
-1.790999807417392731e-02 -2.822538912296295166e-01 5.667432397603988647e-02
9.757638722658157349e-02 -5.649386644363403320e-01 3.790556639432907104e-02
5.613849684596061707e-02 -2.740831971168518066e-01 4.090112447738647461e-02
3.772749379277229309e-02 -8.340406417846679688e-01 7.325930148363113403e-02
9.595233947038650513e-02 -7.335965037345886230e-01 1.345928572118282318e-02
-7.864627987146377563e-02 -8.079321980476379395e-01 1.527422480285167694e-02
3.439307957887649536e-02 -1.635126173496246338e-01 -2.526034833863377571e-03
-3.944532480090856552e-03 -8.387472629547119141e-01 8.044601976871490479e-02
4.952851217240095139e-03 -5.110631585121154785e-01 9.271250665187835693e-02
1.054461449384689331e-01 -6.101723313331604004e-01 -6.479850504547357559e-03
4.973081499338150024e-02 -8.009052276611328125e-01 7.227112352848052979e-02
-2.601052634418010712e-02 -4.039148092269897461e-01 7.731606811285018921e-02
-8.458941429853439331e-02 -7.259469032287597656e-01 3.341257944703102112e-02
1.064547002315521240e-01 -5.530390739440917969e-01 4.526556935161352158e-03
-9.271481633186340332e-02 -6.381413340568542480e-01 2.207042090594768524e-02
9.655184298753738403e-02 -3.897039890289306641e-01 1.201202906668186188e-02
7.017115131020545959e-03 -3.325796425342559814e-01 7.149766385555267334e-02
-3.877966850996017456e-02 -9.153840541839599609e-01 4.587326943874359131e-02
7.062104530632495880e-03 -7.036402225494384766e-01 9.424992650747299194e-02
-4.739272594451904297e-02 -4.820238649845123291e-01 -8.199302852153778076e-02
5.210679024457931519e-02 -9.104036688804626465e-01 -1.627266593277454376e-02
2.675193827599287033e-03 -9.445574879646301270e-01 5.165471881628036499e-02
8.778509497642517090e-02 -6.409831643104553223e-01 -5.128093436360359192e-02
-3.144525364041328430e-02 -4.731609225273132324e-01 8.326820284128189087e-02
-7.126951962709426880e-02 -3.151367604732513428e-01 9.828358888626098633e-03
-4.723430424928665161e-02 -8.469265699386596680e-01 -4.337421059608459473e-02
-4.233931377530097961e-02 -9.390068054199218750e-01 1.853297278285026550e-02
-5.508212000131607056e-02 -8.171870112419128418e-01 -4.469494521617889404e-02
-4.599656537175178528e-02 -5.530495047569274902e-01 -8.308009803295135498e-02
-1.519726775586605072e-02 -4.680700898170471191e-01 8.748846501111984253e-02
-8.528234437108039856e-03 -4.045441150665283203e-01 8.165687322616577148e-02
2.732794359326362610e-02 -6.841179132461547852e-01 -8.651877939701080322e-02
7.977467775344848633e-02 -3.705518245697021484e-01 -5.772404372692108154e-02
-1.721927151083946228e-02 -5.101134777069091797e-01 9.034598618745803833e-02
-2.871237508952617645e-02 -4.909616112709045410e-01 -9.126333147287368774e-02
7.568037509918212891e-02 -3.197265267372131348e-01 -5.284527689218521118e-02
7.595410943031311035e-02 -7.437138557434082031e-01 -4.914397001266479492e-02
6.401329487562179565e-02 -3.462334275245666504e-01 5.318289250135421753e-02
4.097535833716392517e-02 -9.215693473815917969e-01 4.434265941381454468e-02
-7.246033102273941040e-02 -8.323308825492858887e-01 2.619907073676586151e-02
-6.142339482903480530e-02 -7.261612415313720703e-01 6.841178238391876221e-02
1.717128604650497437e-02 -5.509392619132995605e-01 -9.664415568113327026e-02
-2.452900819480419159e-02 -3.246068358421325684e-01 6.420414149761199951e-02
8.329448848962783813e-02 -5.088376998901367188e-01 -6.402627378702163696e-02
-2.266707643866539001e-02 -6.497656106948852539e-01 9.267902374267578125e-02
-2.862525917589664459e-02 -6.942085623741149902e-01 -8.190570771694183350e-02
3.283808706328272820e-03 -8.154710531234741211e-01 -6.938247382640838623e-02
-8.838803321123123169e-02 -6.278362274169921875e-01 3.665704652667045593e-02
9.558040648698806763e-02 -4.664820432662963867e-01 -4.418183118104934692e-02
7.019379734992980957e-02 -2.341423630714416504e-01 -9.965062141418457031e-03
6.302202492952346802e-02 -7.458007931709289551e-01 7.030485570430755615e-02
7.492098957300186157e-02 -5.989896059036254883e-01 -6.953684985637664795e-02
6.041893735527992249e-02 -3.461962938308715820e-01 -7.300094515085220337e-02
-1.997180841863155365e-02 -4.439147114753723145e-01 -9.275633096694946289e-02
9.174545109272003174e-02 -5.503452420234680176e-01 4.800828173756599426e-02
1.348062418401241302e-02 -7.492735385894775391e-01 9.080006182193756104e-02
-7.671938091516494751e-02 -7.159752845764160156e-01 5.125703290104866028e-02
-2.937437035143375397e-02 -6.087948083877563477e-01 9.079112112522125244e-02
-8.741500973701477051e-02 -5.491430759429931641e-01 -3.779802843928337097e-02
