-2.004512697458267212e-01 -1.035389527678489685e-01 -5.108343958854675293e-01
-1.545602381229400635e-01 -1.343861520290374756e-01 -5.809631943702697754e-01
-1.399960964918136597e-01 -2.124458551406860352e-01 -6.149822473526000977e-01
-1.251603215932846069e-01 -1.465687453746795654e-01 8.802123367786407471e-03
-1.773934811353683472e-01 -1.868712306022644043e-01 4.800372421741485596e-01
-1.228984817862510681e-01 -1.910212188959121704e-01 4.005014002323150635e-01
-2.313895374536514282e-01 -1.138681769371032715e-01 3.953260928392410278e-02
-2.310140430927276611e-01 -1.183551400899887085e-01 -5.958480760455131531e-02
-1.204689145088195801e-01 -2.488752305507659912e-01 -3.629299998283386230e-01
-1.792894005775451660e-01 -9.945540130138397217e-02 -4.408449232578277588e-01
-1.948872804641723633e-01 -1.347773373126983643e-01 5.019260644912719727e-01
-1.437962353229522705e-01 -1.675843298435211182e-01 -6.622603535652160645e-01
-1.135493367910385132e-01 -1.993501186370849609e-01 3.198283314704895020e-01
-1.256787627935409546e-01 -2.540194988250732422e-01 -2.578798830509185791e-01
-1.688811779022216797e-01 -9.556674957275390625e-02 -2.071824669837951660e-01
-1.673599928617477417e-01 -9.590711444616317749e-02 -1.486169993877410889e-01
-2.247105985879898071e-01 -1.415681540966033936e-01 -5.943626165390014648e-02
-1.656861305236816406e-01 -9.966575354337692261e-02 8.359932154417037964e-02
-1.067537963390350342e-01 -2.199437767267227173e-01 2.632763981819152832e-01
-2.009586095809936523e-01 -1.875841170549392700e-01 8.689367026090621948e-02
-1.526360213756561279e-01 -2.402576208114624023e-01 1.296810805797576904e-01
-2.093183994293212891e-01 -8.263532072305679321e-02 1.984051764011383057e-01
-1.927940994501113892e-01 -8.263228088617324829e-02 1.271328628063201904e-01
-1.425824761390686035e-01 -1.214487850666046143e-01 -4.708623886108398438e-02
-1.838114708662033081e-01 -8.635784685611724854e-02 9.743113070726394653e-02
-1.657776385545730591e-01 -1.004284694790840149e-01 1.090666875243186951e-01
-2.105595767498016357e-01 -1.294390857219696045e-01 4.109688103199005127e-01
-1.799581050872802734e-01 -2.162859737873077393e-01 5.693189054727554321e-02
-1.904876679182052612e-01 -2.039002925157546997e-01 3.843322396278381348e-03
-2.000873088836669922e-01 -1.839932203292846680e-01 -2.747109234333038330e-01
-1.878688782453536987e-01 -1.321623325347900391e-01 -6.325220465660095215e-01
-1.312324851751327515e-01 -1.505881398916244507e-01 2.607561945915222168e-01
-9.485954046249389648e-02 -2.218517214059829712e-01 -1.693465560674667358e-01
-2.035420686006546021e-01 -8.656627684831619263e-02 -3.731942474842071533e-01
-2.005069851875305176e-01 -1.261446177959442139e-01 -5.741963982582092285e-01
-1.699428707361221313e-01 -9.754787385463714600e-02 -3.000406324863433838e-01
-1.901098191738128662e-01 -1.610722541809082031e-01 -5.969157814979553223e-01
-1.450878977775573730e-01 -1.349049955606460571e-01 3.092576861381530762e-01
-2.082985639572143555e-01 -8.664964139461517334e-02 2.501103878021240234e-01
-1.775804162025451660e-01 -9.422430396080017090e-02 1.859022080898284912e-01
-1.534106880426406860e-01 -1.096305549144744873e-01 -4.393294453620910645e-03
-2.264010012149810791e-01 -1.368196308612823486e-01 -2.804611250758171082e-02
-2.310543954372406006e-01 -1.174775958061218262e-01 -7.780419290065765381e-02
-1.434047371149063110e-01 -1.636543124914169312e-01 4.796075522899627686e-01
-1.023618876934051514e-01 -2.142001837491989136e-01 1.842324733734130859e-01
-1.303110271692276001e-01 -1.375270187854766846e-01 -1.302681565284729004e-01
-1.866264492273330688e-01 -8.942034840583801270e-02 2.033998072147369385e-01
-1.312396824359893799e-01 -1.438894718885421753e-01 1.704362332820892334e-01
-1.717189848423004150e-01 -2.084421068429946899e-01 3.719742298126220703e-01
-1.071006655693054199e-01 -2.318037450313568115e-01 2.493219375610351562e-01
-1.873843967914581299e-01 -1.940734833478927612e-01 -4.064386785030364990e-01
-1.962917000055313110e-01 -1.899572163820266724e-01 2.077585756778717041e-01
-1.500886082649230957e-01 -1.883204281330108643e-01 5.350267291069030762e-01
-1.994668841361999512e-01 -1.803770214319229126e-01 -3.459517955780029297e-01
-1.343651860952377319e-01 -1.375695466995239258e-01 -3.421471416950225830e-01
-1.984946131706237793e-01 -1.764760166406631470e-01 3.370936214923858643e-01
-2.103694230318069458e-01 -1.691278666257858276e-01 -2.120158672332763672e-01
-2.175063937902450562e-01 -1.526632159948348999e-01 -2.366946637630462646e-01
-1.838925182819366455e-01 -1.943202465772628784e-01 3.722012937068939209e-01
-2.298042923212051392e-01 -8.898549526929855347e-02 -1.090815439820289612e-01
-2.306725978851318359e-01 -1.060939505696296692e-01 -1.749502420425415039e-01
-1.508117765188217163e-01 -1.464391350746154785e-01 -6.251000761985778809e-01
-1.790730208158493042e-01 -2.179654538631439209e-01 2.232030034065246582e-03
-1.927829831838607788e-01 -8.786855638027191162e-02 2.271188795566558838e-01
-1.715262681245803833e-01 -9.215292334556579590e-02 -8.643510937690734863e-02
-1.731482595205307007e-01 -2.227839380502700806e-01 1.022305414080619812e-01
-1.518218219280242920e-01 -1.236458122730255127e-01 -4.581358730792999268e-01
-1.789057403802871704e-01 -2.123411148786544800e-01 2.129189670085906982e-01
-1.598092466592788696e-01 -1.118383407592773438e-01 2.279689610004425049e-01
-1.070790961384773254e-01 -2.021425366401672363e-01 2.309293746948242188e-01
-9.508734196424484253e-02 -2.178223282098770142e-01 -8.426964282989501953e-02
-1.677743941545486450e-01 -1.928030699491500854e-01 -6.132069826126098633e-01
-9.832005202770233154e-02 -2.434309720993041992e-01 -2.389363646507263184e-01
-1.332124024629592896e-01 -1.348075866699218750e-01 -2.252437174320220947e-01
-9.458976238965988159e-02 -2.251625210046768188e-01 -4.093117639422416687e-02
-2.099159061908721924e-01 -1.602718234062194824e-01 2.866041660308837891e-01
-1.215655058622360229e-01 -1.511945128440856934e-01 -1.555595993995666504e-01
-1.600468754768371582e-01 -1.442769169807434082e-01 4.995724856853485107e-01
-1.788522005081176758e-01 -1.782281398773193359e-01 -6.118634939193725586e-01
-1.170667558908462524e-01 -1.599062234163284302e-01 -5.858130753040313721e-03
-9.976084530353546143e-02 -2.133896797895431519e-01 1.197922453284263611e-01
-1.622167676687240601e-01 -2.318827509880065918e-01 1.481638550758361816e-01
-1.850313693284988403e-01 -1.171037554740905762e-01 4.581173360347747803e-01
-1.351220756769180298e-01 -2.434878796339035034e-01 -3.864104449748992920e-01
-1.606510728597640991e-01 -1.205109953880310059e-01 3.469544351100921631e-01
-1.929803192615509033e-01 -9.408860653638839722e-02 3.072230219841003418e-01
-1.633857339620590210e-01 -1.376782804727554321e-01 -6.419825553894042969e-01
-1.080051809549331665e-01 -1.783870160579681396e-01 -2.202039659023284912e-01
-1.081531867384910583e-01 -1.799232959747314453e-01 -2.652244567871093750e-01
-2.207661867141723633e-01 -1.409138739109039307e-01 -2.751514911651611328e-01
-1.937028467655181885e-01 -7.845460623502731323e-02 -1.125795841217041016e-01
-2.218057066202163696e-01 -1.158653944730758667e-01 -3.697197437286376953e-01
-2.315485477447509766e-01 -9.842471778392791748e-02 5.084135383367538452e-02
-2.299486100673675537e-01 -8.787631243467330933e-02 -5.788560211658477783e-02
-1.645714044570922852e-01 -9.805126488208770752e-02 -1.044053956866264343e-01
-2.237105220556259155e-01 -8.127985894680023193e-02 7.168322056531906128e-02
-1.200112327933311462e-01 -1.939170211553573608e-01 -5.683556795120239258e-01
-1.773980706930160522e-01 -1.908994615077972412e-01 4.580889046192169189e-01
-1.255086064338684082e-01 -1.788945943117141724e-01 3.857636153697967529e-01
-1.046369224786758423e-01 -2.311654984951019287e-01 2.212866246700286865e-01
-1.160722821950912476e-01 -1.605078876018524170e-01 -1.276117861270904541e-01
-2.224160581827163696e-01 -1.430639475584030151e-01 1.359787881374359131e-01
-1.864714026451110840e-01 -2.084856480360031128e-01 -1.250353157520294189e-01
-9.712298214435577393e-02 -2.136043906211853027e-01 -2.400986254215240479e-01
-2.057469636201858521e-01 -1.343765854835510254e-01 -5.338068008422851562e-01
-2.227519899606704712e-01 -1.457909345626831055e-01 5.735776573419570923e-02
-1.404525339603424072e-01 -2.365998327732086182e-01 -4.408163428306579590e-01
-1.418597102165222168e-01 -1.353551894426345825e-01 2.653796672821044922e-01
-2.079098224639892578e-01 -1.687175333499908447e-01 -2.991631329059600830e-01
-1.356695890426635742e-01 -2.357041835784912109e-01 -4.732162058353424072e-01
-1.644454002380371094e-01 -2.235780805349349976e-01 2.736387848854064941e-01
-9.957232326269149780e-02 -2.164286673069000244e-01 -3.344868123531341553e-01
-2.040124833583831787e-01 -7.775592803955078125e-02 -2.242707312107086182e-01
-1.550212502479553223e-01 -1.145062446594238281e-01 -3.734093010425567627e-01
-1.045486181974411011e-01 -2.170543521642684937e-01 -4.282406568527221680e-01
-1.005169898271560669e-01 -1.956203877925872803e-01 -1.144867539405822754e-01
-2.155721783638000488e-01 -7.549323886632919312e-02 1.812277734279632568e-02
-1.191005259752273560e-01 -1.631749868392944336e-01 1.517537832260131836e-01
-1.971581429243087769e-01 -1.476181894540786743e-01 -5.804086327552795410e-01
-1.012082919478416443e-01 -1.957407891750335693e-01 -6.066109985113143921e-03
-1.697455793619155884e-01 -2.279029041528701782e-01 -9.150582551956176758e-02
-2.124104946851730347e-01 -1.079108715057373047e-01 3.728312849998474121e-01
-1.942157894372940063e-01 -9.268844872713088989e-02 -4.318379759788513184e-01
-9.586724638938903809e-02 -2.140360325574874878e-01 -5.817332863807678223e-02
-1.094801723957061768e-01 -1.889876872301101685e-01 1.993096768856048584e-01
-1.175216138362884521e-01 -1.579666584730148315e-01 -7.817254960536956787e-02
-1.098985746502876282e-01 -1.807017326354980469e-01 -3.405708074569702148e-01
-1.722294092178344727e-01 -2.232805341482162476e-01 -2.025623619556427002e-01
-2.066649496555328369e-01 -7.600568234920501709e-02 5.207573622465133667e-02
-1.578519940376281738e-01 -1.148912906646728516e-01 -4.242041707038879395e-01
-1.938616186380386353e-01 -1.009284257888793945e-01 3.720254600048065186e-01
-1.095809489488601685e-01 -2.052437365055084229e-01 2.823903560638427734e-01
-1.330165714025497437e-01 -2.253729104995727539e-01 -5.564410686492919922e-01
-1.908524930477142334e-01 -9.158366918563842773e-02 2.676542699337005615e-01
-1.095845699310302734e-01 -1.750266402959823608e-01 5.593515932559967041e-03
-2.213847041130065918e-01 -1.210250407457351685e-01 2.965816557407379150e-01
-2.182547450065612793e-01 -1.338054537773132324e-01 -3.784072101116180420e-01
-2.293267250061035156e-01 -1.246106773614883423e-01 -1.093774139881134033e-01
-1.897701472043991089e-01 -1.716927736997604370e-01 -5.551477074623107910e-01
-1.825551986694335938e-01 -2.108956575393676758e-01 -2.220791876316070557e-01
-1.162217557430267334e-01 -1.622615605592727661e-01 2.270793169736862183e-02
-2.292422652244567871e-01 -9.436944872140884399e-02 1.134389415383338928e-01
-1.462857276201248169e-01 -1.232828050851821899e-01 1.662830114364624023e-01
-1.378548890352249146e-01 -1.699235141277313232e-01 -6.384425759315490723e-01
-1.121104210615158081e-01 -1.882118880748748779e-01 -4.524816870689392090e-01
-2.276861071586608887e-01 -1.106851398944854736e-01 1.929339468479156494e-01
-2.107574194669723511e-01 -8.527599275112152100e-02 -3.432358801364898682e-01
-1.417666226625442505e-01 -1.805529743432998657e-01 5.099947452545166016e-01
-1.275929063558578491e-01 -2.250719368457794189e-01 4.014225304126739502e-01
-9.996796399354934692e-02 -1.974619179964065552e-01 -1.370258331298828125e-01
-2.115900069475173950e-01 -1.576132625341415405e-01 -3.406703770160675049e-01
-1.776288300752639771e-01 -1.908698230981826782e-01 -5.532606840133666992e-01
-1.459279060363769531e-01 -2.394359260797500610e-01 -3.570831120014190674e-01
-1.274721175432205200e-01 -2.431241273880004883e-01 2.781718075275421143e-01
-2.048282474279403687e-01 -7.499698549509048462e-02 -2.181833982467651367e-02
-1.083670854568481445e-01 -2.013088613748550415e-01 2.500744760036468506e-01
-2.173741459846496582e-01 -1.231242418289184570e-01 -4.243407547473907471e-01
-1.220087110996246338e-01 -2.567271888256072998e-01 -2.044895291328430176e-01
-1.318700611591339111e-01 -1.376324146986007690e-01 -2.589542567729949951e-01
-1.660458445549011230e-01 -2.213774919509887695e-01 -3.797634243965148926e-01
-1.346215158700942993e-01 -1.681934893131256104e-01 -6.116355061531066895e-01
-1.812254637479782104e-01 -8.870974183082580566e-02 -2.767213582992553711e-01
-1.694013327360153198e-01 -2.115204185247421265e-01 -4.608625769615173340e-01
-1.238274350762367249e-01 -2.365247309207916260e-01 3.302093446254730225e-01
-1.903721243143081665e-01 -1.529835760593414307e-01 -6.162978410720825195e-01
-1.734163761138916016e-01 -1.269017159938812256e-01 4.760840833187103271e-01
-1.499648094177246094e-01 -1.147632449865341187e-01 -2.510159313678741455e-01
-1.978803575038909912e-01 -7.771766185760498047e-02 -1.720182299613952637e-01
-1.769756525754928589e-01 -2.047257423400878906e-01 -4.405364394187927246e-01
-1.848566830158233643e-01 -8.290003985166549683e-02 -5.976337194442749023e-02
-1.742883622646331787e-01 -1.041401103138923645e-01 2.994461357593536377e-01
-1.619082540273666382e-01 -2.175483405590057373e-01 -4.767366945743560791e-01
-2.163869440555572510e-01 -1.281119585037231445e-01 3.524063527584075928e-01
-1.363751292228698730e-01 -1.725486516952514648e-01 4.603733122348785400e-01
-1.106059625744819641e-01 -2.535150051116943359e-01 1.080851629376411438e-01
-1.699260026216506958e-01 -1.779713928699493408e-01 5.418552160263061523e-01
-2.120921462774276733e-01 -1.670977324247360229e-01 -1.818194985389709473e-01
-1.533675342798233032e-01 -2.295059114694595337e-01 -4.235103130340576172e-01
-2.189179360866546631e-01 -7.803884148597717285e-02 -1.749142706394195557e-01
-1.707435548305511475e-01 -9.350677579641342163e-02 4.531607031822204590e-03
-1.150991544127464294e-01 -2.096425443887710571e-01 -5.414365530014038086e-01
-2.301654815673828125e-01 -1.050688922405242920e-01 -1.941879987716674805e-01
-1.197581589221954346e-01 -2.583996057510375977e-01 -1.469641327857971191e-01
-1.761240065097808838e-01 -8.880598843097686768e-02 -1.261194050312042236e-01
-2.220393419265747070e-01 -7.771111279726028442e-02 -7.850758731365203857e-03
-1.489693075418472290e-01 -2.144243270158767700e-01 -5.845593214035034180e-01
-1.640855818986892700e-01 -1.043988317251205444e-01 1.674982905387878418e-01
-1.346272230148315430e-01 -1.521506756544113159e-01 -5.221293568611145020e-01
-2.090443968772888184e-01 -1.260169446468353271e-01 -5.127149820327758789e-01
-1.697508059442043304e-02 -1.870144307613372803e-01 4.682982861995697021e-01
-6.568512320518493652e-02 -2.100992351770401001e-01 -5.412914752960205078e-01
-3.160493075847625732e-02 -2.449047565460205078e-01 -6.048259735107421875e-01
5.292714759707450867e-02 -2.341434657573699951e-01 5.066078156232833862e-02
5.377243086695671082e-02 -2.227976918220520020e-01 -5.135991573333740234e-01
2.505375444889068604e-02 -1.885171234607696533e-01 3.672969043254852295e-01
2.805404365062713623e-02 -2.053129374980926514e-01 3.915929198265075684e-01
7.399167120456695557e-02 -2.064067572355270386e-01 -1.542057693004608154e-01
-9.717187285423278809e-02 -2.009074240922927856e-01 -2.098089158535003662e-01
4.306237772107124329e-02 -1.745548993349075317e-01 -4.254385828971862793e-01
-1.068965643644332886e-01 -2.480950802564620972e-01 5.478382110595703125e-03
-3.574675321578979492e-02 -1.733508408069610596e-01 -4.067599773406982422e-01
-1.123603284358978271e-01 -2.295132130384445190e-01 -9.342310577630996704e-02
-3.613448888063430786e-02 -1.679213792085647583e-01 2.474168241024017334e-01
3.647497296333312988e-02 -1.649862974882125854e-01 2.399733662605285645e-02
5.613472312688827515e-03 -1.661411523818969727e-01 -4.007018804550170898e-01
-6.099065393209457397e-02 -1.807793229818344116e-01 3.418333232402801514e-01
5.592240020632743835e-02 -1.900154352188110352e-01 1.602251827716827393e-01
-1.134672611951828003e-01 -2.243699282407760620e-01 1.270738244056701660e-01
-5.435764417052268982e-02 -1.671972870826721191e-01 3.323445469141006470e-02
-8.402827382087707520e-02 -2.045210748910903931e-01 -3.926531076431274414e-01
-1.018609255552291870e-01 -2.534047663211822510e-01 2.387415617704391479e-02
-1.291169319301843643e-02 -2.649969160556793213e-01 1.382832229137420654e-01
-5.340023711323738098e-02 -2.050610184669494629e-01 -5.829364657402038574e-01
1.994094997644424438e-02 -1.660896539688110352e-01 -3.844271004199981689e-01
-5.579911917448043823e-02 -2.610889971256256104e-01 2.836520373821258545e-01
-2.275704219937324524e-02 -1.873364746570587158e-01 -5.914704203605651855e-01
-6.508874148130416870e-02 -2.559495866298675537e-01 -4.208321869373321533e-01
1.911037787795066833e-02 -1.620745062828063965e-01 -2.908577322959899902e-01
-8.002462238073348999e-02 -2.008424997329711914e-01 4.191412031650543213e-01
-5.398280918598175049e-02 -1.735844612121582031e-01 -2.901706397533416748e-01
5.711744353175163269e-02 -2.184213399887084961e-01 1.420715451240539551e-01
-5.064844712615013123e-02 -1.746763288974761963e-01 -3.374531567096710205e-01
-3.497411310672760010e-02 -2.321446239948272705e-01 -6.521756052970886230e-01
-3.947500884532928467e-02 -1.639306247234344482e-01 1.097181066870689392e-01
5.875587835907936096e-02 -2.333927601575851440e-01 -3.264076411724090576e-01
-9.781871736049652100e-02 -1.955234408378601074e-01 1.711051762104034424e-01
-7.949416339397430420e-02 -2.608438432216644287e-01 -2.550601959228515625e-01
4.493834450840950012e-02 -2.334845513105392456e-01 1.624702513217926025e-01
-2.175911888480186462e-02 -1.623065471649169922e-01 1.577463150024414062e-01
3.210285305976867676e-02 -2.424189299345016479e-01 1.893503069877624512e-01
-4.317112267017364502e-02 -2.721840143203735352e-01 -3.611090034246444702e-02
-2.838934957981109619e-02 -2.663503885269165039e-01 -3.637368977069854736e-01
6.935890763998031616e-03 -2.651803195476531982e-01 -9.589255601167678833e-02
-3.484053164720535278e-02 -2.501807212829589844e-01 4.063234329223632812e-01
-4.319722577929496765e-02 -2.686760127544403076e-01 -2.934591174125671387e-01
-7.209384441375732422e-02 -2.437426149845123291e-01 4.256177842617034912e-01
-9.619936347007751465e-02 -2.071632146835327148e-01 -2.837057411670684814e-01
7.577313110232353210e-03 -1.696556508541107178e-01 -4.565441608428955078e-01
1.392771303653717041e-02 -1.583769321441650391e-01 -7.621695846319198608e-02
-7.519005239009857178e-02 -1.771926730871200562e-01 -7.596397399902343750e-02
1.471494138240814209e-02 -1.718696355819702148e-01 2.833561897277832031e-01
-3.199511393904685974e-02 -2.387471199035644531e-01 -6.353018283843994141e-01
1.663563027977943420e-02 -1.782108545303344727e-01 3.380120694637298584e-01
-1.457574870437383652e-02 -2.384131401777267456e-01 -6.528162360191345215e-01
5.272915586829185486e-02 -2.330450266599655151e-01 6.939934939146041870e-02
-1.124121993780136108e-01 -2.189929187297821045e-01 -5.821821093559265137e-02
6.285996735095977783e-02 -2.303564101457595825e-01 -2.751852273941040039e-01
-8.456645905971527100e-02 -2.504507601261138916e-01 3.213703334331512451e-01
5.891190096735954285e-02 -2.336458563804626465e-01 -6.931626051664352417e-02
-1.607965677976608276e-04 -1.674935221672058105e-01 2.661384940147399902e-01
-1.801274530589580536e-02 -2.708345949649810791e-01 -1.186568588018417358e-01
3.572472929954528809e-02 -1.626741886138916016e-01 -1.242627352476119995e-01
-8.367028087377548218e-03 -1.691980212926864624e-01 3.013516068458557129e-01
1.576436683535575867e-02 -2.456110566854476929e-01 -5.612577795982360840e-01
-9.687697887420654297e-02 -2.340851426124572754e-01 -3.315849006175994873e-01
9.006489068269729614e-03 -1.681577414274215698e-01 -4.338544309139251709e-01
3.742844611406326294e-02 -2.439553588628768921e-01 -4.533624649047851562e-01
-2.060092985630035400e-03 -1.611455678939819336e-01 1.400925219058990479e-01
3.856696560978889465e-02 -1.637812554836273193e-01 -1.698590517044067383e-01
-3.236694261431694031e-02 -2.605521380901336670e-01 2.849952280521392822e-01
-1.143655031919479370e-01 -2.263867110013961792e-01 7.574840635061264038e-02
-1.056432276964187622e-01 -2.166846096515655518e-01 2.731063961982727051e-01
-6.676940619945526123e-02 -2.560386657714843750e-01 3.303627371788024902e-01
3.825534135103225708e-02 -2.483480870723724365e-01 -3.597525358200073242e-01
-3.175069391727447510e-02 -2.632812857627868652e-01 2.400428652763366699e-01
-2.945541031658649445e-02 -1.708309650421142578e-01 3.155055940151214600e-01
5.318240448832511902e-02 -1.723015904426574707e-01 -2.782465219497680664e-01
7.283951342105865479e-02 -2.082605659961700439e-01 -1.001995950937271118e-01
1.716369763016700745e-03 -2.625871598720550537e-01 -3.653109967708587646e-01
4.930213466286659241e-02 -2.442874014377593994e-01 -1.788613498210906982e-01
-9.163711965084075928e-02 -2.492225766181945801e-01 -2.958070039749145508e-01
-3.450167551636695862e-02 -2.554088830947875977e-01 3.540160655975341797e-01
2.754945307970046997e-02 -1.711723506450653076e-01 -4.478647410869598389e-01
1.012980751693248749e-02 -1.585592329502105713e-01 -1.681614220142364502e-01
2.047684416174888611e-02 -2.467628568410873413e-01 2.310881614685058594e-01
5.291580036282539368e-02 -1.808526366949081421e-01 1.242760941386222839e-01
-4.029244929552078247e-02 -1.744235157966613770e-01 3.414312899112701416e-01
-1.137525886297225952e-01 -2.297220826148986816e-01 1.089093759655952454e-01
2.619003877043724060e-02 -1.786101162433624268e-01 3.003765642642974854e-01
-4.921422153711318970e-02 -2.562083303928375244e-01 -4.795735180377960205e-01
-9.932482242584228516e-02 -2.547170519828796387e-01 -7.625980675220489502e-02
5.322651192545890808e-02 -1.768323183059692383e-01 -3.765114247798919678e-01
-1.053507030010223389e-01 -2.362242043018341064e-01 -2.173557877540588379e-01
1.657870411872863770e-02 -2.574292719364166260e-01 8.418595045804977417e-02
1.695866137742996216e-02 -2.456314563751220703e-01 2.681591212749481201e-01
-9.239080548286437988e-02 -2.084448486566543579e-01 -3.359634280204772949e-01
-1.004697978496551514e-01 -2.343504726886749268e-01 -2.908721566200256348e-01
-6.902807950973510742e-02 -2.036928385496139526e-01 4.816663563251495361e-01
-2.036202140152454376e-02 -2.354311496019363403e-01 4.831410944461822510e-01
-1.068320125341415405e-01 -2.062897980213165283e-01 1.521788835525512695e-01
-5.893278121948242188e-02 -2.704725265502929688e-01 -1.442944109439849854e-01
1.938065513968467712e-02 -1.593153327703475952e-01 -4.013409093022346497e-02
-6.494747847318649292e-02 -2.497139424085617065e-01 3.983457386493682861e-01
-7.500074803829193115e-02 -1.826017946004867554e-01 2.651880085468292236e-01
-1.138208806514739990e-01 -2.336547076702117920e-01 1.813371479511260986e-02
3.922448679804801941e-02 -2.470062673091888428e-01 -3.779966831207275391e-01
-3.775896877050399780e-02 -1.625322848558425903e-01 -9.757007658481597900e-02
-3.526412695646286011e-02 -1.616406887769699097e-01 4.709191620349884033e-03
5.716123804450035095e-02 -2.373125851154327393e-01 -2.322950661182403564e-01
-8.313667774200439453e-02 -1.846152395009994507e-01 2.021487057209014893e-01
-6.751348078250885010e-02 -2.657491862773895264e-01 1.608409881591796875e-01
-5.782866105437278748e-02 -2.710568606853485107e-01 -1.055884063243865967e-01
7.173433899879455566e-02 -1.988650113344192505e-01 -5.360773205757141113e-02
-7.841914892196655273e-02 -2.638266980648040771e-01 1.368032693862915039e-01
4.170448705554008484e-02 -2.490144371986389160e-01 -2.569367885589599609e-01
-3.240349516272544861e-02 -1.631764173507690430e-01 -2.035981714725494385e-01
-1.075233668088912964e-01 -2.089131474494934082e-01 -9.697911888360977173e-02
-4.559076577425003052e-02 -2.708369493484497070e-01 -2.115815281867980957e-01
4.015810042619705200e-02 -2.488788515329360962e-01 -3.085652291774749756e-01
-1.001284569501876831e-01 -2.543062865734100342e-01 7.097475975751876831e-02
-7.387685775756835938e-02 -2.562308907508850098e-01 3.051553964614868164e-01
-3.599684685468673706e-02 -2.503941357135772705e-01 -5.608054399490356445e-01
-4.052789881825447083e-03 -2.682075798511505127e-01 -1.580523252487182617e-01
-3.544540703296661377e-02 -1.622147858142852783e-01 -1.183892190456390381e-01
-2.686943300068378448e-02 -1.646939516067504883e-01 -2.889043688774108887e-01
4.307027533650398254e-02 -2.355182468891143799e-01 -5.065131187438964844e-01
-9.775453805923461914e-02 -1.936218440532684326e-01 -3.732921555638313293e-02
3.456919267773628235e-02 -1.624893993139266968e-01 -7.767845690250396729e-02
5.863598361611366272e-02 -2.187837958335876465e-01 1.210559085011482239e-01
-1.497516129165887833e-02 -2.679641246795654297e-01 6.335274130105972290e-02
-1.471966505050659180e-03 -2.339806407690048218e-01 4.420478045940399170e-01
-8.936823904514312744e-02 -1.918968111276626587e-01 2.546123564243316650e-01
3.937760367989540100e-03 -1.662234067916870117e-01 2.376628220081329346e-01
-2.339772880077362061e-02 -2.004680633544921875e-01 5.263383388519287109e-01
-3.896642476320266724e-02 -2.041729241609573364e-01 5.371658205986022949e-01
5.975917354226112366e-02 -2.272062003612518311e-01 -4.093460440635681152e-01
-6.729130446910858154e-02 -2.692703306674957275e-01 1.302005350589752197e-02
-1.041987240314483643e-01 -2.178175300359725952e-01 2.963724434375762939e-01
-6.529015302658081055e-02 -1.728741377592086792e-01 -1.228774487972259521e-01
-4.815590567886829376e-03 -1.579751074314117432e-01 -1.252431571483612061e-01
6.822924315929412842e-02 -2.160036861896514893e-01 -3.672384321689605713e-01
-8.179403841495513916e-02 -1.807124614715576172e-01 -3.850325196981430054e-02
6.334985792636871338e-02 -2.001905292272567749e-01 1.053222939372062683e-01
-1.108139157295227051e-01 -2.413638532161712646e-01 -2.671974524855613708e-02
-2.187128551304340363e-02 -1.641593724489212036e-01 2.069263160228729248e-01
6.983672082424163818e-02 -2.206736654043197632e-01 -1.753391027450561523e-01
2.491864189505577087e-02 -2.297992706298828125e-01 -6.373511552810668945e-01
1.652039214968681335e-02 -2.600051462650299072e-01 7.585808634757995605e-03
5.757282301783561707e-02 -1.733276247978210449e-01 -1.842062771320343018e-01
6.908538937568664551e-02 -2.193906754255294800e-01 -3.057296574115753174e-01
5.152389779686927795e-02 -2.412157505750656128e-01 -2.935570776462554932e-01
-3.562106564640998840e-02 -2.722490429878234863e-01 -1.204722300171852112e-01
3.964387997984886169e-02 -1.877253651618957520e-01 2.833812832832336426e-01
-8.358739316463470459e-02 -1.980261653661727905e-01 -3.486901819705963135e-01
-4.739636927843093872e-02 -1.890585720539093018e-01 -5.202229619026184082e-01
-8.945126831531524658e-02 -1.960919201374053955e-01 -2.629974782466888428e-01
-1.130034774541854858e-01 -2.271341532468795776e-01 -7.397484034299850464e-02
1.643787696957588196e-02 -2.557108700275421143e-01 -4.226901829242706299e-01
1.984193921089172363e-03 -2.116017788648605347e-01 4.923884570598602295e-01
6.908540427684783936e-02 -2.170431315898895264e-01 -5.533598735928535461e-02
7.338704541325569153e-03 -2.050607651472091675e-01 -6.925859451293945312e-01
-1.462500356137752533e-02 -1.733385324478149414e-01 -4.801769852638244629e-01
-2.009662240743637085e-02 -2.695066034793853760e-01 3.684895485639572144e-02
-6.329722702503204346e-02 -2.413671612739562988e-01 -5.331473350524902344e-01
1.897251605987548828e-02 -2.601031959056854248e-01 -4.255018755793571472e-02
-3.210411593317985535e-02 -1.619020998477935791e-01 -1.484339088201522827e-01
-2.245738357305526733e-02 -2.648912370204925537e-01 -3.908268511295318604e-01
1.841878518462181091e-03 -1.605151593685150146e-01 -2.669584155082702637e-01
-5.017070472240447998e-02 -2.698881030082702637e-01 -2.327523231506347656e-01
7.157054543495178223e-02 -1.906334161758422852e-01 -1.335627138614654541e-01
-2.432143874466419220e-02 -2.564004659652709961e-01 -5.167195200920104980e-01
-7.023501396179199219e-02 -2.653458118438720703e-01 -2.390041649341583252e-01
5.583301559090614319e-02 -2.103216946125030518e-01 -5.369462370872497559e-01
-6.136057898402214050e-02 -2.210359722375869751e-01 5.251566767692565918e-01
1.905263215303421021e-02 -2.525456547737121582e-01 1.593330800533294678e-01
-3.109026513993740082e-02 -2.520881891250610352e-01 3.839380145072937012e-01
-2.404840476810932159e-02 -1.595957279205322266e-01 -8.461582660675048828e-02
-8.349141478538513184e-02 -1.833342909812927246e-01 1.579810678958892822e-01
-5.219569802284240723e-02 -2.570484578609466553e-01 3.412354588508605957e-01
-6.218983605504035950e-02 -2.666820883750915527e-01 -2.646793425083160400e-01
4.585151746869087219e-02 -2.156644761562347412e-01 -5.940964818000793457e-01
3.243157640099525452e-02 -1.852990239858627319e-01 -5.744177699089050293e-01
-1.651623658835887909e-02 -2.473090887069702148e-01 3.972233235836029053e-01
-1.079612970352172852e-01 -2.119715362787246704e-01 2.019111216068267822e-01
1.413620635867118835e-02 -2.603244185447692871e-01 -3.287805616855621338e-01
4.640370607376098633e-04 -1.589173376560211182e-01 -2.019034922122955322e-01
-9.470647573471069336e-02 -1.904019862413406372e-01 -1.912926882505416870e-02
1.581107825040817261e-02 -1.854537427425384521e-01 3.896847963333129883e-01
-1.668046787381172180e-02 -2.420705556869506836e-01 4.372499287128448486e-01
-4.528476297855377197e-02 -1.667519360780715942e-01 1.642099320888519287e-01
8.664444088935852051e-03 -1.659208238124847412e-01 2.199874818325042725e-01
4.131871089339256287e-02 -1.663611382246017456e-01 -2.641651332378387451e-01
5.127446725964546204e-02 -1.719684451818466187e-01 -3.005472421646118164e-01
7.095180451869964600e-02 -2.184594869613647461e-01 -1.977094858884811401e-01
-6.832010112702846527e-03 -2.610351145267486572e-01 -4.336827993392944336e-01
9.304968640208244324e-03 -2.582775354385375977e-01 1.346831321716308594e-01
-1.021649539470672607e-01 -2.366701066493988037e-01 2.949118316173553467e-01
3.548928350210189819e-02 -1.758493781089782715e-01 -4.799609482288360596e-01
-4.092775285243988037e-02 -1.649851649999618530e-01 1.401153206825256348e-01
-6.431107223033905029e-02 -1.868606805801391602e-01 -4.022725224494934082e-01
-9.561327099800109863e-02 -2.527186870574951172e-01 -2.038183808326721191e-01
-6.821454502642154694e-03 -2.686728835105895996e-01 -1.783899664878845215e-01
-9.647530317306518555e-02 -2.576576173305511475e-01 -1.724091544747352600e-02
2.126562595367431641e-02 -1.738917231559753418e-01 -4.976558983325958252e-01
-4.618422314524650574e-02 -2.698149383068084717e-01 -2.502807974815368652e-01
-9.520359337329864502e-02 -2.556787729263305664e-01 1.465151309967041016e-01
-4.478316754102706909e-02 -1.785137504339218140e-01 -4.296748936176300049e-01
6.087106093764305115e-02 -2.321752309799194336e-01 -9.359996020793914795e-02
-4.189939051866531372e-02 -2.629276812076568604e-01 2.590883672237396240e-01
1.742857322096824646e-02 -1.858115494251251221e-01 -6.074465513229370117e-01
3.092177957296371460e-02 -2.511939406394958496e-01 5.655524879693984985e-02
-1.897192373871803284e-02 -1.663525551557540894e-01 2.564466595649719238e-01
-6.190842017531394958e-02 -1.764071583747863770e-01 -2.707341611385345459e-01
-6.350034475326538086e-02 -2.695714533329010010e-01 4.272527992725372314e-02
-8.649425208568572998e-02 -1.910669505596160889e-01 2.779768705368041992e-01
5.277218297123908997e-02 -1.739648133516311646e-01 2.730355411767959595e-02
-2.187941223382949829e-02 -2.706019282341003418e-01 -2.062858641147613525e-01
5.513220652937889099e-02 -2.297609597444534302e-01 -4.451424777507781982e-01
-7.989059388637542725e-02 -2.654953896999359131e-01 -1.017638444900512695e-01
3.850085660815238953e-02 -2.306200861930847168e-01 2.470180988311767578e-01
-9.246484935283660889e-02 -1.894968450069427490e-01 -7.669427990913391113e-02
-6.578201055526733398e-02 -2.635725140571594238e-01 -3.102331757545471191e-01
-4.904044792056083679e-02 -1.655105203390121460e-01 -6.700547039508819580e-02
2.150058001279830933e-02 -2.601130008697509766e-01 -1.509660780429840088e-01
7.819198071956634521e-04 -2.663995027542114258e-01 -4.028323292732238770e-02
-1.676948741078376770e-03 -2.252397835254669189e-01 4.787815511226654053e-01
-6.770482659339904785e-02 -1.853536069393157959e-01 -3.581932783126831055e-01
-6.785932928323745728e-04 -2.612002193927764893e-01 -4.089378714561462402e-01
-8.013648539781570435e-02 -2.302082479000091553e-01 -4.754813015460968018e-01
-3.834025189280509949e-02 -2.723632454872131348e-01 -7.956113666296005249e-02
-3.170622512698173523e-02 -2.693185806274414062e-01 9.839703887701034546e-02
-1.074251830577850342e-01 -2.116303741931915283e-01 -1.345249563455581665e-01
-6.004393473267555237e-02 -2.438082396984100342e-01 4.502011835575103760e-01
-9.027975797653198242e-02 -1.914308816194534302e-01 -1.794303059577941895e-01
-1.047695726156234741e-01 -2.416949719190597534e-01 -1.913366019725799561e-01
-1.075908094644546509e-01 -2.051620036363601685e-01 1.082988083362579346e-02
-6.097432971000671387e-02 -1.705158948898315430e-01 1.045124754309654236e-01
-1.015852838754653931e-01 -2.143702358007431030e-01 -2.578207552433013916e-01
3.155994415283203125e-02 -2.352604120969772339e-01 2.653479278087615967e-01
-8.231177926063537598e-02 -2.626825273036956787e-01 -1.781926751136779785e-01
-8.772431313991546631e-02 -2.626877129077911377e-01 -3.863308206200599670e-02
-1.488555409014225006e-02 -1.605700552463531494e-01 1.174858286976814270e-01
-8.021856844425201416e-02 -2.113316208124160767e-01 4.601206481456756592e-01
-4.247043281793594360e-02 -1.678559333086013794e-01 -2.602304816246032715e-01
-4.460065811872482300e-02 -1.662091910839080811e-01 -1.886886060237884521e-01
2.818671986460685730e-03 -2.523207664489746094e-01 -5.314645171165466309e-01
-3.245690464973449707e-02 -2.530997991561889648e-01 -5.434057712554931641e-01
-5.249704793095588684e-02 -2.671552300453186035e-01 1.718147993087768555e-01
-7.786265574395656586e-03 -2.028897404670715332e-01 5.108570456504821777e-01
2.967330068349838257e-02 -1.617292761802673340e-01 -2.322567999362945557e-02
2.117988467216491699e-02 -1.616649776697158813e-01 -2.688941955566406250e-01
6.470784544944763184e-02 -1.795521676540374756e-01 -1.593686044216156006e-01
1.446487382054328918e-02 -1.584172546863555908e-01 -9.477739036083221436e-02
-8.621904253959655762e-02 -1.990234404802322388e-01 3.657360374927520752e-01
6.146447733044624329e-03 -2.575839757919311523e-01 -4.464850127696990967e-01
2.686294540762901306e-02 -2.445699572563171387e-01 -5.215910673141479492e-01
-9.629791975021362305e-02 -1.928009986877441406e-01 1.339904069900512695e-01
-5.333483964204788208e-02 -1.668264567852020264e-01 -4.564401507377624512e-02
-6.873966753482818604e-02 -1.939317882061004639e-01 4.315461814403533936e-01
-8.370263874530792236e-02 -2.266370058059692383e-01 -4.543356001377105713e-01
2.152137085795402527e-02 -1.950533986091613770e-01 4.064356684684753418e-01
-1.033937335014343262e-01 -2.081412374973297119e-01 2.525973320007324219e-01
-7.704853266477584839e-02 -1.896675378084182739e-01 3.470807969570159912e-01
-4.363529384136199951e-02 -1.800935864448547363e-01 -4.542236328125000000e-01
6.554836407303810120e-03 -2.654448151588439941e-01 -1.269132196903228760e-01
5.196718499064445496e-02 -1.733194589614868164e-01 -3.244128823280334473e-01
4.829783365130424500e-02 -2.070971280336380005e-01 2.606518864631652832e-01
5.509730055928230286e-02 -2.364283502101898193e-01 -3.533550724387168884e-02
-4.235441237688064575e-02 -2.445820569992065430e-01 4.545808732509613037e-01
-8.878585696220397949e-02 -2.421543598175048828e-01 3.665608465671539307e-01
6.839095056056976318e-02 -1.914849281311035156e-01 -3.487959206104278564e-01
-2.391181886196136475e-02 -2.502090036869049072e-01 -5.756026506423950195e-01
-7.690387777984142303e-03 -2.445317655801773071e-01 -6.166495084762573242e-01
5.557835102081298828e-03 -2.610365152359008789e-01 1.039166823029518127e-01
-6.516702473163604736e-02 -2.700208723545074463e-01 -5.085381120443344116e-02
1.562630385160446167e-02 -2.386014014482498169e-01 3.400363624095916748e-01
4.053637385368347168e-02 -2.096017301082611084e-01 3.161595463752746582e-01
4.401094093918800354e-02 -1.812681257724761963e-01 2.105999588966369629e-01
-1.856141537427902222e-02 -2.267823368310928345e-01 -6.875365376472473145e-01
3.988531604409217834e-02 -2.404215037822723389e-01 -4.792139828205108643e-01
-2.350550144910812378e-03 -2.559091150760650635e-01 2.508257627487182617e-01
-7.599377632141113281e-02 -2.617970407009124756e-01 2.054296433925628662e-01
4.146663472056388855e-02 -2.434261739253997803e-01 -4.200982749462127686e-01
7.353724539279937744e-02 -2.021580487489700317e-01 -2.749892771244049072e-01
3.832466527819633484e-02 -1.840425729751586914e-01 -5.456026196479797363e-01
-9.011322259902954102e-02 -2.246675193309783936e-01 4.203337430953979492e-01
-5.847289785742759705e-02 -1.713847815990447998e-01 1.789105534553527832e-01
2.354332432150840759e-02 -2.591223418712615967e-01 -1.221572384238243103e-01
-1.049804240465164185e-01 -2.014693319797515869e-01 8.256318420171737671e-02
-5.634794756770133972e-02 -2.640782296657562256e-01 -3.497732281684875488e-01
4.624727740883827209e-02 -1.789444983005523682e-01 1.710441112518310547e-01
6.426051259040832520e-02 -2.295257896184921265e-01 -2.170979082584381104e-01
-9.134875237941741943e-02 -2.586923837661743164e-01 -1.462084054946899414e-01
-6.790714710950851440e-02 -1.738396584987640381e-01 1.226726546883583069e-01
6.553642451763153076e-02 -1.811346858739852905e-01 -1.096636950969696045e-01
-6.852386891841888428e-02 -1.809856444597244263e-01 2.957411110401153564e-01
-5.469808354973793030e-02 -1.891288161277770996e-01 4.477017223834991455e-01
-7.393351197242736816e-02 -2.457099407911300659e-01 -4.572475552558898926e-01
-7.314232178032398224e-03 -2.573880255222320557e-01 -4.914310872554779053e-01
-1.040194835513830185e-02 -2.683854699134826660e-01 5.095787346363067627e-03
5.623092874884605408e-02 -1.816606223583221436e-01 -4.122232794761657715e-01
-5.704711005091667175e-02 -2.628469169139862061e-01 -3.676366209983825684e-01
-2.137157134711742401e-02 -2.408303916454315186e-01 4.553031623363494873e-01
2.011988312005996704e-03 -2.542761266231536865e-01 -5.100862383842468262e-01
-7.528217136859893799e-02 -1.861618608236312866e-01 3.179392218589782715e-01
-3.002092987298965454e-02 -2.681523263454437256e-01 1.292600333690643311e-01
-1.926571875810623169e-02 -2.633386254310607910e-01 -4.170945286750793457e-01
7.387042045593261719e-02 -1.975098252296447754e-01 -1.734492182731628418e-01
-1.888264901936054230e-02 -1.805285215377807617e-01 4.258243739604949951e-01
-7.396143674850463867e-02 -1.799910664558410645e-01 -1.993898004293441772e-01
9.391034021973609924e-03 -2.643369734287261963e-01 -2.005395591259002686e-01
3.574546426534652710e-04 -1.863933354616165161e-01 -6.169563531875610352e-01
-1.669782958924770355e-02 -2.236999124288558960e-01 5.184530615806579590e-01
-5.491281300783157349e-02 -1.855820119380950928e-01 4.187581539154052734e-01
4.209642484784126282e-02 -2.046331465244293213e-01 -6.158689856529235840e-01
-4.726698994636535645e-02 -2.203277796506881714e-01 -6.341322064399719238e-01
-2.384044043719768524e-02 -2.670845389366149902e-01 -3.430925011634826660e-01
-7.679384946823120117e-02 -2.655155956745147705e-01 -1.606282293796539307e-01
5.182424560189247131e-02 -2.422302365303039551e-01 -2.098570466041564941e-01
2.120446413755416870e-03 -1.834613084793090820e-01 -5.973349809646606445e-01
-6.663499027490615845e-02 -2.012292146682739258e-01 -4.990648925304412842e-01
4.696311429142951965e-03 -1.622913181781768799e-01 -3.191367089748382568e-01
1.254454255104064941e-02 -1.590621620416641235e-01 1.312121003866195679e-02
5.380415543913841248e-02 -1.894050687551498413e-01 -4.997341632843017578e-01
-1.095801889896392822e-01 -2.389873862266540527e-01 1.648075580596923828e-01
-4.143843427300453186e-03 -1.577319502830505371e-01 -4.358272626996040344e-02
2.672677114605903625e-02 -2.557171881198883057e-01 -7.911346852779388428e-03
3.558600321412086487e-03 -1.641791462898254395e-01 2.015250027179718018e-01
-1.037705838680267334e-01 -2.061947286128997803e-01 -1.534957736730575562e-01
-5.504496395587921143e-02 -1.724228411912918091e-01 2.380634546279907227e-01
3.506077453494071960e-03 -1.625853776931762695e-01 1.673505306243896484e-01
-7.315962761640548706e-02 -2.015166282653808594e-01 -4.588918089866638184e-01
5.418158695101737976e-02 -1.787032186985015869e-01 -3.947297930717468262e-01
-1.004404872655868530e-01 -2.403888404369354248e-01 -2.644113302230834961e-01
-8.371023833751678467e-02 -2.527444362640380859e-01 -3.337887525558471680e-01
7.287431508302688599e-03 -2.639301717281341553e-01 -1.283090561628341675e-02
5.051970109343528748e-02 -1.739020049571990967e-01 5.894926935434341431e-02
3.428595513105392456e-02 -1.658121943473815918e-01 7.280819863080978394e-02
-5.661369487643241882e-02 -2.659780979156494141e-01 1.926409006118774414e-01
-1.050276756286621094e-01 -2.136715352535247803e-01 -2.002560794353485107e-01
1.630432531237602234e-02 -1.785177290439605713e-01 -5.522600412368774414e-01
-4.138132929801940918e-02 -2.563655376434326172e-01 -4.973308145999908447e-01
-7.722708582878112793e-02 -2.555333077907562256e-01 -3.529846966266632080e-01
6.189893931150436401e-03 -2.607369422912597656e-01 -3.831703066825866699e-01
-1.095433682203292847e-01 -2.405681461095809937e-01 1.453057229518890381e-01
1.912818476557731628e-02 -2.257687449455261230e-01 -6.678843498229980469e-01
-2.512780949473381042e-02 -1.829637736082077026e-01 4.450200498104095459e-01
-4.634469747543334961e-02 -2.545823752880096436e-01 3.705614209175109863e-01
-2.072160691022872925e-02 -1.604479551315307617e-01 -1.858048737049102783e-01
-3.121661394834518433e-02 -1.781629323959350586e-01 4.009256064891815186e-01
-5.792539566755294800e-02 -1.901477426290512085e-01 -4.747231006622314453e-01
-1.530079171061515808e-03 -2.612079977989196777e-01 1.545824110507965088e-01
-1.514802500605583191e-02 -2.672056853771209717e-01 9.022564440965652466e-02
-1.117950826883316040e-01 -2.197902500629425049e-01 1.657341122627258301e-01
3.408630192279815674e-02 -2.528064846992492676e-01 -5.161156505346298218e-02
3.581933677196502686e-02 -2.021554261445999146e-01 3.472394943237304688e-01
-2.849176898598670959e-02 -2.717401683330535889e-01 -4.588565975427627563e-02
5.432621017098426819e-02 -2.289647161960601807e-01 9.521470218896865845e-02
-1.045269817113876343e-01 -2.477115690708160400e-01 -1.195557564496994019e-01
-7.448247075080871582e-02 -1.827543973922729492e-01 -2.506393492221832275e-01
-1.031953245401382446e-01 -2.374729067087173462e-01 -2.434697151184082031e-01
4.113197326660156250e-02 -1.708480119705200195e-01 1.116736158728599548e-01
7.416127249598503113e-03 -1.593329161405563354e-01 5.443488806486129761e-02
-1.567582786083221436e-02 -1.775203645229339600e-01 -5.247001051902770996e-01
4.157100990414619446e-02 -2.336721271276473999e-01 -5.340996384620666504e-01
-1.060799211263656616e-01 -2.039364278316497803e-01 1.226579770445823669e-01
2.814230322837829590e-02 -1.695916950702667236e-01 1.907233595848083496e-01
7.323814928531646729e-02 -1.968022882938385010e-01 -2.550708353519439697e-01
2.660335600376129150e-02 -1.613676398992538452e-01 -2.190626263618469238e-01
6.480899453163146973e-02 -1.822270005941390991e-01 -2.911343276500701904e-01
1.429259777069091797e-02 -2.617040574550628662e-01 -2.722977399826049805e-01
-1.660333946347236633e-03 -2.576580047607421875e-01 -4.739708304405212402e-01
-1.100030913949012756e-02 -1.644731014966964722e-01 2.240842580795288086e-01
7.408286631107330322e-02 -2.005264461040496826e-01 -2.335774302482604980e-01
1.553950458765029907e-02 -1.590950489044189453e-01 -9.914241731166839600e-03
-1.090466380119323730e-01 -2.251114994287490845e-01 -1.737936437129974365e-01
-8.594523370265960693e-02 -2.635251879692077637e-01 8.038505911827087402e-04
-7.043697871267795563e-03 -1.644420474767684937e-01 -3.555358052253723145e-01
-8.800713345408439636e-03 -1.637879461050033569e-01 -3.376069664955139160e-01
-1.937387511134147644e-03 -1.960014849901199341e-01 4.835269153118133545e-01
-1.028404235839843750e-01 -1.984688639640808105e-01 2.740535885095596313e-02
-2.902729250490665436e-02 -1.826210170984268188e-01 -5.377236604690551758e-01
-1.126981824636459351e-01 -2.166806757450103760e-01 9.156573563814163208e-02
-5.528776347637176514e-02 -1.746255755424499512e-01 2.804597914218902588e-01
4.206757247447967529e-02 -1.659683436155319214e-01 -2.360293269157409668e-01
4.734041914343833923e-02 -2.235386669635772705e-01 2.163441777229309082e-01
-4.142801463603973389e-02 -1.774152219295501709e-01 3.754658102989196777e-01
-2.737250179052352905e-02 -2.202686965465545654e-01 5.392773151397705078e-01
-8.053348958492279053e-02 -1.916314065456390381e-01 -3.137352466583251953e-01
1.788838207721710205e-02 -1.714472919702529907e-01 -4.728577435016632080e-01
3.809972852468490601e-02 -2.508218884468078613e-01 -7.159847766160964966e-02
-8.224240690469741821e-02 -2.114606201648712158e-01 -4.405496716499328613e-01
-7.588468492031097412e-02 -2.630069851875305176e-01 1.793635487556457520e-01
1.197800040245056152e-02 -2.184846997261047363e-01 4.500235021114349365e-01
6.251726299524307251e-04 -1.585425734519958496e-01 3.461009263992309570e-02
-1.135238260030746460e-01 -2.187758088111877441e-01 5.875016003847122192e-02
2.228118479251861572e-03 -1.596548110246658325e-01 8.369583636522293091e-02
1.655497401952743530e-02 -2.378787398338317871e-01 -6.191056966781616211e-01
6.280604004859924316e-02 -1.993475258350372314e-01 -4.674021601676940918e-01
6.299616396427154541e-02 -2.186370342969894409e-01 5.892313271760940552e-02
-5.677729099988937378e-02 -2.710320353507995605e-01 -1.252773255109786987e-01
-7.734033465385437012e-02 -2.600921988487243652e-01 -2.882460057735443115e-01
-5.092824622988700867e-02 -2.388408482074737549e-01 4.869829714298248291e-01
-1.050945967435836792e-01 -2.017250061035156250e-01 -7.891789078712463379e-03
4.891270026564598083e-02 -1.803450584411621094e-01 -4.582475423812866211e-01
-1.023429930210113525e-01 -2.129976153373718262e-01 -2.391861379146575928e-01
-8.318132162094116211e-02 -2.549023926258087158e-01 2.767628729343414307e-01
2.351736277341842651e-02 -2.479049563407897949e-01 -5.008220076560974121e-01
-6.917852163314819336e-02 -2.202041596174240112e-01 5.080603361129760742e-01
5.226393416523933411e-02 -1.697872430086135864e-01 -1.350276172161102295e-01
3.800111636519432068e-02 -1.932474672794342041e-01 -6.004503965377807617e-01
-2.428717911243438721e-02 -2.652583122253417969e-01 1.821725070476531982e-01
1.387092471122741699e-02 -2.594437599182128906e-01 6.153776496648788452e-02
5.131488665938377380e-02 -2.215649783611297607e-01 1.888654828071594238e-01
7.059681415557861328e-02 -2.124648094177246094e-01 -3.373727798461914062e-01
2.077243849635124207e-02 -2.109259665012359619e-01 4.246182739734649658e-01
-6.432716548442840576e-02 -1.839720010757446289e-01 3.629903793334960938e-01
4.520551487803459167e-02 -1.681106090545654297e-01 -2.149567008018493652e-03
-2.673333510756492615e-02 -1.605278104543685913e-01 5.372788757085800171e-02
-7.672381401062011719e-02 -2.670757770538330078e-01 -2.535962685942649841e-02
-2.803775109350681305e-02 -2.342138737440109253e-01 5.003648996353149414e-01
3.891931101679801941e-02 -2.507407069206237793e-01 -9.612625092267990112e-02
-8.375011384487152100e-02 -2.432454079389572144e-01 -4.076960980892181396e-01
-1.628542318940162659e-02 -1.587063372135162354e-01 4.886239767074584961e-03
3.652158752083778381e-02 -2.441377192735671997e-01 1.208641156554222107e-01
-2.982115000486373901e-02 -1.693997532129287720e-01 2.926189005374908447e-01
-9.703317284584045410e-02 -2.551414370536804199e-01 1.272001266479492188e-01
-1.091934889554977417e-01 -2.359431087970733643e-01 2.008737623691558838e-01
-9.935404360294342041e-02 -2.185183167457580566e-01 3.500223159790039062e-01
1.799901574850082397e-02 -2.552523016929626465e-01 1.184609159827232361e-01
