9.465700984001159668e-01 6.383477151393890381e-02 -5.419927835464477539e-02
9.443889260292053223e-01 -7.950961589813232422e-02 6.243532896041870117e-02
9.171139001846313477e-01 9.268358349800109863e-02 7.101171649992465973e-04
2.612811326980590820e-01 1.462937146425247192e-02 -4.406837373971939087e-02
3.203209340572357178e-01 5.936139449477195740e-02 6.228364259004592896e-02
9.597782492637634277e-01 1.259587705135345459e-02 -8.063943684101104736e-02
6.405516266822814941e-01 -1.317287981510162354e-01 -9.493704885244369507e-03
8.914327621459960938e-01 -1.222491413354873657e-01 3.122043795883655548e-02
9.237877130508422852e-01 4.072751477360725403e-02 -7.077647000551223755e-02
1.591403484344482422e-01 1.005710102617740631e-02 6.130523979663848877e-02
1.516688466072082520e-01 1.669183373451232910e-03 -2.530245669186115265e-02
1.901923418045043945e-01 4.941908642649650574e-02 5.006731301546096802e-02
7.025814056396484375e-02 -2.255080454051494598e-02 2.132043242454528809e-02
5.224914550781250000e-01 -8.994901180267333984e-02 6.316548585891723633e-02
1.023915529251098633e+00 5.985018983483314514e-02 4.411152005195617676e-02
6.916956305503845215e-01 -4.963336512446403503e-02 -8.121515065431594849e-02
1.247636914253234863e+00 4.544283822178840637e-02 3.496709396131336689e-04
5.848389863967895508e-01 8.712331950664520264e-02 -3.167023509740829468e-02
6.971720457077026367e-01 1.019305884838104248e-01 9.340609423816204071e-03
2.106398940086364746e-01 -6.785352528095245361e-02 4.347462207078933716e-02
4.357840418815612793e-01 -1.168237924575805664e-01 9.014328010380268097e-03
2.868587672710418701e-01 -9.029921889305114746e-02 -1.249310281127691269e-02
8.050268888473510742e-01 7.644847035408020020e-02 -4.760881513357162476e-02
4.248957335948944092e-01 -6.065817549824714661e-02 7.490067929029464722e-02
9.030637145042419434e-01 8.244308829307556152e-02 -3.562973439693450928e-02
9.559394121170043945e-01 -7.169559597969055176e-03 7.536800205707550049e-02
6.412202715873718262e-01 -1.274129003286361694e-01 2.376573532819747925e-02
9.524007439613342285e-01 -3.092681616544723511e-02 7.514019310474395752e-02
1.190731525421142578e+00 -9.414587914943695068e-02 -5.315876007080078125e-02
1.009608983993530273e+00 -1.292002648115158081e-01 1.397160463966429234e-03
6.110089421272277832e-01 -1.097640097141265869e-01 -4.765277355909347534e-02
2.374548316001892090e-01 4.285934194922447205e-02 6.276664882898330688e-02
8.812217712402343750e-01 6.939844787120819092e-02 5.290420353412628174e-02
1.030648827552795410e+00 -9.461377561092376709e-02 -6.678395718336105347e-02
5.876467227935791016e-01 -1.172594130039215088e-01 -3.643668442964553833e-02
2.924852967262268066e-01 2.225534245371818542e-02 -4.662995785474777222e-02
1.255443811416625977e+00 -9.932260215282440186e-02 -3.178626298904418945e-03
9.184281826019287109e-01 2.487966045737266541e-02 7.287460565567016602e-02
2.484291195869445801e-01 -7.006405293941497803e-02 -2.560332790017127991e-02
6.003621816635131836e-01 3.233785554766654968e-02 8.368425071239471436e-02
7.547147870063781738e-01 -9.359292685985565186e-02 -6.812488287687301636e-02
6.104329824447631836e-01 -8.366841077804565430e-02 6.967897713184356689e-02
8.962713479995727539e-01 9.272447228431701660e-02 -1.225043088197708130e-02
6.533049345016479492e-01 -8.057017624378204346e-02 -7.010868936777114868e-02
4.242618680000305176e-01 9.074012935161590576e-02 3.496172279119491577e-02
1.154817223548889160e+00 6.325991451740264893e-02 -2.171336673200130463e-02
6.064987182617187500e-01 -1.305970102548599243e-01 2.297116443514823914e-03
1.257180333137512207e+00 5.647901445627212524e-03 -5.926473438739776611e-02
7.717077732086181641e-01 -1.335312426090240479e-01 -2.189225144684314728e-02
9.073126316070556641e-01 -4.090983793139457703e-02 -8.607997745275497437e-02
1.251871109008789062e+00 -7.861515879631042480e-02 -5.494289845228195190e-02
9.103783965110778809e-01 6.683836877346038818e-02 -5.341190099716186523e-02
8.475980162620544434e-01 -1.124404370784759521e-01 -5.669723451137542725e-02
6.942787170410156250e-01 -4.975835978984832764e-02 8.297634869813919067e-02
1.361479520797729492e+00 8.708167821168899536e-03 -1.723760180175304413e-02
6.387439966201782227e-01 -4.202891886234283447e-02 -8.003676682710647583e-02
9.339881539344787598e-01 8.630180358886718750e-02 2.381813712418079376e-02
7.629838585853576660e-01 1.067231595516204834e-02 8.446543663740158081e-02
9.387564659118652344e-01 -1.280015856027603149e-01 -3.495562076568603516e-02
8.927103281021118164e-01 2.586525306105613708e-02 7.445706427097320557e-02
1.694622039794921875e-01 5.182350054383277893e-02 4.170460999011993408e-02
1.074559211730957031e+00 -1.136761307716369629e-01 2.293490990996360779e-02
6.129882335662841797e-01 -1.255136132240295410e-01 -2.541450969874858856e-02
1.397878408432006836e+00 -3.604163229465484619e-02 -2.292423509061336517e-02
6.056926846504211426e-01 9.932070970535278320e-02 2.711915783584117889e-02
1.133460879325866699e+00 -8.272318542003631592e-02 -6.700128316879272461e-02
8.453405499458312988e-01 -2.489119954407215118e-02 8.207226544618606567e-02
1.123712062835693359e-01 -3.637341037392616272e-02 4.036339372396469116e-02
6.278916001319885254e-01 7.902777194976806641e-02 -4.308851808309555054e-02
9.631667733192443848e-01 8.227658271789550781e-02 -2.902352623641490936e-02
6.896927952766418457e-01 -1.903564110398292542e-02 8.774927258491516113e-02
1.141911983489990234e+00 2.129038795828819275e-03 -7.395464181900024414e-02
8.253726363182067871e-01 8.772414922714233398e-02 3.757274895906448364e-02
1.271931648254394531e+00 -8.945420384407043457e-02 7.889140397310256958e-03
9.801070094108581543e-01 -4.343750327825546265e-02 7.135383784770965576e-02
1.034973382949829102e+00 -1.287450641393661499e-01 -7.326967082917690277e-03
4.315831661224365234e-01 -9.037601947784423828e-02 5.695225298404693604e-02
3.672982752323150635e-01 -3.283045254647731781e-03 -6.040061265230178833e-02
5.087708234786987305e-01 -6.870234012603759766e-02 -6.464976817369461060e-02
9.643711447715759277e-01 -1.232403367757797241e-01 -4.215646535158157349e-02
1.097825288772583008e+00 -1.082957386970520020e-01 2.606266178190708160e-02
8.790854215621948242e-01 8.397293090820312500e-02 3.696905821561813354e-02
4.420130848884582520e-01 -2.950287237763404846e-02 8.476340770721435547e-02
1.266191720962524414e+00 -4.796816036105155945e-02 3.465683013200759888e-02
9.513036012649536133e-01 -1.181451380252838135e-01 3.207220137119293213e-02
4.022119939327239990e-01 1.550222188234329224e-02 -6.115632504224777222e-02
4.499630928039550781e-01 -1.874741725623607635e-02 -6.899179518222808838e-02
1.776222586631774902e-01 -4.446200281381607056e-02 5.434294044971466064e-02
3.092781901359558105e-01 -9.815172851085662842e-02 -3.658095374703407288e-03
7.772159576416015625e-01 9.126283228397369385e-02 -2.853109315037727356e-02
1.135163187980651855e+00 -8.878457546234130859e-02 3.799863904714584351e-02
5.122553706169128418e-01 -1.191535890102386475e-01 2.724332362413406372e-02
7.690715193748474121e-01 3.377968072891235352e-02 7.905519753694534302e-02
5.607752203941345215e-01 -5.253295600414276123e-02 8.236854523420333862e-02
1.048546552658081055e+00 -1.101475805044174194e-01 -5.335480719804763794e-02
1.804875135421752930e-01 8.915325626730918884e-03 6.508442759513854980e-02
9.695589542388916016e-01 4.758181050419807434e-02 5.922553688287734985e-02
3.051689863204956055e-01 -5.883147567510604858e-02 6.617034226655960083e-02
1.375584840774536133e+00 -4.259341396391391754e-03 -2.816528826951980591e-02
2.033461332321166992e-01 1.419512555003166199e-03 -3.646426647901535034e-02
1.386343955993652344e+00 -3.829738497734069824e-02 -1.531328540295362473e-03
2.424521446228027344e-01 -4.704095050692558289e-02 -3.758088499307632446e-02
1.018808841705322266e+00 -2.874590456485748291e-02 7.005470246076583862e-02
4.913356900215148926e-01 -9.578531980514526367e-02 5.678775906562805176e-02
6.502995491027832031e-01 -2.126145362854003906e-02 8.820212632417678833e-02
8.634803891181945801e-01 -1.749912276864051819e-03 8.109028637409210205e-02
9.164165854454040527e-01 -1.101136505603790283e-01 4.358238726854324341e-02
5.726281404495239258e-01 -7.235167920589447021e-02 -6.837071478366851807e-02
1.041031837463378906e+00 -3.755619376897811890e-02 -8.348420262336730957e-02
4.232990443706512451e-01 -1.323239970952272415e-02 8.588407188653945923e-02
9.641480445861816406e-02 1.114540174603462219e-02 -6.091316230595111847e-03
8.252465724945068359e-01 -2.179669216275215149e-03 -8.495523035526275635e-02
2.609752416610717773e-01 2.852318435907363892e-02 7.128903269767761230e-02
1.117098212242126465e+00 -7.968905381858348846e-03 5.973399430513381958e-02
1.012124538421630859e+00 -9.690804779529571533e-02 4.677647352218627930e-02
2.579004168510437012e-01 -2.464805729687213898e-02 -4.567436873912811279e-02
9.326461553573608398e-01 -1.257845014333724976e-01 2.227825298905372620e-02
1.350650787353515625e-01 -3.061723150312900543e-02 5.121570080518722534e-02
7.793201804161071777e-01 7.545532286167144775e-02 5.558232963085174561e-02
5.236843824386596680e-01 8.507777750492095947e-02 -3.004384227097034454e-02
1.206883072853088379e+00 -1.045870482921600342e-01 6.672267336398363113e-03
2.045515775680541992e-01 3.043393418192863464e-02 6.360489130020141602e-02
4.595752954483032227e-01 -8.247797191143035889e-02 -5.301921814680099487e-02
1.016150712966918945e+00 7.920366525650024414e-02 -2.578254975378513336e-02
3.575945794582366943e-01 6.172736361622810364e-02 6.392955780029296875e-02
8.363076448440551758e-01 -7.335691154003143311e-02 7.111956924200057983e-02
1.306324124336242676e+00 1.646107062697410583e-03 -5.139015614986419678e-02
5.261981487274169922e-01 -1.248065233230590820e-01 -5.213189870119094849e-03
3.778303563594818115e-01 3.088973835110664368e-02 7.946610450744628906e-02
1.225794672966003418e+00 -9.466287493705749512e-02 1.561738085001707077e-02
3.506142795085906982e-01 7.458145916461944580e-02 -2.166287228465080261e-02
4.843218326568603516e-01 8.258748054504394531e-02 5.293399840593338013e-02
5.194175243377685547e-01 9.672041237354278564e-02 -8.132582530379295349e-03
5.056124925613403320e-01 9.940683841705322266e-02 1.211290992796421051e-02
1.237737894058227539e+00 -2.792363986372947693e-02 4.272565245628356934e-02
7.521206140518188477e-01 6.918391585350036621e-02 -5.459057539701461792e-02
6.176759600639343262e-01 9.146963059902191162e-02 4.372745007276535034e-02
6.389144659042358398e-01 6.081743910908699036e-02 -5.824664980173110962e-02
1.200222492218017578e+00 4.024748131632804871e-02 -4.629814624786376953e-02
1.106320023536682129e+00 5.416362360119819641e-02 3.525528311729431152e-02
1.092909455299377441e+00 5.954698100686073303e-02 -4.415050894021987915e-02
4.691326618194580078e-01 5.333219841122627258e-02 7.456430047750473022e-02
3.444910347461700439e-01 8.788540959358215332e-02 2.062944509088993073e-02
4.861988425254821777e-01 -1.346492394804954529e-02 8.781342208385467529e-02
8.454549312591552734e-01 7.138456404209136963e-02 5.435071140527725220e-02
2.844984233379364014e-01 -7.179784029722213745e-02 5.502069741487503052e-02
2.117644548416137695e-01 -2.809708192944526672e-02 -3.695832192897796631e-02
4.853866100311279297e-01 -4.061904177069664001e-02 8.396068215370178223e-02
1.216760396957397461e+00 -3.750897943973541260e-03 4.465547949075698853e-02
5.540223121643066406e-01 1.010509133338928223e-01 1.057788264006376266e-02
8.739238977432250977e-01 -2.332740649580955505e-02 8.068598061800003052e-02
4.625175893306732178e-01 8.062936365604400635e-02 -2.971993573009967804e-02
5.392445325851440430e-01 7.103949785232543945e-02 6.509479880332946777e-02
1.291609525680541992e+00 -9.125798940658569336e-02 -4.898235667496919632e-03
1.144956469535827637e+00 1.408011838793754578e-02 5.173314362764358521e-02
8.599656224250793457e-01 5.060029402375221252e-02 -6.680212169885635376e-02
2.619665265083312988e-01 -7.036738842725753784e-02 5.243861675262451172e-02
2.722394764423370361e-01 -6.374482810497283936e-02 -3.539106249809265137e-02
2.298941016197204590e-01 4.785939678549766541e-02 -2.414896897971630096e-02
1.352711796760559082e+00 -3.764785081148147583e-02 1.435967255383729935e-02
1.205675244331359863e+00 -6.606869399547576904e-02 -6.718590110540390015e-02
1.231929540634155273e+00 -6.790111958980560303e-02 -6.333573162555694580e-02
8.039807677268981934e-01 -7.688903808593750000e-02 -7.724322378635406494e-02
2.399541139602661133e-01 6.506210565567016602e-02 4.476851969957351685e-02
8.765485286712646484e-01 -5.040180683135986328e-02 7.660347223281860352e-02
5.756455659866333008e-01 -1.263477504253387451e-01 -1.602667011320590973e-02
1.015844464302062988e+00 3.709182888269424438e-02 5.952179431915283203e-02
1.176398754119873047e+00 -2.453755214810371399e-02 -7.531556487083435059e-02
2.068871855735778809e-01 -6.776890158653259277e-02 -1.551094651222229004e-02
9.912369251251220703e-01 -1.219167560338973999e-01 2.244567871093750000e-02
7.839905619621276855e-01 -2.875864878296852112e-02 -8.596899360418319702e-02
3.969438970088958740e-01 -1.659398898482322693e-02 8.450344949960708618e-02
7.174218893051147461e-01 9.109900891780853271e-02 4.105696827173233032e-02
7.160568237304687500e-01 8.825203776359558105e-02 -3.417109698057174683e-02
2.017024159431457520e-01 4.945946857333183289e-02 -1.629130728542804718e-02
8.828680515289306641e-01 -6.954790651798248291e-02 -8.057519048452377319e-02
1.188666820526123047e+00 -8.024442195892333984e-02 3.520219027996063232e-02
4.618692994117736816e-01 4.277445748448371887e-02 -5.743465572595596313e-02
1.363638758659362793e+00 -6.455905735492706299e-02 -5.301042459905147552e-03
6.948742270469665527e-01 -1.164580583572387695e-01 -4.711703211069107056e-02
5.457918643951416016e-01 1.105823554098606110e-02 8.785181492567062378e-02
6.924321055412292480e-01 -1.226836740970611572e-01 3.517024219036102295e-02
7.914640903472900391e-01 3.985406830906867981e-02 -7.269866764545440674e-02
1.076178073883056641e+00 3.054863214492797852e-02 -6.823145598173141479e-02
1.176399230957031250e+00 -6.429439038038253784e-02 -7.071555405855178833e-02
9.364441037178039551e-01 -5.424782261252403259e-02 -8.402066677808761597e-02
3.316854536533355713e-01 9.380932897329330444e-04 8.132860064506530762e-02
5.420845150947570801e-01 9.243546426296234131e-02 -2.038529515266418457e-02
3.075312972068786621e-01 5.983296781778335571e-03 -5.221565812826156616e-02
1.278513908386230469e+00 -5.449884571135044098e-03 3.275514394044876099e-02
1.156800270080566406e+00 2.764432504773139954e-02 -6.224068999290466309e-02
9.840766191482543945e-01 -1.315285861492156982e-01 -1.715705730020999908e-02
1.324622631072998047e+00 2.138695120811462402e-02 -1.989795127883553505e-04
7.860800027847290039e-01 -1.198852956295013428e-01 3.891530632972717285e-02
3.291724622249603271e-01 2.858858928084373474e-02 7.712979614734649658e-02
1.160801768302917480e+00 -1.160684376955032349e-01 -2.307567745447158813e-02
1.610741615295410156e-01 4.551946744322776794e-02 -7.723347283899784088e-03
1.166836023330688477e+00 3.050365671515464783e-02 4.127585887908935547e-02
2.572522759437561035e-01 6.839707493782043457e-02 -9.521070867776870728e-03
1.156690239906311035e+00 6.369672715663909912e-02 4.062899854034185410e-03
7.955676913261413574e-01 9.918768703937530518e-02 9.461183100938796997e-03
1.222529053688049316e+00 5.166925117373466492e-02 -1.874932274222373962e-02
5.818532705307006836e-01 -9.002210199832916260e-02 -6.043085455894470215e-02
8.687013983726501465e-01 8.818313479423522949e-02 -2.871977351605892181e-02
1.276242971420288086e+00 2.128436043858528137e-02 2.152817696332931519e-02
1.115215778350830078e+00 -1.147219836711883545e-01 -3.999070823192596436e-02
2.884251177310943604e-01 2.028583735227584839e-02 7.590305805206298828e-02
5.035431385040283203e-01 6.685607135295867920e-02 6.750319153070449829e-02
5.542731881141662598e-01 2.036052942276000977e-02 -7.176633924245834351e-02
2.418202757835388184e-01 2.543478831648826599e-02 -3.784803301095962524e-02
3.338933289051055908e-01 -7.127597182989120483e-02 6.191688776016235352e-02
8.845561146736145020e-01 -1.317503303289413452e-02 -8.627769351005554199e-02
3.221957087516784668e-01 6.881852447986602783e-02 -2.334735170006752014e-02
6.968790888786315918e-01 4.002544283866882324e-02 -7.114380598068237305e-02
6.817387342453002930e-01 8.069191873073577881e-02 5.538445711135864258e-02
9.572428464889526367e-01 -5.841997638344764709e-02 6.952808797359466553e-02
9.249948263168334961e-01 -6.650277413427829742e-03 -8.521654456853866577e-02
8.943782448768615723e-01 -9.869886934757232666e-02 -6.737370043992996216e-02
5.684636831283569336e-01 -1.273451000452041626e-01 1.229325588792562485e-02
7.479546666145324707e-01 -4.456884786486625671e-02 8.302491158246994019e-02
3.863479495048522949e-01 -4.960365593433380127e-02 -5.837766081094741821e-02
1.106543183326721191e+00 3.202747926115989685e-02 5.031969398260116577e-02
1.002825736999511719e+00 8.010348677635192871e-02 2.133917249739170074e-02
1.415597796440124512e-01 4.272787272930145264e-02 4.215717315673828125e-02
8.143936395645141602e-01 5.804292485117912292e-02 6.606494635343551636e-02
9.057294130325317383e-01 8.418960869312286377e-02 3.292159736156463623e-02
1.242865920066833496e+00 -9.637185931205749512e-02 -4.017709195613861084e-02
7.281638979911804199e-01 -1.051065176725387573e-01 -5.943188071250915527e-02
8.890442252159118652e-01 6.113967671990394592e-02 -5.901475995779037476e-02
8.486074209213256836e-01 9.269106388092041016e-02 2.484219521284103394e-02
1.060317158699035645e+00 -1.218196004629135132e-01 -3.539173305034637451e-02
7.816711664199829102e-01 -8.684200048446655273e-02 6.653229147195816040e-02
5.442808270454406738e-01 -1.261787116527557373e-01 9.745595976710319519e-03
1.099816083908081055e+00 -6.321227550506591797e-02 5.513262748718261719e-02
1.146746158599853516e+00 -1.171359121799468994e-01 -2.332414267584681511e-03
5.173690915107727051e-01 7.985709607601165771e-02 5.701946467161178589e-02
1.133863329887390137e+00 -1.191147118806838989e-01 -2.354910597205162048e-02
4.067966938018798828e-01 -8.192871510982513428e-02 6.156798452138900757e-02
6.870633959770202637e-01 1.542111486196517944e-02 -7.898153364658355713e-02
2.836461663246154785e-01 7.205696403980255127e-02 4.462575912475585938e-02
6.869411468505859375e-01 9.682808816432952881e-02 3.197741881012916565e-02
3.931233882904052734e-01 1.556872203946113586e-02 8.342652767896652222e-02
5.062973499298095703e-01 7.209655642509460449e-02 -4.235865920782089233e-02
6.683623790740966797e-01 1.009654998779296875e-01 -5.248403176665306091e-03
1.285337209701538086e+00 -7.913247495889663696e-02 -4.764696210622787476e-02
4.527913033962249756e-01 9.351453185081481934e-02 -6.089477799832820892e-03
6.433315277099609375e-01 9.624941647052764893e-02 -1.911205612123012543e-02
8.315712809562683105e-01 -6.946769356727600098e-02 -8.022397756576538086e-02
2.684538662433624268e-01 -9.265211224555969238e-02 7.826886139810085297e-03
6.156953573226928711e-01 7.333901524543762207e-02 6.333591789007186890e-02
7.949974536895751953e-01 -1.656387746334075928e-02 8.472972363233566284e-02
7.520074844360351562e-01 -1.130894273519515991e-01 4.727934300899505615e-02
7.279545068740844727e-01 1.013837158679962158e-01 2.414973685517907143e-03
8.013165593147277832e-01 6.015730276703834534e-02 -6.133882701396942139e-02
1.003530263900756836e+00 9.904546663165092468e-03 6.928580254316329956e-02
8.764965534210205078e-01 9.539395570755004883e-02 1.183855347335338593e-04
5.851810574531555176e-01 -1.210810542106628418e-01 3.230000287294387817e-02
2.275143265724182129e-01 -8.424426615238189697e-02 9.411543607711791992e-03
8.070065975189208984e-01 -4.162574559450149536e-02 8.163651078939437866e-02
6.640150547027587891e-01 -1.325927227735519409e-01 -1.104220002889633179e-02
8.574362993240356445e-01 -1.268348246812820435e-01 2.604140155017375946e-02
1.163726687431335449e+00 -2.908278256654739380e-04 5.246981233358383179e-02
2.755172848701477051e-01 -5.436904355883598328e-02 6.501384824514389038e-02
1.230647563934326172e+00 1.586247608065605164e-02 -5.873029679059982300e-02
7.538570761680603027e-01 1.856474578380584717e-02 -7.982901483774185181e-02
9.719585180282592773e-01 7.253780961036682129e-02 3.903148323297500610e-02
1.192277431488037109e+00 5.532709136605262756e-02 -2.609931863844394684e-02
1.345893502235412598e+00 -1.660962030291557312e-02 1.645134575664997101e-02
1.917572617530822754e-01 -7.243731617927551270e-02 2.918197587132453918e-02
6.687394380569458008e-01 5.916125699877738953e-02 -6.031008064746856689e-02
3.166467249393463135e-01 -1.602348312735557556e-02 7.970341295003890991e-02
6.230467557907104492e-01 5.449316278100013733e-02 7.506167888641357422e-02
1.371800422668457031e+00 -4.739088937640190125e-03 -4.282484296709299088e-04
5.395526885986328125e-01 -2.832236699759960175e-02 -7.557302713394165039e-02
1.070864439010620117e+00 -1.258264929056167603e-01 -6.233585998415946960e-03
1.141707777976989746e+00 -1.612717844545841217e-02 5.717144906520843506e-02
9.419785737991333008e-01 -1.048988848924636841e-01 4.644525796175003052e-02
8.349696397781372070e-01 -1.349812895059585571e-01 5.541459657251834869e-03
1.116398334503173828e+00 -1.046776026487350464e-02 -7.844533771276473999e-02
2.735700607299804688e-01 3.284565731883049011e-02 -4.013942182064056396e-02
1.077546119689941406e+00 -1.030683666467666626e-01 -5.784370005130767822e-02
1.112535834312438965e+00 -3.595826774835586548e-02 -8.005654811859130859e-02
7.514628171920776367e-01 -1.928826235234737396e-02 8.617669343948364258e-02
6.492712497711181641e-01 -1.126074641942977905e-01 4.731073230504989624e-02
9.934597015380859375e-01 5.204508826136589050e-02 -6.082310527563095093e-02
7.935887575149536133e-01 -1.032507419586181641e-01 5.527082830667495728e-02
8.459814190864562988e-01 2.605543285608291626e-02 7.738764584064483643e-02
1.060540080070495605e-01 -6.949315778911113739e-03 4.956951737403869629e-02
4.612410068511962891e-01 1.771374419331550598e-02 8.553923666477203369e-02
3.685010075569152832e-01 7.967141270637512207e-02 4.740951955318450928e-02
7.712177038192749023e-01 4.614694789052009583e-02 -6.956855952739715576e-02
5.725460648536682129e-01 5.889485403895378113e-02 7.311186939477920532e-02
1.271715641021728516e+00 -9.721753001213073730e-02 -2.518516033887863159e-02
5.030456781387329102e-01 2.121423557400703430e-02 8.581677824258804321e-02
6.015640497207641602e-01 -3.575008362531661987e-02 8.664533495903015137e-02
4.808559417724609375e-01 -3.387585282325744629e-02 -7.067327201366424561e-02
5.186525583267211914e-01 -5.575953051447868347e-02 8.050661534070968628e-02
1.198238611221313477e+00 -1.386818848550319672e-02 4.899771511554718018e-02
1.169997334480285645e+00 -8.771757781505584717e-02 -6.063514947891235352e-02
6.403639912605285645e-01 7.687208056449890137e-02 6.002163141965866089e-02
8.317586183547973633e-01 -1.147653609514236450e-01 4.344289004802703857e-02
1.381413698196411133e+00 -2.963263168931007385e-02 -3.701387345790863037e-02
1.046597123146057129e+00 -8.085992932319641113e-02 -7.326307892799377441e-02
1.067496418952941895e+00 7.797910273075103760e-02 -6.745395250618457794e-03
1.810429692268371582e-01 -7.248894870281219482e-02 8.766345679759979248e-03
7.166771292686462402e-01 -1.334701478481292725e-01 1.083702035248279572e-02
8.924570679664611816e-01 -1.161279529333114624e-02 7.985719293355941772e-02
1.076849102973937988e+00 -6.267915666103363037e-02 5.781214684247970581e-02
2.806474268436431885e-01 -7.873494178056716919e-03 -4.981215298175811768e-02
7.802344560623168945e-01 -1.135833114385604858e-01 -5.419265478849411011e-02
1.019415259361267090e+00 -7.673165202140808105e-02 5.782709270715713501e-02
9.076427221298217773e-01 -1.345200836658477783e-01 -1.510138064622879028e-02
7.121611237525939941e-01 -9.206120669841766357e-02 6.476476788520812988e-02
5.513015985488891602e-01 -4.733623564243316650e-02 -7.401409745216369629e-02
5.387017130851745605e-01 -7.203991711139678955e-02 -6.587674468755722046e-02
5.816237330436706543e-01 -8.754745125770568848e-02 6.680145114660263062e-02
3.795017004013061523e-01 -9.469114243984222412e-02 4.674151539802551270e-02
1.214154601097106934e+00 -4.261708259582519531e-02 4.510261863470077515e-02
4.240619242191314697e-01 7.445637881755828857e-02 5.821244418621063232e-02
8.376731276512145996e-01 -1.269899010658264160e-01 -3.883824497461318970e-02
4.583231806755065918e-01 -1.151409149169921875e-01 2.629365213215351105e-02
1.065125703811645508e+00 -9.129637479782104492e-02 4.521257430315017700e-02
3.434222340583801270e-01 -1.798407733440399170e-02 -5.804021656513214111e-02
2.833835184574127197e-01 -7.241537794470787048e-03 7.762341201305389404e-02
5.350047945976257324e-01 -1.115170028060674667e-02 8.873973041772842407e-02
1.271660327911376953e-01 -2.830265089869499207e-03 -1.912366971373558044e-02
8.691335320472717285e-01 -1.084342598915100098e-01 -6.032366305589675903e-02
4.993962943553924561e-01 5.979852750897407532e-03 -7.116004079580307007e-02
1.057543635368347168e+00 4.128274321556091309e-02 -6.357921659946441650e-02
1.174096345901489258e+00 -1.083286106586456299e-01 1.008531637489795685e-02
7.991014719009399414e-01 2.259309962391853333e-02 8.072859048843383789e-02
1.019974946975708008e+00 3.970434516668319702e-02 -6.710777431726455688e-02
1.064704060554504395e+00 2.202349901199340820e-02 5.979235470294952393e-02
3.564324080944061279e-01 2.988787740468978882e-02 -5.225136131048202515e-02
5.361788272857666016e-01 -3.592002391815185547e-02 8.607994019985198975e-02
4.000165462493896484e-01 -1.000645607709884644e-01 -2.903673239052295685e-02
3.253572285175323486e-01 -3.177932277321815491e-02 -5.454411357641220093e-02
7.945130467414855957e-01 -1.340793371200561523e-01 -2.114042080938816071e-02
4.047233462333679199e-01 9.288331866264343262e-02 2.250678278505802155e-02
8.232187032699584961e-01 8.814257383346557617e-02 -3.193848580121994019e-02
1.401088833808898926e-01 4.844165965914726257e-02 6.115926895290613174e-03
1.360133290290832520e-01 -5.748485773801803589e-02 2.431201376020908356e-02
9.322457313537597656e-01 -8.919800817966461182e-02 -7.251307368278503418e-02
8.563693165779113770e-01 7.387590408325195312e-02 -4.887013137340545654e-02
5.151199102401733398e-01 -1.119287014007568359e-01 -3.392940014600753784e-02
2.346496880054473877e-01 -1.774818263947963715e-02 -4.244893789291381836e-02
5.450506210327148438e-01 5.607099458575248718e-02 -5.654290318489074707e-02
1.152582526206970215e+00 4.999653622508049011e-02 2.942206338047981262e-02
5.856893062591552734e-01 -1.540870312601327896e-02 8.889259397983551025e-02
1.276231288909912109e+00 3.671058639883995056e-02 -2.640363387763500214e-02
2.358164489269256592e-01 -5.869908258318901062e-02 5.672089755535125732e-02
1.347390174865722656e+00 -7.585945725440979004e-02 -2.110723592340946198e-02
7.410073280334472656e-01 8.829221129417419434e-02 4.377503693103790283e-02
1.031254291534423828e+00 5.803774669766426086e-02 -5.307388305664062500e-02
5.091590285301208496e-01 4.324258118867874146e-02 7.979217171669006348e-02
8.647177815437316895e-01 -2.429252676665782928e-02 -8.682057261466979980e-02
1.283660292625427246e+00 3.371806815266609192e-02 4.348978400230407715e-03
8.143808245658874512e-01 -1.289588510990142822e-01 -3.491158038377761841e-02
7.212688326835632324e-01 -3.999003022909164429e-02 -8.363503962755203247e-02
3.214038014411926270e-01 7.991729676723480225e-02 3.934781998395919800e-02
1.210607767105102539e+00 -1.056687533855438232e-01 -3.393934667110443115e-02
3.146280646324157715e-01 -9.067127108573913574e-02 4.027561843395233154e-02
4.787679016590118408e-01 -1.206098496913909912e-01 1.268756110221147537e-02
1.337075471878051758e+00 1.160872727632522583e-02 -3.439188748598098755e-02
1.035361289978027344e+00 -1.645335182547569275e-02 -8.339548856019973755e-02
1.172639131546020508e-01 2.996267005801200867e-02 -4.726362414658069611e-03
1.239665150642395020e-01 -5.229501426219940186e-02 6.459692027419805527e-03
7.532576918601989746e-01 9.584015607833862305e-02 -1.988724432885646820e-02
6.227016448974609375e-02 6.224177777767181396e-04 2.573628351092338562e-02
3.196480274200439453e-01 -6.865292042493820190e-02 -4.129122942686080933e-02
1.329805374145507812e+00 -3.593791276216506958e-02 2.184372767806053162e-02
9.511418938636779785e-01 6.740313768386840820e-02 4.715482890605926514e-02
3.515445590019226074e-01 2.879761531949043274e-02 7.854158431291580200e-02
-5.932065844535827637e-01 5.839545279741287231e-02 2.094293013215065002e-02
-5.735244750976562500e-01 1.634427160024642944e-01 -7.060791831463575363e-03
-4.630465805530548096e-01 2.979962155222892761e-02 2.724560163915157318e-02
-4.888612627983093262e-01 1.351422816514968872e-02 -2.087379992008209229e-02
-5.734004974365234375e-01 -1.789589226245880127e-02 1.051031798124313354e-02
-4.406342506408691406e-01 8.011414110660552979e-02 3.252993896603584290e-02
-4.869119524955749512e-01 1.352820843458175659e-01 -2.577918767929077148e-02
-4.214265942573547363e-01 4.227487742900848389e-02 2.270637452602386475e-02
-5.527742505073547363e-01 1.141794249415397644e-01 2.733016759157180786e-02
-5.567274689674377441e-01 2.946586534380912781e-02 2.550030127167701721e-02
-6.138844490051269531e-01 1.218517348170280457e-01 -1.207848777994513512e-03
-5.839654803276062012e-01 5.814794450998306274e-02 2.316327020525932312e-02
-4.418883025646209717e-01 8.024042844772338867e-02 -2.232176810503005981e-02
-6.043239235877990723e-01 1.353521645069122314e-01 -1.609937055036425591e-03
-3.843293190002441406e-01 1.467170715332031250e-01 -4.373020958155393600e-03
-4.126470088958740234e-01 5.694403499364852905e-02 -1.137583516538143158e-02
-5.301690101623535156e-01 1.192658543586730957e-01 3.034723363816738129e-02
-4.725197553634643555e-01 1.797516047954559326e-01 2.521322295069694519e-02
-5.902132987976074219e-01 1.148262545466423035e-01 1.773975603282451630e-02
-5.477046370506286621e-01 1.369952112436294556e-01 2.512289397418498993e-02
-4.769741594791412354e-01 2.011362314224243164e-01 -6.031251046806573868e-03
-5.959315299987792969e-01 1.440258920192718506e-01 -5.835395772010087967e-03
-5.390099287033081055e-01 -2.234656363725662231e-02 1.243470050394535065e-02
-5.397492051124572754e-01 1.504125148057937622e-01 -2.207558415830135345e-02
-5.994783639907836914e-01 4.568516835570335388e-02 1.868883706629276276e-02
-5.532866120338439941e-01 3.053398430347442627e-02 -2.776540443301200867e-02
-4.072643518447875977e-01 1.362277567386627197e-01 2.887797355651855469e-02
-5.076623558998107910e-01 1.721662431955337524e-01 2.395512536168098450e-02
-5.054996609687805176e-01 4.218886792659759521e-02 3.089342266321182251e-02
-4.355847239494323730e-01 3.067545965313911438e-02 2.285903133451938629e-02
-4.398337006568908691e-01 1.778577268123626709e-01 2.579724974930286407e-02
-5.880569219589233398e-01 1.843766868114471436e-02 1.838060654699802399e-02
-5.631651878356933594e-01 1.629308760166168213e-01 -1.295332238078117371e-02
-5.359712839126586914e-01 -1.417439430952072144e-02 1.664129085838794708e-02
-5.771216750144958496e-01 1.083871573209762573e-01 -2.525709569454193115e-02
-4.278474450111389160e-01 7.618159055709838867e-02 -1.895710267126560211e-02
-3.912135064601898193e-01 1.051882430911064148e-01 2.516967989504337311e-02
-3.804394602775573730e-01 7.936248183250427246e-02 1.402869448065757751e-02
-4.675041139125823975e-01 1.357244998216629028e-01 -2.436799928545951843e-02
-6.216285228729248047e-01 6.962845474481582642e-02 -1.823885366320610046e-02
-5.105113983154296875e-01 1.272077113389968872e-01 -2.739398926496505737e-02
-5.908734798431396484e-01 8.701613545417785645e-02 2.096397802233695984e-02
-5.189351439476013184e-01 -2.651033550500869751e-02 8.911259472370147705e-03
-5.142310261726379395e-01 5.200978368520736694e-02 3.165390342473983765e-02
-3.858186006546020508e-01 1.328398138284683228e-01 -6.694787647575139999e-03
-3.949997723102569580e-01 1.754550486803054810e-01 -1.696231542155146599e-03
-5.902426242828369141e-01 3.246144950389862061e-02 1.989633031189441681e-02
-4.530598521232604980e-01 4.604345187544822693e-02 2.949445508420467377e-02
-6.042465567588806152e-01 1.130489110946655273e-01 -1.745662093162536621e-02
-5.700926184654235840e-01 8.760749548673629761e-02 2.591956406831741333e-02
-4.124247729778289795e-01 4.597951844334602356e-02 -8.206166326999664307e-03
-5.298770666122436523e-01 1.119546592235565186e-01 -2.880388870835304260e-02
-4.690952301025390625e-01 1.061020120978355408e-01 3.471284359693527222e-02
-5.059884786605834961e-01 1.181308105587959290e-01 -2.824966050684452057e-02
-4.001083672046661377e-01 5.415169522166252136e-02 1.815613359212875366e-02
-5.381654500961303711e-01 9.277234226465225220e-02 -2.990865521132946014e-02
-4.217906296253204346e-01 1.632407009601593018e-01 2.760487981140613556e-02
-4.684933722019195557e-01 2.075386047363281250e-01 9.106406942009925842e-03
-4.293363094329833984e-01 1.683947443962097168e-02 -3.225991036742925644e-03
-5.284595489501953125e-01 6.370415538549423218e-02 -3.014241345226764679e-02
-4.838093519210815430e-01 2.559364587068557739e-02 -2.276807650923728943e-02
-5.907621383666992188e-01 2.603190392255783081e-02 -2.445874921977519989e-02
-5.042136907577514648e-01 1.062123477458953857e-01 -2.904338389635086060e-02
-6.250841617584228516e-01 5.511663854122161865e-02 9.064797312021255493e-03
-5.960506796836853027e-01 3.407921642065048218e-02 -2.450965344905853271e-02
-4.863232970237731934e-01 1.226875633001327515e-01 -2.704783342778682709e-02
-5.190411210060119629e-01 -1.463446021080017090e-02 1.663124933838844299e-02
-5.761138796806335449e-01 5.259715020656585693e-02 2.455821447074413300e-02
-4.945534467697143555e-01 3.370967507362365723e-02 -2.551751956343650818e-02
-5.099467039108276367e-01 9.264414012432098389e-02 -2.978527359664440155e-02
-4.041408598423004150e-01 1.183224469423294067e-01 -1.409994438290596008e-02
-5.012302994728088379e-01 1.891298592090606689e-01 -1.205230131745338440e-02
-4.196752905845642090e-01 6.543377041816711426e-02 2.769508957862854004e-02
-4.755392670631408691e-01 3.788684681057929993e-02 2.984561771154403687e-02
-6.120796203613281250e-01 1.128246411681175232e-01 7.607340347021818161e-03
-4.872321188449859619e-01 2.030306458473205566e-01 1.169149205088615417e-02
-5.901632308959960938e-01 1.513141989707946777e-01 -1.651691738516092300e-03
-3.763116896152496338e-01 9.125708788633346558e-02 2.481082919985055923e-03
-4.003305435180664062e-01 1.046166419982910156e-01 2.772570960223674774e-02
-5.492644906044006348e-01 -1.875682175159454346e-02 1.367291063070297241e-02
-5.744212865829467773e-01 6.241109594702720642e-02 2.527101896703243256e-02
-4.939923882484436035e-01 1.847584098577499390e-01 -1.445115730166435242e-02
-5.404939651489257812e-01 1.755125820636749268e-01 -1.290348917245864868e-02
-5.546203851699829102e-01 2.114983648061752319e-02 2.451362088322639465e-02
-4.546680152416229248e-01 -5.634851753711700439e-03 6.127620581537485123e-04
-4.349323213100433350e-01 8.051782846450805664e-03 8.047774434089660645e-03
-3.963786959648132324e-01 1.059625744819641113e-01 -1.141559705138206482e-02
-5.812095999717712402e-01 2.962065115571022034e-02 2.152808010578155518e-02
-5.995843410491943359e-01 1.033992841839790344e-01 -2.121926657855510712e-02
-4.610567092895507812e-01 1.974362730979919434e-01 1.865760423243045807e-02
-4.181133508682250977e-01 1.959486901760101318e-01 1.513030752539634705e-02
-4.582295715808868408e-01 1.570889949798583984e-01 3.058800473809242249e-02
-4.068928658962249756e-01 1.860903352499008179e-01 -2.094742842018604279e-03
-3.921150565147399902e-01 7.515803724527359009e-02 -5.810549017041921616e-03
-6.150243282318115234e-01 1.171943396329879761e-01 -8.612617850303649902e-03
-4.662210941314697266e-01 1.622639596462249756e-01 -2.014153823256492615e-02
-4.761625230312347412e-01 9.993608295917510986e-02 3.476260602474212646e-02
-6.115593910217285156e-01 3.669076785445213318e-02 -2.146734111011028290e-02
-4.886422455310821533e-01 -7.231071591377258301e-03 1.784828491508960724e-02
-5.501961112022399902e-01 1.655726581811904907e-01 -1.543131470680236816e-02
-5.900465846061706543e-01 1.458212435245513916e-01 6.935408804565668106e-03
-5.743383765220642090e-01 -2.735116332769393921e-02 -7.850803434848785400e-03
-4.996541440486907959e-01 6.317197531461715698e-02 -2.884523570537567139e-02
-5.440434217453002930e-01 4.528335854411125183e-02 -2.925314567983150482e-02
-6.198156476020812988e-01 1.070144921541213989e-01 3.235627897083759308e-03
-5.755794644355773926e-01 1.114151626825332642e-01 2.268109284341335297e-02
-4.225741922855377197e-01 1.032723039388656616e-01 -1.904595084488391876e-02
-4.499547779560089111e-01 1.030448824167251587e-01 3.418337553739547729e-02
-5.793007612228393555e-01 9.828918427228927612e-02 -2.616472356021404266e-02
-4.081252217292785645e-01 3.303649649024009705e-02 9.031995199620723724e-03
-5.207003355026245117e-01 5.973552539944648743e-02 3.189618885517120361e-02
-5.992164015769958496e-01 -2.536401152610778809e-03 -1.689871586859226227e-02
-4.118466675281524658e-01 1.345360577106475830e-01 -1.539891585707664490e-02
-4.311135411262512207e-01 3.918601572513580322e-02 -1.375313475728034973e-02
-4.314017891883850098e-01 2.917967736721038818e-02 -1.075400784611701965e-02
-5.976091027259826660e-01 1.286775320768356323e-01 -1.504472084343433380e-02
-6.186221241950988770e-01 2.912387996912002563e-02 -1.849496364593505859e-02
-5.064780712127685547e-01 7.651984691619873047e-02 3.355975821614265442e-02
-4.696961343288421631e-01 1.966551840305328369e-01 -8.899876847863197327e-03
-5.843922495841979980e-01 1.257010698318481445e-01 1.751480251550674438e-02
-5.631898045539855957e-01 1.951371878385543823e-02 2.311567217111587524e-02
-5.900697708129882812e-01 3.976523876190185547e-04 1.373437047004699707e-02
-3.756957054138183594e-01 8.829509466886520386e-02 1.202387362718582153e-02
-5.324178338050842285e-01 4.948087409138679504e-02 -2.949284948408603668e-02
-4.251600503921508789e-01 7.784479111433029175e-02 3.038896434009075165e-02
-5.468115210533142090e-01 5.529319867491722107e-02 2.921605855226516724e-02
-3.726603686809539795e-01 1.254787743091583252e-01 1.328176003880798817e-03
-6.263870596885681152e-01 3.610937297344207764e-02 -1.600764505565166473e-02
-5.264328718185424805e-01 1.771420836448669434e-01 1.857952028512954712e-02
-5.743536949157714844e-01 8.572272211313247681e-02 -2.785707451403141022e-02
-5.410866737365722656e-01 2.651806175708770752e-02 2.677637897431850433e-02
-5.670821666717529297e-01 1.536190360784530640e-01 -1.612898521125316620e-02
-4.372752308845520020e-01 6.898698210716247559e-02 3.106725215911865234e-02
-4.380106925964355469e-01 9.000261127948760986e-02 3.293123468756675720e-02
-5.310212969779968262e-01 7.640720903873443604e-02 3.175939247012138367e-02
-4.315145015716552734e-01 1.994609832763671875e-02 1.691203564405441284e-02
-6.114397644996643066e-01 1.033502742648124695e-01 1.088351197540760040e-02
-5.843048095703125000e-01 6.777637451887130737e-02 2.324921824038028717e-02
-4.706123173236846924e-01 1.512104570865631104e-01 -2.251507155597209930e-02
-5.310893654823303223e-01 1.773156374692916870e-01 -1.397773809731006622e-02
-5.630391240119934082e-01 1.668294370174407959e-01 1.050042919814586639e-02
-4.931350350379943848e-01 2.446796745061874390e-02 -2.382571436464786530e-02
-4.167374372482299805e-01 8.166263997554779053e-02 -1.649039983749389648e-02
-4.927228987216949463e-01 1.603868603706359863e-01 2.855394408106803894e-02
-4.381545186042785645e-01 1.304196119308471680e-01 3.281410411000251770e-02
-5.732516050338745117e-01 6.257059425115585327e-02 -2.857608720660209656e-02
-5.975965261459350586e-01 4.405235499143600464e-02 -2.495276182889938354e-02
-5.273967385292053223e-01 6.005011498928070068e-03 -2.316873706877231598e-02
-4.242587685585021973e-01 2.019432187080383301e-01 1.056594587862491608e-02
-4.503813683986663818e-01 1.577475070953369141e-01 -1.943537592887878418e-02
-6.167860031127929688e-01 3.194170072674751282e-02 1.147993095219135284e-02
-6.356964111328125000e-01 6.904621422290802002e-02 -4.154209513217210770e-03
-3.923278748989105225e-01 5.546447262167930603e-02 2.550651086494326591e-03
-5.506934523582458496e-01 5.890076607465744019e-02 -2.983796782791614532e-02
-5.027924776077270508e-01 1.353527158498764038e-01 3.160492703318595886e-02
-5.718382000923156738e-01 2.775506302714347839e-02 -2.661512047052383423e-02
-4.673261344432830811e-01 9.752549231052398682e-03 -1.545912399888038635e-02
-4.549147486686706543e-01 1.214421987533569336e-01 3.404849022626876831e-02
-3.764450252056121826e-01 1.164160072803497314e-01 1.931089535355567932e-02
-4.071323275566101074e-01 1.892561316490173340e-01 1.608438417315483093e-02
-4.419686794281005859e-01 9.600460529327392578e-03 -6.117747630923986435e-03
-5.913319587707519531e-01 -2.156089246273040771e-02 1.420198008418083191e-03
-5.064267516136169434e-01 1.370145231485366821e-01 -2.609789557754993439e-02
-5.512399077415466309e-01 1.563885957002639771e-01 1.963124610483646393e-02
-5.698586702346801758e-01 -8.795350790023803711e-03 1.508603617548942566e-02
-5.144464969635009766e-01 1.006263643503189087e-01 3.310514613986015320e-02
-4.466940760612487793e-01 1.083944663405418396e-01 -2.362792007625102997e-02
-5.613530278205871582e-01 1.820301264524459839e-02 -2.587614208459854126e-02
-3.723724484443664551e-01 1.273035705089569092e-01 1.646460406482219696e-02
-5.377736687660217285e-01 8.349470794200897217e-02 3.108793310821056366e-02
-5.216003656387329102e-01 5.585281923413276672e-02 -2.961939759552478790e-02
-4.438001811504364014e-01 5.927585065364837646e-03 1.321810856461524963e-02
-4.689581990242004395e-01 1.735584139823913574e-01 -1.766235567629337311e-02
-5.596421360969543457e-01 1.172163188457489014e-01 -2.633748948574066162e-02
-5.787357091903686523e-01 1.407029628753662109e-01 1.546825096011161804e-02
-5.573591589927673340e-01 1.284558326005935669e-01 -2.478889189660549164e-02
-4.147185981273651123e-01 4.789568856358528137e-02 2.231498993933200836e-02
-6.096881031990051270e-01 -1.142805069684982300e-02 -4.952751565724611282e-03
-5.194599628448486328e-01 8.761473000049591064e-02 3.289462998509407043e-02
-5.245168209075927734e-01 1.233022958040237427e-01 -2.774548530578613281e-02
-5.378801226615905762e-01 1.030904501676559448e-01 3.051510639488697052e-02
-5.920315980911254883e-01 1.022817716002464294e-01 1.911818049848079681e-02
-6.194435358047485352e-01 1.530347764492034912e-02 6.960589438676834106e-03
-5.518409013748168945e-01 1.448883563280105591e-01 2.259257435798645020e-02
-4.598531126976013184e-01 1.768780797719955444e-01 2.643532305955886841e-02
-5.313254594802856445e-01 -6.894789636135101318e-03 -1.982856355607509613e-02
-4.660812914371490479e-01 3.484271094202995300e-02 -2.155755273997783661e-02
-5.468390583992004395e-01 1.166683137416839600e-01 -2.754026837646961212e-02
-5.375828146934509277e-01 1.859779357910156250e-01 -6.201138254255056381e-03
-5.420591235160827637e-01 1.693890094757080078e-01 1.757156848907470703e-02
-6.188660860061645508e-01 4.749445617198944092e-02 -1.986311003565788269e-02
-4.043487608432769775e-01 1.531678140163421631e-01 2.655628696084022522e-02
-5.874417424201965332e-01 1.069598495960235596e-01 -2.358361519873142242e-02
-6.289923787117004395e-01 7.786338031291961670e-02 4.468099214136600494e-03
-6.090816259384155273e-01 4.738568887114524841e-02 -2.271461486816406250e-02
-4.496477842330932617e-01 1.816562414169311523e-01 -1.356973126530647278e-02
-4.906588494777679443e-01 1.547973752021789551e-01 -2.287866175174713135e-02
-3.857493996620178223e-01 9.221868216991424561e-02 2.155344747006893158e-02
-5.415123105049133301e-01 1.362796127796173096e-01 -2.496123500168323517e-02
-6.030908226966857910e-01 1.213547736406326294e-01 1.033778674900531769e-02
-4.831781685352325439e-01 1.581351459026336670e-01 2.967667952179908752e-02
-4.853664934635162354e-01 1.816797256469726562e-01 2.366302534937858582e-02
-5.361691117286682129e-01 -3.117177635431289673e-02 4.698481876403093338e-03
-4.453727602958679199e-01 3.205851465463638306e-02 -1.626415736973285675e-02
-4.991867244243621826e-01 1.051379740238189697e-02 2.491357736289501190e-02
-4.972569942474365234e-01 1.760124564170837402e-01 -1.755362562835216522e-02
-6.187626123428344727e-01 1.092141047120094299e-01 -9.916674345731735229e-03
-5.864991545677185059e-01 7.784841954708099365e-02 -2.668374590575695038e-02
-4.416076838970184326e-01 2.384573221206665039e-03 4.304015543311834335e-03
-4.925362169742584229e-01 -2.011756598949432373e-02 9.883903898298740387e-03
-5.674473047256469727e-01 1.115511208772659302e-01 -2.620184607803821564e-02
-4.977631866931915283e-01 1.671058386564254761e-01 2.657443098723888397e-02
-5.128398537635803223e-01 1.462750136852264404e-01 2.907432988286018372e-02
-3.738309144973754883e-01 1.498559415340423584e-01 4.379567690193653107e-03
-4.560519158840179443e-01 1.446734964847564697e-01 3.226795420050621033e-02
-6.046825647354125977e-01 1.222143173217773438e-01 -1.410415023565292358e-02
-6.086024641990661621e-01 8.767379075288772583e-02 1.487500220537185669e-02
-4.627199172973632812e-01 -8.739084005355834961e-03 -2.633153926581144333e-03
-5.757960081100463867e-01 9.935609996318817139e-02 2.392294630408287048e-02
-4.949252307415008545e-01 1.466370075941085815e-01 3.075875341892242432e-02
-4.657635688781738281e-01 5.733408778905868530e-02 -2.462485991418361664e-02
-5.421873927116394043e-01 3.134496510028839111e-03 2.197673730552196503e-02
-4.909862577915191650e-01 1.130777373909950256e-01 -2.803226932883262634e-02
-4.634529650211334229e-01 5.827395617961883545e-02 3.213379532098770142e-02
-5.786080360412597656e-01 1.551893651485443115e-01 -1.072834245860576630e-02
-5.151650905609130859e-01 1.786619722843170166e-01 2.046452276408672333e-02
-4.721882045269012451e-01 -1.068462431430816650e-02 1.194430142641067505e-02
-5.889683961868286133e-01 5.039906501770019531e-02 -2.655854448676109314e-02
-5.939454436302185059e-01 8.534533530473709106e-02 -2.489124424755573273e-02
-5.842623710632324219e-01 3.197334334254264832e-02 -2.593433298170566559e-02
-4.941981434822082520e-01 1.259926259517669678e-01 3.313238173723220825e-02
-4.981928467750549316e-01 1.615556925535202026e-01 -2.153298445045948029e-02
-4.848926961421966553e-01 9.536076337099075317e-02 -2.831276506185531616e-02
-5.369297862052917480e-01 1.766621768474578857e-01 1.582507044076919556e-02
-5.243962407112121582e-01 -2.799721062183380127e-02 -7.876487448811531067e-03
-5.815842747688293457e-01 1.457929611206054688e-03 1.604303903877735138e-02
-4.561224579811096191e-01 1.526869833469390869e-03 1.538879983127117157e-02
-4.409535527229309082e-01 1.443681418895721436e-01 3.182067349553108215e-02
-5.592202544212341309e-01 9.650728851556777954e-02 -2.859594486653804779e-02
-4.834813475608825684e-01 -1.373484730720520020e-02 -8.579848334193229675e-03
-5.606007575988769531e-01 9.420186281204223633e-03 -2.434710972011089325e-02
-4.830076098442077637e-01 4.271402209997177124e-02 3.091483563184738159e-02
-4.025845825672149658e-01 9.248993545770645142e-02 -1.290094107389450073e-02
-3.825149536132812500e-01 7.155599445104598999e-02 4.672827199101448059e-03
-5.098696351051330566e-01 -1.359546929597854614e-02 -1.497088558971881866e-02
-5.507650971412658691e-01 7.900627702474594116e-02 2.941489033401012421e-02
-5.113487243652343750e-01 1.873671412467956543e-01 -1.191713847219944000e-02
-4.757995009422302246e-01 9.520126879215240479e-02 -2.750172838568687439e-02
-5.677347183227539062e-01 -2.587465196847915649e-02 6.533325649797916412e-03
-5.460343956947326660e-01 -2.537155896425247192e-02 -1.210615038871765137e-02
-4.776939749717712402e-01 1.931693404912948608e-02 -2.042114362120628357e-02
-3.888926506042480469e-01 1.650230288505554199e-01 -2.433519810438156128e-03
-5.684831142425537109e-01 5.329637974500656128e-02 -2.876064367592334747e-02
-4.222191870212554932e-01 9.963533282279968262e-02 3.156552091240882874e-02
-5.646644234657287598e-01 9.920267760753631592e-02 2.635743655264377594e-02
-4.215167760848999023e-01 2.987109124660491943e-02 1.776898466050624847e-02
