1.415331810712814331e-01 -3.293015435338020325e-02 8.140207827091217041e-02
1.672502458095550537e-01 3.006661124527454376e-02 7.720141112804412842e-02
-9.580108523368835449e-02 3.057252615690231323e-02 5.005721002817153931e-03
1.875244677066802979e-01 9.091529995203018188e-02 -3.116238862276077271e-02
2.111944854259490967e-01 9.128501266241073608e-02 -3.761838003993034363e-02
5.388638973236083984e-01 9.076620638370513916e-02 -1.123572699725627899e-02
1.982171982526779175e-01 7.842274755239486694e-02 -6.070914492011070251e-02
2.096173316240310669e-01 -4.091530665755271912e-02 8.139337599277496338e-02
8.239094913005828857e-02 6.267704069614410400e-02 4.026189818978309631e-02
3.900579810142517090e-01 8.912921696901321411e-02 3.494837507605552673e-02
5.407164096832275391e-01 -5.412783846259117126e-02 -3.367952629923820496e-02
-1.062586009502410889e-01 -4.840600118041038513e-02 3.382974863052368164e-02
2.779765129089355469e-01 -9.977632015943527222e-02 -1.110936794430017471e-02
3.224434852600097656e-01 -8.032793179154396057e-03 8.635725080966949463e-02
4.281148910522460938e-01 2.297858335077762604e-02 -9.324751794338226318e-02
2.804142236709594727e-02 2.397610433399677277e-02 6.185774877667427063e-02
2.911886572837829590e-01 -8.440685272216796875e-02 -5.308368429541587830e-02
5.731697082519531250e-01 7.279144972562789917e-02 2.755698189139366150e-02
2.113869190216064453e-01 3.897386416792869568e-02 -9.291961789131164551e-02
1.296699494123458862e-01 -6.514036655426025391e-02 6.723590195178985596e-02
5.625706911087036133e-01 -5.467085912823677063e-02 -2.131751738488674164e-03
2.232656180858612061e-01 5.664487555623054504e-02 6.620165705680847168e-02
5.531500577926635742e-01 -3.456675633788108826e-02 -5.514416098594665527e-02
2.308093160390853882e-01 9.168853610754013062e-02 2.052366919815540314e-02
6.390368342399597168e-01 4.824675247073173523e-02 2.669383212924003601e-02
1.480164825916290283e-01 9.001734666526317596e-03 8.214575052261352539e-02
2.881081104278564453e-01 9.259793907403945923e-02 2.655364573001861572e-02
5.650249123573303223e-01 6.909098476171493530e-03 -7.225771248340606689e-02
5.913612842559814453e-01 -3.459196165204048157e-02 -3.869242593646049500e-02
1.904418766498565674e-01 -1.036383286118507385e-01 -6.725112441927194595e-03
5.096652507781982422e-01 9.447514265775680542e-02 -7.024538703262805939e-03
6.282054185867309570e-01 -3.091216087341308594e-02 -7.815310731530189514e-03
6.712521314620971680e-01 1.213984470814466476e-02 1.680309325456619263e-02
-6.529119610786437988e-02 -3.651308640837669373e-02 5.174313113093376160e-02
2.215116620063781738e-01 -1.029118075966835022e-01 -1.450316514819860458e-03
-1.861274242401123047e-02 -7.132555544376373291e-02 -5.337316542863845825e-02
1.835025995969772339e-01 1.901568844914436340e-02 8.210951089859008789e-02
1.857614517211914062e-02 4.348658770322799683e-02 4.555033519864082336e-02
7.414370775222778320e-02 1.883278600871562958e-02 -8.739970624446868896e-02
-1.273542642593383789e-02 -5.870719626545906067e-02 -6.501762568950653076e-02
1.858773529529571533e-01 -9.075583517551422119e-02 4.239182174205780029e-02
-1.446241140365600586e-01 1.435613026842474937e-03 -1.955599710345268250e-02
7.187025249004364014e-02 1.474845316261053085e-02 7.283148169517517090e-02
3.046613335609436035e-01 -8.940305560827255249e-02 -4.210303351283073425e-02
4.445292651653289795e-01 -7.388074696063995361e-02 2.932615205645561218e-02
5.342200994491577148e-01 4.179945960640907288e-02 5.975339934229850769e-02
6.488907337188720703e-01 -4.387557040899991989e-03 -3.698513284325599670e-02
5.254300832748413086e-01 -4.191203415393829346e-02 4.707368463277816772e-02
6.811766624450683594e-01 3.170057758688926697e-02 5.595757625997066498e-03
2.730329930782318115e-01 4.055909439921379089e-02 7.775810360908508301e-02
2.908619940280914307e-01 -5.536373704671859741e-02 7.308194041252136230e-02
2.904815375804901123e-01 -7.219824939966201782e-02 -6.864196807146072388e-02
9.975007176399230957e-02 7.505673170089721680e-02 -4.383741691708564758e-02
2.572056055068969727e-01 2.336186356842517853e-02 8.371028304100036621e-02
4.107983410358428955e-02 -7.384689897298812866e-02 5.244047194719314575e-02
1.030042469501495361e-01 -9.786445647478103638e-02 2.452029660344123840e-02
1.453850865364074707e-01 2.114320360124111176e-02 -9.438955783843994141e-02
2.287124991416931152e-01 7.487288862466812134e-02 4.942114278674125671e-02
4.335160553455352783e-02 1.055125985294580460e-02 7.002227008342742920e-02
5.798071622848510742e-01 1.669129915535449982e-02 -6.966301798820495605e-02
1.322243064641952515e-01 2.016366831958293915e-02 7.789129018783569336e-02
6.189544200897216797e-01 5.322717875242233276e-02 3.172802180051803589e-02
7.764749228954315186e-02 7.843852043151855469e-02 -2.484650816768407822e-03
4.626042842864990234e-01 -4.005296528339385986e-02 6.311520934104919434e-02
3.062807023525238037e-01 -5.938420817255973816e-02 -7.888448238372802734e-02
5.934565663337707520e-01 9.267667308449745178e-03 5.176422372460365295e-02
9.397603571414947510e-02 -1.021073982119560242e-01 3.561438061296939850e-03
-6.966531276702880859e-02 3.395771980285644531e-02 -3.854068368673324585e-02
4.405768513679504395e-01 -1.585334911942481995e-02 7.626610994338989258e-02
1.346855759620666504e-01 7.372341305017471313e-02 3.659556061029434204e-02
4.556886851787567139e-02 -2.819348871707916260e-02 -8.605176210403442383e-02
-7.357150316238403320e-02 2.205311879515647888e-02 3.375856950879096985e-02
1.646207571029663086e-01 6.185911968350410461e-02 5.620915815234184265e-02
1.111907064914703369e-01 6.471279263496398926e-02 4.427548497915267944e-02
1.313504129648208618e-01 5.801553651690483093e-02 -7.356818020343780518e-02
-1.077391505241394043e-01 -6.373152136802673340e-02 -2.924650162458419800e-02
2.397513985633850098e-01 9.761374443769454956e-02 -4.294972866773605347e-03
8.320802450180053711e-02 2.738617919385433197e-02 6.932853162288665771e-02
1.083935201168060303e-01 5.976263061165809631e-02 -6.806012988090515137e-02
3.130579590797424316e-01 -7.370135933160781860e-02 5.664487555623054504e-02
5.598280429840087891e-01 -9.773023426532745361e-03 -6.888841092586517334e-02
2.690067887306213379e-01 -5.353972688317298889e-02 7.509960234165191650e-02
6.414058208465576172e-01 5.026967823505401611e-02 -4.014853388071060181e-02
3.570263087749481201e-01 7.327806949615478516e-02 -7.464063167572021484e-02
3.163107335567474365e-01 -9.571769833564758301e-02 -1.947927474975585938e-02
9.285016357898712158e-02 1.292395591735839844e-02 -9.122478961944580078e-02
1.828211396932601929e-01 7.392490655183792114e-02 4.510816559195518494e-02
6.328328847885131836e-01 3.481606021523475647e-03 -4.979935660958290100e-02
3.949731588363647461e-02 -3.805427625775337219e-02 7.106277346611022949e-02
2.629190683364868164e-01 -3.837538883090019226e-02 8.198623359203338623e-02
3.815605044364929199e-01 -1.436403393745422363e-02 -9.471027553081512451e-02
5.244822502136230469e-01 -1.969801634550094604e-02 -7.288785278797149658e-02
2.807889878749847412e-01 5.617468059062957764e-02 -8.697825670242309570e-02
1.756779551506042480e-01 -1.026518568396568298e-01 1.129104942083358765e-02
4.665423631668090820e-01 -7.354855537414550781e-02 -2.737761475145816803e-02
3.096845149993896484e-01 9.186744689941406250e-02 2.971807122230529785e-02
-1.365360617637634277e-02 1.442570704966783524e-03 6.228474900126457214e-02
2.175975441932678223e-01 2.178208902478218079e-02 8.301039040088653564e-02
2.705357968807220459e-01 -6.831841170787811279e-02 -7.375572621822357178e-02
6.858788728713989258e-01 2.908636070787906647e-02 -1.071212626993656158e-02
3.431010842323303223e-01 -9.458371251821517944e-02 -7.265247404575347900e-03
5.853863954544067383e-01 7.090968638658523560e-02 -4.374545067548751831e-02
2.084923386573791504e-01 -9.985537081956863403e-02 -2.785128727555274963e-02
6.118307113647460938e-01 7.063787430524826050e-02 1.334621012210845947e-02
2.109412699937820435e-01 -8.177853375673294067e-02 -6.212929263710975647e-02
4.985972344875335693e-01 -6.962454319000244141e-02 8.795013651251792908e-03
5.612003803253173828e-02 -4.312325268983840942e-02 7.165350019931793213e-02
4.261346757411956787e-01 1.005236282944679260e-01 -3.661575494334101677e-03
3.519400060176849365e-01 -7.174906879663467407e-02 -6.238858029246330261e-02
4.218173623085021973e-01 -1.475032139569520950e-02 7.862214744091033936e-02
3.817945718765258789e-03 -1.801439747214317322e-02 -8.139780163764953613e-02
-5.576184391975402832e-02 3.141814097762107849e-02 3.212045878171920776e-02
4.071893095970153809e-01 -1.280152611434459686e-02 -9.284384548664093018e-02
6.775557994842529297e-04 -5.285339429974555969e-02 6.018673256039619446e-02
6.270231008529663086e-01 -2.137325890362262726e-02 -3.442119061946868896e-02
4.836828410625457764e-01 -1.181843597441911697e-02 -8.354614675045013428e-02
4.677622020244598389e-01 7.728524506092071533e-02 4.436469450592994690e-02
2.348357290029525757e-01 3.383832052350044250e-02 7.955515384674072266e-02
2.238270789384841919e-01 9.554776549339294434e-02 -2.435199543833732605e-02
1.233762055635452271e-01 -9.078282117843627930e-02 4.072614759206771851e-02
4.561689198017120361e-01 -4.489973559975624084e-02 -7.103320956230163574e-02
3.222865462303161621e-01 5.819873511791229248e-02 6.835626065731048584e-02
4.880320429801940918e-01 9.505826979875564575e-02 5.801586434245109558e-03
1.655064523220062256e-01 -1.006492972373962402e-01 -2.699596062302589417e-02
4.293538331985473633e-01 9.618177264928817749e-02 1.657448336482048035e-02
4.297744333744049072e-01 8.770618587732315063e-02 -5.412156879901885986e-02
1.729195117950439453e-01 -1.379194017499685287e-02 -9.844374656677246094e-02
-1.500764787197113037e-01 -3.200175613164901733e-02 -2.742933109402656555e-02
3.404563665390014648e-01 3.000248037278652191e-02 -9.716907143592834473e-02
3.535562157630920410e-01 1.016807332634925842e-01 -2.026841044425964355e-03
-1.074180006980895996e-01 -6.168169900774955750e-02 2.201776392757892609e-02
2.938684821128845215e-01 1.007406339049339294e-01 -8.433605544269084930e-03
4.154185950756072998e-01 -8.294456452131271362e-02 1.742153055965900421e-02
4.069723188877105713e-01 -8.566170185804367065e-02 -1.783613674342632294e-02
4.838747978210449219e-01 3.593816421926021576e-03 7.343637943267822266e-02
6.626840829849243164e-01 -2.184523269534111023e-03 1.562486216425895691e-02
-7.814583182334899902e-02 3.877170011401176453e-02 4.191487096250057220e-04
3.286310136318206787e-01 -7.813879847526550293e-02 -5.748533084988594055e-02
-5.700975656509399414e-02 4.691919311881065369e-02 -7.145211566239595413e-03
3.741394579410552979e-01 -8.394318819046020508e-02 3.093944117426872253e-02
-1.520225405693054199e-01 -3.972590714693069458e-02 8.432550355792045593e-03
-5.143451690673828125e-02 3.969778120517730713e-02 -4.056162759661674500e-02
7.535740733146667480e-02 -1.547446846961975098e-02 -9.120765328407287598e-02
4.916372895240783691e-01 -4.877948015928268433e-02 5.015741288661956787e-02
4.211930036544799805e-01 6.418575067073106766e-03 8.059337735176086426e-02
5.103689432144165039e-01 6.442739069461822510e-02 -6.827630102634429932e-02
4.271925687789916992e-01 -6.240339204668998718e-02 5.136326327919960022e-02
4.353010058403015137e-01 -5.902505666017532349e-02 -6.220672279596328735e-02
4.766981601715087891e-01 1.886959373950958252e-02 -8.837024867534637451e-02
8.482559025287628174e-02 4.414327815175056458e-02 5.942018702626228333e-02
2.949564456939697266e-01 -9.876614063978195190e-02 2.201275900006294250e-03
2.933498919010162354e-01 8.772996068000793457e-02 -5.645430460572242737e-02
4.314576089382171631e-02 -9.571009874343872070e-02 -2.628476545214653015e-02
5.639805197715759277e-01 5.781513080000877380e-02 -6.212056800723075867e-02
6.410558223724365234e-01 6.535085290670394897e-02 -2.383809536695480347e-03
1.073137819766998291e-01 8.337426930665969849e-02 -1.529443822801113129e-02
2.565514147281646729e-01 -1.007874235510826111e-01 7.160779088735580444e-03
2.043068110942840576e-01 9.240397810935974121e-02 1.098833978176116943e-02
5.699033737182617188e-01 8.386041224002838135e-02 4.980929195880889893e-03
1.353733092546463013e-01 -1.035123616456985474e-01 -8.827625773847103119e-03
3.461965024471282959e-01 -5.097523331642150879e-02 -8.164365589618682861e-02
2.006321400403976440e-01 -5.995169654488563538e-02 7.249614596366882324e-02
6.984710693359375000e-03 2.102814987301826477e-02 5.906383320689201355e-02
-7.229405641555786133e-02 -8.113496005535125732e-02 1.943067647516727448e-03
2.504917383193969727e-01 2.892587333917617798e-02 -9.776774048805236816e-02
2.611473202705383301e-01 4.473775252699851990e-02 -9.244656562805175781e-02
3.696443140506744385e-02 -8.070179075002670288e-02 -5.336036160588264465e-02
2.691120207309722900e-01 -5.327086523175239563e-02 -8.513301610946655273e-02
3.217572271823883057e-01 -9.650893509387969971e-02 2.868113107979297638e-03
2.249447107315063477e-01 4.206713754683732986e-03 -1.008162796497344971e-01
1.117527484893798828e-02 4.389697313308715820e-02 -6.070566177368164062e-02
3.449224233627319336e-01 5.978058092296123505e-03 -9.949538111686706543e-02
1.178894639015197754e-01 3.879075869917869568e-02 -8.488222956657409668e-02
1.120409965515136719e-01 -9.381491690874099731e-02 -4.202439263463020325e-02
5.758981704711914062e-01 -2.347723022103309631e-02 4.544065520167350769e-02
6.154100894927978516e-01 3.079788014292716980e-02 -5.870722606778144836e-02
4.390747547149658203e-01 -3.244077041745185852e-02 -8.178123831748962402e-02
6.054336428642272949e-01 -3.970505297183990479e-02 3.927621059119701385e-03
2.192279994487762451e-01 8.380561321973800659e-02 3.549198433756828308e-02
3.878044486045837402e-01 -8.694418519735336304e-02 1.711428724229335785e-02
1.417501121759414673e-01 -9.619022160768508911e-02 3.168282657861709595e-02
6.385143995285034180e-01 3.020754829049110413e-02 3.534048423171043396e-02
4.764499962329864502e-01 4.733800515532493591e-02 -8.231459558010101318e-02
5.651786327362060547e-01 -4.504030197858810425e-02 2.742663025856018066e-02
4.094443917274475098e-01 9.898058325052261353e-02 9.675877168774604797e-03
2.215174436569213867e-01 -6.149895489215850830e-02 -8.091050386428833008e-02
3.538523614406585693e-01 -5.126738920807838440e-02 7.093781232833862305e-02
1.018600016832351685e-01 4.170351475477218628e-02 6.385111808776855469e-02
6.749002635478973389e-02 -9.540873765945434570e-02 2.539303898811340332e-02
5.446611046791076660e-01 7.202829420566558838e-02 3.664306551218032837e-02
3.575244247913360596e-01 -7.312124967575073242e-02 5.167791992425918579e-02
3.296401202678680420e-01 -5.901813134551048279e-02 -7.727843523025512695e-02
1.359511017799377441e-01 -1.568481139838695526e-02 -9.627558290958404541e-02
5.146373808383941650e-02 -5.125119350850582123e-03 7.452988624572753906e-02
2.528124451637268066e-01 -6.689366698265075684e-02 6.691573560237884521e-02
4.300128817558288574e-01 6.251533329486846924e-02 -7.914146780967712402e-02
3.198439776897430420e-01 2.230472862720489502e-02 -9.917022287845611572e-02
6.079123020172119141e-01 -2.406620420515537262e-02 -4.268783703446388245e-02
3.083160519599914551e-01 -7.547800242900848389e-02 -6.335167586803436279e-02
4.624399840831756592e-01 -6.741131842136383057e-02 3.519898280501365662e-02
-1.386255621910095215e-01 -4.391165450215339661e-02 1.847399957478046417e-02
2.812206745147705078e-01 3.305919840931892395e-02 -9.706139564514160156e-02
4.326381981372833252e-01 2.006344869732856750e-02 7.840077579021453857e-02
1.597393602132797241e-01 -4.211544990539550781e-02 7.974612712860107422e-02
-1.247738897800445557e-01 7.966984994709491730e-03 1.780826039612293243e-02
3.722087442874908447e-01 8.432998508214950562e-02 -6.237724423408508301e-02
5.270600318908691406e-03 -4.632182419300079346e-02 -7.480940222740173340e-02
3.142884373664855957e-01 -2.348052524030208588e-02 8.453808724880218506e-02
5.893379449844360352e-02 -6.378537416458129883e-02 -7.208931446075439453e-02
3.780153095722198486e-01 -6.988900899887084961e-02 -6.055902689695358276e-02
3.791159689426422119e-01 1.004812121391296387e-01 5.769257433712482452e-03
-3.356698155403137207e-02 3.714337199926376343e-02 3.498727455735206604e-02
3.117639124393463135e-01 1.938153244554996490e-02 8.472448587417602539e-02
3.786247372627258301e-01 1.253936346620321274e-02 8.333653211593627930e-02
-8.868581056594848633e-02 -8.151232264935970306e-03 -5.878216773271560669e-02
3.390476107597351074e-01 6.544323265552520752e-02 6.296198070049285889e-02
4.443032145500183105e-01 9.632115811109542847e-02 -3.387471288442611694e-02
6.741098761558532715e-01 4.619789123535156250e-02 -2.651913557201623917e-03
2.793281674385070801e-01 -2.019268693402409554e-03 8.745647966861724854e-02
5.447819828987121582e-01 8.117501437664031982e-02 -4.242048785090446472e-02
8.533822000026702881e-02 -5.385236069560050964e-02 -8.082048594951629639e-02
2.679481208324432373e-01 6.444022059440612793e-02 6.252579391002655029e-02
4.733318984508514404e-01 9.783424437046051025e-02 -1.484189741313457489e-02
-6.821766495704650879e-02 5.728199146687984467e-03 -6.170922145247459412e-02
5.676093101501464844e-01 8.034175634384155273e-02 -3.528248146176338196e-02
-1.111438870429992676e-02 -3.049345873296260834e-02 -7.710556685924530029e-02
-1.544612646102905273e-02 -4.814751818776130676e-02 5.931933596730232239e-02
4.479353427886962891e-01 -5.824525281786918640e-02 5.131465196609497070e-02
-2.688965201377868652e-02 -7.325442135334014893e-02 3.996539488434791565e-02
3.534831702709197998e-01 9.268803149461746216e-02 -4.952019825577735901e-02
1.697700768709182739e-01 -8.383223414421081543e-02 -5.988746508955955505e-02
-8.941340446472167969e-02 2.195060625672340393e-02 -4.227693006396293640e-02
4.586893320083618164e-01 5.375912040472030640e-02 6.436620652675628662e-02
3.971925377845764160e-01 -8.824076503515243530e-02 -2.442241646349430084e-03
5.080326795578002930e-01 2.357089333236217499e-02 -8.367340266704559326e-02
5.223422050476074219e-01 8.900407701730728149e-02 -3.318760544061660767e-02
5.555937290191650391e-01 3.978251293301582336e-02 5.645701661705970764e-02
1.030492186546325684e-01 -8.007086813449859619e-02 -6.152640655636787415e-02
2.531891465187072754e-01 5.771688371896743774e-02 6.711527705192565918e-02
-8.005866408348083496e-02 -1.063539646565914154e-03 4.535689204931259155e-02
2.021494358777999878e-01 -5.468757823109626770e-02 -8.543449640274047852e-02
-3.708988428115844727e-02 3.321627527475357056e-02 -5.493028089404106140e-02
2.615137994289398193e-01 9.914062172174453735e-02 -7.105357013642787933e-03
-9.256476163864135742e-02 -3.295851126313209534e-02 -5.672686174511909485e-02
3.234802484512329102e-01 6.006031855940818787e-02 -8.501181006431579590e-02
-8.649528026580810547e-04 2.760466560721397400e-02 -6.994049251079559326e-02
5.326293408870697021e-02 -4.765070229768753052e-02 -8.070576190948486328e-02
5.665914416313171387e-01 1.646691001951694489e-02 5.877171084284782410e-02
-5.164474248886108398e-03 -6.966648250818252563e-02 4.832456260919570923e-02
4.832285642623901367e-01 4.181334376335144043e-02 6.730940937995910645e-02
-1.285277009010314941e-01 -6.187995895743370056e-02 -1.067596487700939178e-03
5.104039311408996582e-01 7.977119088172912598e-02 -5.329486727714538574e-02
5.193579792976379395e-01 8.894234150648117065e-02 1.501677185297012329e-02
1.214581727981567383e-02 -9.336043149232864380e-02 1.548369042575359344e-02
-1.557853817939758301e-02 4.513500630855560303e-02 3.223101794719696045e-02
-8.379051089286804199e-02 -4.448029398918151855e-02 4.394116252660751343e-02
9.396331012248992920e-02 -4.334856569766998291e-02 7.530264556407928467e-02
6.199501156806945801e-01 6.025702506303787231e-02 -4.175487160682678223e-02
3.172006607055664062e-01 -5.843969807028770447e-02 6.940791010856628418e-02
1.581491529941558838e-02 -7.790481299161911011e-02 4.430973902344703674e-02
7.205779850482940674e-02 -3.238106518983840942e-02 7.605092227458953857e-02
4.870435893535614014e-01 -6.437322497367858887e-02 3.122705966234207153e-02
1.638775467872619629e-01 -9.917191416025161743e-02 2.488596737384796143e-02
3.303618431091308594e-01 7.991457730531692505e-02 -6.813168525695800781e-02
3.460806608200073242e-01 8.587658405303955078e-02 4.095557704567909241e-02
3.163526952266693115e-01 7.784563302993774414e-02 5.098215863108634949e-02
4.914774894714355469e-01 7.569245994091033936e-02 -6.143363937735557556e-02
5.461086630821228027e-01 6.135558709502220154e-02 -6.376549601554870605e-02
-6.221398711204528809e-02 -2.615484176203608513e-03 5.144952982664108276e-02
3.844497203826904297e-01 -5.283357575535774231e-02 6.657211482524871826e-02
5.392019748687744141e-01 -6.063308939337730408e-02 -1.263987831771373749e-02
5.577030181884765625e-01 1.235232222825288773e-03 5.987041071057319641e-02
5.755442380905151367e-01 -4.376576840877532959e-02 -3.307982906699180603e-02
-1.311556994915008545e-01 7.149556651711463928e-03 -2.850769646465778351e-02
1.650759577751159668e-01 7.786471396684646606e-03 -9.815628826618194580e-02
4.838883280754089355e-01 -7.233180850744247437e-02 -1.878581568598747253e-02
3.658379614353179932e-02 6.154508888721466064e-02 2.738316357135772705e-02
2.779811620712280273e-01 8.206544071435928345e-02 4.410751163959503174e-02
1.799884140491485596e-01 -5.749216675758361816e-02 -8.350096642971038818e-02
2.507922351360321045e-01 -2.541119232773780823e-02 8.560928702354431152e-02
6.553522348403930664e-01 5.321594327688217163e-02 1.113113202154636383e-02
1.966275870800018311e-01 -2.414770983159542084e-02 -9.747846424579620361e-02
6.045489013195037842e-02 6.624911725521087646e-02 -4.705232754349708557e-02
4.721592366695404053e-01 -3.953215479850769043e-02 -7.194739580154418945e-02
1.909546554088592529e-02 1.930588297545909882e-02 -7.830114662647247314e-02
4.553294777870178223e-01 -6.373758614063262939e-02 -5.155786871910095215e-02
3.904541134834289551e-01 9.669550508260726929e-02 1.895699277520179749e-02
4.885767698287963867e-01 6.516584753990173340e-02 5.320421606302261353e-02
4.909912347793579102e-01 5.460090190172195435e-02 -7.718044519424438477e-02
1.875714957714080811e-02 -9.552242606878280640e-02 -1.712678186595439911e-02
1.962533593177795410e-02 -6.591466255486011505e-03 -8.401912450790405273e-02
3.213894665241241455e-01 -4.558604955673217773e-02 -8.689160645008087158e-02
5.766103863716125488e-01 5.886561423540115356e-02 4.107279703021049500e-02
3.374001383781433105e-01 -8.154827356338500977e-02 4.339840263128280640e-02
5.562162995338439941e-01 5.825584009289741516e-02 4.652185738086700439e-02
4.355072379112243652e-01 -7.544369250535964966e-02 -3.718763589859008789e-02
-1.054501831531524658e-01 -5.213477183133363724e-03 -5.167043954133987427e-02
-2.696928381919860840e-02 1.388957910239696503e-02 5.463457480072975159e-02
3.735947608947753906e-01 3.323278203606605530e-02 -9.511348605155944824e-02
2.620076835155487061e-01 9.345883876085281372e-02 -4.184021428227424622e-02
8.201736211776733398e-02 -6.996668130159378052e-02 -6.960445642471313477e-02
2.861788868904113770e-01 -5.966181308031082153e-02 -7.997307181358337402e-02
1.931432783603668213e-01 6.147708371281623840e-02 5.979060754179954529e-02
-1.115247607231140137e-02 -9.153262525796890259e-02 1.018263027071952820e-02
1.937551200389862061e-01 3.478848934173583984e-02 7.705505192279815674e-02
1.145641505718231201e-01 -1.019050180912017822e-01 -1.799646392464637756e-02
2.083167433738708496e-02 -2.159777330234646797e-03 6.951799988746643066e-02
-1.989963650703430176e-02 4.820097237825393677e-02 -4.372236505150794983e-02
5.531459450721740723e-01 -5.458348244428634644e-02 1.445045694708824158e-02
-4.356732964515686035e-02 -4.350855574011802673e-02 -6.668174266815185547e-02
1.232864111661911011e-01 -7.761131227016448975e-02 5.690950527787208557e-02
-7.488262653350830078e-02 -6.986386328935623169e-02 2.800578624010086060e-02
3.724724054336547852e-03 6.274491548538208008e-02 2.831544727087020874e-03
2.334989309310913086e-01 -9.054426848888397217e-02 4.096442461013793945e-02
4.381355643272399902e-02 5.375746265053749084e-02 -5.965891480445861816e-02
1.388694941997528076e-01 -5.036444216966629028e-02 7.567596435546875000e-02
2.480845600366592407e-01 1.047422271221876144e-02 8.629651367664337158e-02
4.349977970123291016e-01 -8.143508434295654297e-02 1.022621616721153259e-02
3.641644120216369629e-01 4.463958367705345154e-02 7.522287964820861816e-02
2.386542558670043945e-01 -8.928386121988296509e-02 -5.009422451257705688e-02
5.193690657615661621e-01 -5.471480265259742737e-02 3.409402817487716675e-02
6.552148461341857910e-01 4.003921151161193848e-02 -3.890273720026016235e-02
4.180712997913360596e-01 6.596866995096206665e-02 5.961255356669425964e-02
5.389244556427001953e-01 3.133295476436614990e-02 -7.746978104114532471e-02
5.454341769218444824e-01 1.307551469653844833e-02 -7.722337543964385986e-02
1.556794643402099609e-01 8.545293658971786499e-02 -3.773221746087074280e-02
5.129414796829223633e-01 5.911392159759998322e-03 6.910978257656097412e-02
3.999913036823272705e-01 5.882284045219421387e-02 6.583823263645172119e-02
2.975413203239440918e-01 -9.397397935390472412e-02 2.527300268411636353e-02
-5.445897579193115234e-03 -1.429757196456193924e-02 6.640592217445373535e-02
4.293173253536224365e-01 7.901407778263092041e-02 4.635910317301750183e-02
3.095814585685729980e-01 4.301961511373519897e-02 -9.369869530200958252e-02
2.093836665153503418e-01 6.600923836231231689e-02 -7.586631178855895996e-02
2.399370372295379639e-01 -7.414388004690408707e-03 -1.007276177406311035e-01
7.371451854705810547e-01 9.153603762388229370e-02 2.949517965316772461e-02
6.614844799041748047e-01 -5.303536355495452881e-02 1.658602058887481689e-02
6.206392645835876465e-01 2.221797360107302666e-03 -3.841583617031574249e-03
7.597732543945312500e-01 -2.486937865614891052e-02 8.686586469411849976e-02
8.779286742210388184e-01 5.450338870286941528e-02 -9.232638031244277954e-02
6.294866800308227539e-01 1.227912493050098419e-02 -2.451137267053127289e-02
8.022005558013916016e-01 5.972342193126678467e-02 -9.584412723779678345e-02
8.147804737091064453e-01 7.308115065097808838e-02 4.915452748537063599e-02
7.717365622520446777e-01 -8.860134333372116089e-02 9.963202290236949921e-03
7.653746008872985840e-01 2.914661914110183716e-02 8.529823273420333862e-02
8.430836200714111328e-01 2.971765771508216858e-02 7.018963247537612915e-02
8.813636302947998047e-01 -5.560001358389854431e-02 4.261454194784164429e-02
8.736478090286254883e-01 8.716479688882827759e-02 -1.583067514002323151e-02
8.222921490669250488e-01 -5.026546493172645569e-02 6.844174116849899292e-02
7.126068472862243652e-01 -5.465703085064888000e-02 6.406289339065551758e-02
6.382840871810913086e-01 3.971797972917556763e-02 4.694920033216476440e-02
7.907166481018066406e-01 -2.221647650003433228e-02 8.538508415222167969e-02
7.713659405708312988e-01 8.199460804462432861e-02 4.667302966117858887e-02
6.310952901840209961e-01 -7.143768947571516037e-03 4.701672494411468506e-02
8.120089769363403320e-01 8.361652493476867676e-02 3.644002974033355713e-02
7.232773303985595703e-01 5.558053776621818542e-02 7.166847586631774902e-02
6.517155766487121582e-01 2.252104505896568298e-02 6.577557325363159180e-02
7.979069948196411133e-01 9.490078687667846680e-02 1.910004764795303345e-02
9.575414061546325684e-01 -3.250018879771232605e-02 -2.318220958113670349e-02
6.748552918434143066e-01 6.350961327552795410e-02 5.112256854772567749e-02
6.848098039627075195e-01 3.472272679209709167e-02 -7.019542157649993896e-02
6.523116230964660645e-01 3.142057219520211220e-03 6.803193688392639160e-02
7.001357674598693848e-01 9.113389998674392700e-02 8.759004063904285431e-03
7.749649882316589355e-01 -7.608935236930847168e-02 -4.991227760910987854e-02
7.628642916679382324e-01 4.511677101254463196e-02 7.880828529596328735e-02
7.599382400512695312e-01 1.002203151583671570e-01 -3.263245522975921631e-02
7.144476175308227539e-01 -6.295875459909439087e-02 -4.159845411777496338e-02
9.570472240447998047e-01 -2.647405676543712616e-02 -9.323952719569206238e-03
8.777110576629638672e-01 5.898600071668624878e-02 3.657549247145652771e-02
9.452319145202636719e-01 1.146997604519128799e-02 1.411894056946039200e-02
8.851265311241149902e-01 -6.996095925569534302e-02 2.231263741850852966e-02
6.843271851539611816e-01 6.117895618081092834e-02 5.798267945647239685e-02
8.067687153816223145e-01 -4.729130864143371582e-02 7.330452650785446167e-02
7.680640220642089844e-01 2.761235460638999939e-02 -1.022286713123321533e-01
8.455460071563720703e-01 8.951199799776077271e-02 -5.741246417164802551e-02
7.538204789161682129e-01 -6.105561554431915283e-02 -6.405694782733917236e-02
6.894111037254333496e-01 8.165377378463745117e-02 3.082582354545593262e-02
9.632213711738586426e-01 -4.381648730486631393e-03 -1.164720300585031509e-02
7.771040797233581543e-01 3.756026551127433777e-02 -1.019716411828994751e-01
7.638981342315673828e-01 -4.122253507375717163e-02 8.040309697389602661e-02
8.107613921165466309e-01 -2.884895540773868561e-02 -9.995905309915542603e-02
6.464113593101501465e-01 6.589034199714660645e-02 1.022288296371698380e-02
8.696175217628479004e-01 7.987513393163681030e-02 -6.626987457275390625e-02
7.334669232368469238e-01 2.322617731988430023e-02 8.719009906053543091e-02
7.997599840164184570e-01 -8.604927361011505127e-02 2.647975832223892212e-02
8.202479481697082520e-01 -8.621227741241455078e-02 -3.474613279104232788e-02
8.780103325843811035e-01 8.245030045509338379e-02 -5.414402484893798828e-02
7.097688317298889160e-01 5.367604643106460571e-02 -7.562435418367385864e-02
8.032515645027160645e-01 -6.563872098922729492e-02 5.964257940649986267e-02
7.927796244621276855e-01 -8.958043158054351807e-02 -1.623091101646423340e-02
8.483746051788330078e-01 -5.697876214981079102e-02 5.616729333996772766e-02
7.179609537124633789e-01 -3.276179358363151550e-02 -7.374054193496704102e-02
7.260493040084838867e-01 9.814209491014480591e-02 -4.452366847544908524e-03
8.821623921394348145e-01 2.141407318413257599e-02 5.727600678801536560e-02
7.044424414634704590e-01 -2.221022360026836395e-02 8.242776244878768921e-02
8.412706851959228516e-01 -6.465350836515426636e-02 5.160701274871826172e-02
8.365032672882080078e-01 9.605010598897933960e-02 -3.984814137220382690e-02
8.159419894218444824e-01 9.095317870378494263e-02 2.196027338504791260e-02
9.451349377632141113e-01 4.665961489081382751e-02 -3.825345635414123535e-02
7.613378763198852539e-01 -7.728420197963714600e-02 -4.254166036844253540e-02
8.339226841926574707e-01 1.852028816938400269e-02 -1.099543571472167969e-01
8.624599575996398926e-01 -1.389073394238948822e-02 -1.054288223385810852e-01
7.581594586372375488e-01 3.255687654018402100e-02 -9.917509555816650391e-02
8.910913467407226562e-01 4.527792707085609436e-02 4.024117067456245422e-02
7.117406129837036133e-01 -7.412266731262207031e-02 2.801927924156188965e-02
7.958976626396179199e-01 9.597920626401901245e-02 -5.235455557703971863e-02
7.521496415138244629e-01 9.732724726200103760e-02 1.665562391281127930e-02
8.875785470008850098e-01 6.846982240676879883e-02 1.813792437314987183e-02
8.531780242919921875e-01 -7.055521756410598755e-02 4.016426578164100647e-02
9.066016674041748047e-01 -6.702044606208801270e-02 6.621216423809528351e-03
8.189648985862731934e-01 -6.720975786447525024e-02 -7.060354948043823242e-02
9.009377360343933105e-01 -4.997597262263298035e-02 -7.653018832206726074e-02
7.491431832313537598e-01 5.878738686442375183e-02 -8.714324235916137695e-02
7.721761465072631836e-01 1.027268320322036743e-01 -1.499630324542522430e-02
8.849861621856689453e-01 8.276791125535964966e-02 -1.512497663497924805e-02
8.401877880096435547e-01 9.008997678756713867e-02 1.133883837610483170e-02
7.743729948997497559e-01 4.185175523161888123e-02 7.954599708318710327e-02
7.988554835319519043e-01 -6.172333657741546631e-02 -7.476085424423217773e-02
8.453713655471801758e-01 9.561482071876525879e-02 -2.062720805406570435e-02
8.372952938079833984e-01 -8.916146308183670044e-02 -6.256585475057363510e-03
7.369314432144165039e-01 4.851328209042549133e-02 -8.849784731864929199e-02
7.986115217208862305e-01 8.009485155344009399e-02 4.491733014583587646e-02
8.938027620315551758e-01 2.078938111662864685e-02 -1.020766496658325195e-01
9.241230487823486328e-01 -2.704538218677043915e-02 3.198303654789924622e-02
9.513011574745178223e-01 3.677913546562194824e-02 -5.041419714689254761e-02
9.075610637664794922e-01 7.220738381147384644e-02 -1.616320759057998657e-02
6.858622431755065918e-01 7.089334726333618164e-02 4.747997596859931946e-02
8.205679059028625488e-01 -8.988232165575027466e-02 4.457940347492694855e-03
8.384398818016052246e-01 4.382092878222465515e-02 -1.041062474250793457e-01
8.296133279800415039e-01 9.868536144495010376e-02 -2.352730371057987213e-02
7.499101758003234863e-01 -8.534777164459228516e-02 1.421751733869314194e-02
7.381352782249450684e-01 -5.310868844389915466e-02 7.119245827198028564e-02
6.677807569503784180e-01 4.723415151238441467e-02 6.238983944058418274e-02
7.221059203147888184e-01 2.300698868930339813e-02 -8.944901078939437866e-02
7.637044191360473633e-01 -6.859902292490005493e-02 -5.799478664994239807e-02
7.033162117004394531e-01 -4.976397007703781128e-02 -5.168731883168220520e-02
9.541099071502685547e-01 3.615872189402580261e-02 -3.816346079111099243e-02
7.117503881454467773e-01 8.081071823835372925e-02 -5.263656750321388245e-02
6.237508654594421387e-01 4.072836786508560181e-02 1.133291330188512802e-02
6.729441881179809570e-01 1.364450063556432724e-02 -6.521204859018325806e-02
6.990146636962890625e-01 5.609087646007537842e-02 6.702443212270736694e-02
6.267076730728149414e-01 3.811461478471755981e-02 3.143883496522903442e-02
9.332180023193359375e-01 -5.640538781881332397e-02 -3.495841473340988159e-02
7.049741744995117188e-01 -6.236916035413742065e-02 5.099717527627944946e-02
8.837593197822570801e-01 -5.220118537545204163e-02 -8.020122349262237549e-02
7.766268253326416016e-01 -8.886405080556869507e-02 -1.147883757948875427e-02
7.308171987533569336e-01 6.576276570558547974e-02 6.429906934499740601e-02
6.841214895248413086e-01 -6.455568969249725342e-02 -2.118128817528486252e-03
8.939116597175598145e-01 -7.019767165184020996e-02 1.400760281831026077e-02
6.994488239288330078e-01 9.113633632659912109e-02 -1.517500169575214386e-02
7.732653021812438965e-01 -8.455912768840789795e-02 2.974239364266395569e-02
6.600306034088134766e-01 -6.387447472661733627e-03 -5.193449556827545166e-02
6.876634955406188965e-01 -2.276923507452011108e-02 -6.362424790859222412e-02
9.532676935195922852e-01 9.722341783344745636e-03 4.201129078865051270e-03
8.408830761909484863e-01 -7.203374803066253662e-02 -6.388537585735321045e-02
7.604002952575683594e-01 -8.194675296545028687e-02 3.422709926962852478e-02
6.990534663200378418e-01 -2.720601297914981842e-02 -6.767092645168304443e-02
7.281253933906555176e-01 -4.357635229825973511e-02 -7.057268917560577393e-02
6.416801214218139648e-01 -3.707903623580932617e-02 7.204371504485607147e-03
6.734258532524108887e-01 -5.419182777404785156e-02 4.043755680322647095e-02
7.000258564949035645e-01 8.507883548736572266e-02 2.993037551641464233e-02
8.396841287612915039e-01 -8.423515409231185913e-02 -3.858357295393943787e-02
8.719238042831420898e-01 -4.834128543734550476e-02 -8.628823608160018921e-02
6.479785442352294922e-01 6.281731277704238892e-02 2.748294547200202942e-02
6.707279086112976074e-01 2.036661468446254730e-02 7.547147572040557861e-02
6.599551439285278320e-01 -1.646740920841693878e-02 6.784914433956146240e-02
7.303552627563476562e-01 -7.243636995553970337e-02 -3.526999801397323608e-02
9.654294252395629883e-01 -3.764566499739885330e-03 -4.843289405107498169e-02
8.634378910064697266e-01 -5.658168345689773560e-02 5.058000981807708740e-02
9.074137806892395020e-01 2.956033311784267426e-02 3.940568491816520691e-02
6.455336213111877441e-01 3.963152412325143814e-03 -4.221301153302192688e-02
7.043088674545288086e-01 2.474921196699142456e-02 8.356133103370666504e-02
7.291818261146545410e-01 -7.991880178451538086e-02 -1.121006626635789871e-02
7.285063862800598145e-01 -5.741183459758758545e-02 6.557853519916534424e-02
7.047153115272521973e-01 1.067898143082857132e-02 -8.232832700014114380e-02
7.832844257354736328e-01 3.616101806983351707e-03 -1.054221987724304199e-01
7.122294902801513672e-01 6.736455112695693970e-02 -6.756486743688583374e-02
8.176106214523315430e-01 -1.290823891758918762e-02 -1.063152402639389038e-01
8.845307230949401855e-01 -7.435985654592514038e-02 -4.627516120672225952e-02
7.527638077735900879e-01 -8.623409271240234375e-02 -3.550129942595958710e-03
9.031806588172912598e-01 2.719671092927455902e-02 -9.765943139791488647e-02
8.761733174324035645e-01 -8.123676478862762451e-02 -2.792232856154441833e-02
6.361974477767944336e-01 -3.110071085393428802e-02 2.394677326083183289e-02
8.433700203895568848e-01 7.186582684516906738e-02 -8.515816181898117065e-02
9.469925761222839355e-01 -2.368290536105632782e-02 1.010022405534982681e-02
7.939813733100891113e-01 -8.877056837081909180e-02 1.644933596253395081e-02
7.643024325370788574e-01 -4.445245116949081421e-02 -8.256003260612487793e-02
9.564046859741210938e-01 -3.804994281381368637e-03 1.919374801218509674e-03
9.459354877471923828e-01 -4.594965279102325439e-02 -1.755261607468128204e-02
7.359016537666320801e-01 3.715606406331062317e-03 8.999431133270263672e-02
8.156252503395080566e-01 6.747222691774368286e-02 -9.102963656187057495e-02
6.248430013656616211e-01 3.105350024998188019e-02 -1.219237316399812698e-02
6.619045138359069824e-01 -4.013533890247344971e-02 -2.751414850354194641e-02
7.784159183502197266e-01 -3.702316433191299438e-02 8.177792280912399292e-02
7.220182418823242188e-01 -4.150250460952520370e-03 -8.737369626760482788e-02
8.215572834014892578e-01 1.556159369647502899e-02 -1.098910272121429443e-01
7.156442403793334961e-01 9.128409624099731445e-02 2.260145545005798340e-02
6.854425072669982910e-01 -3.445055335760116577e-04 8.189936727285385132e-02
8.653174042701721191e-01 4.831558465957641602e-02 5.188452079892158508e-02
7.182560563087463379e-01 7.247824221849441528e-03 -8.779542893171310425e-02
9.276736974716186523e-01 1.402168907225131989e-02 -8.959276974201202393e-02
7.985215783119201660e-01 8.252341300249099731e-02 -7.570263743400573730e-02
6.370257139205932617e-01 1.272037811577320099e-02 -3.447119519114494324e-02
9.636880159378051758e-01 8.412454277276992798e-03 -1.613000780344009399e-02
9.052053689956665039e-01 -7.022283226251602173e-02 -3.814867511391639709e-02
9.017032384872436523e-01 6.805114448070526123e-02 5.080107599496841431e-03
9.077506065368652344e-01 -3.629004955291748047e-02 3.991325199604034424e-02
7.609682679176330566e-01 1.291164010763168335e-02 -1.015202179551124573e-01
8.199315667152404785e-01 -3.374460712075233459e-02 7.706199586391448975e-02
8.602278232574462891e-01 3.284687548875808716e-02 6.268806010484695435e-02
8.912511467933654785e-01 8.089967072010040283e-02 -3.919866308569908142e-02
7.813082337379455566e-01 -8.740203827619552612e-02 -2.286871895194053650e-02
8.575874567031860352e-01 2.588735893368721008e-03 7.125505059957504272e-02
9.436128735542297363e-01 3.215405717492103577e-02 3.237328492105007172e-03
6.425849199295043945e-01 6.010125577449798584e-02 -1.039065793156623840e-02
7.143810391426086426e-01 8.658907562494277954e-02 3.355962038040161133e-02
8.699423670768737793e-01 -5.857989937067031860e-02 -7.696650922298431396e-02
8.636088967323303223e-01 -8.203098922967910767e-02 -3.623391687870025635e-02
6.418501138687133789e-01 2.422231808304786682e-02 -3.931114077568054199e-02
8.986382484436035156e-01 6.961297988891601562e-02 -6.542082130908966064e-02
7.141653895378112793e-01 -2.857565693557262421e-02 8.204262703657150269e-02
9.406510591506958008e-01 -2.061354927718639374e-02 1.894337311387062073e-02
7.292295694351196289e-01 -7.867978513240814209e-02 2.837422862648963928e-02
9.485998749732971191e-01 -4.284313693642616272e-02 -3.906087204813957214e-02
7.013018131256103516e-01 -1.233105733990669250e-02 -7.585135847330093384e-02
9.370825290679931641e-01 4.862407967448234558e-02 -9.360972791910171509e-03
7.766411304473876953e-01 -4.653013125061988831e-02 -8.409819006919860840e-02
7.020719647407531738e-01 3.518618270754814148e-02 -7.907972484827041626e-02
7.401069402694702148e-01 -7.880706340074539185e-02 3.507344424724578857e-02
9.565874338150024414e-01 3.594378940761089325e-04 -6.629258394241333008e-02
6.981955766677856445e-01 -4.820805042982101440e-02 6.519927084445953369e-02
6.390250921249389648e-01 5.777874588966369629e-02 2.114266902208328247e-02
8.659260272979736328e-01 8.722221851348876953e-02 -5.045394226908683777e-02
8.146685361862182617e-01 -6.458053831011056900e-03 8.350580185651779175e-02
9.110063314437866211e-01 -5.297916010022163391e-02 2.463006973266601562e-02
8.579835891723632812e-01 8.582183718681335449e-02 8.908174000680446625e-03
8.632469177246093750e-01 5.993964523077011108e-02 4.353054240345954895e-02
7.890793085098266602e-01 2.257774956524372101e-02 8.479862660169601440e-02
8.733328580856323242e-01 3.368616849184036255e-02 5.662615969777107239e-02
7.274678945541381836e-01 -8.090700954198837280e-02 4.321169108152389526e-04
9.373392462730407715e-01 3.952999040484428406e-02 -7.007182389497756958e-02
9.126170873641967773e-01 6.295646727085113525e-02 -6.432324647903442383e-02
8.076063394546508789e-01 -7.468074560165405273e-02 4.808044061064720154e-02
9.034208655357360840e-01 -6.395415216684341431e-02 -5.620737373828887939e-02
6.517265439033508301e-01 -2.424401231110095978e-02 5.789437517523765564e-02
7.279427647590637207e-01 7.707764953374862671e-02 5.191842466592788696e-02
6.704252958297729492e-01 7.846684753894805908e-02 1.900956034660339355e-02
9.527966976165771484e-01 2.464984729886054993e-02 -4.403642844408750534e-03
6.236722469329833984e-01 5.881993100047111511e-03 4.036372154951095581e-02
6.945932507514953613e-01 -6.360447406768798828e-02 4.151937365531921387e-02
9.543291926383972168e-01 -2.678933925926685333e-02 -5.623317137360572815e-02
6.948324441909790039e-01 -3.541255369782447815e-02 7.372140884399414062e-02
8.514814376831054688e-01 -7.530744653195142746e-03 -1.077957749366760254e-01
6.746227145195007324e-01 -3.393125534057617188e-02 -4.667153954505920410e-02
7.391458749771118164e-01 -2.105982042849063873e-02 -8.811077475547790527e-02
6.356948614120483398e-01 -2.368981484323740005e-03 -2.903562039136886597e-02
7.255109548568725586e-01 8.949773013591766357e-02 3.112804889678955078e-02
7.464532256126403809e-01 -3.542203083634376526e-02 -8.321394771337509155e-02
7.931329011917114258e-01 -5.148206651210784912e-02 7.263135164976119995e-02
6.325578093528747559e-01 3.455935791134834290e-02 -2.418823540210723877e-02
7.769559621810913086e-01 1.602371037006378174e-02 8.764118701219558716e-02
9.326227903366088867e-01 -4.242580384016036987e-02 1.379987690597772598e-02
7.545882463455200195e-01 -7.672270294278860092e-03 -9.718365222215652466e-02
8.832429647445678711e-01 6.651976704597473145e-02 -7.942220568656921387e-02
7.407580614089965820e-01 -7.046577334403991699e-02 -4.527722299098968506e-02
7.200189828872680664e-01 -1.373627036809921265e-02 8.729875087738037109e-02
7.728444933891296387e-01 9.108868241310119629e-02 -6.021825596690177917e-02
6.891169548034667969e-01 -5.354652553796768188e-02 -3.617201372981071472e-02
8.846660852432250977e-01 1.032612472772598267e-02 5.883777514100074768e-02
8.620550632476806641e-01 -8.517094701528549194e-02 -1.977291330695152283e-02
7.371827960014343262e-01 -7.102914899587631226e-02 5.030049383640289307e-02
6.703374385833740234e-01 -4.747993126511573792e-02 -2.641612663865089417e-02
9.215016365051269531e-01 5.158068239688873291e-02 -7.250087708234786987e-02
8.160666227340698242e-01 9.542556479573249817e-03 8.249521255493164062e-02
7.128389477729797363e-01 3.507418930530548096e-02 8.149290084838867188e-02
6.167466640472412109e-01 7.606217637658119202e-03 1.702608540654182434e-02
8.228327631950378418e-01 2.056466415524482727e-03 -1.094364076852798462e-01
9.341829419136047363e-01 4.459282010793685913e-02 2.249629236757755280e-03
7.473238706588745117e-01 3.174801915884017944e-02 -9.651512652635574341e-02
8.402034640312194824e-01 3.260475397109985352e-02 -1.075970530509948730e-01
8.686878085136413574e-01 8.387890458106994629e-02 4.228590056300163269e-03
7.875587940216064453e-01 9.238308668136596680e-02 -5.988354980945587158e-02
7.112880945205688477e-01 2.390973456203937531e-02 -8.505608141422271729e-02
8.393908739089965820e-01 -7.895261794328689575e-02 3.254952281713485718e-02
6.309576630592346191e-01 4.691399261355400085e-02 -8.596287108957767487e-03
9.252668619155883789e-01 3.944530338048934937e-02 1.829116791486740112e-02
6.962333917617797852e-01 4.530171677470207214e-02 -7.293999195098876953e-02
6.823675632476806641e-01 2.235704474151134491e-02 -7.082886993885040283e-02
9.242790937423706055e-01 -3.599042445421218872e-02 -7.730756700038909912e-02
6.824729442596435547e-01 8.407089859247207642e-02 1.630558073520660400e-02
8.081145286560058594e-01 9.911093860864639282e-02 1.379497349262237549e-03
9.327849745750427246e-01 -1.348692923784255981e-02 -8.441689610481262207e-02
9.236290454864501953e-01 -4.802475124597549438e-02 -6.580396741628646851e-02
8.147311210632324219e-01 -5.013966932892799377e-02 -8.720769733190536499e-02
6.868484616279602051e-01 5.007511749863624573e-02 6.795333325862884521e-02
6.894399523735046387e-01 1.695097982883453369e-02 8.205991983413696289e-02
7.109248042106628418e-01 -6.921799387782812119e-03 -8.207487314939498901e-02
7.841221094131469727e-01 1.010920777916908264e-01 -3.439175710082054138e-02
8.350198864936828613e-01 6.338381767272949219e-02 5.231779813766479492e-02
7.516260743141174316e-01 -9.364435449242591858e-03 8.989257365465164185e-02
7.870340943336486816e-01 7.966738194227218628e-02 4.771360382437705994e-02
6.414078474044799805e-01 5.191928893327713013e-02 3.755473718047142029e-02
8.472907543182373047e-01 7.098574936389923096e-02 3.958928212523460388e-02
8.988683819770812988e-01 -7.477200031280517578e-02 -2.554777264595031738e-02
7.679520249366760254e-01 -8.667729794979095459e-02 -1.838328316807746887e-02
8.135983943939208984e-01 2.403875254094600677e-02 -1.088276579976081848e-01
7.845717668533325195e-01 -7.004418969154357910e-02 5.657164379954338074e-02
7.787606120109558105e-01 5.716085061430931091e-02 -9.454131871461868286e-02
7.001306414604187012e-01 -8.108187466859817505e-05 -7.871510833501815796e-02
8.835067152976989746e-01 -1.946894079446792603e-02 -1.005962491035461426e-01
6.736291646957397461e-01 5.690702050924301147e-02 -5.233557149767875671e-02
6.511046290397644043e-01 6.927820295095443726e-02 -7.568914443254470825e-04
7.874764800071716309e-01 7.299305498600006104e-02 -8.472231775522232056e-02
9.235527515411376953e-01 -6.348375976085662842e-02 -2.402196265757083893e-02
6.759581565856933594e-01 8.301634341478347778e-02 6.678043864667415619e-03
8.358014225959777832e-01 7.794246822595596313e-02 -7.956035435199737549e-02
9.391117095947265625e-01 -4.866553470492362976e-02 -5.162506364285945892e-03
9.263461828231811523e-01 -1.157556101679801941e-02 3.410528227686882019e-02
6.984929442405700684e-01 -6.433151662349700928e-02 -2.547146379947662354e-02
9.668068885803222656e-01 1.599420327693223953e-03 -2.515569701790809631e-02
8.614742159843444824e-01 7.557488232851028442e-02 2.603694424033164978e-02
7.844855189323425293e-01 9.625283628702163696e-02 1.879245787858963013e-02
8.768149018287658691e-01 -9.708577767014503479e-03 -1.046199575066566467e-01
8.720719814300537109e-01 -6.920509040355682373e-02 -6.242323294281959534e-02
8.899103999137878418e-01 7.537977397441864014e-02 2.860336564481258392e-03
7.698996067047119141e-01 9.135834872722625732e-02 3.167298808693885803e-02
8.266021609306335449e-01 -5.366462469100952148e-02 -8.497120440006256104e-02
6.786109209060668945e-01 7.791527360677719116e-02 3.065112605690956116e-02
9.166851043701171875e-01 -2.417852543294429779e-02 -8.849742263555526733e-02
7.779792547225952148e-01 1.004491820931434631e-01 5.618292838335037231e-03
7.438710927963256836e-01 -1.023852825164794922e-02 -9.341360628604888916e-02
7.695456147193908691e-01 5.936410650610923767e-02 6.945992261171340942e-02
