2.109861467033624649e-03 3.328097164630889893e-01 8.457715623080730438e-03
-1.451766584068536758e-04 3.144155740737915039e-01 7.210567593574523926e-03
-2.443497069180011749e-04 3.305437564849853516e-01 -3.230042988434433937e-03
-1.229710178449749947e-03 3.739892840385437012e-01 4.303192254155874252e-03
-2.417925279587507248e-04 3.623092770576477051e-01 7.152372971177101135e-03
1.117965951561927795e-02 4.037672281265258789e-01 1.547985477373003960e-03
-5.361807532608509064e-03 3.195729851722717285e-01 4.293329548090696335e-03
-2.280104206874966621e-03 3.583379685878753662e-01 5.844419822096824646e-03
8.106824010610580444e-03 3.474925458431243896e-01 2.569273347035050392e-04
3.014222485944628716e-03 3.801584839820861816e-01 -5.644327029585838318e-03
4.997112788259983063e-03 3.471237421035766602e-01 8.064641617238521576e-03
2.826673444360494614e-03 3.200861811637878418e-01 1.441930653527379036e-04
5.775531753897666931e-03 3.967907428741455078e-01 -5.270246416330337524e-03
-2.916855504736304283e-03 3.448449671268463135e-01 -3.101119073107838631e-03
-4.929998889565467834e-03 3.255335390567779541e-01 5.345579702407121658e-03
3.085171803832054138e-03 3.490630388259887695e-01 -4.688920453190803528e-03
8.973994292318820953e-03 3.563030958175659180e-01 4.531820304691791534e-03
2.352237701416015625e-03 3.663171827793121338e-01 -5.620707757771015167e-03
9.675522334873676300e-03 3.992228806018829346e-01 -3.887085476890206337e-03
-4.342644475400447845e-03 3.489839136600494385e-01 -8.939316030591726303e-04
9.500959888100624084e-03 3.764563202857971191e-01 -3.178687067702412605e-03
6.582394242286682129e-03 3.349767923355102539e-01 4.118775017559528351e-03
4.734328016638755798e-03 3.607262372970581055e-01 8.253775537014007568e-03
6.302383262664079666e-04 3.864856362342834473e-01 -3.580569522455334663e-03
4.528850317001342773e-03 3.305332958698272705e-01 -9.622087236493825912e-04
-1.356680644676089287e-03 3.224877417087554932e-01 -2.141332486644387245e-03
3.660123329609632492e-04 3.899937868118286133e-01 -2.170740859583020210e-03
2.586872084066271782e-03 3.253384828567504883e-01 -1.518256030976772308e-03
1.051075011491775513e-02 3.681393563747406006e-01 1.534255687147378922e-03
3.392769023776054382e-03 3.225907087326049805e-01 5.348469130694866180e-06
4.732514731585979462e-03 3.411170244216918945e-01 7.878354750573635101e-03
-2.261071698740124702e-03 3.393673896789550781e-01 -3.408704651519656181e-03
1.148253493010997772e-02 3.872906863689422607e-01 -1.789124216884374619e-04
-7.003131322562694550e-04 3.811930119991302490e-01 -2.639413112774491310e-03
6.479165516793727875e-03 3.917008638381958008e-01 5.961437709629535675e-03
1.603070180863142014e-03 3.377079069614410400e-01 8.708395063877105713e-03
6.193165667355060577e-03 3.793672323226928711e-01 7.143346592783927917e-03
5.449948832392692566e-03 3.486733436584472656e-01 -3.579293144866824150e-03
1.420064130797982216e-03 3.722279965877532959e-01 -5.368844605982303619e-03
1.023269491270184517e-03 3.822308182716369629e-01 5.221896804869174957e-03
-6.263570394366979599e-04 3.312053978443145752e-01 8.435053750872612000e-03
8.064656518399715424e-03 3.474257290363311768e-01 4.596456885337829590e-03
-2.917005913332104683e-03 3.138807415962219238e-01 6.843387149274349213e-03
7.001729682087898254e-03 3.890334963798522949e-01 -5.412019789218902588e-03
6.792762316763401031e-03 3.470262885093688965e-01 6.682110950350761414e-03
-4.982030019164085388e-03 3.114008903503417969e-01 3.858590731397271156e-03
-4.242047667503356934e-03 3.199232816696166992e-01 6.243754178285598755e-03
6.883517839014530182e-03 3.413652479648590088e-01 -4.947953857481479645e-04
3.833103459328413010e-03 3.198407888412475586e-01 4.355960525572299957e-03
-1.960060792043805122e-03 3.559888005256652832e-01 -3.794570686295628548e-03
6.110569462180137634e-03 3.448871076107025146e-01 -2.412058878690004349e-03
3.444761037826538086e-03 3.872114717960357666e-01 5.953900516033172607e-03
4.051028750836849213e-03 3.347879946231842041e-01 -2.367406850680708885e-03
-5.076639354228973389e-04 3.677075803279876709e-01 6.288308650255203247e-03
4.311310127377510071e-03 3.451851308345794678e-01 -3.813363844528794289e-03
9.570765309035778046e-03 3.576520383358001709e-01 2.311578951776027679e-03
3.309497609734535217e-03 3.441607356071472168e-01 8.586810901761054993e-03
-1.798955490812659264e-03 3.364038765430450439e-01 7.981278002262115479e-03
2.151403343304991722e-03 3.181203901767730713e-01 6.660515442490577698e-03
4.449433647096157074e-03 3.653056323528289795e-01 -5.491237156093120575e-03
3.771446645259857178e-03 3.261330425739288330e-01 -6.344567518681287766e-04
-4.985555075109004974e-03 3.429737985134124756e-01 2.447016304358839989e-04
1.146878302097320557e-02 3.947116434574127197e-01 1.892649452202022076e-03
1.996222184970974922e-03 3.211775124073028564e-01 -9.621279314160346985e-04
8.247157093137502670e-04 3.580898046493530273e-01 8.051647804677486420e-03
-3.899961477145552635e-03 3.477999866008758545e-01 -1.887486781924962997e-03
5.773358047008514404e-03 4.045324027538299561e-01 -4.446917213499546051e-03
9.024966508150100708e-03 3.530445992946624756e-01 3.143758978694677353e-03
3.050321945920586586e-03 3.282831609249114990e-01 -1.821330981329083443e-03
-5.395621061325073242e-03 3.179382979869842529e-01 4.001791588962078094e-03
6.195166148245334625e-03 3.453981876373291016e-01 7.123227231204509735e-03
-8.780625648796558380e-05 3.396384418010711670e-01 -4.113225266337394714e-03
-5.497348494827747345e-03 3.184846639633178711e-01 2.117059193551540375e-03
6.260170601308345795e-03 3.536354899406433105e-01 -3.648270620033144951e-03
6.052738055586814880e-03 3.391594290733337402e-01 -1.237284392118453979e-03
3.433265257626771927e-03 3.212254047393798828e-01 6.007757037878036499e-03
5.017143674194812775e-03 3.869427144527435303e-01 -5.709945224225521088e-03
1.144694816321134567e-02 3.968096375465393066e-01 1.815776806324720383e-03
-3.891104599460959435e-03 3.568037450313568115e-01 3.144191578030586243e-03
5.576654337346553802e-03 3.282537758350372314e-01 2.684290055185556412e-03
6.239317357540130615e-03 3.885309994220733643e-01 6.329767405986785889e-03
3.308743936941027641e-03 3.581426739692687988e-01 -5.307783372700214386e-03
9.490971453487873077e-03 3.626020848751068115e-01 -9.633272420614957809e-04
-2.610673895105719566e-03 3.436427712440490723e-01 7.084035314619541168e-03
-5.454751662909984589e-04 3.088269829750061035e-01 1.125865033827722073e-03
-2.183997305110096931e-03 3.085002601146697998e-01 8.020575623959302902e-04
4.024785943329334259e-03 3.549652993679046631e-01 -4.932876676321029663e-03
-4.257305525243282318e-03 3.535286784172058105e-01 2.915485296398401260e-03
7.537444122135639191e-03 3.619621992111206055e-01 6.978148594498634338e-03
9.129620157182216644e-03 3.696037828922271729e-01 -2.855104161426424980e-03
4.626797512173652649e-03 3.847817778587341309e-01 -5.752326920628547668e-03
8.457760326564311981e-03 3.680166006088256836e-01 6.356552243232727051e-03
3.029885701835155487e-04 3.868280649185180664e-01 3.183525521308183670e-03
5.449014250189065933e-03 4.124558269977569580e-01 4.097411874681711197e-05
7.009195163846015930e-03 3.993370532989501953e-01 4.903244785964488983e-03
9.955010376870632172e-03 4.071596562862396240e-01 2.624449087306857109e-03
3.648849437013268471e-03 3.722926676273345947e-01 7.695459760725498199e-03
-4.855271428823471069e-03 3.164229393005371094e-01 7.705042953602969646e-04
1.895173569209873676e-03 3.122445940971374512e-01 4.581005778163671494e-03
-1.861859811469912529e-03 3.648494482040405273e-01 -3.411697922274470329e-03
-3.315103938803076744e-03 3.524352908134460449e-01 5.340981297194957733e-03
8.491884917020797729e-03 4.069858193397521973e-01 -4.060748033225536346e-03
9.527695365250110626e-03 3.589265644550323486e-01 3.498196601867675781e-03
8.954631164669990540e-03 4.015417695045471191e-01 4.176054615527391434e-03
-1.604050165042281151e-03 3.105971813201904297e-01 6.727581843733787537e-03
-7.749926298856735229e-04 3.646920919418334961e-01 6.473708897829055786e-03
8.290578611195087433e-03 4.137352108955383301e-01 1.540241646580398083e-03
-2.935870317742228508e-03 3.372179269790649414e-01 -2.897395053878426552e-03
-1.440627733245491982e-03 3.605566322803497314e-01 6.422656588256359100e-03
9.777422994375228882e-03 3.596899807453155518e-01 1.971989404410123825e-03
1.062890142202377319e-02 3.815430104732513428e-01 3.919207490980625153e-03
1.008425466716289520e-02 3.899882733821868896e-01 -3.434592159464955330e-03
4.876769147813320160e-03 3.964909911155700684e-01 4.990480840206146240e-03
-7.362652104347944260e-04 3.470328748226165771e-01 -4.400657489895820618e-03
6.985146552324295044e-03 3.523029386997222900e-01 -2.797839930281043053e-03
9.880179539322853088e-03 3.984614014625549316e-01 4.010797012597322464e-03
5.200062412768602371e-03 3.844797313213348389e-01 6.739589385688304901e-03
1.062289625406265259e-02 3.821075856685638428e-01 -2.061555860564112663e-03
5.700669251382350922e-03 3.575991988182067871e-01 7.984800264239311218e-03
-4.059636034071445465e-03 3.361156582832336426e-01 6.115726195275783539e-03
-1.840249402448534966e-03 3.299093544483184814e-01 8.038424886763095856e-03
-4.319839179515838623e-03 3.275808393955230713e-01 6.193594075739383698e-03
4.482655785977840424e-03 3.339026272296905518e-01 7.367990911006927490e-03
-2.589959884062409401e-03 3.710062503814697266e-01 1.926953671500086784e-03
4.998989403247833252e-03 3.649589717388153076e-01 8.085388690233230591e-03
6.446360610425472260e-03 3.812528550624847412e-01 6.965081207454204559e-03
7.266147993505001068e-03 3.501634895801544189e-01 6.480714306235313416e-03
8.398404344916343689e-03 3.584550619125366211e-01 -2.106568077579140663e-03
1.297143753618001938e-04 3.196432590484619141e-01 7.843553088605403900e-03
-3.893412882462143898e-03 3.596628308296203613e-01 5.447935545817017555e-04
1.014842465519905090e-02 3.660988211631774902e-01 3.302480326965451241e-03
-3.312023589387536049e-03 3.069013655185699463e-01 5.352325737476348877e-03
6.205085664987564087e-03 3.694597780704498291e-01 7.645035162568092346e-03
-2.763516036793589592e-03 3.501634895801544189e-01 -3.206700785085558891e-03
6.184404715895652771e-03 4.020233452320098877e-01 4.337545484304428101e-03
1.123290602117776871e-02 3.797223567962646484e-01 5.590317887254059315e-04
1.123517937958240509e-02 3.847774267196655273e-01 2.572114113718271255e-03
9.702771902084350586e-03 3.807075023651123047e-01 5.218793638050556183e-03
3.062746953219175339e-03 3.611650466918945312e-01 -5.486745387315750122e-03
2.725026570260524750e-04 3.702066838741302490e-01 -4.882432520389556885e-03
8.797418326139450073e-03 3.738953769207000732e-01 -3.714331658557057381e-03
-3.477323334664106369e-04 3.346672356128692627e-01 8.524378761649131775e-03
3.145873313769698143e-03 3.591537773609161377e-01 8.437057957053184509e-03
-3.078640438616275787e-04 3.875154852867126465e-01 1.216382370330393314e-03
9.602620266377925873e-03 3.722146749496459961e-01 -2.538978820666670799e-03
8.526222780346870422e-03 3.842396438121795654e-01 -4.608255811035633087e-03
1.484677777625620365e-03 3.509497940540313721e-01 8.591490797698497772e-03
6.196639034897089005e-03 3.331300914287567139e-01 4.551203921437263489e-03
9.931992739439010620e-03 3.894337713718414307e-01 4.707933869212865829e-03
-9.545402135699987411e-04 3.695290982723236084e-01 5.570427514612674713e-03
9.270550683140754700e-03 3.829651176929473877e-01 5.576938390731811523e-03
-5.435663275420665741e-03 3.210702240467071533e-01 1.335986773483455181e-03
7.856348529458045959e-03 3.489073812961578369e-01 5.429362878203392029e-03
4.595849663019180298e-03 4.022989571094512939e-01 -4.315312951803207397e-03
1.732848817482590675e-03 3.793181180953979492e-01 6.241953931748867035e-03
-3.781698876991868019e-03 3.510816991329193115e-01 -1.853915164247155190e-03
-1.653106650337576866e-03 3.793118298053741455e-01 1.916872570291161537e-04
-9.091624524444341660e-04 3.779191970825195312e-01 -2.986185019835829735e-03
-2.126325154677033424e-03 3.665989637374877930e-01 -2.876667072996497154e-03
3.887689672410488129e-05 3.537228703498840332e-01 -4.872048273682594299e-03
2.881268505007028580e-03 3.165709376335144043e-01 1.882689772173762321e-03
3.659286070615053177e-03 4.032737016677856445e-01 -3.349423641338944435e-03
2.219021320343017578e-03 3.134456276893615723e-01 2.505129668861627579e-03
6.315829232335090637e-03 3.726582229137420654e-01 -5.282253026962280273e-03
3.034569555893540382e-03 4.046958982944488525e-01 -1.324152806773781776e-03
3.822511760517954826e-03 3.945254087448120117e-01 4.872863180935382843e-03
7.470210082828998566e-03 3.610729873180389404e-01 -3.581206547096371651e-03
1.010335283353924751e-03 3.891227245330810547e-01 3.579436801373958588e-03
1.164718624204397202e-02 3.922597467899322510e-01 8.235670975409448147e-04
-1.633581938222050667e-03 3.407417833805084229e-01 7.922501303255558014e-03
1.099908817559480667e-02 4.057511389255523682e-01 -1.775151584297418594e-03
-1.028216676786541939e-03 3.158094286918640137e-01 7.503928616642951965e-03
5.620873533189296722e-03 3.995207250118255615e-01 -5.024151876568794250e-03
7.426118478178977966e-03 3.467225730419158936e-01 -1.046500867232680321e-03
4.490701016038656235e-03 3.890831172466278076e-01 -5.584127269685268402e-03
5.380855873227119446e-03 3.793931901454925537e-01 -5.745285190641880035e-03
-2.520221751183271408e-04 3.261044323444366455e-01 8.333251811563968658e-03
1.052492018789052963e-02 3.840327858924865723e-01 4.134885035455226898e-03
1.132096163928508759e-02 3.911578953266143799e-01 2.473617205396294594e-03
4.131505265831947327e-03 3.971225023269653320e-01 -4.832128994166851044e-03
1.447343383915722370e-03 3.771053552627563477e-01 6.387380883097648621e-03
-1.766539411619305611e-03 3.778183162212371826e-01 1.452439813874661922e-03
-3.892033593729138374e-03 3.583912551403045654e-01 2.495699794963002205e-03
1.599440234713256359e-03 3.978100419044494629e-01 -1.675968756899237633e-03
1.161548774689435959e-02 3.906139731407165527e-01 1.889684936031699181e-04
1.117367576807737350e-02 4.000799059867858887e-01 2.174330409616231918e-03
-5.627213977277278900e-04 3.552497327327728271e-01 7.620060816407203674e-03
-1.658049877732992172e-04 3.430521786212921143e-01 -4.342876374721527100e-03
1.035129558295011520e-02 3.661993443965911865e-01 1.394399791024625301e-03
8.525387383997440338e-03 4.051483273506164551e-01 3.736010054126381874e-03
2.411793451756238937e-03 3.573794662952423096e-01 8.462842553853988647e-03
8.708272129297256470e-03 3.498097062110900879e-01 1.844424055889248848e-03
2.267562784254550934e-03 3.829084336757659912e-01 6.016558036208152771e-03
8.196209557354450226e-03 4.101240634918212891e-01 2.703675068914890289e-03
2.026053378358483315e-03 3.781604170799255371e-01 -5.405508913099765778e-03
1.473352778702974319e-03 3.105947375297546387e-01 4.224639385938644409e-03
5.720683839172124863e-04 3.624245524406433105e-01 -5.170176737010478973e-03
1.084080059081315994e-02 3.760825097560882568e-01 -4.498878261074423790e-04
1.824645209126174450e-03 3.689901232719421387e-01 7.522939704358577728e-03
5.348448175936937332e-04 3.180886507034301758e-01 7.567597553133964539e-03
2.624078653752803802e-03 3.330225050449371338e-01 -2.928901230916380882e-03
1.225870684720575809e-03 3.960116803646087646e-01 -1.572623616084456444e-03
7.032232359051704407e-03 3.385723829269409180e-01 4.387916997075080872e-03
1.697804778814315796e-03 3.662761151790618896e-01 7.724147289991378784e-03
4.991933703422546387e-03 3.383806049823760986e-01 7.463533431291580200e-03
1.158214174211025238e-02 3.891502916812896729e-01 1.163229346275329590e-03
-6.311167962849140167e-04 3.718508780002593994e-01 -4.104621708393096924e-03
2.091228496283292770e-03 3.885187208652496338e-01 4.889970179647207260e-03
-5.380351096391677856e-03 3.374840021133422852e-01 2.743538003414869308e-03
-2.121291821822524071e-03 3.578009903430938721e-01 -3.586339997127652168e-03
-3.926958888769149780e-03 3.232144713401794434e-01 6.642239168286323547e-03
1.069381367415189743e-02 3.873545527458190918e-01 3.838698845356702805e-03
8.891989476978778839e-03 4.150874614715576172e-01 -2.159880008548498154e-03
7.164536044001579285e-03 3.824360072612762451e-01 -5.296044982969760895e-03
-6.865789182484149933e-04 3.836193680763244629e-01 -1.916000619530677795e-03
-3.376794280484318733e-03 3.531011343002319336e-01 -2.350548049435019493e-03
2.102148020640015602e-03 3.922342061996459961e-01 -4.171284846961498260e-03
-5.647114012390375137e-04 3.075782656669616699e-01 5.649982020258903503e-03
-5.390265025198459625e-03 3.317977488040924072e-01 3.859820542857050896e-03
7.737019099295139313e-03 3.638937771320343018e-01 6.873118691146373749e-03
7.404902018606662750e-03 4.008768200874328613e-01 -4.893735051155090332e-03
4.662366583943367004e-03 3.423435091972351074e-01 -3.206999739632010460e-03
7.204841822385787964e-03 3.670125901699066162e-01 -4.417221061885356903e-03
3.608088009059429169e-03 3.189831674098968506e-01 2.286492614075541496e-03
9.451110381633043289e-04 3.741116821765899658e-01 -5.087362602353096008e-03
4.351155366748571396e-03 3.697946369647979736e-01 7.915358059108257294e-03
6.245847325772047043e-03 4.072760045528411865e-01 3.143027424812316895e-03
-3.065690398216247559e-04 3.565104007720947266e-01 -4.797875881195068359e-03
1.833665417507290840e-03 3.525608777999877930e-01 -5.090049467980861664e-03
1.047089509665966034e-02 3.770068883895874023e-01 4.014035221189260483e-03
5.537026561796665192e-03 4.104512035846710205e-01 -2.937737619504332542e-03
1.279018353670835495e-03 3.902834355831146240e-01 -3.655459033325314522e-03
8.933887816965579987e-03 4.117430150508880615e-01 -3.147819777950644493e-03
9.422613307833671570e-03 3.826463818550109863e-01 -3.773311851546168327e-03
7.231275551021099091e-03 3.498917818069458008e-01 -2.071381080895662308e-03
7.674565538763999939e-03 3.686738610267639160e-01 -4.222593270242214203e-03
7.543860934674739838e-03 3.422194123268127441e-01 8.904388523660600185e-04
9.680377319455146790e-03 3.785552084445953369e-01 5.251329392194747925e-03
8.717306889593601227e-03 3.745102584362030029e-01 6.191246211528778076e-03
-1.662594731897115707e-04 3.771731257438659668e-01 5.014559254050254822e-03
9.512793272733688354e-03 3.644450902938842773e-01 -1.350994221866130829e-03
-2.970847534015774727e-03 3.611709177494049072e-01 4.290622659027576447e-03
7.728221826255321503e-03 3.804392516613006592e-01 -4.956283606588840485e-03
5.406734999269247055e-03 3.349635303020477295e-01 -1.029989914968609810e-03
3.707181196659803391e-03 4.074794650077819824e-01 -8.362296503037214279e-04
-3.096950938925147057e-03 3.351102471351623535e-01 7.165879011154174805e-03
4.628125578165054321e-03 4.102092683315277100e-01 8.868286386132240295e-05
2.443539910018444061e-03 3.427090942859649658e-01 8.713280782103538513e-03
-2.629964146763086319e-04 3.449765145778656006e-01 -4.437016323208808899e-03
2.128123305737972260e-03 3.625357449054718018e-01 8.132506161928176880e-03
-3.396811662241816521e-03 3.398261070251464844e-01 6.618143990635871887e-03
-9.283947292715311050e-04 3.549926280975341797e-01 -4.495328292250633240e-03
2.135063055902719498e-03 3.917104899883270264e-01 4.212929867208003998e-03
-3.242655424401164055e-03 3.582856357097625732e-01 -2.072303323075175285e-03
2.803458599373698235e-03 3.851178586483001709e-01 5.968735553324222565e-03
8.256576023995876312e-03 4.043934047222137451e-01 -4.401898942887783051e-03
7.605188526213169098e-03 3.560872375965118408e-01 -2.732388908043503761e-03
1.053789351135492325e-02 3.697243928909301758e-01 3.773143980652093887e-04
4.445448517799377441e-03 4.094950258731842041e-01 -1.704793889075517654e-03
-3.025105455890297890e-03 3.326897025108337402e-01 7.308298721909523010e-03
8.592726662755012512e-04 3.273305892944335938e-01 -2.674889052286744118e-03
-3.603616030886769295e-03 3.613726794719696045e-01 2.421608194708824158e-03
4.447353072464466095e-03 3.685142099857330322e-01 -5.630326457321643829e-03
2.106146886944770813e-03 3.152158856391906738e-01 5.849838256835937500e-03
4.284422378987073898e-03 3.737422525882720947e-01 -5.790092051029205322e-03
4.793471656739711761e-03 8.577796816825866699e-01 -6.313237361609935760e-03
1.101609505712985992e-02 9.045984148979187012e-01 2.148099243640899658e-03
-6.878803949803113937e-03 8.151011466979980469e-01 4.187258891761302948e-03
-4.910089541226625443e-03 8.023126125335693359e-01 8.451798930764198303e-03
-3.703267779201269150e-03 9.187445044517517090e-01 3.081753849983215332e-03
2.159632742404937744e-03 7.460441589355468750e-01 6.943281739950180054e-03
7.678679656237363815e-03 7.961933612823486328e-01 -4.599427338689565659e-04
5.114415194839239120e-03 7.620854973793029785e-01 5.482472479343414307e-03
-6.625917274504899979e-03 8.249876499176025391e-01 7.034633308649063110e-04
8.571155369281768799e-03 8.047390580177307129e-01 3.077046247199177742e-03
5.876280833035707474e-03 7.646744847297668457e-01 1.475277822464704514e-03
1.383168390020728111e-03 8.774502873420715332e-01 -6.493772380053997040e-03
-3.382133319973945618e-03 9.243452548980712891e-01 1.389132812619209290e-03
-3.666766919195652008e-03 8.261267542839050293e-01 9.568624198436737061e-03
4.113294417038559914e-04 9.325388073921203613e-01 7.882786914706230164e-03
-4.980131518095731735e-03 8.784447312355041504e-01 5.938519723713397980e-03
-6.685454864054918289e-03 7.800408005714416504e-01 2.606552559882402420e-03
4.553206264972686768e-03 8.719597458839416504e-01 1.045969687402248383e-02
-9.512701071798801422e-04 7.698429226875305176e-01 -3.711548633873462677e-03
3.620655043050646782e-04 7.836431264877319336e-01 1.021461281925439835e-02
6.468388019129633904e-04 9.577531814575195312e-01 -2.000885549932718277e-03
1.079075969755649567e-02 8.779256343841552734e-01 2.003412228077650070e-04
6.344579625874757767e-03 7.691743373870849609e-01 2.564176218584179878e-03
-1.700098160654306412e-03 9.447516798973083496e-01 2.143085002899169922e-04
-5.524703767150640488e-03 7.585448622703552246e-01 8.056608494371175766e-04
-8.049302268773317337e-04 9.436773061752319336e-01 5.614460445940494537e-03
1.013002544641494751e-02 8.465328216552734375e-01 3.346674144268035889e-03
-4.026634152978658676e-03 9.111924171447753906e-01 5.107368342578411102e-04
1.022975775413215160e-03 7.950490713119506836e-01 -5.174932070076465607e-03
-5.212666001170873642e-03 8.530121445655822754e-01 7.213368080556392670e-03
-5.243396386504173279e-03 8.811310529708862305e-01 1.324969343841075897e-05
2.256832551211118698e-03 7.336853742599487305e-01 2.293195808306336403e-03
4.704026505351066589e-03 7.589156627655029297e-01 5.709670018404722214e-03
2.950778696686029434e-03 7.821707725524902344e-01 9.463330730795860291e-03
8.191625587642192841e-03 8.176015615463256836e-01 6.279191002249717712e-03
7.604075130075216293e-03 8.024881482124328613e-01 6.059909705072641373e-03
9.646572172641754150e-03 8.332902789115905762e-01 1.232298091053962708e-04
5.964785814285278320e-03 8.245771527290344238e-01 -4.859994165599346161e-03
8.566724136471748352e-03 8.764235973358154297e-01 -4.296779166907072067e-03
8.264925330877304077e-03 7.982147932052612305e-01 2.562700072303414345e-03
-6.433141883462667465e-03 8.453426957130432129e-01 1.006093109026551247e-03
-1.665889983996748924e-03 8.834463953971862793e-01 9.523095563054084778e-03
-6.901533808559179306e-03 8.228030800819396973e-01 2.418690826743841171e-03
-9.791287593543529510e-04 9.546473622322082520e-01 1.423956360667943954e-03
-4.770457744598388672e-04 7.501662969589233398e-01 -2.273510675877332687e-03
1.054879091680049896e-02 9.038500189781188965e-01 -1.437142724171280861e-03
-3.063655458390712738e-05 7.409425377845764160e-01 7.420762907713651657e-03
9.345259517431259155e-03 8.206032514572143555e-01 2.269540214911103249e-03
6.950849667191505432e-03 7.774264216423034668e-01 1.992428442463278770e-03
-3.073955886065959930e-03 7.824405431747436523e-01 -3.496045712381601334e-03
-4.977672360837459564e-03 8.485230803489685059e-01 -2.461882773786783218e-03
-6.816955748945474625e-03 8.256355524063110352e-01 4.050341900438070297e-03
-5.480542313307523727e-03 8.306960463523864746e-01 -1.962927635759115219e-03
-4.393962211906909943e-03 7.557985186576843262e-01 -7.467430550605058670e-04
-7.866511587053537369e-04 9.042157530784606934e-01 9.064159356057643890e-03
-1.987788360565900803e-03 8.402569293975830078e-01 1.043639425188302994e-02
4.853387828916311264e-03 9.249908328056335449e-01 -5.754009820520877838e-03
-8.595546241849660873e-04 8.391396999359130859e-01 -5.877047777175903320e-03
-4.876957274973392487e-03 8.953145742416381836e-01 3.745822934433817863e-03
3.537264652550220490e-03 8.369373679161071777e-01 1.078355498611927032e-02
-7.348535582423210144e-04 8.163942098617553711e-01 -5.593578331172466278e-03
-3.209316171705722809e-03 9.168072342872619629e-01 5.327879916876554489e-03
2.871603704988956451e-03 9.807278513908386230e-01 2.027869690209627151e-03
-5.469629541039466858e-03 8.834617137908935547e-01 1.865217112936079502e-03
2.686803229153156281e-03 7.729220986366271973e-01 9.062070399522781372e-03
9.277216158807277679e-03 8.511006236076354980e-01 6.225629709661006927e-03
2.451427048072218895e-03 8.673644065856933594e-01 1.091845147311687469e-02
8.631090633571147919e-03 9.368932247161865234e-01 -3.588451538234949112e-03
8.867541328072547913e-03 8.642560839653015137e-01 7.260968908667564392e-03
-1.626675715669989586e-03 8.866393566131591797e-01 9.413300082087516785e-03
1.014644512906670570e-03 8.456432819366455078e-01 1.112010702490806580e-02
6.702073849737644196e-03 7.894443869590759277e-01 -1.562104327604174614e-03
8.234733715653419495e-03 9.746116995811462402e-01 1.332734245806932449e-04
-6.939206738024950027e-03 7.984377145767211914e-01 2.755647758021950722e-03
-1.725550275295972824e-03 8.598865270614624023e-01 -5.432216916233301163e-03
4.700280725955963135e-03 7.520163059234619141e-01 3.708549076691269875e-03
-1.155987149104475975e-03 7.602516412734985352e-01 -3.027182072401046753e-03
5.754678044468164444e-03 8.611065745353698730e-01 -6.009692326188087463e-03
-1.515154726803302765e-03 9.490925073623657227e-01 1.957640284672379494e-03
8.430958725512027740e-03 9.260689616203308105e-01 -4.164200276136398315e-03
3.349445760250091553e-04 9.002298712730407715e-01 9.766973555088043213e-03
-6.338725332170724869e-03 8.053550720214843750e-01 6.241357419639825821e-03
1.396597246639430523e-03 9.705510139465332031e-01 -4.909506533294916153e-04
-9.177601896226406097e-04 8.608288168907165527e-01 1.055455300956964493e-02
5.328529514372348785e-03 9.480369687080383301e-01 7.548606023192405701e-03
-5.429520737379789352e-03 7.535250186920166016e-01 1.293720793910324574e-03
8.685373701155185699e-03 9.228076338768005371e-01 6.865965668112039566e-03
-4.043774679303169250e-04 7.638156414031982422e-01 9.324612095952033997e-03
-4.721284378319978714e-03 7.802016735076904297e-01 -2.008944749832153320e-03
1.574308029375970364e-03 8.961086273193359375e-01 -6.258807145059108734e-03
-4.799131769686937332e-03 8.030672669410705566e-01 -2.693752292543649673e-03
-5.121548194438219070e-03 8.873005509376525879e-01 4.348519723862409592e-03
-2.135061658918857574e-03 8.831381201744079590e-01 -4.689654335379600525e-03
2.047672867774963379e-03 9.463813304901123047e-01 7.496608421206474304e-03
4.279543645679950714e-03 8.786361217498779297e-01 1.046280283480882645e-02
1.001162081956863403e-02 8.991897106170654297e-01 5.617804825305938721e-03
-5.190884694457054138e-04 9.574780464172363281e-01 3.105181967839598656e-03
5.691573023796081543e-03 9.380529522895812988e-01 -5.121304187923669815e-03
3.830488771200180054e-03 9.590599536895751953e-01 6.735366303473711014e-03
1.778312143869698048e-03 7.366992235183715820e-01 3.219823120161890984e-04
-4.071426577866077423e-03 8.888067007064819336e-01 6.797407288104295731e-03
-2.866529393941164017e-04 7.961725592613220215e-01 1.059197448194026947e-02
7.992751896381378174e-03 7.938412427902221680e-01 1.608110382221639156e-03
2.534470055252313614e-03 9.561396837234497070e-01 -3.668924327939748764e-03
7.162564434111118317e-04 9.510539770126342773e-01 -2.932994626462459564e-03
-3.418759442865848541e-03 9.023734331130981445e-01 -2.224883530288934708e-03
7.057274924591183662e-04 9.177802801132202148e-01 -5.253957118839025497e-03
7.132079917937517166e-03 9.308907389640808105e-01 -4.885796457529067993e-03
5.850023590028285980e-03 8.551930785179138184e-01 -5.865612998604774475e-03
1.046256721019744873e-02 9.387499094009399414e-01 9.380583651363849640e-05
1.067820005118846893e-02 8.868102431297302246e-01 -8.007027208805084229e-04
1.000441424548625946e-02 9.528555274009704590e-01 8.038163650780916214e-04
1.091067306697368622e-02 9.218623042106628418e-01 1.438645878806710243e-03
-5.968340206891298294e-03 8.210522532463073730e-01 6.908657960593700409e-03
8.272019214928150177e-03 9.487631320953369141e-01 5.830883979797363281e-03
1.146493828855454922e-03 9.279000163078308105e-01 8.570024743676185608e-03
4.397392738610506058e-03 7.668850421905517578e-01 -1.879231072962284088e-03
9.998071473091840744e-04 9.614725112915039062e-01 5.012968555092811584e-03
9.787643328309059143e-03 8.738306760787963867e-01 5.941527895629405975e-03
-4.751827567815780640e-03 8.098558187484741211e-01 -2.874123863875865936e-03
9.088863618671894073e-03 9.596211314201354980e-01 3.572700079530477524e-03
4.143377766013145447e-03 7.688181400299072266e-01 7.705161347985267639e-03
-5.638898815959692001e-03 8.139140605926513672e-01 7.544784806668758392e-03
9.892240166664123535e-03 9.329792261123657227e-01 -2.079470083117485046e-03
-5.216777790337800980e-03 7.685436606407165527e-01 7.079194765537977219e-03
8.967699483036994934e-03 9.044991731643676758e-01 7.084618322551250458e-03
-4.479872062802314758e-03 7.688586711883544922e-01 -1.650341087952256203e-03
2.846385817974805832e-03 7.661796808242797852e-01 8.499953895807266235e-03
6.408018991351127625e-03 8.818119764328002930e-01 -5.905264988541603088e-03
1.749035553075373173e-03 8.483685255050659180e-01 -6.536456756293773651e-03
-3.013364970684051514e-03 7.436883449554443359e-01 7.236971985548734665e-03
-6.081180181354284286e-03 7.598088383674621582e-01 3.568903543055057526e-03
-3.132736776024103165e-03 7.555834650993347168e-01 8.171183988451957703e-03
9.520174935460090637e-03 9.564682841300964355e-01 3.023095196112990379e-03
8.248210884630680084e-03 8.688923716545104980e-01 -4.472929518669843674e-03
7.951017469167709351e-03 8.014258742332458496e-01 -5.776160396635532379e-04
6.860768888145685196e-03 8.612597584724426270e-01 9.273875504732131958e-03
-1.783757470548152924e-03 8.925794363021850586e-01 -4.657943733036518097e-03
-6.495443638414144516e-03 8.001221418380737305e-01 5.792866460978984833e-03
2.980053424835205078e-03 8.624248504638671875e-01 1.091358810663223267e-02
1.036928384564816952e-03 9.707301855087280273e-01 2.447634935379028320e-03
5.627963691949844360e-03 7.662873268127441406e-01 5.136467516422271729e-03
-1.915825530886650085e-03 7.743365764617919922e-01 -3.683641552925109863e-03
-2.537911757826805115e-03 9.367493391036987305e-01 2.184299519285559654e-03
-1.550064422190189362e-03 7.665322422981262207e-01 9.367334656417369843e-03
7.516472134739160538e-03 9.775026440620422363e-01 -5.359922070056200027e-04
5.787334404885768890e-03 8.889970183372497559e-01 9.763450361788272858e-03
3.460215404629707336e-03 9.648473262786865234e-01 -3.181305248290300369e-03
-4.638549406081438065e-03 8.709628582000732422e-01 -2.200523857027292252e-03
9.747259318828582764e-03 8.611977100372314453e-01 -2.131960354745388031e-03
1.066283136606216431e-02 8.879141211509704590e-01 3.980792593210935593e-03
4.576030187308788300e-05 8.843564391136169434e-01 -5.981437861919403076e-03
-6.410086061805486679e-03 8.537870645523071289e-01 3.004734870046377182e-03
-2.620541024953126907e-03 9.125481247901916504e-01 -2.639722079038619995e-03
8.668716065585613251e-03 8.269304633140563965e-01 6.044622510671615601e-03
9.306402644142508507e-04 9.300715923309326172e-01 -4.747658036649227142e-03
1.095995865762233734e-02 9.125847816467285156e-01 2.277071587741374969e-03
2.907215384766459465e-03 8.599749207496643066e-01 -6.645763292908668518e-03
-2.061435487121343613e-03 7.485959529876708984e-01 8.090434595942497253e-03
-2.630120608955621719e-03 8.630975484848022461e-01 -4.761807154864072800e-03
-6.251194979995489120e-03 7.769042253494262695e-01 8.186856284737586975e-04
5.416681058704853058e-03 9.022734165191650391e-01 -6.163868121802806854e-03
2.854187507182359695e-03 7.369299530982971191e-01 3.347197314724326134e-03
1.085160486400127411e-02 8.759533762931823730e-01 2.244775416329503059e-03
-4.591397475451231003e-03 7.967486381530761719e-01 -2.763608004897832870e-03
9.706837590783834457e-04 8.048244714736938477e-01 1.078702043741941452e-02
2.151807537302374840e-03 9.413061738014221191e-01 7.948838174343109131e-03
-5.509301554411649704e-04 9.489262700080871582e-01 -1.654739724472165108e-03
5.068459548056125641e-03 9.423090815544128418e-01 7.993798702955245972e-03
-3.922920208424329758e-03 8.441914319992065430e-01 -3.845155239105224609e-03
9.395189583301544189e-03 9.008538722991943359e-01 -3.540993202477693558e-03
1.020733267068862915e-02 8.572751879692077637e-01 -6.442805752158164978e-04
9.214795194566249847e-03 9.510762691497802734e-01 -1.992101315408945084e-03
-3.589923493564128876e-03 8.754659891128540039e-01 8.297261781990528107e-03
9.967802092432975769e-03 9.320264458656311035e-01 4.565368406474590302e-03
-1.570442458614706993e-03 7.323978543281555176e-01 1.252279616892337799e-04
-4.134318791329860687e-03 7.746626138687133789e-01 8.510768413543701172e-03
8.079251274466514587e-03 8.947083950042724609e-01 8.165480569005012512e-03
8.718704804778099060e-03 8.142385482788085938e-01 4.601497203111648560e-03
-1.500733196735382080e-04 8.569346666336059570e-01 -6.182486191391944885e-03
5.574068054556846619e-03 8.274540305137634277e-01 9.657155722379684448e-03
-7.982440292835235596e-04 8.097002506256103516e-01 1.077652256935834885e-02
-2.864477224647998810e-03 8.792467713356018066e-01 8.823534473776817322e-03
-4.806153941899538040e-03 7.461403012275695801e-01 1.054991153068840504e-03
-5.609174259006977081e-04 9.390534162521362305e-01 6.504226010292768478e-03
6.172716151922941208e-03 8.766107559204101562e-01 9.713399223983287811e-03
1.625195145606994629e-04 9.232932925224304199e-01 8.429573848843574524e-03
-3.173090517520904541e-03 7.662162780761718750e-01 -2.579906489700078964e-03
3.306270577013492584e-03 9.168605208396911621e-01 -6.024155765771865845e-03
6.413891445845365524e-03 7.913706302642822266e-01 7.035801187157630920e-03
-4.732369445264339447e-03 7.626081109046936035e-01 -9.182801004499197006e-04
7.667745463550090790e-03 8.850873708724975586e-01 -5.173761863261461258e-03
5.186607129871845245e-03 7.757105827331542969e-01 -2.051031682640314102e-03
3.790568094700574875e-03 8.095266222953796387e-01 -5.302661564201116562e-03
8.842667564749717712e-03 8.933742642402648926e-01 -4.180764313787221909e-03
-5.225383676588535309e-03 8.128371238708496094e-01 -2.323315013200044632e-03
-5.621655844151973724e-03 8.656126856803894043e-01 -3.523293416947126389e-04
2.145036822184920311e-03 9.394432902336120605e-01 -4.758442752063274384e-03
-3.930909559130668640e-03 9.099368453025817871e-01 4.530710168182849884e-03
-4.863896407186985016e-03 7.419285774230957031e-01 2.211190527305006981e-03
-3.037423826754093170e-03 9.061723947525024414e-01 -2.532993443310260773e-03
1.161962514743208885e-03 7.507120370864868164e-01 8.055847138166427612e-03
-7.697606924921274185e-04 8.670417666435241699e-01 -5.870954133570194244e-03
6.049802061170339584e-03 7.799098491668701172e-01 -1.401909161359071732e-03
5.696488544344902039e-03 8.505395054817199707e-01 9.963382035493850708e-03
1.228446140885353088e-03 9.139809012413024902e-01 -5.637038499116897583e-03
-1.286987680941820145e-03 8.441009521484375000e-01 1.067973114550113678e-02
-4.154003225266933441e-03 8.656243085861206055e-01 -3.140268381685018539e-03
2.139867050573229790e-03 9.749285578727722168e-01 3.345091361552476883e-03
-5.110413767397403717e-04 8.736010193824768066e-01 1.039893738925457001e-02
-3.141040913760662079e-03 7.948829531669616699e-01 9.730613790452480316e-03
8.463555946946144104e-03 9.580645561218261719e-01 -2.368282061070203781e-03
8.739434182643890381e-03 8.230562210083007812e-01 -1.413807505741715431e-03
3.672189079225063324e-03 9.777017831802368164e-01 -1.376650994643568993e-03
1.010503270663321018e-03 9.543480873107910156e-01 6.087583489716053009e-03
5.820307880640029907e-03 8.728957176208496094e-01 -6.113622337579727173e-03
-6.517976056784391403e-03 8.364795446395874023e-01 7.444254588335752487e-04
-5.852066446095705032e-03 8.724935650825500488e-01 3.286137012764811516e-03
8.448794484138488770e-03 9.521175026893615723e-01 5.367074161767959595e-03
-1.147293951362371445e-03 7.917881608009338379e-01 -4.736888222396373749e-03
-6.303931120783090591e-03 7.679831981658935547e-01 4.369083791971206665e-03
1.833298010751605034e-03 7.603164315223693848e-01 -2.860293257981538773e-03
7.616011425852775574e-03 8.586052656173706055e-01 -4.802713170647621155e-03
5.606954917311668396e-03 8.174700140953063965e-01 9.338056668639183044e-03
3.564540995284914970e-03 9.260549545288085938e-01 9.086347185075283051e-03
5.988623015582561493e-03 7.718464136123657227e-01 5.349464714527130127e-03
-8.218600414693355560e-04 7.381289601325988770e-01 -8.847024291753768921e-04
-1.418988220393657684e-03 7.475341558456420898e-01 -1.883867196738719940e-03
7.375444751232862473e-03 8.903447985649108887e-01 -5.388826597481966019e-03
1.075501367449760437e-02 9.011043906211853027e-01 -7.906958926469087601e-04
7.157852873206138611e-03 7.801699638366699219e-01 2.342160558328032494e-03
8.811205625534057617e-03 8.201633095741271973e-01 5.086189135909080505e-03
4.094762727618217468e-03 9.611940383911132812e-01 -3.707163035869598389e-03
6.956203375011682510e-03 8.783476352691650391e-01 -5.594789050519466400e-03
1.085492782294750214e-02 8.840392231941223145e-01 2.983306068927049637e-03
-8.008114527910947800e-04 8.456121683120727539e-01 -5.933042615652084351e-03
-8.748497348278760910e-04 7.871861457824707031e-01 1.028925366699695587e-02
-8.448832668364048004e-04 8.224419951438903809e-01 -5.677703768014907837e-03
-5.385337863117456436e-03 7.572311162948608398e-01 5.896607413887977600e-03
-1.907516736537218094e-03 9.383389949798583984e-01 -7.587368600070476532e-04
1.511814771220088005e-03 9.733879566192626953e-01 3.391701029613614082e-04
7.854140363633632660e-03 9.092637300491333008e-01 8.068450726568698883e-03
-6.882024463266134262e-04 9.499710202217102051e-01 4.733121022582054138e-03
-1.187764806672930717e-03 8.219628334045410156e-01 1.078929658979177475e-02
-3.025719895958900452e-03 9.238802194595336914e-01 4.566534422338008881e-03
6.007838994264602661e-03 9.501278400421142578e-01 -4.421493969857692719e-03
6.457623559981584549e-03 7.983950376510620117e-01 -2.816463820636272430e-03
9.168064221739768982e-03 8.243235945701599121e-01 4.462653771042823792e-03
-2.104513347148895264e-03 9.409593343734741211e-01 6.596968742087483406e-04
-3.742344677448272705e-03 7.893295288085937500e-01 -3.300199750810861588e-03
-1.740535954013466835e-03 8.983702063560485840e-01 -4.462685901671648026e-03
2.419290598481893539e-03 8.167991638183593750e-01 -5.886829458177089691e-03
3.315635956823825836e-03 8.329504728317260742e-01 1.080986112356185913e-02
1.749899121932685375e-03 8.547866940498352051e-01 1.107615418732166290e-02
-6.830284837633371353e-03 7.908791303634643555e-01 2.245210111141204834e-03
8.871519938111305237e-03 8.759177327156066895e-01 7.393892388790845871e-03
5.335734225809574127e-03 9.467642903327941895e-01 -4.747997038066387177e-03
8.035931736230850220e-03 8.206055164337158203e-01 -2.512841019779443741e-03
3.931178711354732513e-03 7.482749819755554199e-01 7.050205022096633911e-04
3.994002472609281540e-03 7.829147577285766602e-01 -3.692834172397851944e-03
2.282172674313187599e-03 7.769753336906433105e-01 -4.022453445941209793e-03
1.057882606983184814e-02 9.077012538909912109e-01 4.165660124272108078e-03
7.749350275844335556e-03 8.478976488113403320e-01 -4.350854549556970596e-03
-6.071932148188352585e-03 8.272048830986022949e-01 6.568826269358396530e-03
1.049332134425640106e-02 9.372575283050537109e-01 2.433879300951957703e-03
-3.765168599784374237e-03 9.142701029777526855e-01 1.032613217830657959e-04
-6.198626477271318436e-03 7.714350223541259766e-01 5.275147035717964172e-03
9.686199948191642761e-03 9.175509214401245117e-01 -2.955944277346134186e-03
4.060358740389347076e-03 8.056356906890869141e-01 -5.022127181291580200e-03
2.550471574068069458e-03 8.674984574317932129e-01 -6.672909483313560486e-03
7.016325835138559341e-03 8.212515711784362793e-01 8.192532695829868317e-03
-4.570783115923404694e-03 8.728659152984619141e-01 7.155908271670341492e-03
-4.597953055053949356e-03 8.829542398452758789e-01 6.345756351947784424e-03
-1.826849766075611115e-03 8.190690875053405762e-01 1.057607587426900864e-02
-5.477476399391889572e-03 8.772591948509216309e-01 4.044242668896913528e-04
-6.805167999118566513e-03 8.099196553230285645e-01 1.292235683649778366e-03
8.692574687302112579e-03 8.875342607498168945e-01 7.612434681504964828e-03
7.708925753831863403e-03 8.047203421592712402e-01 -1.567429397255182266e-03
-3.735219128429889679e-03 8.216437697410583496e-01 9.542418643832206726e-03
7.027985528111457825e-03 9.266519546508789062e-01 8.045256137847900391e-03
1.025287061929702759e-02 8.484479784965515137e-01 8.384309476241469383e-04
-6.571192760020494461e-03 7.775847911834716797e-01 4.327182658016681671e-03
-8.118455298244953156e-05 8.286387920379638672e-01 -6.001280620694160461e-03
-4.646440036594867706e-03 9.020430445671081543e-01 1.604784047231078148e-03
6.436090916395187378e-03 9.449020624160766602e-01 7.378837559372186661e-03
3.754480974748730659e-03 8.825722932815551758e-01 1.051875017583370209e-02
3.699111286550760269e-03 7.956610918045043945e-01 9.719727560877799988e-03
1.061349362134933472e-02 8.806451559066772461e-01 3.978512249886989594e-03
2.457499969750642776e-03 7.871772050857543945e-01 9.911367669701576233e-03
1.079669035971164703e-02 9.165448546409606934e-01 3.048228565603494644e-03
-5.545892752707004547e-03 7.650746703147888184e-01 1.492630690336227417e-04
3.669816534966230392e-03 9.300467371940612793e-01 -5.583317950367927551e-03
9.397896006703376770e-03 8.503620624542236328e-01 -2.231521531939506531e-03
8.075771853327751160e-03 8.129925727844238281e-01 -1.759314909577369690e-03
1.490449882112443447e-03 9.225376248359680176e-01 -5.389959551393985748e-03
-2.387897111475467682e-03 9.242447018623352051e-01 -1.863060519099235535e-03
8.328570052981376648e-03 8.165349960327148438e-01 -1.624252414330840111e-03
7.491542957723140717e-03 9.727070927619934082e-01 3.893031273037195206e-03
6.327561568468809128e-04 9.631004333496093750e-01 -1.008305698633193970e-03
9.268108755350112915e-03 8.789063096046447754e-01 6.871598307043313980e-03
1.062695495784282684e-02 8.684989213943481445e-01 1.353635452687740326e-04
-4.407560452818870544e-03 7.621625661849975586e-01 7.644083816558122635e-03
8.772282861173152924e-03 9.628329277038574219e-01 3.694012761116027832e-03
2.731014741584658623e-03 8.760461211204528809e-01 1.076825801283121109e-02
-2.052710857242345810e-03 9.087625741958618164e-01 -3.624419681727886200e-03
6.222361698746681213e-03 8.067452311515808105e-01 -3.691799473017454147e-03
8.325017988681793213e-03 9.145064353942871094e-01 7.510325871407985687e-03
4.116151481866836548e-03 9.684740304946899414e-01 -2.963739447295665741e-03
-3.305244259536266327e-03 9.125245809555053711e-01 5.722024012356996536e-03
5.975717678666114807e-03 8.691388368606567383e-01 -6.014379672706127167e-03
-1.510860864073038101e-03 7.925462722778320312e-01 1.031338702887296677e-02
3.695445833727717400e-03 8.843495249748229980e-01 -6.605779752135276794e-03
-2.213366329669952393e-03 7.356047034263610840e-01 -1.598638482391834259e-04
1.010594703257083893e-02 9.465426802635192871e-01 2.727850805968046188e-03
7.465077564120292664e-03 8.353708982467651367e-01 -4.112384282052516937e-03
8.648833259940147400e-03 8.070846199989318848e-01 9.855453390628099442e-04
5.191865377128124237e-03 8.757904767990112305e-01 -6.349001079797744751e-03
2.022695261985063553e-03 9.430263042449951172e-01 -4.475461319088935852e-03
1.050048321485519409e-02 8.704264760017395020e-01 3.954862244427204132e-03
-2.437598537653684616e-03 9.303797483444213867e-01 4.843034781515598297e-03
5.101782269775867462e-03 8.964429497718811035e-01 9.885543026030063629e-03
6.868918426334857941e-03 8.432316780090332031e-01 -4.939206410199403763e-03
-3.622173331677913666e-03 8.961660861968994141e-01 6.890926975756883621e-03
1.082138344645500183e-02 9.074887633323669434e-01 -4.985998384654521942e-04
7.444403134286403656e-03 9.429776072502136230e-01 -4.213115666061639786e-03
-4.311838187277317047e-03 7.994821667671203613e-01 8.995480835437774658e-03
9.779881685972213745e-03 8.431234359741210938e-01 -7.058647461235523224e-04
1.763293286785483360e-03 8.042094111442565918e-01 -5.513363517820835114e-03
5.830951966345310211e-03 9.798788428306579590e-01 -1.307292841374874115e-03
-3.172558732330799103e-03 8.640006184577941895e-01 9.175270795822143555e-03
2.541885245591402054e-03 9.779297113418579102e-01 2.894658828154206276e-03
1.072777993977069855e-02 9.103659391403198242e-01 -8.160332217812538147e-04
3.617645706981420517e-03 7.422349452972412109e-01 2.537861466407775879e-03
4.416944459080696106e-03 8.125520944595336914e-01 9.947215206921100616e-03
-3.707640804350376129e-03 8.238494396209716797e-01 -4.063048865646123886e-03
-2.823723480105400085e-03 7.266552448272705078e-01 3.806151915341615677e-03
8.556576212868094444e-04 8.423565626144409180e-01 1.112380344420671463e-02
-3.728582058101892471e-03 8.298988938331604004e-01 -4.076452460139989853e-03
6.437653675675392151e-03 7.745591402053833008e-01 3.807909088209271431e-04
6.034440360963344574e-03 7.939106822013854980e-01 -2.906878013163805008e-03
-5.928720813244581223e-03 8.189373016357421875e-01 -1.219665398821234703e-03
8.593605831265449524e-03 9.201238155364990234e-01 -4.173580557107925415e-03
9.037576615810394287e-03 8.474683761596679688e-01 6.511155981570482254e-03
1.040566153824329376e-02 8.523800969123840332e-01 1.512625603936612606e-03
3.676355117931962013e-03 8.450473546981811523e-01 1.079582516103982925e-02
2.013013930991292000e-03 8.951474428176879883e-01 1.030310615897178650e-02
1.016520895063877106e-02 9.348780512809753418e-01 3.899937961250543594e-03
-3.741454333066940308e-03 7.855845093727111816e-01 -3.158784937113523483e-03
-6.606257986277341843e-03 7.861495614051818848e-01 1.343965763226151466e-03
2.193202031776309013e-03 8.277124166488647461e-01 1.100466400384902954e-02
6.496179383248090744e-03 7.827147245407104492e-01 -1.021142117679119110e-03
-4.884128924459218979e-03 8.442751169204711914e-01 8.034531027078628540e-03
-2.775736153125762939e-03 7.982380986213684082e-01 -4.249050747603178024e-03
-5.707733798772096634e-03 7.526099681854248047e-01 3.873120062053203583e-03
4.389056703075766563e-04 8.362479209899902344e-01 1.110318675637245178e-02
-3.815419506281614304e-03 8.382613062858581543e-01 -3.991682082414627075e-03
6.136665120720863342e-03 8.153837919235229492e-01 -4.286012612283229828e-03
-2.242570742964744568e-03 8.193933963775634766e-01 -5.021920893341302872e-03
-7.180217653512954712e-05 7.356880903244018555e-01 6.739597767591476440e-03
9.782327106222510338e-04 7.737459540367126465e-01 -4.060641862452030182e-03
3.839391283690929413e-03 7.483443617820739746e-01 5.180262029170989990e-03
5.117397755384445190e-03 8.482420444488525391e-01 -6.040031090378761292e-03
-5.453409627079963684e-03 7.995818257331848145e-01 -1.767375040799379349e-03
-5.501793697476387024e-03 8.806806802749633789e-01 3.757749218493700027e-03
-5.751437507569789886e-03 8.086473941802978516e-01 7.381381466984748840e-03
-5.344743840396404266e-05 7.254571914672851562e-01 2.224990166723728180e-03
3.508179215714335442e-04 7.852567434310913086e-01 -4.713318310678005219e-03
9.470706805586814880e-03 8.642461299896240234e-01 -2.783372066915035248e-03
