7.298460602760314941e-02 -1.185734756290912628e-02 -2.954658120870590210e-03
-3.847583830356597900e-01 -9.814459085464477539e-02 2.811540290713310242e-02
1.702138185501098633e-01 4.784578457474708557e-02 5.414053052663803101e-02
-9.084415435791015625e-02 2.339362166821956635e-02 8.442918956279754639e-02
-1.957024931907653809e-01 -8.078269660472869873e-03 -1.068922355771064758e-01
-6.218675971031188965e-01 8.368242532014846802e-03 -7.264098152518272400e-03
-4.819238781929016113e-01 -1.164163723587989807e-01 -6.968243420124053955e-02
-7.356437444686889648e-01 -1.269520223140716553e-01 -6.222717836499214172e-02
-4.896422028541564941e-01 -1.259052604436874390e-01 -1.605403795838356018e-02
-1.798053979873657227e-01 -2.405600994825363159e-02 -9.891349077224731445e-02
5.584117770195007324e-02 5.730404704809188843e-02 -7.935687154531478882e-02
-1.505688726902008057e-01 5.898464098572731018e-02 8.030983060598373413e-02
1.939446628093719482e-01 1.359478980302810669e-01 -2.259263209998607635e-02
-3.982327282428741455e-01 -1.499562896788120270e-02 -1.175735145807266235e-01
-5.712839961051940918e-01 -1.183021888136863708e-01 1.302461698651313782e-02
-3.143996000289916992e-03 -2.195168286561965942e-02 4.075409844517707825e-02
-1.588569581508636475e-01 1.155013516545295715e-01 -4.404331371188163757e-02
-5.014080405235290527e-01 4.149772599339485168e-02 1.078701391816139221e-02
-6.520806550979614258e-01 -3.200787585228681564e-03 -8.158048614859580994e-03
-4.367408752441406250e-01 7.286125794053077698e-03 -1.107271388173103333e-01
9.046322107315063477e-02 1.457864195108413696e-01 -1.082579791545867920e-02
1.745182275772094727e-02 -1.944120228290557861e-02 -4.155958443880081177e-02
-2.490830123424530029e-01 9.473417885601520538e-03 8.206723630428314209e-02
1.228024065494537354e-01 7.837507128715515137e-02 -6.608778238296508789e-02
2.226870059967041016e-01 1.355317682027816772e-01 3.452360630035400391e-02
-5.201015472412109375e-01 3.304258733987808228e-02 1.525061205029487610e-02
2.109684348106384277e-01 1.441526263952255249e-01 1.045216247439384460e-02
4.064011573791503906e-02 -2.184500731527805328e-02 3.304382786154747009e-03
-2.784274518489837646e-02 -2.337133511900901794e-02 -5.870224535465240479e-02
-7.362575829029083252e-02 3.712676838040351868e-02 -9.823613613843917847e-02
-3.710797429084777832e-02 1.153058335185050964e-01 -6.199836358428001404e-02
4.431295394897460938e-02 8.626057952642440796e-02 -7.746429741382598877e-02
6.864991784095764160e-02 1.194087341427803040e-01 6.078304350376129150e-02
2.468211352825164795e-01 1.369850635528564453e-01 1.976244524121284485e-02
-7.818245887756347656e-01 -6.078806519508361816e-02 -4.549983888864517212e-02
-7.993353605270385742e-01 -7.859493046998977661e-02 -5.147840455174446106e-02
1.485727131366729736e-01 8.689113706350326538e-02 -5.969876796007156372e-02
1.026131510734558105e-01 1.474530994892120361e-01 9.147180244326591492e-03
-3.692815899848937988e-01 -7.166430819779634476e-03 -1.170594245195388794e-01
-2.032697200775146484e-03 1.204248890280723572e-01 5.458021163940429688e-02
-2.396656721830368042e-01 1.202054228633642197e-02 -1.125290989875793457e-01
-3.793274164199829102e-01 9.983642026782035828e-03 -1.135234534740447998e-01
-3.327768743038177490e-01 7.072823494672775269e-02 -7.694320380687713623e-02
-4.608923196792602539e-01 -2.878924459218978882e-02 -1.173309758305549622e-01
-3.995060622692108154e-01 7.606367766857147217e-02 -2.393970265984535217e-02
-3.713529407978057861e-01 -2.830618247389793396e-02 7.240053266286849976e-02
-7.186068594455718994e-02 1.665147207677364349e-02 -9.545527398586273193e-02
-1.531538367271423340e-01 1.020744740962982178e-01 5.039495229721069336e-02
-6.726354956626892090e-01 -2.445436827838420868e-02 -8.225010335445404053e-02
-3.552576303482055664e-01 3.507592901587486267e-02 -1.045136973261833191e-01
-6.706340312957763672e-01 -1.279804706573486328e-01 -7.950508967041969299e-03
-5.041317939758300781e-01 -8.933568000793457031e-02 4.238774254918098450e-02
-2.892104685306549072e-01 -5.831994116306304932e-02 -9.749680757522583008e-02
-4.566853642463684082e-01 -1.224540024995803833e-01 -4.165304452180862427e-02
1.273018121719360352e-01 1.123572289943695068e-01 6.509246677160263062e-02
1.042024493217468262e-01 4.522378742694854736e-02 -6.544344127178192139e-02
-3.094562590122222900e-01 -1.024863496422767639e-01 -1.923713088035583496e-02
-4.420459270477294922e-01 2.395579218864440918e-02 -1.012827530503273010e-01
-5.089234113693237305e-01 -4.233409091830253601e-02 -1.160889938473701477e-01
-2.580220401287078857e-01 -8.185476809740066528e-02 -6.342194974422454834e-02
-2.073273807764053345e-01 1.142157241702079773e-01 -3.830490633845329285e-03
-4.671734571456909180e-02 -4.462874308228492737e-02 1.173175685107707977e-02
1.008273065090179443e-01 -2.485422883182764053e-03 -3.583806566894054413e-03
-4.864913821220397949e-01 -3.959427773952484131e-02 -1.168294176459312439e-01
-5.415402650833129883e-01 3.888417407870292664e-02 -2.637594006955623627e-02
-2.377039492130279541e-01 -6.823668722063302994e-03 8.087456226348876953e-02
-6.071326732635498047e-01 -1.721395179629325867e-03 1.769070699810981750e-02
-4.850991368293762207e-01 -2.831104770302772522e-02 6.084571778774261475e-02
-7.105739116668701172e-01 -2.286606654524803162e-02 -2.500374615192413330e-02
-2.308411598205566406e-01 6.888319551944732666e-02 -9.276334941387176514e-02
-5.377329587936401367e-01 3.713477775454521179e-02 -7.307793945074081421e-03
-3.681350946426391602e-01 7.695983350276947021e-02 -5.372446030378341675e-02
9.193217754364013672e-02 6.801939755678176880e-02 7.726097851991653442e-02
-9.501940011978149414e-02 -4.291064292192459106e-02 4.241388663649559021e-02
-3.075365424156188965e-01 -6.494105607271194458e-02 -9.580207616090774536e-02
-2.605274021625518799e-01 -5.400333553552627563e-02 -9.547898173332214355e-02
-1.036268770694732666e-01 7.068843394517898560e-02 7.947667688131332397e-02
2.701179683208465576e-01 1.055371835827827454e-01 -1.402742043137550354e-02
-3.204204738140106201e-01 6.084941700100898743e-02 5.398204177618026733e-02
1.922267973423004150e-01 7.470615953207015991e-02 6.093254685401916504e-02
-4.897664785385131836e-01 2.250958420336246490e-02 3.978329524397850037e-02
-6.175370216369628906e-01 1.440075598657131195e-02 -2.492167614400386810e-02
-3.933174908161163330e-02 -3.768051788210868835e-02 -4.049902036786079407e-02
-3.234302103519439697e-01 -4.980571940541267395e-02 6.657394766807556152e-02
3.348350524902343750e-02 7.870519906282424927e-02 8.016204833984375000e-02
-2.992267906665802002e-02 5.537800490856170654e-02 8.450858294963836670e-02
-9.866443276405334473e-02 1.081294342875480652e-01 -6.660088896751403809e-02
-6.184064149856567383e-01 -8.261048048734664917e-02 3.514260053634643555e-02
-2.880796194076538086e-01 -1.457715407013893127e-02 7.844722270965576172e-02
-3.562274873256683350e-01 -1.213703677058219910e-02 7.489698380231857300e-02
8.621019124984741211e-02 1.216677017509937286e-02 -4.975044727325439453e-02
-3.757311105728149414e-01 -9.128075838088989258e-02 -8.366106450557708740e-02
5.577713251113891602e-02 -4.213794600218534470e-03 4.262989014387130737e-02
-5.316813290119171143e-02 8.103624731302261353e-02 7.831846922636032104e-02
-2.108986824750900269e-01 3.852478042244911194e-02 -1.074897423386573792e-01
-7.697082757949829102e-01 -6.182465702295303345e-02 -6.645252555608749390e-02
-1.931641697883605957e-01 -4.773535206913948059e-02 5.833325535058975220e-02
-5.506479740142822266e-01 -3.571518510580062866e-02 -1.129068955779075623e-01
-1.537748873233795166e-01 -5.403141677379608154e-02 4.363531991839408875e-02
-1.205433160066604614e-01 -4.902594536542892456e-02 -6.216163560748100281e-02
-1.159373819828033447e-01 -5.497628822922706604e-02 2.890909463167190552e-02
-6.151210069656372070e-01 -2.414136566221714020e-02 3.137025982141494751e-02
-7.608319520950317383e-01 -4.825727269053459167e-02 -5.240917578339576721e-02
1.519992351531982422e-01 1.373113840818405151e-01 -2.845660597085952759e-02
7.932901382446289062e-03 -7.684496231377124786e-04 -6.837755441665649414e-02
-2.731412649154663086e-03 1.764894090592861176e-02 7.556512951850891113e-02
9.092152118682861328e-03 9.694613516330718994e-02 -7.601542770862579346e-02
-9.819775819778442383e-03 6.147429719567298889e-02 8.365273475646972656e-02
9.198039770126342773e-03 3.014210239052772522e-02 -8.394959568977355957e-02
-5.160154700279235840e-01 -1.201100498437881470e-01 7.719408720731735229e-03
-5.321888923645019531e-01 -7.882703095674514771e-02 -1.087874546647071838e-01
-5.558754503726959229e-02 1.167200971394777298e-03 7.432519644498825073e-02
-1.214348971843719482e-01 6.291557103395462036e-02 8.104886859655380249e-02
-6.811194419860839844e-01 -1.197564788162708282e-02 -1.702892780303955078e-02
-4.021658003330230713e-01 4.470665752887725830e-02 4.683975875377655029e-02
3.154364228248596191e-02 1.422748416662216187e-01 1.765947788953781128e-02
-2.379476428031921387e-01 7.056458294391632080e-02 6.344583630561828613e-02
-1.586409360170364380e-01 -2.371339686214923859e-02 -9.528484195470809937e-02
-1.719842851161956787e-02 -3.616632148623466492e-02 1.554105803370475769e-02
-1.093224585056304932e-01 1.173808500170707703e-01 -5.195816606283187866e-02
-4.374257326126098633e-01 5.314133688807487488e-02 2.437311783432960510e-02
-6.843440234661102295e-02 -4.541159793734550476e-02 -4.195312783122062683e-02
-1.198635846376419067e-01 9.435968101024627686e-02 6.409276276826858521e-02
-1.745434701442718506e-01 7.489379029721021652e-03 -1.073845624923706055e-01
-5.575758218765258789e-01 -3.356337919831275940e-02 4.899977892637252808e-02
-1.870523095130920410e-01 1.128603592514991760e-01 -4.082343727350234985e-02
6.351837515830993652e-02 9.570160880684852600e-03 -5.700537934899330139e-02
-6.654927730560302734e-01 -1.359986960887908936e-01 -3.545910120010375977e-02
-6.073138117790222168e-02 1.262975633144378662e-01 3.520244359970092773e-02
2.347251772880554199e-02 -5.348808597773313522e-03 5.335249006748199463e-02
-4.861145615577697754e-01 5.223142728209495544e-02 -6.600674241781234741e-03
-7.384873032569885254e-01 -1.123039126396179199e-01 -7.934176176786422729e-02
-1.927122324705123901e-01 -8.054260909557342529e-02 -1.126379147171974182e-02
-8.584022521972656250e-03 -3.027522936463356018e-02 -3.608873486518859863e-02
-4.117731451988220215e-01 -2.579565718770027161e-02 6.953892111778259277e-02
-6.366013288497924805e-01 -6.302364915609359741e-02 -1.066561862826347351e-01
1.443768143653869629e-01 1.479195803403854370e-01 4.468314349651336670e-03
1.377308666706085205e-01 2.573757991194725037e-02 -3.859640657901763916e-02
-3.388891816139221191e-01 7.249876111745834351e-02 3.570432588458061218e-02
-1.472841501235961914e-01 -7.064673304557800293e-02 -6.089577451348304749e-03
-7.611885070800781250e-01 -9.967133402824401855e-02 -5.408771336078643799e-03
-5.822812318801879883e-01 1.182417385280132294e-02 1.370411179959774017e-02
-1.742012798786163330e-02 7.075376063585281372e-02 -8.838140219449996948e-02
-1.521224975585937500e-01 1.525056082755327225e-03 8.182110637426376343e-02
-7.089976072311401367e-01 -1.216821670532226562e-01 -7.550960779190063477e-02
-2.086468040943145752e-01 1.799415424466133118e-02 -1.105402261018753052e-01
-5.753400325775146484e-01 -7.849069312214851379e-03 -9.834405034780502319e-02
1.913943588733673096e-01 3.337530046701431274e-02 -3.877089358866214752e-03
-4.664742946624755859e-01 -7.342275232076644897e-02 5.316960066556930542e-02
-7.179600000381469727e-01 -1.248682439327239990e-01 -1.222096011042594910e-02
-3.213909268379211426e-01 6.029998511075973511e-02 -9.028790891170501709e-02
-3.236325681209564209e-01 -9.314446151256561279e-02 2.456981688737869263e-02
-2.574605047702789307e-01 1.018643975257873535e-01 1.270587928593158722e-02
-5.040322542190551758e-01 -6.389388442039489746e-02 -1.133736521005630493e-01
2.244428396224975586e-01 1.182495430111885071e-01 5.003195255994796753e-02
-5.759069919586181641e-01 -8.667758852243423462e-02 3.900289535522460938e-02
-4.601406753063201904e-01 5.690619349479675293e-02 -5.242061242461204529e-02
-6.856981515884399414e-01 -1.288240402936935425e-01 -6.720953434705734253e-02
1.678945124149322510e-01 1.109978407621383667e-01 -4.885875061154365540e-02
-1.801480948925018311e-01 2.853998355567455292e-02 8.450245112180709839e-02
-1.271624714136123657e-01 8.852971345186233521e-02 -8.358786255121231079e-02
-1.676707565784454346e-01 -4.152816161513328552e-02 6.011473387479782104e-02
-6.943302750587463379e-01 -1.246762722730636597e-01 -6.513488478958606720e-03
1.608115732669830322e-01 8.258046954870223999e-02 6.876237690448760986e-02
-4.420444965362548828e-01 -7.090744376182556152e-02 -1.083227843046188354e-01
-2.409142851829528809e-01 -4.326757043600082397e-02 6.667766720056533813e-02
-6.040962040424346924e-02 4.729463160037994385e-02 8.531744778156280518e-02
-1.489185839891433716e-01 -4.203617572784423828e-02 -7.988097518682479858e-02
-4.497038125991821289e-01 -1.179389059543609619e-01 8.869934827089309692e-04
-3.800335228443145752e-01 -6.687361001968383789e-02 -1.047835573554039001e-01
1.187339127063751221e-01 1.943629048764705658e-02 -4.162398725748062134e-02
-5.123072862625122070e-01 3.142997249960899353e-02 -7.746387273073196411e-02
-6.534270644187927246e-01 -3.194081410765647888e-02 2.239093557000160217e-02
3.992742300033569336e-02 -1.696955040097236633e-02 -3.057332709431648254e-02
-2.486426979303359985e-01 -1.336997188627719879e-02 -1.113062575459480286e-01
-7.486697435379028320e-01 -8.106339722871780396e-02 2.179671078920364380e-03
-2.004934102296829224e-01 -6.308448314666748047e-02 4.275838285684585571e-02
-5.454995632171630859e-01 -1.286307275295257568e-01 -9.744193404912948608e-03
1.789484024047851562e-01 1.302069574594497681e-01 -3.288714215159416199e-02
-4.281489253044128418e-01 -5.292988196015357971e-02 -1.143246814608573914e-01
-3.102385997772216797e-01 9.422662109136581421e-02 -3.228344395756721497e-02
-2.089909166097640991e-01 6.684932112693786621e-02 7.050915807485580444e-02
-3.689103722572326660e-01 3.170942887663841248e-02 6.332928687334060669e-02
-5.800080299377441406e-01 -2.160401549190282822e-03 2.920457720756530762e-02
1.586364209651947021e-01 2.540379017591476440e-02 3.292234987020492554e-02
-6.029948592185974121e-02 -3.544983267784118652e-02 -5.626298487186431885e-02
-5.023449659347534180e-01 -1.258731186389923096e-01 -5.069398134946823120e-02
-4.041202068328857422e-01 7.126460969448089600e-02 -4.791342094540596008e-02
-1.122432947158813477e-02 1.397716403007507324e-01 9.834902361035346985e-03
1.331232786178588867e-01 1.400313973426818848e-01 -2.603663131594657898e-02
-1.608448028564453125e-01 -7.093720138072967529e-02 1.036139018833637238e-02
-1.572254151105880737e-01 -7.174553722143173218e-02 -2.820176631212234497e-02
-2.098876386880874634e-01 -1.861060597002506256e-02 7.729980349540710449e-02
1.704015731811523438e-01 1.465540975332260132e-01 -1.431473530828952789e-03
-3.507214188575744629e-01 -9.854678064584732056e-02 2.090048417448997498e-02
-1.490449309349060059e-01 6.001332029700279236e-02 -9.934547543525695801e-02
1.014373302459716797e-01 4.136215895414352417e-03 -2.866769395768642426e-02
1.817919611930847168e-01 6.542821228504180908e-02 -4.735331609845161438e-02
-5.906163454055786133e-01 -1.176200434565544128e-01 1.349632069468498230e-02
-6.392682790756225586e-01 -1.304459385573863983e-02 -8.406926691532135010e-02
5.892616510391235352e-02 1.416052728891372681e-01 -2.310734987258911133e-02
-7.431501746177673340e-01 -1.167353913187980652e-01 -9.690283797681331635e-03
4.360398650169372559e-02 4.826253280043601990e-02 7.984985411167144775e-02
2.419977486133575439e-01 8.414036035537719727e-02 4.709538817405700684e-02
-7.606562376022338867e-01 -1.130780279636383057e-01 -7.288070023059844971e-02
-1.324435025453567505e-01 -5.188207700848579407e-02 4.067992791533470154e-02
-6.392679810523986816e-01 -8.600489795207977295e-02 3.064830601215362549e-02
-9.667482972145080566e-02 1.086966395378112793e-01 5.386943370103836060e-02
2.700732052326202393e-01 1.297081857919692993e-01 1.653169468045234680e-02
-4.623070955276489258e-01 2.464309521019458771e-02 -9.747683256864547729e-02
-4.180747270584106445e-01 -9.737370163202285767e-02 -8.484016358852386475e-02
-4.447206854820251465e-01 4.334052279591560364e-02 -8.334416151046752930e-02
5.541896820068359375e-02 9.009117633104324341e-02 7.674337923526763916e-02
-2.762969136238098145e-01 8.655487000942230225e-02 -6.777001917362213135e-02
-6.604202985763549805e-01 -1.325014233589172363e-01 -5.991135910153388977e-02
-5.386574864387512207e-01 -1.044239923357963562e-01 -9.310305118560791016e-02
-6.154516339302062988e-01 -1.149770244956016541e-01 -8.682496100664138794e-02
-4.653682112693786621e-01 5.886188521981239319e-02 -1.139331609010696411e-02
1.542254090309143066e-01 1.272535920143127441e-01 5.319038778543472290e-02
-3.442260622978210449e-01 -3.853675723075866699e-02 7.112047821283340454e-02
-3.556842803955078125e-01 -1.029364839196205139e-01 -5.856155604124069214e-02
6.574812531471252441e-02 -1.101270318031311035e-02 2.147300541400909424e-02
-1.021227091550827026e-01 1.200057342648506165e-01 3.605340793728828430e-02
-4.788876771926879883e-01 -6.163365393877029419e-02 -1.135901063680648804e-01
-3.892916440963745117e-01 3.678121790289878845e-02 -9.979885816574096680e-02
-4.224689304828643799e-02 1.848616451025009155e-02 8.026559650897979736e-02
-3.773132264614105225e-01 -3.592688962817192078e-02 -1.159570962190628052e-01
-7.082711458206176758e-01 -9.436050057411193848e-02 1.344097964465618134e-02
-2.381307333707809448e-01 9.106867760419845581e-02 4.278516769409179688e-02
-7.812589406967163086e-02 6.886517256498336792e-02 8.149463683366775513e-02
-4.837428331375122070e-01 3.812325373291969299e-02 2.546526119112968445e-02
-4.052269458770751953e-02 8.872472494840621948e-02 -8.305716514587402344e-02
-2.177903354167938232e-01 -4.773905873298645020e-02 6.143350154161453247e-02
-7.741326093673706055e-01 -1.223811358213424683e-01 -3.498346358537673950e-02
-3.869049847126007080e-01 -5.240074917674064636e-02 6.515818834304809570e-02
-3.791553974151611328e-01 5.819762870669364929e-02 -8.193895220756530762e-02
-2.269182354211807251e-01 1.020219251513481140e-01 -5.343424156308174133e-02
-6.567815542221069336e-01 -8.092255145311355591e-02 -1.031410470604896545e-01
-5.284171104431152344e-01 4.944850690662860870e-03 4.099577665328979492e-02
-5.722789168357849121e-01 -8.533162623643875122e-02 -1.063292920589447021e-01
-5.887984037399291992e-01 -2.722138538956642151e-02 -1.058655306696891785e-01
-1.358593106269836426e-01 1.255931854248046875e-01 -4.777765832841396332e-03
-5.421198010444641113e-01 -1.287526190280914307e-01 -5.425626412034034729e-02
-4.436465501785278320e-01 -3.811937198042869568e-02 -1.173559799790382385e-01
3.471985459327697754e-02 2.902438677847385406e-02 -7.784149050712585449e-02
1.172082424163818359e-01 1.993483677506446838e-02 4.813678562641143799e-02
-6.626604199409484863e-01 -6.162362545728683472e-02 2.862829715013504028e-02
6.805503368377685547e-02 7.436039298772811890e-02 -7.674524933099746704e-02
1.017408668994903564e-01 2.614698931574821472e-02 5.962664633989334106e-02
1.970523595809936523e-02 1.431363224983215332e-01 -1.478319987654685974e-03
-2.098836004734039307e-02 2.581285871565341949e-02 8.064107596874237061e-02
-3.251144587993621826e-01 -8.154623955488204956e-02 4.175955057144165039e-02
1.073396205902099609e-01 1.177634298801422119e-01 -5.436026304960250854e-02
-2.972570657730102539e-01 6.746380776166915894e-02 -8.705544471740722656e-02
-4.899173974990844727e-03 1.081065014004707336e-01 -6.911174207925796509e-02
-4.135157465934753418e-01 -1.103978455066680908e-01 -6.285692006349563599e-02
-1.137432456016540527e-01 6.822581589221954346e-02 -9.521801024675369263e-02
2.847524583339691162e-01 1.168046966195106506e-01 4.543317481875419617e-03
-1.122686415910720825e-01 -3.051785007119178772e-02 6.077489256858825684e-02
-1.335395425558090210e-01 4.322262480854988098e-02 -1.032259166240692139e-01
-4.407467246055603027e-01 6.294531375169754028e-02 1.221001148223876953e-04
-4.762601852416992188e-01 -1.022215709090232849e-01 -8.873098343610763550e-02
-9.847313165664672852e-03 1.304817497730255127e-01 3.896512463688850403e-02
6.913417577743530273e-02 1.039581224322319031e-01 -6.723172962665557861e-02
-6.406867504119873047e-01 -3.795605152845382690e-02 -1.005762144923210144e-01
-5.088888406753540039e-01 -1.024000868201255798e-01 -9.237960726022720337e-02
-5.583446025848388672e-01 3.284551948308944702e-02 -1.705870777368545532e-02
-3.664956986904144287e-02 1.365625262260437012e-01 -1.837007887661457062e-02
-8.540385961532592773e-02 7.533023506402969360e-02 -9.128037840127944946e-02
1.400118172168731689e-01 1.050936877727508545e-01 -5.683456361293792725e-02
-3.172420263290405273e-01 4.477522522211074829e-02 6.582109630107879639e-02
-3.255339264869689941e-01 8.609693497419357300e-02 -5.167984962463378906e-02
-7.328180074691772461e-01 -6.615518033504486084e-02 -8.736751973628997803e-02
9.663024544715881348e-02 9.796743094921112061e-02 7.281424105167388916e-02
-5.981681346893310547e-01 -6.718008220195770264e-02 -1.101068332791328430e-01
8.745849132537841797e-03 1.377979516983032227e-01 -2.737798169255256653e-02
-1.885094791650772095e-01 2.878670953214168549e-02 -1.085019633173942566e-01
-7.271398305892944336e-01 -4.215199872851371765e-02 -7.392226159572601318e-02
-6.907249689102172852e-01 -2.431932836771011353e-02 -7.317262887954711914e-02
5.115297436714172363e-02 1.453060805797576904e-01 4.153558984398841858e-03
2.146557271480560303e-01 4.542826116085052490e-02 2.199518680572509766e-02
-5.747750401496887207e-02 7.050380855798721313e-02 -9.170296788215637207e-02
7.431209087371826172e-03 -3.114065900444984436e-02 -1.424883864820003510e-02
-5.079858303070068359e-01 -2.326624467968940735e-02 5.659529566764831543e-02
7.720232009887695312e-03 1.381230652332305908e-01 2.532720193266868591e-02
-5.558201074600219727e-01 -1.325262188911437988e-01 -3.792974725365638733e-02
-6.115788221359252930e-01 -4.797191545367240906e-02 3.961323201656341553e-02
-9.453918039798736572e-02 -5.442224815487861633e-02 1.806282624602317810e-02
-3.304383456707000732e-01 -2.404689788818359375e-02 7.522821426391601562e-02
-3.053070604801177979e-01 -7.447389513254165649e-02 4.712526500225067139e-02
-6.023185253143310547e-01 -1.308291107416152954e-01 -1.037600729614496231e-02
-1.028534471988677979e-01 3.983575850725173950e-02 -1.012293472886085510e-01
-4.921615421772003174e-01 3.052972443401813507e-02 -8.516886830329895020e-02
-1.905970275402069092e-01 -4.209425672888755798e-02 -9.010754525661468506e-02
-3.185110986232757568e-01 4.234719276428222656e-02 -1.033921763300895691e-01
5.919384956359863281e-02 6.833869218826293945e-02 8.013028651475906372e-02
-2.964615523815155029e-01 9.236790239810943604e-02 -4.917871952056884766e-02
-2.469001114368438721e-01 3.052814118564128876e-02 8.009647578001022339e-02
-4.839917421340942383e-01 1.368630826473236084e-01 1.806172542273998260e-03
-7.649785280227661133e-01 5.947538837790489197e-02 5.081076174974441528e-02
-6.577993631362915039e-01 2.155460976064205170e-02 -1.019654572010040283e-01
-5.120250582695007324e-01 1.363603323698043823e-01 3.697267919778823853e-02
-4.351946711540222168e-01 1.226300373673439026e-02 2.861972153186798096e-02
-4.744813740253448486e-01 7.995747774839401245e-02 -6.167607381939888000e-02
-7.745441198348999023e-01 -3.817696124315261841e-02 -6.195186823606491089e-02
-4.950696825981140137e-01 -1.245714351534843445e-02 -1.030880957841873169e-02
-6.729931831359863281e-01 4.976492375135421753e-03 7.582486420869827271e-02
-7.141830325126647949e-01 7.861346751451492310e-02 -8.755759894847869873e-02
-5.243434309959411621e-01 3.495991230010986328e-03 -6.014332920312881470e-02
-4.461563825607299805e-01 9.499774873256683350e-02 8.022259175777435303e-02
-4.577159881591796875e-01 7.600676268339157104e-02 8.770922571420669556e-02
-6.335735321044921875e-01 1.245749741792678833e-01 -4.123203456401824951e-02
-8.452619314193725586e-01 5.129274725914001465e-02 -6.321847438812255859e-03
-7.571213841438293457e-01 -1.669338345527648926e-02 4.506093636155128479e-02
-5.005332827568054199e-01 1.369450241327285767e-02 -5.753163993358612061e-02
-7.007621526718139648e-01 1.296665519475936890e-02 7.430293411016464233e-02
-5.901297330856323242e-01 1.339472234249114990e-01 -2.357656136155128479e-02
-5.712012052536010742e-01 6.034061312675476074e-03 -7.959935814142227173e-02
-6.470642089843750000e-01 1.168239489197731018e-01 4.628160595893859863e-02
-5.010711550712585449e-01 2.727331407368183136e-02 8.455149084329605103e-02
-6.078450083732604980e-01 -2.592268586158752441e-02 -6.008062511682510376e-02
-7.338655591011047363e-01 -4.221449792385101318e-02 -5.805051326751708984e-02
-5.485631227493286133e-01 1.017465889453887939e-01 -6.995931267738342285e-02
-7.876764535903930664e-01 7.303486019372940063e-02 2.644744515419006348e-02
-7.217554450035095215e-01 -3.938800841569900513e-02 2.615215815603733063e-02
-5.642300844192504883e-01 -6.219632923603057861e-03 6.885108351707458496e-02
-8.193084597587585449e-01 -2.354725450277328491e-02 -6.978331506252288818e-02
-7.636846899986267090e-01 -4.634369164705276489e-02 -4.934572614729404449e-03
-4.023873805999755859e-01 1.151884421706199646e-01 7.694378960877656937e-03
-4.345465898513793945e-01 1.480243541300296783e-02 -5.023653618991374969e-03
-6.768596768379211426e-01 1.226681917905807495e-01 1.149141974747180939e-02
-6.532452106475830078e-01 5.996426194906234741e-02 8.607676625251770020e-02
-7.527419328689575195e-01 1.015537083148956299e-01 1.904943957924842834e-03
-6.044446825981140137e-01 -5.410470068454742432e-03 7.307457178831100464e-02
-6.362909674644470215e-01 8.334605395793914795e-02 -8.954054117202758789e-02
-5.665689110755920410e-01 1.143638342618942261e-01 7.052181661128997803e-02
-4.302885234355926514e-01 4.782447963953018188e-02 7.442730665206909180e-02
-4.778609871864318848e-01 4.027150571346282959e-04 4.755901545286178589e-02
-6.307464241981506348e-01 -3.982523828744888306e-02 -4.123361781239509583e-02
-5.797230601310729980e-01 -3.652781993150711060e-02 -1.186833716928958893e-02
-8.019716739654541016e-01 -4.970341920852661133e-03 -8.850011974573135376e-02
-6.207307577133178711e-01 -3.207724541425704956e-03 7.493080198764801025e-02
-8.092733621597290039e-01 7.730305194854736328e-02 -6.258688867092132568e-03
-3.828088641166687012e-01 9.280160069465637207e-02 4.893669113516807556e-02
-5.671924352645874023e-01 -3.315829485654830933e-02 -1.638616248965263367e-02
-5.661461949348449707e-01 7.622304558753967285e-02 9.352028369903564453e-02
-7.516795992851257324e-01 8.874588459730148315e-02 -6.636989116668701172e-02
-5.019084215164184570e-01 3.062215074896812439e-02 -6.825894862413406372e-02
-7.755793333053588867e-01 -1.698405668139457703e-02 3.873607143759727478e-02
-6.939343214035034180e-01 -4.299345612525939941e-02 -5.299597233533859253e-02
-5.738558173179626465e-01 6.167928129434585571e-02 9.563111513853073120e-02
-5.288394689559936523e-01 -9.929466992616653442e-03 5.560248717665672302e-02
-5.583705306053161621e-01 1.279941499233245850e-01 5.297498032450675964e-02
-6.924488544464111328e-01 -1.995094120502471924e-02 5.602493137121200562e-02
-6.035657525062561035e-01 1.347109377384185791e-01 1.875488460063934326e-02
-8.372507691383361816e-01 -2.975713461637496948e-02 -1.674973964691162109e-02
-6.870895624160766602e-01 -4.766930639743804932e-02 6.870329845696687698e-03
-7.494633197784423828e-01 4.654753208160400391e-02 6.219861283898353577e-02
-7.183737754821777344e-01 -7.622018456459045410e-03 -9.513184428215026855e-02
-4.869491457939147949e-01 3.594496101140975952e-02 -6.414519995450973511e-02
-6.819606423377990723e-01 -5.184244364500045776e-03 6.896739453077316284e-02
-7.221110463142395020e-01 -5.038660764694213867e-02 -2.618949674069881439e-02
-5.523953437805175781e-01 2.713434398174285889e-02 -8.406657725572586060e-02
-7.296360731124877930e-01 3.028916381299495697e-02 -1.038889363408088684e-01
-5.011641979217529297e-01 1.386274695396423340e-01 2.759673167020082474e-03
-5.586616992950439453e-01 -1.507206633687019348e-02 5.684193596243858337e-02
-5.498623251914978027e-01 1.211992278695106506e-01 6.458497792482376099e-02
-8.625531196594238281e-01 -1.002698019146919250e-02 -5.282866582274436951e-02
-5.426336526870727539e-01 -2.842754125595092773e-02 7.631620857864618301e-03
-6.307445168495178223e-01 3.532612696290016174e-02 -1.008933112025260925e-01
-8.736926913261413574e-01 1.800129003822803497e-02 -2.403303608298301697e-02
-5.095265507698059082e-01 6.616046279668807983e-02 9.506580978631973267e-02
-3.918122053146362305e-01 9.070851653814315796e-02 -1.089383289217948914e-02
-4.965339303016662598e-01 4.463233798742294312e-02 -7.057779282331466675e-02
-6.244915723800659180e-01 6.024581938982009888e-02 -9.818438440561294556e-02
-7.708815336227416992e-01 1.913645491003990173e-02 5.578634887933731079e-02
-5.932546854019165039e-01 -3.952575474977493286e-02 -4.171033389866352081e-03
-7.101948857307434082e-01 4.515103995800018311e-02 -1.031886264681816101e-01
-5.116555094718933105e-01 1.006981879472732544e-01 8.474154025316238403e-02
-7.178092002868652344e-01 2.514520846307277679e-02 7.310475409030914307e-02
-8.009907603263854980e-01 3.947512805461883545e-02 4.054700210690498352e-02
-7.514372467994689941e-01 6.018413603305816650e-02 5.662502720952033997e-02
-5.845176577568054199e-01 -2.562829852104187012e-02 4.589444771409034729e-02
-5.525695085525512695e-01 6.366723030805587769e-02 9.623677283525466919e-02
-5.826263427734375000e-01 1.273398548364639282e-01 -4.177857562899589539e-02
-6.546989083290100098e-01 -1.634671911597251892e-02 -8.302727341651916504e-02
-8.101789355278015137e-01 6.254104524850845337e-02 1.992207393050193787e-02
-7.350905537605285645e-01 1.018730252981185913e-01 -5.092691257596015930e-02
-5.233680009841918945e-01 9.759135544300079346e-03 7.671704888343811035e-02
-3.937420248985290527e-01 1.124784126877784729e-01 3.091240674257278442e-02
-7.559113502502441406e-01 -4.033292829990386963e-02 -6.068266183137893677e-02
-4.455983340740203857e-01 6.170302629470825195e-03 7.305352482944726944e-03
-6.582333445549011230e-01 1.239288002252578735e-01 -3.402050212025642395e-02
-6.864347457885742188e-01 5.945802479982376099e-02 -1.002483665943145752e-01
-6.429114341735839844e-01 1.017590314149856567e-01 6.665809452533721924e-02
-5.991396307945251465e-01 7.303418219089508057e-02 9.138026833534240723e-02
-6.128682494163513184e-01 4.294775426387786865e-02 9.283809363842010498e-02
-4.938412308692932129e-01 7.436630129814147949e-02 -6.964488327503204346e-02
-7.515694499015808105e-01 -2.549189329147338867e-02 -8.149445801973342896e-02
-6.325768232345581055e-01 4.925454035401344299e-02 -1.007645502686500549e-01
-5.308800339698791504e-01 1.252819150686264038e-01 6.054135039448738098e-02
-5.901150107383728027e-01 1.077617853879928589e-01 -6.916242837905883789e-02
-4.213370084762573242e-01 1.253347992897033691e-01 1.620271988213062286e-02
-8.111751675605773926e-01 5.804776772856712341e-02 -7.350783795118331909e-02
-4.598982930183410645e-01 3.349020332098007202e-02 -4.956142976880073547e-02
-7.934149503707885742e-01 -3.005755692720413208e-02 1.765600405633449554e-02
-7.376731634140014648e-01 -5.013009160757064819e-02 -1.671333983540534973e-02
-8.738319873809814453e-01 3.233198076486587524e-03 -2.509087696671485901e-02
-6.706410646438598633e-01 -4.893022775650024414e-02 -6.515689194202423096e-03
-7.755714654922485352e-01 9.493771195411682129e-02 -1.671511121094226837e-02
-5.992833375930786133e-01 5.111987888813018799e-02 9.434685111045837402e-02
-8.721375465393066406e-01 3.993429243564605713e-03 -4.866656661033630371e-02
-6.716326475143432617e-01 1.255041360855102539e-01 -6.996279582381248474e-03
-8.227536082267761230e-01 6.961654126644134521e-02 -4.355359822511672974e-02
-5.829501152038574219e-01 9.544710814952850342e-02 -7.884327322244644165e-02
-5.261112451553344727e-01 1.396051943302154541e-01 2.036893554031848907e-02
-5.318150520324707031e-01 2.515643835067749023e-02 8.801036328077316284e-02
-7.017240524291992188e-01 -3.697264194488525391e-02 -6.584292650222778320e-02
-4.575960040092468262e-01 1.159414350986480713e-01 6.735231727361679077e-02
-7.091933488845825195e-01 7.484055310487747192e-02 6.547939032316207886e-02
-5.473234653472900391e-01 8.252578973770141602e-02 -8.066592365503311157e-02
-6.146505475044250488e-01 9.540469944477081299e-02 -8.092231303453445435e-02
-4.729512333869934082e-01 5.489663779735565186e-02 -6.292323768138885498e-02
-8.100347518920898438e-01 -1.271999254822731018e-02 2.707069180905818939e-02
-4.813924729824066162e-01 1.374976038932800293e-01 2.084099873900413513e-02
-8.414782881736755371e-01 -8.766558021306991577e-03 -7.204218208789825439e-02
-7.365319728851318359e-01 -4.585370421409606934e-02 7.668627891689538956e-03
-8.417685031890869141e-01 2.929528430104255676e-02 -7.519870251417160034e-02
-8.389432430267333984e-01 -1.958539336919784546e-02 -6.400804221630096436e-02
-8.403255939483642578e-01 5.766753852367401123e-02 -4.583308845758438110e-02
-5.962163209915161133e-01 -1.479822024703025818e-02 6.340092420578002930e-02
-5.090301036834716797e-01 -1.649324595928192139e-02 -1.491741463541984558e-02
-5.703966021537780762e-01 1.371129453182220459e-01 2.470368146896362305e-02
-7.326100468635559082e-01 1.096579581499099731e-01 -2.282925508916378021e-02
-3.980423212051391602e-01 1.021603643894195557e-01 -8.526123128831386566e-03
-4.815475344657897949e-01 1.352947056293487549e-01 3.551488369703292847e-02
-7.632762193679809570e-01 9.945551306009292603e-02 -2.490500546991825104e-02
-7.606708407402038574e-01 5.932567268610000610e-02 -9.131051599979400635e-02
-4.994316697120666504e-01 -1.548746600747108459e-02 1.612168177962303162e-02
-7.092938423156738281e-01 1.006155163049697876e-01 -6.497120112180709839e-02
-7.195373177528381348e-01 8.096288144588470459e-02 5.736241489648818970e-02
-5.644586682319641113e-01 1.344403773546218872e-01 3.685492649674415588e-02
-6.710310578346252441e-01 -2.335304021835327148e-02 5.470244958996772766e-02
-7.644451260566711426e-01 -3.328370302915573120e-02 2.496419101953506470e-02
-5.934491157531738281e-01 4.353931546211242676e-02 -9.595386683940887451e-02
-8.172721266746520996e-01 5.051714181900024414e-02 2.474579960107803345e-02
-4.692235589027404785e-01 1.133150830864906311e-01 -4.003932327032089233e-02
-8.428531885147094727e-01 5.870681256055831909e-02 -3.139795362949371338e-02
-5.311934947967529297e-01 7.737595587968826294e-02 9.430099278688430786e-02
-4.953249096870422363e-01 1.364590823650360107e-01 3.455631062388420105e-02
-7.457378506660461426e-01 -4.783670604228973389e-02 -2.847369294613599777e-03
-4.066204428672790527e-01 4.164446890354156494e-02 5.468444898724555969e-02
-6.085323095321655273e-01 1.419785246253013611e-02 8.553128689527511597e-02
-5.419593453407287598e-01 1.293495297431945801e-01 -3.596613556146621704e-02
-6.178315877914428711e-01 -4.063939303159713745e-02 1.729067973792552948e-02
-5.123784542083740234e-01 -4.638396203517913818e-03 -4.435130581259727478e-02
-4.942021965980529785e-01 -8.605450391769409180e-03 3.919281437993049622e-02
-8.703298568725585938e-01 -6.930541247129440308e-03 -3.893139585852622986e-02
-5.998100638389587402e-01 1.005029678344726562e-01 7.764266431331634521e-02
-6.729021072387695312e-01 1.037192940711975098e-01 5.441543832421302795e-02
-5.450040102005004883e-01 7.779380679130554199e-02 9.404781460762023926e-02
-7.473984956741333008e-01 7.701542228460311890e-02 4.762801900506019592e-02
-5.961283445358276367e-01 -1.270116120576858521e-02 -7.226434350013732910e-02
-6.312401890754699707e-01 1.248240321874618530e-01 3.731814399361610413e-02
-5.180666446685791016e-01 1.200797483325004578e-01 6.803496181964874268e-02
-6.013772487640380859e-01 1.363679766654968262e-01 3.711029421538114548e-03
-6.750346422195434570e-01 1.215872988104820251e-01 -3.233151137828826904e-02
-6.160696148872375488e-01 1.127872616052627563e-01 -6.373619288206100464e-02
-4.579882621765136719e-01 1.310904920101165771e-01 -4.787341225892305374e-03
-5.116531252861022949e-01 7.199212908744812012e-03 7.167721539735794067e-02
-7.990633845329284668e-01 -1.686594635248184204e-02 -8.225097507238388062e-02
-4.845739305019378662e-01 -6.195936352014541626e-03 -1.772799342870712280e-02
-4.328374862670898438e-01 5.846757814288139343e-02 -4.349862039089202881e-02
-4.559537768363952637e-01 1.290088891983032227e-01 4.581335186958312988e-02
-5.078372359275817871e-01 1.127043068408966064e-01 7.573678344488143921e-02
-5.940234661102294922e-01 2.230397053062915802e-02 -9.267646074295043945e-02
-6.836471557617187500e-01 1.176258474588394165e-01 2.399537153542041779e-02
-4.850642979145050049e-01 7.820323109626770020e-03 6.333051621913909912e-02
-5.501942038536071777e-01 1.342958956956863403e-01 -2.506869845092296600e-02
-5.266780853271484375e-01 1.399929225444793701e-01 5.733152385801076889e-03
-4.052777290344238281e-01 8.695138245820999146e-02 -2.409662865102291107e-02
-8.234310746192932129e-01 -3.670041263103485107e-02 -2.570754103362560272e-02
-5.247824788093566895e-01 -2.331069111824035645e-02 -4.697221331298351288e-03
-5.526154637336730957e-01 6.954233348369598389e-02 -8.583289384841918945e-02
-4.177265167236328125e-01 4.271744191646575928e-02 -2.606392838060855865e-02
-8.114529848098754883e-01 -2.306205034255981445e-02 1.696550473570823669e-02
-7.646626234054565430e-01 2.138990536332130432e-02 -1.005719304084777832e-01
-7.489207983016967773e-01 1.041876822710037231e-01 -2.680104039609432220e-02
-6.189745068550109863e-01 7.135081291198730469e-02 -9.441588819026947021e-02
-7.093662619590759277e-01 -2.674897015094757080e-02 4.650782421231269836e-02
-5.158286094665527344e-01 7.245049625635147095e-02 -7.654660195112228394e-02
-4.229851961135864258e-01 1.830505952239036560e-02 1.106714084744453430e-02
-6.691465973854064941e-01 2.887680940330028534e-02 -1.038198322057723999e-01
-5.921392440795898438e-01 1.161805093288421631e-01 -5.964970961213111877e-02
-3.810343742370605469e-01 8.493125438690185547e-02 -6.800699047744274139e-04
-5.868078470230102539e-01 -3.466171026229858398e-02 -3.024862706661224365e-02
-5.794240236282348633e-01 1.133410781621932983e-01 -6.263120472431182861e-02
-6.013728976249694824e-01 -3.401524573564529419e-02 -4.173159226775169373e-02
-7.218610048294067383e-01 -1.863721758127212524e-02 5.229983851313591003e-02
-7.487974166870117188e-01 1.895332522690296173e-02 -1.022135838866233826e-01
-5.668175816535949707e-01 7.454537600278854370e-02 -8.703754097223281860e-02
-8.132826685905456543e-01 2.156045287847518921e-02 -8.984181284904479980e-02
-6.404172778129577637e-01 -3.164846450090408325e-02 -6.191038340330123901e-02
-6.262773871421813965e-01 -3.542166203260421753e-02 3.501267358660697937e-02
-4.447029232978820801e-01 6.686634570360183716e-02 8.477656543254852295e-02
-6.665695309638977051e-01 -4.567816853523254395e-02 1.265942864120006561e-02
-5.284545421600341797e-01 -2.029154449701309204e-02 3.309278562664985657e-02
-6.230337619781494141e-01 1.312957257032394409e-01 -2.324225194752216339e-02
-8.054223060607910156e-01 6.753914058208465576e-04 3.665548563003540039e-02
-8.067554235458374023e-01 7.760310173034667969e-02 -4.508198797702789307e-02
-7.486627101898193359e-01 -2.614348381757736206e-02 3.871087729930877686e-02
-5.644589066505432129e-01 1.267829239368438721e-01 -4.262598603963851929e-02
-7.756015062332153320e-01 9.380704164505004883e-02 -3.338177874684333801e-02
-4.682544767856597900e-01 1.358483135700225830e-01 2.308502607047557831e-02
-6.388165950775146484e-01 -4.848036915063858032e-03 -8.882847428321838379e-02
-4.016666114330291748e-01 6.244586408138275146e-02 6.556743383407592773e-02
-8.046635985374450684e-01 -4.193008691072463989e-02 -2.946894802153110504e-02
-3.821721971035003662e-01 5.840487405657768250e-02 4.646250512450933456e-03
-6.443839669227600098e-01 1.297382414340972900e-01 9.685389697551727295e-03
-8.333169221878051758e-01 2.694510295987129211e-02 2.332168817520141602e-02
-5.535475611686706543e-01 -2.681090682744979858e-02 -2.838455326855182648e-02
-7.038574814796447754e-01 5.840995907783508301e-02 -9.980177134275436401e-02
-5.934059619903564453e-01 8.449582010507583618e-02 8.800810575485229492e-02
-6.097840666770935059e-01 -4.219815135002136230e-02 -1.028692256659269333e-02
-6.822450757026672363e-01 -2.872447669506072998e-02 4.743543639779090881e-02
-7.043082118034362793e-01 -1.683191582560539246e-02 -8.854594826698303223e-02
-4.357438683509826660e-01 1.099587604403495789e-01 6.758881360292434692e-02
-8.756774663925170898e-01 8.168045431375503540e-03 -3.684277087450027466e-02
-7.294763922691345215e-01 1.089205443859100342e-01 6.005363073199987411e-03
-6.153209209442138672e-01 1.342410445213317871e-01 1.074832491576671600e-02
-5.795027017593383789e-01 1.201367750763893127e-01 6.145748123526573181e-02
-5.489869117736816406e-01 1.386359930038452148e-01 -7.875362411141395569e-03
-7.339355349540710449e-01 -2.974247932434082031e-02 -7.745192199945449829e-02
-4.571872949600219727e-01 1.257695555686950684e-01 -1.751257665455341339e-02
-4.750888943672180176e-01 4.149873182177543640e-02 -6.085985153913497925e-02
-6.691141724586486816e-01 -4.772552847862243652e-02 -2.923285774886608124e-02
-6.980971693992614746e-01 7.358060032129287720e-02 -9.299697726964950562e-02
-5.222241282463073730e-01 1.074054166674613953e-01 8.016964048147201538e-02
-5.380090475082397461e-01 9.465180337429046631e-02 -7.286171615123748779e-02
-7.509463429450988770e-01 -3.466094285249710083e-02 2.718896791338920593e-02
-6.047760248184204102e-01 1.124617978930473328e-01 6.555280834436416626e-02
-8.363123536109924316e-01 4.339307546615600586e-02 -7.045932859182357788e-02
-7.696870565414428711e-01 8.582150936126708984e-02 -6.145240738987922668e-02
-5.868653059005737305e-01 1.371609568595886230e-01 -7.520764600485563278e-03
-5.857791900634765625e-01 7.112596929073333740e-02 -9.097273647785186768e-02
-5.400544404983520508e-01 5.757667124271392822e-02 -8.478492498397827148e-02
-6.072717905044555664e-01 -6.462428718805313110e-03 -8.087512850761413574e-02
-5.411330461502075195e-01 -2.503544837236404419e-02 2.712999284267425537e-02
-6.772344708442687988e-01 1.238368079066276550e-02 -1.013704016804695129e-01
-7.171298265457153320e-01 1.563996076583862305e-02 -1.033352240920066833e-01
-4.539221227169036865e-01 3.875516355037689209e-03 3.085495159029960632e-02
-7.678511738777160645e-01 -3.207250684499740601e-02 -7.260760664939880371e-02
-4.249920248985290527e-01 9.970043599605560303e-02 7.165898382663726807e-02
-6.444894075393676758e-01 -3.855599462985992432e-02 3.059966862201690674e-02
-5.329730510711669922e-01 4.272833466529846191e-04 7.000346481800079346e-02
-4.067016839981079102e-01 4.614912346005439758e-02 -1.820772513747215271e-02
-6.197878718376159668e-01 -4.195455461740493774e-02 -2.641024813055992126e-02
-6.961593031883239746e-01 3.691654652357101440e-03 -9.960968047380447388e-02
-5.522385835647583008e-01 -3.054811060428619385e-02 -7.987393066287040710e-03
-6.706816554069519043e-01 6.313183903694152832e-02 -9.923603385686874390e-02
-6.178365945816040039e-01 -3.747324645519256592e-02 -4.141543433070182800e-02
-5.805965662002563477e-01 -1.537526398897171021e-02 -6.400787830352783203e-02
-7.987207770347595215e-01 7.613793015480041504e-02 1.191773265600204468e-02
-3.978688120841979980e-01 7.608053088188171387e-02 -2.038129605352878571e-02
-4.784203171730041504e-01 1.083997189998626709e-01 -4.790843278169631958e-02
-5.811839699745178223e-01 1.295644044876098633e-02 8.497889339923858643e-02
-6.614947319030761719e-01 -4.124861210584640503e-02 2.579820156097412109e-02
-4.138774275779724121e-01 9.285133332014083862e-02 7.072440534830093384e-02
-6.551386117935180664e-01 9.231786429882049561e-02 -8.295585215091705322e-02
-7.717559337615966797e-01 -4.673029482364654541e-02 -3.603646904230117798e-02
-5.937190055847167969e-01 -2.056907117366790771e-02 -6.242406740784645081e-02
-7.626734375953674316e-01 7.171617448329925537e-02 -8.180522173643112183e-02
-7.956191301345825195e-01 8.557345718145370483e-02 -1.161130145192146301e-02
-6.526617407798767090e-01 7.321421056985855103e-03 -9.721925109624862671e-02
-8.097090721130371094e-01 -3.883779793977737427e-02 -1.239266432821750641e-02
-7.085247635841369629e-01 1.157401651144027710e-01 -2.608246728777885437e-02
-5.768511891365051270e-01 1.041716933250427246e-01 7.842539995908737183e-02
-8.206965923309326172e-01 6.976285576820373535e-02 -4.463444463908672333e-03
-6.266918182373046875e-01 3.829111531376838684e-02 9.100732207298278809e-02
-6.909585595130920410e-01 1.181035563349723816e-01 -3.387413546442985535e-02
-8.360406756401062012e-01 -3.222832083702087402e-02 -2.996504306793212891e-02
-5.627292394638061523e-01 -3.783177584409713745e-03 -6.936778873205184937e-02
-6.273047327995300293e-01 1.103642284870147705e-01 6.212898716330528259e-02
-6.403777599334716797e-01 2.189263142645359039e-02 -1.001694798469543457e-01
-8.709474205970764160e-01 1.962025091052055359e-02 -4.960978403687477112e-02
-8.469581604003906250e-01 -6.763990968465805054e-03 6.848042365163564682e-03
-6.429099440574645996e-01 -2.962417155504226685e-02 4.716044664382934570e-02
-5.554996132850646973e-01 -2.906237542629241943e-02 2.360585331916809082e-02
-7.414097189903259277e-01 -3.595820814371109009e-02 -6.916629523038864136e-02
-8.318259119987487793e-01 5.397188663482666016e-02 8.323697373270988464e-03
-7.353413105010986328e-01 -4.002387821674346924e-02 2.211545594036579132e-02
-3.923061192035675049e-01 5.186246335506439209e-02 -5.847038701176643372e-03
-6.417433619499206543e-01 9.611497819423675537e-02 -8.033414185047149658e-02
-4.227132797241210938e-01 2.154932729899883270e-02 3.817132115364074707e-02
-6.766113042831420898e-01 5.405132845044136047e-02 8.229070901870727539e-02
-5.511289834976196289e-01 -7.524043321609497070e-03 6.507296860218048096e-02
-4.451451003551483154e-01 1.179476454854011536e-01 6.178329512476921082e-02
-7.826105952262878418e-01 3.836294636130332947e-02 5.014421045780181885e-02
-5.605741143226623535e-01 1.392636001110076904e-01 1.331365481019020081e-02
-8.673471212387084961e-01 3.342698141932487488e-02 -3.927398845553398132e-02
-6.274311542510986328e-01 1.181866079568862915e-01 5.152932181954383850e-02
-8.214840888977050781e-01 -1.485589146614074707e-02 1.906271651387214661e-02
-7.474712133407592773e-01 6.813203543424606323e-02 -8.876082301139831543e-02
-4.130926728248596191e-01 5.646187812089920044e-02 7.004366815090179443e-02
-4.846913814544677734e-01 1.575715653598308563e-02 -5.086203292012214661e-02
-6.625440120697021484e-01 1.157439649105072021e-01 -5.287213623523712158e-02
-6.911073923110961914e-01 -3.529364615678787231e-02 3.724370896816253662e-02
-4.411343336105346680e-01 3.113882243633270264e-02 6.791247427463531494e-02
-6.082499623298645020e-01 6.190290302038192749e-02 9.267325699329376221e-02
-6.882933378219604492e-01 7.529206573963165283e-03 7.462929934263229370e-02
-5.664398670196533203e-01 8.972758054733276367e-02 -8.039765805006027222e-02
-6.547904014587402344e-01 5.487922579050064087e-03 7.824244350194931030e-02
-6.893152594566345215e-01 6.567466259002685547e-02 7.603403925895690918e-02
-5.451307296752929688e-01 9.760780632495880127e-02 8.589766919612884521e-02
-6.084769368171691895e-01 1.310197263956069946e-01 3.126159682869911194e-02
-4.227554798126220703e-01 3.271799534559249878e-02 5.804507434368133545e-02
-6.042848825454711914e-01 1.034139618277549744e-01 -7.389640808105468750e-02
-4.888252615928649902e-01 1.442763954401016235e-03 -3.717393428087234497e-02
-5.592738986015319824e-01 -1.419099420309066772e-02 -5.654544755816459656e-02
-7.228906750679016113e-01 1.128256544470787048e-01 -7.916212081909179688e-03
-5.584210753440856934e-01 1.178464591503143311e-01 -5.557974055409431458e-02
-6.061106324195861816e-01 -4.108355939388275146e-02 5.824728403240442276e-03
-6.732571125030517578e-01 7.058746367692947388e-02 7.845478504896163940e-02
-6.558732986450195312e-01 -4.569521546363830566e-02 -3.280489519238471985e-02
