3.464819490909576416e-01 -4.948007315397262573e-02 2.463175505399703979e-01
7.570710778236389160e-02 5.380146205425262451e-03 2.283660769462585449e-01
3.311277627944946289e-01 6.053970754146575928e-02 1.764690130949020386e-01
3.899016976356506348e-01 -5.231677740812301636e-02 -5.895442515611648560e-02
8.689084649085998535e-02 6.460750475525856018e-03 2.501139640808105469e-01
1.813667714595794678e-01 3.990666940808296204e-02 2.234674245119094849e-01
7.905563712120056152e-02 -3.899381682276725769e-02 -1.128842383623123169e-01
5.264526605606079102e-01 5.313727632164955139e-02 1.657911837100982666e-01
3.996330499649047852e-01 -5.250125378370285034e-02 -1.908446289598941803e-02
3.650228977203369141e-01 -1.215725950896739960e-02 -3.510991334915161133e-01
2.525379061698913574e-01 -6.229775398969650269e-02 6.388777494430541992e-02
5.311040282249450684e-01 5.185073986649513245e-02 -1.399622559547424316e-01
2.317469418048858643e-01 4.496626555919647217e-02 2.518900334835052490e-01
3.417640924453735352e-02 1.343806856311857700e-03 6.155861914157867432e-02
5.919508934020996094e-01 -6.946774665266275406e-03 2.495199441909790039e-02
2.631795406341552734e-01 -2.330825477838516235e-02 4.025219976902008057e-01
4.941407144069671631e-01 -1.821787655353546143e-02 -2.276883423328399658e-01
6.237405538558959961e-02 -4.250871762633323669e-02 -2.902660518884658813e-03
1.686033457517623901e-01 4.677375033497810364e-02 -3.763098269701004028e-02
4.056580066680908203e-01 6.676037609577178955e-02 7.602927088737487793e-02
4.084694981575012207e-01 4.430090263485908508e-02 -2.866282761096954346e-01
3.564673066139221191e-01 -5.514910817146301270e-02 -6.826812028884887695e-02
1.097559332847595215e-01 -5.363475531339645386e-02 6.515747308731079102e-02
4.595028162002563477e-01 -1.333468407392501831e-02 3.517527282238006592e-01
3.422001600265502930e-01 6.547873467206954956e-02 7.971725612878799438e-02
4.268235862255096436e-01 -4.784742742776870728e-02 1.341608464717864990e-01
4.477645754814147949e-01 -8.813638240098953247e-03 3.733362555503845215e-01
1.695258468389511108e-01 4.437178373336791992e-02 1.392804682254791260e-01
4.434510469436645508e-01 -4.370299354195594788e-02 1.663271933794021606e-01
1.158927753567695618e-01 -3.180823922157287598e-01 -2.205502241849899292e-04
1.295720636844635010e-01 -2.396048605442047119e-01 -4.450134560465812683e-02
1.442116945981979370e-01 -1.979815065860748291e-01 4.439052939414978027e-02
2.070790529251098633e-01 -4.009225368499755859e-01 -7.670079171657562256e-02
1.739958822727203369e-01 -3.637104630470275879e-01 -9.253777563571929932e-02
1.397109329700469971e-01 -1.748242676258087158e-01 3.885645419359207153e-04
2.293256223201751709e-01 -2.098286598920822144e-01 -3.532312810420989990e-02
2.147029787302017212e-01 -3.276825845241546631e-01 5.631992965936660767e-02
2.420267462730407715e-01 -2.467563003301620483e-01 -2.501105330884456635e-02
1.249032989144325256e-01 -3.263054192066192627e-01 -5.577962100505828857e-02
2.466712892055511475e-01 -3.223356604576110840e-01 -1.547703705728054047e-02
2.426478713750839233e-01 -2.627576291561126709e-01 -3.132165968418121338e-02
2.243075519800186157e-01 -3.500780463218688965e-01 -7.173541188240051270e-02
1.925010681152343750e-01 -2.509886026382446289e-01 -8.154157549142837524e-02
1.729672998189926147e-01 -2.524406909942626953e-01 7.266271859407424927e-02
2.346921712160110474e-01 -2.864383161067962646e-01 4.029919952154159546e-02
1.511798202991485596e-01 -4.477222561836242676e-01 -1.917799562215805054e-02
2.054657042026519775e-01 -3.133675158023834229e-01 6.453316658735275269e-02
1.602205932140350342e-01 -3.107695579528808594e-01 -8.924092352390289307e-02
1.299751847982406616e-01 -2.094288319349288940e-01 -2.331202477216720581e-02
2.061084061861038208e-01 -4.379866719245910645e-01 5.247695371508598328e-03
1.282873153686523438e-01 -2.045229077339172363e-01 1.374424435198307037e-03
1.889284998178482056e-01 -1.867836713790893555e-01 6.132067739963531494e-02
2.114466726779937744e-01 -3.825334906578063965e-01 4.055999591946601868e-02
1.503722220659255981e-01 -3.751913607120513916e-01 4.369879886507987976e-02
1.167712807655334473e-01 -2.989086210727691650e-01 -3.037373535335063934e-02
1.176827400922775269e-01 -3.507297933101654053e-01 -1.157402899116277695e-02
2.078220546245574951e-01 -1.484118252992630005e-01 1.977887935936450958e-03
1.508615911006927490e-01 -1.749735921621322632e-01 -3.238527104258537292e-02
1.617771238088607788e-01 -3.408800661563873291e-01 -9.084016829729080200e-02
2.449020892381668091e-01 -3.290630877017974854e-01 -2.883946895599365234e-02
1.257190704345703125e-01 -3.608521521091461182e-01 -5.252235755324363708e-02
1.369928568601608276e-01 -1.936695873737335205e-01 2.865435555577278137e-02
1.625102013349533081e-01 -4.165384173393249512e-01 3.015571832656860352e-02
2.074555754661560059e-01 -1.481138169765472412e-01 1.290320605039596558e-02
1.408572793006896973e-01 -4.199616909027099609e-01 4.360922612249851227e-03
1.339926123619079590e-01 -2.083970308303833008e-01 -3.335327282547950745e-02
1.647881567478179932e-01 -2.580277025699615479e-01 -8.207060396671295166e-02
1.149823963642120361e-01 -3.134951591491699219e-01 -1.564756035804748535e-02
2.045185565948486328e-01 -3.250107467174530029e-01 -8.824653923511505127e-02
2.092589288949966431e-01 -1.533520519733428955e-01 2.328034862875938416e-02
1.437213867902755737e-01 -3.351098299026489258e-01 -8.024278283119201660e-02
2.164832055568695068e-01 -2.848135530948638916e-01 -7.709123194217681885e-02
1.668459028005599976e-01 -1.493207514286041260e-01 3.226308152079582214e-02
1.458201557397842407e-01 -1.772834658622741699e-01 3.316419944167137146e-02
2.309755235910415649e-01 -3.194307982921600342e-01 4.134856536984443665e-02
2.262149304151535034e-01 -3.117920756340026855e-01 4.887460544705390930e-02
1.486737728118896484e-01 -2.530537545680999756e-01 -7.238690555095672607e-02
1.197966486215591431e-01 -3.459961712360382080e-01 -3.917859867215156555e-02
1.154466122388839722e-01 -3.266512155532836914e-01 -1.373675651848316193e-02
1.187618821859359741e-01 -3.293883800506591797e-01 1.043570041656494141e-02
2.084489762783050537e-01 -2.805863320827484131e-01 -8.180634677410125732e-02
1.421862691640853882e-01 -3.487516939640045166e-01 4.597486928105354309e-02
1.392140686511993408e-01 -2.161756455898284912e-01 -4.773608222603797913e-02
2.347062081098556519e-01 -2.097281813621520996e-01 -2.094696462154388428e-02
1.801626682281494141e-01 -1.676999926567077637e-01 5.296715348958969116e-02
1.741752624511718750e-01 -4.275075495243072510e-01 -7.588523626327514648e-02
1.299256682395935059e-01 -4.060936570167541504e-01 -1.353050861507654190e-02
1.989309191703796387e-01 -4.256161451339721680e-01 2.338548749685287476e-02
1.742073744535446167e-01 -4.091629385948181152e-01 -8.340367674827575684e-02
2.117932438850402832e-01 -3.429826200008392334e-01 -8.379384130239486694e-02
2.395633459091186523e-01 -2.664367258548736572e-01 3.042312338948249817e-02
1.469227820634841919e-01 -4.167776107788085938e-01 1.706329733133316040e-02
1.470245718955993652e-01 -3.037618100643157959e-01 -8.126720041036605835e-02
1.937620639801025391e-01 -3.575136065483093262e-01 5.856309086084365845e-02
1.225291490554809570e-01 -2.813191413879394531e-01 2.770202606916427612e-02
2.332656979560852051e-01 -2.202260047197341919e-01 3.295420110225677490e-02
2.052927762269973755e-01 -3.830082416534423828e-01 -8.287452161312103271e-02
1.574601680040359497e-01 -4.517652392387390137e-01 -1.167478132992982864e-02
1.488918662071228027e-01 -2.638992071151733398e-01 -7.549962401390075684e-02
2.185625135898590088e-01 -4.244481325149536133e-01 8.043888956308364868e-04
1.254769414663314819e-01 -3.764584362506866455e-01 6.278587505221366882e-03
2.191816270351409912e-01 -2.982954680919647217e-01 5.770090967416763306e-02
2.445863783359527588e-01 -3.200750648975372314e-01 -3.285744041204452515e-02
2.389764189720153809e-01 -3.533922731876373291e-01 -4.412353411316871643e-02
2.415491938591003418e-01 -3.213540017604827881e-01 2.002282068133354187e-02
2.432780563831329346e-01 -2.383143007755279541e-01 6.106896325945854187e-04
2.174776792526245117e-01 -4.319688677787780762e-01 -9.132267907261848450e-03
1.216187477111816406e-01 -2.923271059989929199e-01 2.547901123762130737e-02
1.492322385311126709e-01 -3.437115252017974854e-01 -8.424749970436096191e-02
2.105489671230316162e-01 -1.837373077869415283e-01 -4.292472824454307556e-02
2.211138606071472168e-01 -2.732803821563720703e-01 -7.097637653350830078e-02
2.284421920776367188e-01 -2.343340814113616943e-01 4.608190804719924927e-02
1.220566183328628540e-01 -2.296012639999389648e-01 -5.050703417509794235e-03
1.725784838199615479e-01 -3.953441381454467773e-01 4.511639848351478577e-02
1.281906217336654663e-01 -3.140064179897308350e-01 -6.146508455276489258e-02
1.891548931598663330e-01 -2.296909093856811523e-01 7.125031948089599609e-02
1.227903738617897034e-01 -3.772534728050231934e-01 -3.286510705947875977e-02
2.452743500471115112e-01 -2.770318984985351562e-01 1.248709671199321747e-02
1.706482619047164917e-01 -3.052697777748107910e-01 -9.175150096416473389e-02
2.442751526832580566e-01 -3.316739201545715332e-01 5.572922527790069580e-03
2.163297533988952637e-01 -3.926066458225250244e-01 3.092718496918678284e-02
2.345223128795623779e-01 -3.346420526504516602e-01 -5.837506800889968872e-02
2.173495143651962280e-01 -1.775224506855010986e-01 3.744743764400482178e-02
1.985815763473510742e-01 -1.433164775371551514e-01 2.222357690334320068e-02
1.505720615386962891e-01 -1.903654783964157104e-01 4.828993603587150574e-02
1.576728373765945435e-01 -4.369989633560180664e-01 -6.210904195904731750e-02
2.144011259078979492e-01 -2.119619995355606079e-01 5.658617615699768066e-02
1.216657757759094238e-01 -2.389742285013198853e-01 1.191249489784240723e-02
2.179470211267471313e-01 -2.268391847610473633e-01 -5.979479849338531494e-02
2.466832101345062256e-01 -3.083935976028442383e-01 1.791101880371570587e-03
1.807245463132858276e-01 -3.217567801475524902e-01 6.856938451528549194e-02
2.427209913730621338e-01 -2.373559772968292236e-01 -1.156740449368953705e-02
1.780059188604354858e-01 -4.349015951156616211e-01 2.149336785078048706e-02
1.524464040994644165e-01 -3.367030918598175049e-01 5.707994848489761353e-02
2.116202414035797119e-01 -1.808251440525054932e-01 4.683870077133178711e-02
1.315027922391891479e-01 -3.704979419708251953e-01 2.397759631276130676e-02
1.605342328548431396e-01 -4.059261679649353027e-01 3.551460802555084229e-02
1.666198074817657471e-01 -4.014193713665008545e-01 -8.407830446958541870e-02
1.310842931270599365e-01 -3.141685724258422852e-01 4.097911715507507324e-02
1.813487410545349121e-01 -3.425245285034179688e-01 6.419005990028381348e-02
2.365457713603973389e-01 -2.971635460853576660e-01 3.612145781517028809e-02
2.006654292345046997e-01 -2.717880904674530029e-01 7.037068903446197510e-02
2.151043117046356201e-01 -2.737460732460021973e-01 6.259139627218246460e-02
2.473239898681640625e-01 -2.861425876617431641e-01 -1.327205635607242584e-02
2.475265562534332275e-01 -2.980278432369232178e-01 -5.504349246621131897e-03
1.448607444763183594e-01 -1.706714630126953125e-01 -1.544331666082143784e-02
2.302244901657104492e-01 -3.169458806514739990e-01 -6.578051298856735229e-02
2.087991982698440552e-01 -4.477610886096954346e-01 -2.394287288188934326e-02
1.279935389757156372e-01 -2.135197818279266357e-01 1.823264919221401215e-02
2.228456288576126099e-01 -1.700092852115631104e-01 7.302034646272659302e-05
1.773733198642730713e-01 -1.558048427104949951e-01 -3.255581110715866089e-02
1.645167917013168335e-01 -4.542070925235748291e-01 -6.073524244129657745e-03
1.852615177631378174e-01 -3.743485510349273682e-01 -9.132511168718338013e-02
1.356246769428253174e-01 -2.648533582687377930e-01 -6.324136257171630859e-02
2.055939733982086182e-01 -2.563930749893188477e-01 6.824293732643127441e-02
1.602415144443511963e-01 -1.929643750190734863e-01 -5.419155955314636230e-02
1.827363669872283936e-01 -2.912882566452026367e-01 -9.095571190118789673e-02
1.507475227117538452e-01 -4.420343041419982910e-01 -5.796526558697223663e-03
2.122013270854949951e-01 -3.049103319644927979e-01 -8.268261700868606567e-02
1.526093780994415283e-01 -3.053287565708160400e-01 6.273104250431060791e-02
1.884069293737411499e-01 -2.317637801170349121e-01 -7.646373659372329712e-02
1.527343690395355225e-01 -2.363920509815216064e-01 6.292071193456649780e-02
1.980324089527130127e-01 -1.891343891620635986e-01 5.964692682027816772e-02
2.028933018445968628e-01 -3.920717239379882812e-01 -8.212105184793472290e-02
2.307806015014648438e-01 -2.560172080993652344e-01 4.590395092964172363e-02
1.460758000612258911e-01 -2.970933914184570312e-01 5.911234021186828613e-02
1.395885348320007324e-01 -4.298727810382843018e-01 -1.761201955378055573e-02
2.263369262218475342e-01 -2.410686612129211426e-01 -5.609050393104553223e-02
2.359757423400878906e-01 -2.134125530719757080e-01 2.067960053682327271e-02
1.871818751096725464e-01 -1.363096684217453003e-01 6.293090060353279114e-03
1.639018654823303223e-01 -3.418647944927215576e-01 6.133317947387695312e-02
2.449173927307128906e-01 -2.963854372501373291e-01 -3.195798397064208984e-02
2.017978429794311523e-01 -3.856643438339233398e-01 4.522367566823959351e-02
1.266744881868362427e-01 -2.875071763992309570e-01 3.647441044449806213e-02
1.196798235177993774e-01 -3.069155216217041016e-01 1.890603266656398773e-02
2.442629039287567139e-01 -3.395977914333343506e-01 -7.388275116682052612e-05
2.127031385898590088e-01 -3.544118106365203857e-01 -8.230385184288024902e-02
1.256418824195861816e-01 -3.159596920013427734e-01 3.166529908776283264e-02
2.085069566965103149e-01 -2.281629741191864014e-01 -6.768107414245605469e-02
2.436829507350921631e-01 -3.511258065700531006e-01 -1.931678317487239838e-02
1.592072844505310059e-01 -4.185102581977844238e-01 -7.450079172849655151e-02
2.084127962589263916e-01 -2.940312922000885010e-01 -8.383704721927642822e-02
1.744734048843383789e-01 -2.048461288213729858e-01 -6.560865789651870728e-02
2.243363857269287109e-01 -3.263625204563140869e-01 -7.314822077751159668e-02
2.185678333044052124e-01 -2.056933492422103882e-01 5.062377080321311951e-02
1.599795371294021606e-01 -3.233518302440643311e-01 -8.992790430784225464e-02
1.322463303804397583e-01 -4.142102897167205811e-01 -2.274728566408157349e-02
1.287944465875625610e-01 -2.196884900331497192e-01 -2.971878089010715485e-02
2.036658525466918945e-01 -4.323303699493408203e-01 1.407347805798053741e-02
1.894913315773010254e-01 -4.418192505836486816e-01 -6.573642790317535400e-02
1.965976804494857788e-01 -2.979191243648529053e-01 -8.942234516143798828e-02
1.637150496244430542e-01 -2.671398818492889404e-01 -8.388052135705947876e-02
1.226037442684173584e-01 -3.643868565559387207e-01 5.691366270184516907e-03
2.204855978488922119e-01 -1.744078546762466431e-01 -1.964584179222583771e-02
1.961172968149185181e-01 -2.039643228054046631e-01 -6.333710253238677979e-02
1.484259963035583496e-01 -2.071903496980667114e-01 5.290929228067398071e-02
1.723475456237792969e-01 -1.445587724447250366e-01 -1.564830541610717773e-02
1.580635011196136475e-01 -2.311903536319732666e-01 -7.101343572139739990e-02
2.345753908157348633e-01 -3.735610842704772949e-01 -4.786681383848190308e-02
1.330112069845199585e-01 -3.665752410888671875e-01 -6.493422389030456543e-02
1.546086668968200684e-01 -2.561801671981811523e-01 6.586728990077972412e-02
2.225065976381301880e-01 -2.664178311824798584e-01 5.635469406843185425e-02
2.097203880548477173e-01 -2.809620797634124756e-01 6.579047441482543945e-02
1.580826193094253540e-01 -4.343434572219848633e-01 1.339551992714405060e-02
1.952804028987884521e-01 -3.451406359672546387e-01 6.165685504674911499e-02
1.376426219940185547e-01 -4.125507473945617676e-01 -5.225790292024612427e-02
1.976779103279113770e-01 -2.841471135616302490e-01 -8.718203753232955933e-02
1.844330132007598877e-01 -4.541199207305908203e-01 6.101960316300392151e-04
1.834677159786224365e-01 -2.179361283779144287e-01 -7.182411849498748779e-02
1.317384541034698486e-01 -3.400709331035614014e-01 3.610868752002716064e-02
1.313963532447814941e-01 -2.303671240806579590e-01 -4.308222979307174683e-02
1.923564374446868896e-01 -2.839725911617279053e-01 7.213640958070755005e-02
1.319477707147598267e-01 -2.909246087074279785e-01 -6.436552107334136963e-02
2.465618848800659180e-01 -3.209384083747863770e-01 -4.377269651740789413e-03
2.354978173971176147e-01 -3.066684603691101074e-01 -5.709187686443328857e-02
1.194814890623092651e-01 -2.746711373329162598e-01 -3.443657979369163513e-02
2.091514617204666138e-01 -1.534741669893264771e-01 -1.053149439394474030e-02
1.508957743644714355e-01 -2.783080339431762695e-01 -8.004418015480041504e-02
1.307122707366943359e-01 -2.721925079822540283e-01 -5.855941027402877808e-02
1.773808449506759644e-01 -2.128711044788360596e-01 6.866492331027984619e-02
1.182974949479103088e-01 -3.544749021530151367e-01 -2.447315864264965057e-02
1.241949275135993958e-01 -2.316075414419174194e-01 -2.472748607397079468e-02
1.493691205978393555e-01 -2.344944775104522705e-01 -6.668846309185028076e-02
2.212814837694168091e-01 -2.940125465393066406e-01 -7.425840944051742554e-02
2.044007629156112671e-01 -3.620634675025939941e-01 5.311296880245208740e-02
1.170426383614540100e-01 -2.728070318698883057e-01 5.864245817065238953e-03
1.627136468887329102e-01 -4.560572504997253418e-01 -4.338443651795387268e-02
1.554443836212158203e-01 -3.856891095638275146e-01 4.270903021097183228e-02
1.740794926881790161e-01 -2.642568051815032959e-01 7.311327010393142700e-02
1.169222965836524963e-01 -3.327280282974243164e-01 -6.413459777832031250e-05
1.395777761936187744e-01 -3.379147052764892578e-01 4.635842517018318176e-02
2.214883565902709961e-01 -1.864887773990631104e-01 3.723799809813499451e-02
1.876114904880523682e-01 -4.352377355098724365e-01 2.039092220366001129e-02
1.998432129621505737e-01 -4.099706411361694336e-01 -7.812359929084777832e-02
1.615072786808013916e-01 -1.461407095193862915e-01 -3.974876832216978073e-03
2.355129718780517578e-01 -2.942546606063842773e-01 -5.591627210378646851e-02
1.460120230913162231e-01 -2.451566308736801147e-01 -6.778937578201293945e-02
1.872105449438095093e-01 -3.969582319259643555e-01 4.465481638908386230e-02
2.274358123540878296e-01 -2.723618745803833008e-01 5.099505558609962463e-02
1.260792613029479980e-01 -2.737374305725097656e-01 3.511428087949752808e-02
1.325223594903945923e-01 -4.055257141590118408e-01 -2.853078767657279968e-04
1.298499703407287598e-01 -3.731767535209655762e-01 -5.760446935892105103e-02
2.335518449544906616e-01 -2.531175911426544189e-01 -4.963847994804382324e-02
1.541933417320251465e-01 -1.607985049486160278e-01 3.041663393378257751e-02
1.624352782964706421e-01 -2.969143092632293701e-01 6.844157725572586060e-02
1.465310156345367432e-01 -1.689079701900482178e-01 2.510859072208404541e-02
1.947967112064361572e-01 -3.694117665290832520e-01 5.437154322862625122e-02
1.824260503053665161e-01 -1.482827067375183105e-01 -2.431296929717063904e-02
2.226742208003997803e-01 -1.784143596887588501e-01 2.768426388502120972e-02
2.282976508140563965e-01 -3.687177896499633789e-01 -6.267455220222473145e-02
1.481214016675949097e-01 -2.228581458330154419e-01 5.694030225276947021e-02
1.979787200689315796e-01 -3.355441689491271973e-01 6.319872289896011353e-02
2.087560743093490601e-01 -2.550694048404693604e-01 -7.609236240386962891e-02
2.342284917831420898e-01 -3.851743638515472412e-01 3.075585700571537018e-03
1.905457377433776855e-01 -1.749414354562759399e-01 5.602794885635375977e-02
1.882147639989852905e-01 -1.409727334976196289e-01 -1.129316166043281555e-02
2.414789497852325439e-01 -2.876433134078979492e-01 -4.205925390124320984e-02
1.264281868934631348e-01 -2.834801971912384033e-01 -5.419500544667243958e-02
1.628059148788452148e-01 -3.929902613162994385e-01 -8.494160324335098267e-02
1.723236739635467529e-01 -2.989586591720581055e-01 7.097931206226348877e-02
2.267562896013259888e-01 -1.818033754825592041e-01 -1.157683879137039185e-02
1.268323212862014771e-01 -2.442502081394195557e-01 3.177597373723983765e-02
1.964037120342254639e-01 -2.927352488040924072e-01 7.050262391567230225e-02
2.346840202808380127e-01 -2.345414310693740845e-01 3.517942875623703003e-02
1.374018192291259766e-01 -3.226230144500732422e-01 -7.405738532543182373e-02
1.942370235919952393e-01 -2.575377523899078369e-01 7.231092453002929688e-02
1.379523575305938721e-01 -3.532912731170654297e-01 -7.356997579336166382e-02
1.819615811109542847e-01 -1.371941715478897095e-01 1.818790100514888763e-02
2.094114273786544800e-01 -2.419855892658233643e-01 6.530345231294631958e-02
2.056108117103576660e-01 -1.670040190219879150e-01 4.368390142917633057e-02
2.150557339191436768e-01 -4.354622364044189453e-01 -4.134306311607360840e-02
1.279371827840805054e-01 -3.502220809459686279e-01 2.644671127200126648e-02
2.361333817243576050e-01 -3.726986050605773926e-01 8.482072502374649048e-03
1.769722402095794678e-01 -3.766497075557708740e-01 5.354055017232894897e-02
2.418467402458190918e-01 -3.490974605083465576e-01 5.598209798336029053e-03
2.468506991863250732e-01 -3.125896751880645752e-01 -1.974152401089668274e-02
1.206712126731872559e-01 -3.362604975700378418e-01 -4.456137865781784058e-02
1.641462892293930054e-01 -3.747042119503021240e-01 5.138972774147987366e-02
1.986151933670043945e-01 -2.330177128314971924e-01 -7.428360730409622192e-02
2.289557009935379028e-01 -2.180935442447662354e-01 -4.139064997434616089e-02
2.452064752578735352e-01 -2.574867308139801025e-01 -1.469541061669588089e-02
2.395112216472625732e-01 -2.525323927402496338e-01 2.838108688592910767e-02
1.991730928421020508e-01 -2.389295399188995361e-01 6.983343511819839478e-02
2.048628330230712891e-01 -2.064180523157119751e-01 -6.051985546946525574e-02
1.426896899938583374e-01 -4.154000878334045410e-01 -5.954402685165405273e-02
1.409044116735458374e-01 -1.740947216749191284e-01 1.414691284298896790e-02
1.359880864620208740e-01 -2.025732696056365967e-01 3.301893174648284912e-02
1.233447641134262085e-01 -3.793751895427703857e-01 -5.949739366769790649e-03
2.068089395761489868e-01 -3.644838035106658936e-01 -8.513195812702178955e-02
2.120060473680496216e-01 -2.030098438262939453e-01 -5.375134199857711792e-02
2.214818596839904785e-01 -3.397394716739654541e-01 4.753514751791954041e-02
1.251035183668136597e-01 -3.417096138000488281e-01 -5.507943406701087952e-02
1.386426389217376709e-01 -3.252521753311157227e-01 4.826636239886283875e-02
2.397983670234680176e-01 -2.270017713308334351e-01 1.560704782605171204e-02
1.478312909603118896e-01 -4.089374542236328125e-01 2.390832826495170593e-02
1.351658701896667480e-01 -4.209015667438507080e-01 -3.002959489822387695e-02
1.761913001537322998e-01 -1.846473813056945801e-01 6.039649248123168945e-02
1.718489080667495728e-01 -4.062892794609069824e-01 3.948004916310310364e-02
2.123102247714996338e-01 -4.207814931869506836e-01 1.542887277901172638e-02
1.813463419675827026e-01 -2.427082657814025879e-01 7.296901196241378784e-02
1.283274590969085693e-01 -3.325711488723754883e-01 -6.188658252358436584e-02
1.621455848217010498e-01 -2.137265503406524658e-01 6.437036395072937012e-02
2.213606238365173340e-01 -2.165900170803070068e-01 5.090062692761421204e-02
1.457344591617584229e-01 -2.142035067081451416e-01 -5.445586144924163818e-02
2.132795602083206177e-01 -1.933732628822326660e-01 5.131765082478523254e-02
1.154794245958328247e-01 -2.966607511043548584e-01 -2.139593102037906647e-02
1.754495501518249512e-01 -2.260276228189468384e-01 -7.459829747676849365e-02
1.690683364868164062e-01 -2.357765138149261475e-01 -7.680723071098327637e-02
1.513805985450744629e-01 -4.488133490085601807e-01 -2.858490496873855591e-02
2.351514995098114014e-01 -3.843113780021667480e-01 -3.825275227427482605e-02
2.325568795204162598e-01 -2.764062285423278809e-01 -5.775117129087448120e-02
1.693070828914642334e-01 -3.268038332462310791e-01 -9.289419651031494141e-02
2.437697052955627441e-01 -2.840766012668609619e-01 1.916182041168212891e-02
1.510124802589416504e-01 -2.234077155590057373e-01 -6.346217542886734009e-02
2.375916540622711182e-01 -3.714932799339294434e-01 -3.925361484289169312e-02
2.296036481857299805e-01 -4.094163477420806885e-01 -2.461437135934829712e-02
1.203375458717346191e-01 -3.468595147132873535e-01 8.475668728351593018e-03
2.317477613687515259e-01 -3.336419463157653809e-01 3.658401966094970703e-02
2.035583257675170898e-01 -4.364516139030456543e-01 -6.034342199563980103e-02
2.071675658226013184e-01 -4.114867746829986572e-01 -7.246190309524536133e-02
1.705953329801559448e-01 -3.225234150886535645e-01 6.727822870016098022e-02
1.175112277269363403e-01 -3.398927450180053711e-01 -3.016212582588195801e-02
1.677206903696060181e-01 -4.374074935913085938e-01 1.675531081855297089e-02
1.691886484622955322e-01 -2.769894003868103027e-01 -8.742304891347885132e-02
1.194311752915382385e-01 -3.230895102024078369e-01 -4.202067852020263672e-02
1.676242053508758545e-01 -1.787398755550384521e-01 5.524602532386779785e-02
2.299867272377014160e-01 -2.444289326667785645e-01 4.566089808940887451e-02
1.202631667256355286e-01 -2.650184333324432373e-01 -3.300284966826438904e-02
1.905187666416168213e-01 -4.203860163688659668e-01 3.074824437499046326e-02
1.353582888841629028e-01 -2.357747107744216919e-01 4.517755657434463501e-02
1.989724189043045044e-01 -1.710203438997268677e-01 -4.184585809707641602e-02
2.352959811687469482e-01 -3.578637838363647461e-01 -5.238622054457664490e-02
1.153950020670890808e-01 -2.837852239608764648e-01 -6.629401817917823792e-03
2.244762331247329712e-01 -2.068439424037933350e-01 4.347344115376472473e-02
1.980396509170532227e-01 -2.435654848814010620e-01 -7.785731554031372070e-02
1.632706075906753540e-01 -4.482973217964172363e-01 -5.619626492261886597e-02
1.805269420146942139e-01 -4.589982926845550537e-01 -4.903394728899002075e-02
2.330970168113708496e-01 -3.968510925769805908e-01 -9.131578728556632996e-03
1.533030867576599121e-01 -2.896042466163635254e-01 -8.344884216785430908e-02
1.509229838848114014e-01 -1.659026890993118286e-01 -2.190398052334785461e-02
2.073661983013153076e-01 -3.326615095138549805e-01 5.983719974756240845e-02
1.318296939134597778e-01 -1.936936974525451660e-01 3.016876056790351868e-03
2.337350249290466309e-01 -1.991518288850784302e-01 -9.768202900886535645e-03
1.337289363145828247e-01 -4.026568531990051270e-01 -5.093190819025039673e-02
1.766572743654251099e-01 -3.128810822963714600e-01 6.979186832904815674e-02
1.860151141881942749e-01 -4.440773725509643555e-01 1.250500045716762543e-02
1.974853128194808960e-01 -4.119385778903961182e-01 3.354217857122421265e-02
1.558272242546081543e-01 -2.456630319356918335e-01 -7.473277300596237183e-02
1.847179085016250610e-01 -3.944741487503051758e-01 -8.759488910436630249e-02
2.091558873653411865e-01 -2.013608068227767944e-01 5.761554837226867676e-02
1.884675920009613037e-01 -3.541420698165893555e-01 -9.292878955602645874e-02
1.163540408015251160e-01 -3.303932547569274902e-01 -2.607639506459236145e-02
2.349586188793182373e-01 -2.046590745449066162e-01 1.537835970520973206e-02
1.846904605627059937e-01 -4.104655981063842773e-01 3.792907670140266418e-02
2.219532728195190430e-01 -3.229946196079254150e-01 5.119793117046356201e-02
1.963882595300674438e-01 -4.430968761444091797e-01 8.776837959885597229e-03
1.264724731445312500e-01 -2.297581732273101807e-01 2.499929070472717285e-02
2.097394317388534546e-01 -3.414429128170013428e-01 5.632320791482925415e-02
2.012607902288436890e-01 -4.554212093353271484e-01 -2.476270124316215515e-02
2.270063012838363647e-01 -3.957096636295318604e-01 1.296589709818363190e-02
1.239195987582206726e-01 -2.638856768608093262e-01 -4.313237965106964111e-02
1.181465238332748413e-01 -3.136664628982543945e-01 -3.767093271017074585e-02
2.326792180538177490e-01 -2.775455713272094727e-01 4.384272545576095581e-02
1.714967340230941772e-01 -4.555882811546325684e-01 -5.244432017207145691e-02
1.932092905044555664e-01 -3.786609172821044922e-01 -8.905897289514541626e-02
2.162547260522842407e-01 -3.340021967887878418e-01 -8.073924481868743896e-02
2.227038443088531494e-01 -1.963462829589843750e-01 -3.724378719925880432e-02
1.922414898872375488e-01 -2.203770726919174194e-01 6.936684250831604004e-02
1.797975152730941772e-01 -3.011726140975952148e-01 -9.222396463155746460e-02
1.406460702419281006e-01 -3.885723948478698730e-01 2.805777266621589661e-02
2.432363331317901611e-01 -2.549080848693847656e-01 1.636240258812904358e-02
1.673012375831604004e-01 -1.687277704477310181e-01 -4.098459333181381226e-02
2.409939020872116089e-01 -3.655005693435668945e-01 -2.570058777928352356e-02
2.383043467998504639e-01 -3.213520944118499756e-01 -5.174147710204124451e-02
1.580124050378799438e-01 -1.989686489105224609e-01 5.797564238309860229e-02
2.284588664770126343e-01 -4.059900045394897461e-01 -2.288176678121089935e-03
1.826406568288803101e-01 -2.549644112586975098e-01 7.361830770969390869e-02
1.683994829654693604e-01 -1.399007886648178101e-01 6.532065570354461670e-03
2.155887931585311890e-01 -4.217230081558227539e-01 -5.660890787839889526e-02
2.254761755466461182e-01 -2.670674622058868408e-01 -6.503939628601074219e-02
1.210056096315383911e-01 -3.387876451015472412e-01 1.448440365493297577e-02
2.419213503599166870e-01 -3.560314476490020752e-01 -3.020923584699630737e-02
1.637127101421356201e-01 -1.534535288810729980e-01 -2.232342027127742767e-02
2.149890363216400146e-01 -4.002102017402648926e-01 -6.972947716712951660e-02
2.426629364490509033e-01 -2.427149862051010132e-01 1.274371147155761719e-02
1.311165541410446167e-01 -2.013460695743560791e-01 -1.700015924870967865e-02
1.389535218477249146e-01 -2.107554078102111816e-01 4.258946329355239868e-02
1.196838021278381348e-01 -3.017695844173431396e-01 -4.191112518310546875e-02
2.018553316593170166e-01 -2.142348587512969971e-01 -6.569112837314605713e-02
1.518788486719131470e-01 -1.549600064754486084e-01 9.514976292848587036e-03
1.668803095817565918e-01 -1.923737376928329468e-01 6.047053635120391846e-02
1.805806010961532593e-01 -4.591309726238250732e-01 -7.295465096831321716e-03
2.356170117855072021e-01 -2.499528080224990845e-01 3.687694296240806580e-02
2.252386510372161865e-01 -4.201653599739074707e-01 -1.992735266685485840e-02
1.695756614208221436e-01 -3.815503120422363281e-01 -8.939792215824127197e-02
2.105091661214828491e-01 -4.191150665283203125e-01 -6.528475135564804077e-02
1.316663920879364014e-01 -2.809158861637115479e-01 -6.204728037118911743e-02
1.262438744306564331e-01 -2.507001161575317383e-01 -4.291941225528717041e-02
1.945816129446029663e-01 -4.520810246467590332e-01 -1.844178885221481323e-03
2.319820225238800049e-01 -1.941645890474319458e-01 1.484988257288932800e-02
1.169353574514389038e-01 -3.402334749698638916e-01 -5.702356807887554169e-03
2.221270203590393066e-01 -2.043413370847702026e-01 -4.359730333089828491e-02
1.992586702108383179e-01 -3.513809144496917725e-01 -9.008912742137908936e-02
2.191812396049499512e-01 -3.831376433372497559e-01 -7.099193334579467773e-02
2.046469151973724365e-01 -1.835029125213623047e-01 5.390428006649017334e-02
1.944282203912734985e-01 -4.541257023811340332e-01 -4.936095327138900757e-02
1.519049257040023804e-01 -3.584908843040466309e-01 5.075833201408386230e-02
1.721010804176330566e-01 -1.944714486598968506e-01 -5.987372621893882751e-02
2.095784097909927368e-01 -1.615669876337051392e-01 -2.303241938352584839e-02
2.143170237541198730e-01 -4.400796294212341309e-01 -2.024878188967704773e-02
2.313413023948669434e-01 -2.049074023962020874e-01 2.895674481987953186e-02
2.325146496295928955e-01 -3.503688275814056396e-01 -5.978371575474739075e-02
1.429844796657562256e-01 -3.080530166625976562e-01 5.530826002359390259e-02
1.220284700393676758e-01 -2.808544337749481201e-01 -4.406984522938728333e-02
2.461865842342376709e-01 -2.738122045993804932e-01 -1.896867528557777405e-02
1.365296095609664917e-01 -1.820998191833496094e-01 7.834104821085929871e-03
2.349558621644973755e-01 -3.910443782806396484e-01 -2.977196499705314636e-02
1.985542476177215576e-01 -1.718887537717819214e-01 5.159562081098556519e-02
1.662792563438415527e-01 -4.598363041877746582e-01 -1.792745850980281830e-02
1.862002313137054443e-01 -4.166877865791320801e-01 -8.046822249889373779e-02
1.199595183134078979e-01 -2.749661803245544434e-01 1.981366798281669617e-02
2.088819742202758789e-01 -2.425535172224044800e-01 -7.241059839725494385e-02
1.911075860261917114e-01 -2.662922143936157227e-01 7.300271838903427124e-02
1.616679280996322632e-01 -1.795700639486312866e-01 -4.624782875180244446e-02
2.401148229837417603e-01 -3.398214578628540039e-01 1.710340380668640137e-02
1.578917503356933594e-01 -1.690921634435653687e-01 -3.462658822536468506e-02
1.425879597663879395e-01 -2.063666582107543945e-01 -4.634694382548332214e-02
2.378058135509490967e-01 -3.824465870857238770e-01 -1.888927072286605835e-02
1.421750187873840332e-01 -1.892888545989990234e-01 3.619386255741119385e-02
1.837534308433532715e-01 -2.896381914615631104e-01 7.269560545682907104e-02
1.598190665245056152e-01 -4.248783886432647705e-01 2.275498583912849426e-02
1.338863968849182129e-01 -4.153290390968322754e-01 -1.058375556021928787e-02
1.153361126780509949e-01 -2.979154288768768311e-01 -1.322161406278610229e-03
1.541505008935928345e-01 -4.271498918533325195e-01 -6.597642600536346436e-02
1.310821473598480225e-01 -2.253744155168533325e-01 3.449675813317298889e-02
1.200323328375816345e-01 -2.529793679714202881e-01 1.321879588067531586e-02
1.955546140670776367e-01 -1.400479078292846680e-01 -1.431600190699100494e-03
1.609048247337341309e-01 -2.830950915813446045e-01 6.887871026992797852e-02
1.749388426542282104e-01 -3.361102640628814697e-01 -9.391653537750244141e-02
2.038517594337463379e-01 -1.525387614965438843e-01 3.136180341243743896e-02
1.630789041519165039e-01 -2.320489883422851562e-01 6.799804419279098511e-02
1.277502477169036865e-01 -3.607380092144012451e-01 2.160264179110527039e-02
1.739404797554016113e-01 -4.498931169509887695e-01 5.932426080107688904e-03
1.320013552904129028e-01 -2.467265874147415161e-01 4.229078069329261780e-02
1.380486637353897095e-01 -1.954700201749801636e-01 -3.061753325164318085e-02
1.165438145399093628e-01 -3.040736615657806396e-01 6.961146369576454163e-03
2.232851088047027588e-01 -4.131155610084533691e-01 -4.860572144389152527e-02
1.500304639339447021e-01 -2.005987912416458130e-01 -5.102939531207084656e-02
1.826268434524536133e-01 -2.035391032695770264e-01 6.687970459461212158e-02
2.360333651304244995e-01 -2.237783074378967285e-01 -2.936945669353008270e-02
2.320816218852996826e-01 -3.092083334922790527e-01 4.173121228814125061e-02
1.384728103876113892e-01 -2.630307674407958984e-01 5.281618237495422363e-02
1.772631853818893433e-01 -3.172596395015716553e-01 -9.350702911615371704e-02
2.291767597198486328e-01 -1.836107671260833740e-01 3.612522035837173462e-03
1.366863548755645752e-01 -3.082559108734130859e-01 -7.239496707916259766e-02
2.287602722644805908e-01 -3.877373337745666504e-01 -5.442847684025764465e-02
1.442951261997222900e-01 -4.338163733482360840e-01 -4.438417404890060425e-02
1.545781046152114868e-01 -2.997204363346099854e-01 -8.552531152963638306e-02
2.170468568801879883e-01 -3.731504082679748535e-01 3.993901237845420837e-02
2.162065953016281128e-01 -4.114860892295837402e-01 -6.272711604833602905e-02
2.051180452108383179e-01 -3.500134348869323730e-01 5.652350932359695435e-02
2.416158467531204224e-01 -2.286653816699981689e-01 2.418519929051399231e-03
1.730733960866928101e-01 -2.655893266201019287e-01 -8.581096678972244263e-02
2.231391072273254395e-01 -2.799276709556579590e-01 5.552088469266891479e-02
1.361076831817626953e-01 -2.818546295166015625e-01 5.040035024285316467e-02
2.143633067607879639e-01 -3.592685759067535400e-01 4.768216609954833984e-02
1.391356885433197021e-01 -1.840303540229797363e-01 2.458886802196502686e-02
2.240756601095199585e-01 -2.554623484611511230e-01 -6.354756653308868408e-02
1.168244108557701111e-01 -2.762978374958038330e-01 -2.255147695541381836e-02
1.632225066423416138e-01 -3.286796808242797852e-01 6.401502341032028198e-02
1.308036148548126221e-01 -1.979777067899703979e-01 -7.988368161022663116e-03
2.444227039813995361e-01 -2.850749790668487549e-01 -3.206473588943481445e-02
1.255598515272140503e-01 -3.932794332504272461e-01 -2.166780084371566772e-02
1.347406655550003052e-01 -4.165429770946502686e-01 -3.885551542043685913e-02
1.204048395156860352e-01 -3.197301924228668213e-01 1.869556121528148651e-02
1.205834746360778809e-01 -3.581303656101226807e-01 -3.714291006326675415e-02
1.827141046524047852e-01 -1.671591401100158691e-01 -4.330965876579284668e-02
1.711361855268478394e-01 -2.779664993286132812e-01 7.230278849601745605e-02
1.522758156061172485e-01 -3.735161423683166504e-01 -8.334743231534957886e-02
2.395368516445159912e-01 -3.741831481456756592e-01 -1.236356142908334732e-02
1.962040364742279053e-01 -4.187564849853515625e-01 -7.636673003435134888e-02
1.701903492212295532e-01 -4.628140628337860107e-01 -3.086613491177558899e-02
1.879758238792419434e-01 -1.955646723508834839e-01 -6.113132461905479431e-02
1.254222393035888672e-01 -2.391778826713562012e-01 -3.462551534175872803e-02
1.291841119527816772e-01 -2.045998275279998779e-01 1.216619461774826050e-02
2.414039373397827148e-01 -3.290877938270568848e-01 -4.309006780385971069e-02
2.119641453027725220e-01 -4.302012920379638672e-01 6.264759227633476257e-03
1.225610002875328064e-01 -3.184518814086914062e-01 -5.070154368877410889e-02
2.023166716098785400e-01 -4.463869929313659668e-01 -5.119540169835090637e-02
2.394526600837707520e-01 -2.232692837715148926e-01 -1.533222198486328125e-02
1.458772718906402588e-01 -3.831482231616973877e-01 -7.645377516746520996e-02
1.309518516063690186e-01 -2.691503167152404785e-01 4.330273717641830444e-02
1.302684247493743896e-01 -3.495061695575714111e-01 -6.363973766565322876e-02
2.234109938144683838e-01 -4.231899976730346680e-01 -3.181833773851394653e-02
1.242923289537429810e-01 -3.691363036632537842e-01 -4.544733464717864990e-02
2.408512979745864868e-01 -3.102584481239318848e-01 2.476189658045768738e-02
1.910942196846008301e-01 -2.082651853561401367e-01 6.721752882003784180e-02
2.146399319171905518e-01 -2.262947261333465576e-01 5.957196652889251709e-02
2.450616061687469482e-01 -3.067816495895385742e-01 -3.186883777379989624e-02
1.709944754838943481e-01 -1.569009125232696533e-01 4.307910427451133728e-02
1.688763201236724854e-01 -3.606016635894775391e-01 5.764457583427429199e-02
1.540482044219970703e-01 -3.513075113296508789e-01 -8.686760812997817993e-02
1.270452588796615601e-01 -3.808999657630920410e-01 -4.751254990696907043e-02
2.465742677450180054e-01 -2.995340824127197266e-01 4.941776394844055176e-03
1.452328413724899292e-01 -4.282125532627105713e-01 3.376401029527187347e-03
1.997162848711013794e-01 -3.233740329742431641e-01 6.516100466251373291e-02
2.234827280044555664e-01 -3.029806911945343018e-01 -7.305350899696350098e-02
2.368302643299102783e-01 -2.833668887615203857e-01 -5.179854854941368103e-02
1.874444633722305298e-01 -3.354603648185729980e-01 -9.366589784622192383e-02
2.453389316797256470e-01 -3.381602764129638672e-01 -1.656806282699108124e-02
1.858956515789031982e-01 -2.618357539176940918e-01 -8.530772477388381958e-02
1.919901520013809204e-01 -2.701258659362792969e-01 -8.617062121629714966e-02
1.368832737207412720e-01 -1.837623715400695801e-01 -1.106547564268112183e-02
1.842280924320220947e-01 -2.085393071174621582e-01 -6.780745089054107666e-02
2.041718959808349609e-01 -4.505618214607238770e-01 -3.997675701975822449e-02
1.820451766252517700e-01 -4.476903676986694336e-01 -6.272497773170471191e-02
1.348529309034347534e-01 -2.551088929176330566e-01 -5.926123633980751038e-02
2.295709848403930664e-01 -1.914015710353851318e-01 -1.655227318406105042e-02
1.836953610181808472e-01 -4.634752869606018066e-01 -2.090229652822017670e-02
2.463866770267486572e-01 -2.708921432495117188e-01 3.143889829516410828e-03
1.176193132996559143e-01 -2.576899826526641846e-01 -2.938036341220140457e-03
1.525449305772781372e-01 -1.758269369602203369e-01 4.202821850776672363e-02
2.357196509838104248e-01 -3.508260846138000488e-01 2.302568405866622925e-02
2.432087212800979614e-01 -3.428483307361602783e-01 -3.198203444480895996e-02
1.939015984535217285e-01 -1.472986787557601929e-01 3.374890238046646118e-02
2.020645439624786377e-01 -3.942389488220214844e-01 4.105012118816375732e-02
2.297575771808624268e-01 -4.072792232036590576e-01 -1.143126375973224640e-02
2.391544282436370850e-01 -2.171557247638702393e-01 5.466731265187263489e-03
2.309665530920028687e-01 -3.654218316078186035e-01 2.529734373092651367e-02
-2.483997642993927002e-01 8.068506717681884766e-01 -2.811203002929687500e-01
-2.082332074642181396e-01 6.133267283439636230e-01 2.082866728305816650e-01
-2.071865350008010864e-01 7.924318909645080566e-01 9.397974610328674316e-02
-3.694883882999420166e-01 4.063213467597961426e-01 -2.453161776065826416e-02
-2.118885666131973267e-01 5.471993684768676758e-01 -2.527684271335601807e-01
-3.501871824264526367e-01 7.136607170104980469e-01 1.967958211898803711e-01
-2.088162750005722046e-01 5.473322272300720215e-01 2.013952136039733887e-01
-2.758126854896545410e-01 4.915021359920501709e-01 3.973168134689331055e-01
-3.434323668479919434e-01 6.835227012634277344e-01 2.702583372592926025e-01
-3.642941713333129883e-01 6.458643078804016113e-01 -3.916531801223754883e-02
-2.764898240566253662e-01 9.515855312347412109e-01 -3.618722036480903625e-02
-3.298456072807312012e-01 2.372092008590698242e-01 1.891337335109710693e-01
-3.507786095142364502e-01 2.933407723903656006e-01 -1.444603055715560913e-01
-3.409386575222015381e-01 8.051857948303222656e-01 -5.151451006531715393e-02
-2.043282836675643921e-01 4.234935641288757324e-01 -6.678292155265808105e-02
-1.996060013771057129e-01 6.653893589973449707e-01 -1.417698413133621216e-01
-2.125508785247802734e-01 4.172590076923370361e-01 -1.867874413728713989e-01
-3.551053404808044434e-01 4.310884475708007812e-01 -2.107467949390411377e-01
-2.194074690341949463e-01 6.684346199035644531e-01 2.687370777130126953e-01
-2.179001569747924805e-01 8.440698385238647461e-01 -1.138623133301734924e-01
-3.717789351940155029e-01 4.591449797153472900e-01 6.615716964006423950e-03
-2.361247837543487549e-01 8.986293077468872070e-01 1.462725847959518433e-01
-2.844048440456390381e-01 3.078526854515075684e-01 -3.315812647342681885e-01
-3.411366343498229980e-01 7.273597121238708496e-01 -1.872386038303375244e-01
-1.951059401035308838e-01 6.451168060302734375e-01 4.355911165475845337e-02
-2.469448894262313843e-01 2.511208057403564453e-01 1.447210907936096191e-01
-2.010191082954406738e-01 7.410910725593566895e-01 -9.064619243144989014e-02
-3.673907518386840820e-01 3.892996013164520264e-01 -5.802451819181442261e-02
-3.512797653675079346e-01 6.387470364570617676e-01 2.511957287788391113e-01
-3.501471579074859619e-01 7.195020914077758789e-01 -1.250145882368087769e-01
-2.174695283174514771e-01 7.841532826423645020e-01 -1.981944888830184937e-01
-3.134466409683227539e-01 8.297572731971740723e-01 -2.037002444267272949e-01
-2.032651752233505249e-01 6.533262133598327637e-01 1.638085842132568359e-01
-1.947329640388488770e-01 6.639074087142944336e-01 5.033585242927074432e-03
-2.253499776124954224e-01 3.341941535472869873e-01 1.409857571125030518e-01
-2.237027734518051147e-01 8.917123079299926758e-01 2.132683433592319489e-02
-2.310606688261032104e-01 7.229628562927246094e-01 -2.988761961460113525e-01
-3.002409636974334717e-01 9.274301528930664062e-01 -3.955329209566116333e-02
-3.615267872810363770e-01 4.909541308879852295e-01 -1.702623516321182251e-01
-2.138676494359970093e-01 3.807997703552246094e-01 -1.512628048658370972e-01
-3.420311510562896729e-01 6.711503863334655762e-01 -2.305927425622940063e-01
-1.979053914546966553e-01 5.424615740776062012e-01 7.883998006582260132e-02
-1.987221986055374146e-01 7.391068935394287109e-01 7.467359304428100586e-03
-3.079754412174224854e-01 9.072453379631042480e-01 1.320331245660781860e-01
-3.636388182640075684e-01 4.652726948261260986e-01 -1.492384374141693115e-01
-3.533534109592437744e-01 5.177250504493713379e-01 2.697018384933471680e-01
-3.508197665214538574e-01 7.506068348884582520e-01 1.243784278631210327e-01
-3.493990898132324219e-01 4.153554439544677734e-01 -2.403418570756912231e-01
-3.186578750610351562e-01 8.919697999954223633e-01 -1.583177410066127777e-02
-2.315336614847183228e-01 3.771095275878906250e-01 2.328837960958480835e-01
-2.808358967304229736e-01 1.850384473800659180e-01 -1.751679182052612305e-01
-3.339507579803466797e-01 6.640714406967163086e-01 3.227112889289855957e-01
-2.424701750278472900e-01 2.738866508007049561e-01 1.610385179519653320e-01
-3.308714628219604492e-01 2.575253248214721680e-01 2.146238535642623901e-01
-2.215538471937179565e-01 8.558582067489624023e-01 1.336469501256942749e-01
-3.200500905513763428e-01 8.524374961853027344e-01 -1.339817494153976440e-01
-2.000128179788589478e-01 6.371212601661682129e-01 -1.571576595306396484e-01
-3.320733606815338135e-01 1.891924738883972168e-01 -5.898416787385940552e-02
-2.452455461025238037e-01 5.560144186019897461e-01 -3.719597458839416504e-01
-3.240543007850646973e-01 8.601121306419372559e-01 1.529153436422348022e-01
-3.554502129554748535e-01 3.276963829994201660e-01 -1.457141935825347900e-01
-2.202891260385513306e-01 8.728966712951660156e-01 -5.622871592640876770e-02
-3.214580714702606201e-01 3.000670075416564941e-01 2.844482362270355225e-01
-3.432509005069732666e-01 7.779723405838012695e-01 1.626219600439071655e-01
-2.047143876552581787e-01 6.859732866287231445e-01 1.673173606395721436e-01
-2.877196073532104492e-01 3.369676470756530762e-01 -3.504157066345214844e-01
-2.474682778120040894e-01 2.141076922416687012e-01 3.065236657857894897e-02
-2.466317415237426758e-01 5.190151333808898926e-01 -3.726471066474914551e-01
-3.356889188289642334e-01 2.987745702266693115e-01 -2.384516596794128418e-01
-2.169878184795379639e-01 5.696160793304443359e-01 -2.828366756439208984e-01
-3.678683340549468994e-01 6.162481307983398438e-01 4.684129729866981506e-02
-2.151499092578887939e-01 7.821744680404663086e-01 1.862484216690063477e-01
-3.408038616180419922e-01 2.901303768157958984e-01 -2.065864354372024536e-01
-2.513448894023895264e-01 2.681726217269897461e-01 -2.391657382249832153e-01
-2.147257030010223389e-01 5.596247315406799316e-01 2.438647598028182983e-01
-2.013078480958938599e-01 7.225506305694580078e-01 1.059531569480895996e-01
-3.037703633308410645e-01 2.374291419982910156e-01 -2.592733204364776611e-01
-2.011111527681350708e-01 4.991957545280456543e-01 -1.353015601634979248e-01
-3.605486154556274414e-01 3.592125773429870605e-01 -1.273176521062850952e-01
-2.035959064960479736e-01 5.697947740554809570e-01 1.640689074993133545e-01
-2.636876106262207031e-01 6.877936124801635742e-01 -3.686350286006927490e-01
-3.461015522480010986e-01 5.524242520332336426e-01 -2.620055675506591797e-01
-3.311382234096527100e-01 2.121116518974304199e-01 -1.427613049745559692e-01
-3.454993963241577148e-01 5.382497310638427734e-01 3.079037070274353027e-01
-1.974656730890274048e-01 5.945469737052917480e-01 -1.277004182338714600e-01
-3.667104244232177734e-01 4.315759241580963135e-01 -1.042128205299377441e-01
-1.965530365705490112e-01 6.576942801475524902e-01 7.366042584180831909e-02
-2.306501716375350952e-01 8.246560692787170410e-01 -2.175412625074386597e-01
-3.454807400703430176e-01 6.990981101989746094e-01 2.466776520013809204e-01
-2.312207818031311035e-01 2.846240997314453125e-01 -1.454913914203643799e-01
-2.073667645454406738e-01 3.932462036609649658e-01 -1.429110765457153320e-02
-3.369878232479095459e-01 5.727043747901916504e-01 3.374870121479034424e-01
-2.132314145565032959e-01 4.247425794601440430e-01 1.565964072942733765e-01
-2.374075949192047119e-01 7.237179279327392578e-01 3.207913339138031006e-01
-1.960357874631881714e-01 6.976176500320434570e-01 -2.390171959996223450e-02
-3.257909417152404785e-01 8.027612566947937012e-01 -1.848587095737457275e-01
-2.395844608545303345e-01 3.135644793510437012e-01 2.046299725770950317e-01
-2.100411653518676758e-01 3.759087324142456055e-01 1.156463287770748138e-02
