-2.094098478555679321e-01 8.813633769750595093e-02 5.099310874938964844e-01
-1.746294647455215454e-01 8.940251171588897705e-02 6.199237704277038574e-01
1.186097264289855957e-01 3.764694184064865112e-02 5.354216098785400391e-01
6.109239906072616577e-02 2.396994456648826599e-02 7.200737595558166504e-01
3.484671413898468018e-01 6.473600119352340698e-02 6.512197852134704590e-01
-1.645420640707015991e-01 2.600503712892532349e-02 6.305699944496154785e-01
3.267361819744110107e-01 4.054292291402816772e-02 6.948180794715881348e-01
2.979524433612823486e-01 6.210886687040328979e-02 7.093209624290466309e-01
-2.057541348040103912e-02 9.472298622131347656e-02 5.608091950416564941e-01
1.245087981224060059e-01 8.452880382537841797e-02 6.685597896575927734e-01
-3.406014740467071533e-01 7.732833921909332275e-02 5.996525883674621582e-01
-2.495393007993698120e-01 3.222031146287918091e-02 6.101197600364685059e-01
-1.535064429044723511e-01 7.863413542509078979e-02 6.900744438171386719e-01
-1.901878863573074341e-01 4.592441022396087646e-02 7.357446551322937012e-01
-3.649941682815551758e-01 4.827320948243141174e-02 6.007692217826843262e-01
-2.976433001458644867e-02 2.466627582907676697e-02 7.178872823715209961e-01
1.177880465984344482e-01 3.179194778203964233e-02 5.621932744979858398e-01
-3.540585637092590332e-01 6.483055651187896729e-02 5.238068699836730957e-01
1.160150170326232910e-01 2.239812910556793213e-02 6.500399112701416016e-01
1.036648750305175781e-01 7.910696417093276978e-02 7.022668719291687012e-01
-2.147534638643264771e-01 7.962206751108169556e-02 6.682823300361633301e-01
2.242632210254669189e-01 7.606743276119232178e-02 6.875242590904235840e-01
2.634020149707794189e-01 3.201563656330108643e-02 6.266855597496032715e-01
1.341712772846221924e-01 8.860116451978683472e-02 5.401642322540283203e-01
-1.966740936040878296e-01 8.781189471483230591e-02 6.248649954795837402e-01
-2.651966810226440430e-01 5.331876128911972046e-02 5.000693202018737793e-01
-7.663838565349578857e-02 8.752337843179702759e-02 6.583273410797119141e-01
-1.935942322015762329e-01 8.017526566982269287e-02 4.756629765033721924e-01
1.074788644909858704e-01 5.960753932595252991e-02 4.823390245437622070e-01
-1.146294102072715759e-01 2.794842794537544250e-02 5.795144438743591309e-01
-2.196428328752517700e-01 3.051211312413215637e-02 6.022380590438842773e-01
-1.565364599227905273e-01 9.062926471233367920e-02 6.146922111511230469e-01
5.423174798488616943e-02 8.106242120265960693e-02 6.976225376129150391e-01
2.029435783624649048e-01 8.240522444248199463e-02 6.554639339447021484e-01
-1.064251959323883057e-01 6.665544956922531128e-02 7.353422641754150391e-01
-2.368025779724121094e-01 3.172476589679718018e-02 6.675658822059631348e-01
6.907689571380615234e-02 7.046978175640106201e-02 7.364743947982788086e-01
-3.037986457347869873e-01 4.195088148117065430e-02 5.619412660598754883e-01
1.607895791530609131e-01 8.438843488693237305e-02 6.585335135459899902e-01
2.166713923215866089e-01 6.946744024753570557e-02 5.115936398506164551e-01
-2.681358754634857178e-01 4.334846511483192444e-02 5.342488288879394531e-01
-1.875392943620681763e-01 2.724012173712253571e-02 6.300281882286071777e-01
-2.174485474824905396e-01 2.940929308533668518e-02 6.202624440193176270e-01
-1.673994511365890503e-01 8.743976801633834839e-02 6.390316486358642578e-01
-1.944022178649902344e-01 9.168627858161926270e-02 5.704402923583984375e-01
3.036568462848663330e-01 7.532738149166107178e-02 6.190403699874877930e-01
1.303340494632720947e-01 3.454320132732391357e-02 5.512729883193969727e-01
1.378524750471115112e-01 4.417478293180465698e-02 5.176315903663635254e-01
-3.684518858790397644e-02 2.151962742209434509e-02 6.526943445205688477e-01
1.507160067558288574e-01 5.882626771926879883e-02 4.927137494087219238e-01
1.258711069822311401e-01 8.487719297409057617e-02 5.117754936218261719e-01
-2.855693101882934570e-01 3.528968244791030884e-02 6.352170705795288086e-01
2.698229849338531494e-01 5.510903149843215942e-02 5.389586687088012695e-01
1.627438813447952271e-01 8.208296447992324829e-02 5.153631567955017090e-01
1.320580840110778809e-01 2.272504568099975586e-02 6.542233824729919434e-01
-3.757497668266296387e-01 7.122981548309326172e-02 5.733352899551391602e-01
-2.290446907281875610e-01 3.385200351476669312e-02 6.914328336715698242e-01
5.994091182947158813e-02 7.982013374567031860e-02 4.791917204856872559e-01
-6.832499802112579346e-02 9.281758964061737061e-02 6.127364039421081543e-01
-4.404255002737045288e-02 6.925500184297561646e-02 7.368705272674560547e-01
4.930593073368072510e-03 5.053698271512985229e-02 4.827303290367126465e-01
2.292915135622024536e-01 7.849659025669097900e-02 6.708346009254455566e-01
-2.976543009281158447e-01 4.263196885585784912e-02 6.796409487724304199e-01
-1.436389386653900146e-01 3.863066434860229492e-02 5.219162106513977051e-01
-2.976030111312866211e-01 3.736329078674316406e-02 5.996400117874145508e-01
2.364497072994709015e-02 2.927921712398529053e-02 5.624382495880126953e-01
1.186223179101943970e-01 8.068537712097167969e-02 4.951389729976654053e-01
-3.926152735948562622e-02 2.551518753170967102e-02 5.893599987030029297e-01
-2.824700772762298584e-01 8.022051304578781128e-02 6.333124637603759766e-01
3.067094273865222931e-02 2.985803782939910889e-02 7.494338154792785645e-01
-2.035289704799652100e-01 4.711186513304710388e-02 5.014498233795166016e-01
-5.419023334980010986e-02 9.211819618940353394e-02 6.226049661636352539e-01
-5.369547754526138306e-02 2.183164283633232117e-02 6.510682702064514160e-01
-3.734343126416206360e-02 7.507370412349700928e-02 7.202439904212951660e-01
-7.421136833727359772e-03 9.014292061328887939e-02 5.033165812492370605e-01
-1.039593592286109924e-01 8.036413788795471191e-02 4.671093821525573730e-01
-1.564537733793258667e-01 2.684316411614418030e-02 6.859564781188964844e-01
1.552095860242843628e-01 8.842274546623229980e-02 6.171467900276184082e-01
1.587093323469161987e-01 2.604773268103599548e-02 6.164247989654541016e-01
-3.804933279752731323e-02 3.625974804162979126e-02 7.585024833679199219e-01
1.202964335680007935e-01 2.346475422382354736e-02 6.311859488487243652e-01
1.116860657930374146e-01 5.002024024724960327e-02 7.689777612686157227e-01
1.001301109790802002e-01 8.685328066349029541e-02 6.572452783584594727e-01
1.247145533561706543e-01 2.227113023400306702e-02 6.691750884056091309e-01
2.071802131831645966e-02 2.234301716089248657e-02 6.239430308341979980e-01
1.214321404695510864e-01 7.564096897840499878e-02 7.146983146667480469e-01
-1.387388072907924652e-02 2.157072722911834717e-02 6.842926740646362305e-01
2.305544354021549225e-02 3.221372514963150024e-02 5.459744930267333984e-01
1.602757722139358521e-01 2.690432034432888031e-02 7.248385548591613770e-01
-5.584058910608291626e-02 9.384746104478836060e-02 5.988268256187438965e-01
1.348149962723255157e-02 3.857804834842681885e-02 5.175096988677978516e-01
2.381758242845535278e-01 8.025201410055160522e-02 5.524922609329223633e-01
-4.724867641925811768e-02 9.411955624818801880e-02 5.366573333740234375e-01
2.189733386039733887e-01 3.727879375219345093e-02 7.470943927764892578e-01
-1.682291328907012939e-01 5.668482184410095215e-02 7.389208078384399414e-01
-2.989231348037719727e-01 3.921233117580413818e-02 5.791005492210388184e-01
-2.680244743824005127e-01 3.339802473783493042e-02 6.243158578872680664e-01
-2.379905879497528076e-01 8.895544707775115967e-02 5.820041298866271973e-01
-1.644259244203567505e-01 9.181952476501464844e-02 5.261808037757873535e-01
2.532714903354644775e-01 8.173446357250213623e-02 6.016945838928222656e-01
1.764223426580429077e-01 3.153268620371818542e-02 5.806086063385009766e-01
2.396937608718872070e-01 8.210863173007965088e-02 6.286759376525878906e-01
1.993736475706100464e-01 3.240145742893218994e-02 5.843081474304199219e-01
1.826774179935455322e-01 8.690532296895980835e-02 6.171151995658874512e-01
1.001196503639221191e-01 2.187076956033706665e-02 6.549493670463562012e-01
-2.646827101707458496e-01 8.332954347133636475e-02 6.237430572509765625e-01
1.438684016466140747e-01 3.269069641828536987e-02 5.638657212257385254e-01
2.252970784902572632e-01 2.691140770912170410e-02 6.673589348793029785e-01
2.837418019771575928e-01 7.453399151563644409e-02 6.621400713920593262e-01
2.578485012054443359e-01 7.631658762693405151e-02 5.481156110763549805e-01
1.244757473468780518e-01 2.595433965325355530e-02 6.041484475135803223e-01
1.850534081459045410e-01 8.448958396911621094e-02 6.464770436286926270e-01
-2.031793594360351562e-01 5.407145246863365173e-02 4.839006662368774414e-01
-8.672598749399185181e-02 9.340441226959228516e-02 6.011136770248413086e-01
7.005762308835983276e-02 9.277851134538650513e-02 5.573575496673583984e-01
-2.524822056293487549e-01 8.846542239189147949e-02 5.664154291152954102e-01
-7.670903205871582031e-02 7.910625636577606201e-02 7.015023231506347656e-01
1.891352534294128418e-01 6.365945935249328613e-02 7.408188581466674805e-01
-8.872966468334197998e-02 8.516341447830200195e-02 6.710739731788635254e-01
-3.403855562210083008e-01 7.915817946195602417e-02 5.638017058372497559e-01
3.522191941738128662e-01 5.907895416021347046e-02 5.998992919921875000e-01
-1.251052170991897583e-01 6.857031583786010742e-02 7.277283668518066406e-01
2.861308865249156952e-02 9.397346526384353638e-02 5.823336839675903320e-01
9.539140760898590088e-02 2.548305690288543701e-02 6.003924012184143066e-01
3.082502782344818115e-01 4.450691863894462585e-02 5.862769484519958496e-01
-1.978489309549331665e-01 3.560835123062133789e-02 5.485456585884094238e-01
3.754010796546936035e-02 9.138743579387664795e-02 5.216538906097412109e-01
-3.327941000461578369e-01 4.189166426658630371e-02 6.017935276031494141e-01
3.057278096675872803e-01 3.477585315704345703e-02 6.586762070655822754e-01
-1.014159992337226868e-01 4.353218525648117065e-02 4.997971355915069580e-01
-1.878804862499237061e-01 4.200311005115509033e-02 5.158492326736450195e-01
1.536850929260253906e-01 3.819405287504196167e-02 5.415070652961730957e-01
-3.140610754489898682e-01 3.878756985068321228e-02 6.254444122314453125e-01
-1.898335665464401245e-02 3.458491712808609009e-02 5.324465632438659668e-01
5.787629634141921997e-02 8.818962424993515015e-02 6.543324589729309082e-01
9.028083831071853638e-02 6.490428745746612549e-02 4.754442572593688965e-01
2.624247670173645020e-01 3.035589307546615601e-02 6.892663240432739258e-01
-7.248682528734207153e-02 9.448985010385513306e-02 5.811371803283691406e-01
-2.427401691675186157e-01 8.833197504281997681e-02 5.326290726661682129e-01
2.755334675312042236e-01 7.776672393083572388e-02 6.406116485595703125e-01
-1.044639870524406433e-01 9.440153837203979492e-02 5.566968321800231934e-01
-2.800053656101226807e-01 8.468162268400192261e-02 5.988517403602600098e-01
2.108995169401168823e-01 2.749721892178058624e-02 7.066195607185363770e-01
-3.317107558250427246e-01 6.740284711122512817e-02 5.086757540702819824e-01
5.875011906027793884e-03 7.314641028642654419e-02 7.287573814392089844e-01
-1.504914164543151855e-01 4.519476741552352905e-02 7.464652657508850098e-01
1.649525314569473267e-01 5.924265831708908081e-02 7.535912394523620605e-01
2.834871113300323486e-01 7.812685519456863403e-02 5.990241765975952148e-01
6.756454706192016602e-02 5.737467482686042786e-02 7.637890577316284180e-01
-1.755339652299880981e-01 4.671657830476760864e-02 4.977154731750488281e-01
-3.435102105140686035e-01 4.484761133790016174e-02 6.375489830970764160e-01
1.853335946798324585e-01 2.640675008296966553e-02 7.110451459884643555e-01
8.706145733594894409e-02 5.709360912442207336e-02 7.636228203773498535e-01
-1.232894584536552429e-01 8.804646134376525879e-02 4.903026223182678223e-01
-6.466180831193923950e-02 6.588725000619888306e-02 7.426955699920654297e-01
2.457739785313606262e-03 2.162595838308334351e-02 6.370389461517333984e-01
-1.361680030822753906e-01 9.379272907972335815e-02 5.593605041503906250e-01
-2.698344886302947998e-01 7.701385021209716797e-02 4.898164570331573486e-01
-1.636990904808044434e-01 8.112664520740509033e-02 4.730342626571655273e-01
-1.076419427990913391e-01 8.717844635248184204e-02 4.854851663112640381e-01
-1.080306712538003922e-02 2.331716567277908325e-02 6.106661558151245117e-01
-1.071655452251434326e-01 9.385716915130615234e-02 5.860431194305419922e-01
2.496811747550964355e-01 2.992874383926391602e-02 6.371062397956848145e-01
-2.618518471717834473e-01 3.460880368947982788e-02 5.898226499557495117e-01
-2.427743226289749146e-01 7.996506989002227783e-02 6.556133031845092773e-01
-9.182072430849075317e-02 2.899817563593387604e-02 5.672434568405151367e-01
-4.731831140816211700e-03 2.113282680511474609e-02 6.551889181137084961e-01
3.174925744533538818e-01 6.722662597894668579e-02 6.776554584503173828e-01
4.952621459960937500e-02 7.454507052898406982e-02 7.242314815521240234e-01
-8.185973763465881348e-02 9.460531175136566162e-02 5.525232553482055664e-01
-3.365981578826904297e-01 7.943808287382125854e-02 5.797309279441833496e-01
-3.907205536961555481e-02 9.467856585979461670e-02 5.517832636833190918e-01
2.524630725383758545e-01 3.833447396755218506e-02 7.379890680313110352e-01
-3.171534836292266846e-01 5.232936888933181763e-02 5.235549807548522949e-01
-1.788238883018493652e-01 2.762703225016593933e-02 6.104766130447387695e-01
-2.987740635871887207e-01 7.878908514976501465e-02 6.309019923210144043e-01
1.558909118175506592e-01 4.325402528047561646e-02 5.246692299842834473e-01
2.968080937862396240e-01 3.831518813967704773e-02 6.070102453231811523e-01
-3.582926094532012939e-01 7.583227753639221191e-02 5.663093328475952148e-01
6.133320927619934082e-02 8.580570667982101440e-02 6.708697080612182617e-01
2.159785628318786621e-01 7.242986559867858887e-02 7.072237730026245117e-01
-1.417343318462371826e-01 2.728242427110671997e-02 5.940527915954589844e-01
-1.633628308773040771e-01 9.296421706676483154e-02 5.664849877357482910e-01
-4.058475792407989502e-02 3.125360980629920959e-02 5.492483973503112793e-01
-3.853084519505500793e-02 9.257489442825317383e-02 6.184024214744567871e-01
-1.438323855400085449e-01 2.488615736365318298e-02 6.624794602394104004e-01
-2.726837694644927979e-01 6.803537905216217041e-02 6.859878301620483398e-01
-1.157233584672212601e-02 4.262304306030273438e-02 5.022404193878173828e-01
1.652325540781021118e-01 3.018102422356605530e-02 7.403945326805114746e-01
-6.292755156755447388e-02 9.470474720001220703e-02 5.523595809936523438e-01
1.495579183101654053e-01 6.562082469463348389e-02 7.425542473793029785e-01
2.271711826324462891e-01 8.418615162372589111e-02 5.898626446723937988e-01
-6.060735136270523071e-02 3.873811289668083191e-02 7.589285373687744141e-01
2.979805506765842438e-02 9.215139597654342651e-02 6.194604039192199707e-01
-2.168211713433265686e-02 2.215070649981498718e-02 6.289255619049072266e-01
1.852442622184753418e-01 6.477503478527069092e-02 4.988876879215240479e-01
-1.145797371864318848e-01 4.108104854822158813e-02 5.090461969375610352e-01
3.775741159915924072e-02 5.203439667820930481e-02 4.827439785003662109e-01
-2.856700420379638672e-01 4.216241836547851562e-02 5.487128496170043945e-01
1.251693814992904663e-01 8.074937760829925537e-02 6.909681558609008789e-01
-1.436162292957305908e-01 9.167484939098358154e-02 5.173117518424987793e-01
-1.234607920050621033e-01 2.436443418264389038e-02 6.281501650810241699e-01
2.460671067237854004e-01 3.251491859555244446e-02 6.082537174224853516e-01
-7.412921637296676636e-02 2.565577626228332520e-02 7.141282558441162109e-01
-2.199686765670776367e-01 3.209286183118820190e-02 5.839415788650512695e-01
3.470671772956848145e-01 6.633535027503967285e-02 6.192023158073425293e-01
-3.425901383161544800e-02 9.479589760303497314e-02 5.709845423698425293e-01
1.010190472006797791e-01 3.099372424185276031e-02 5.630261301994323730e-01
-9.720715880393981934e-02 8.164851367473602295e-02 6.877360939979553223e-01
-3.142896890640258789e-01 8.278561383485794067e-02 5.658088326454162598e-01
1.615905165672302246e-01 3.639969974756240845e-02 7.578057646751403809e-01
-1.192991584539413452e-01 3.395295143127441406e-02 5.407246351242065430e-01
-3.203733563423156738e-01 6.697361916303634644e-02 6.637935042381286621e-01
-2.263733297586441040e-01 8.174086362123489380e-02 6.532949805259704590e-01
-2.023100405931472778e-01 9.058895707130432129e-02 5.308644175529479980e-01
3.816561773419380188e-03 6.218736991286277771e-02 7.553604245185852051e-01
-3.199443817138671875e-01 4.302482679486274719e-02 5.685425400733947754e-01
2.793510258197784424e-01 6.704939156770706177e-02 7.030524015426635742e-01
-7.268466986715793610e-03 8.920684456825256348e-02 6.508432626724243164e-01
9.138990938663482666e-02 3.959044814109802246e-02 5.230945348739624023e-01
-9.447059035301208496e-02 7.757439464330673218e-02 7.051246762275695801e-01
1.569703519344329834e-01 2.412094175815582275e-02 6.417071819305419922e-01
-2.556407637894153595e-02 7.078425586223602295e-02 7.342274188995361328e-01
2.509218752384185791e-01 5.975328013300895691e-02 5.256028175354003906e-01
-1.440701633691787720e-01 5.677648261189460754e-02 4.716109633445739746e-01
-2.973777353763580322e-01 8.459660410881042480e-02 5.538402199745178223e-01
2.481807768344879150e-01 8.195439726114273071e-02 5.846225023269653320e-01
-2.836639583110809326e-01 7.471711933612823486e-02 6.595886349678039551e-01
-2.117528319358825684e-01 6.656564772129058838e-02 7.116560935974121094e-01
2.689906656742095947e-01 3.529926389455795288e-02 6.043606400489807129e-01
-3.929361701011657715e-02 8.801202476024627686e-02 4.893654286861419678e-01
-3.861928358674049377e-02 2.838436141610145569e-02 5.669023990631103516e-01
2.688062489032745361e-01 5.978655815124511719e-02 7.276359200477600098e-01
6.735714152455329895e-03 4.225308820605278015e-02 7.690247297286987305e-01
4.867811501026153564e-02 9.291683137416839600e-02 5.445406436920166016e-01
-2.550481259822845459e-01 3.212049603462219238e-02 6.347858905792236328e-01
-1.357712894678115845e-01 2.509394660592079163e-02 6.778325438499450684e-01
1.075403690338134766e-01 7.199764996767044067e-02 7.292525172233581543e-01
1.421672254800796509e-01 9.007021784782409668e-02 5.855407118797302246e-01
-2.614295780658721924e-01 8.722838759422302246e-02 5.839059352874755859e-01
-3.568492829799652100e-01 4.958866909146308899e-02 5.660922527313232422e-01
7.349882274866104126e-02 2.124568447470664978e-02 6.676691174507141113e-01
2.919405400753021240e-01 3.318893909454345703e-02 6.806910634040832520e-01
-2.604705989360809326e-01 8.594685792922973633e-02 6.031990647315979004e-01
3.484356999397277832e-01 6.215756013989448547e-02 6.675925850868225098e-01
1.946861855685710907e-02 7.664503157138824463e-02 7.170248031616210938e-01
-2.057240530848503113e-02 4.836370050907135010e-02 4.860933423042297363e-01
1.291316747665405273e-01 2.264839410781860352e-02 6.867794394493103027e-01
-1.801612079143524170e-01 5.267610400915145874e-02 4.832186698913574219e-01
-2.201352417469024658e-01 8.970661461353302002e-02 5.882431864738464355e-01
-4.888807982206344604e-02 3.405801206827163696e-02 5.348712205886840820e-01
1.064273566007614136e-01 8.389680832624435425e-02 6.764563918113708496e-01
-1.570032685995101929e-01 8.988928049802780151e-02 5.057135224342346191e-01
-8.235145360231399536e-02 2.588354796171188354e-02 5.914611816406250000e-01
-1.096506565809249878e-01 8.415090292692184448e-02 6.732975244522094727e-01
-3.001014590263366699e-01 6.995902955532073975e-02 6.673707365989685059e-01
-2.438043206930160522e-01 7.531355321407318115e-02 4.792314171791076660e-01
2.109396159648895264e-01 2.612339705228805542e-02 6.592790484428405762e-01
3.986230492591857910e-02 2.394641563296318054e-02 6.055432558059692383e-01
3.074706792831420898e-01 3.876841068267822266e-02 7.074453830718994141e-01
-3.236575424671173096e-01 7.955444604158401489e-02 5.308032631874084473e-01
1.783191859722137451e-01 4.115419089794158936e-02 5.375645756721496582e-01
-2.147924154996871948e-01 2.945736236870288849e-02 6.632099151611328125e-01
-2.245058566331863403e-01 3.997386246919631958e-02 7.155705094337463379e-01
6.142494082450866699e-02 2.677609771490097046e-02 7.375842332839965820e-01
-8.738603442907333374e-02 4.923570156097412109e-02 4.834381639957427979e-01
-2.549611926078796387e-01 3.334289789199829102e-02 6.641112565994262695e-01
1.456660777330398560e-01 2.883898094296455383e-02 5.877793431282043457e-01
-9.877152740955352783e-02 2.302181348204612732e-02 6.627857685089111328e-01
9.494648128747940063e-02 2.269461750984191895e-02 6.330641508102416992e-01
-3.344946801662445068e-01 5.590225011110305786e-02 5.236439704895019531e-01
-9.672339260578155518e-02 2.380384877324104309e-02 6.224010586738586426e-01
1.994385421276092529e-01 8.515298366546630859e-02 6.285319924354553223e-01
3.282446563243865967e-01 6.840059161186218262e-02 5.879976749420166016e-01
-1.750656664371490479e-01 3.263774514198303223e-02 5.602494478225708008e-01
6.650485098361968994e-02 8.926495909690856934e-02 5.145490169525146484e-01
7.830865681171417236e-02 2.584931626915931702e-02 7.320336699485778809e-01
-3.666889071464538574e-01 6.880075484514236450e-02 6.179912686347961426e-01
2.055082656443119049e-02 9.079005569219589233e-02 5.125550031661987305e-01
3.196765482425689697e-01 4.113281518220901489e-02 6.120077371597290039e-01
-9.525334462523460388e-04 7.184129953384399414e-02 4.626699686050415039e-01
5.308969318866729736e-02 9.266569465398788452e-02 6.051728725433349609e-01
-1.811193078756332397e-01 9.062612056732177734e-02 6.032710075378417969e-01
2.302951924502849579e-02 2.409890666604042053e-02 6.025035381317138672e-01
1.990077793598175049e-01 3.969475999474525452e-02 5.494092702865600586e-01
2.404021658003330231e-02 9.274062514305114746e-02 5.315303206443786621e-01
-3.144883811473846436e-01 6.153572723269462585e-02 6.779488325119018555e-01
-2.790845632553100586e-01 3.565249592065811157e-02 5.963487029075622559e-01
7.038395106792449951e-02 8.970638364553451538e-02 6.388803720474243164e-01
-1.750220209360122681e-01 2.866284362971782684e-02 5.941374301910400391e-01
8.073203265666961670e-02 2.172846347093582153e-02 6.475940346717834473e-01
1.592229455709457397e-01 8.697924017906188965e-02 5.417468547821044922e-01
1.817823201417922974e-01 2.623026818037033081e-02 6.268962025642395020e-01
-1.072260960936546326e-01 9.279444813728332520e-02 5.216466784477233887e-01
3.382423222064971924e-01 6.851370632648468018e-02 6.358531117439270020e-01
1.949862577021121979e-02 6.727246195077896118e-02 7.452887892723083496e-01
3.378732502460479736e-01 4.081434756517410278e-02 6.762595176696777344e-01
-1.742176562547683716e-01 8.282991498708724976e-02 6.654827594757080078e-01
-2.579518556594848633e-01 4.769955202937126160e-02 5.136411190032958984e-01
-1.164029464125633240e-01 3.960832208395004272e-02 7.496600151062011719e-01
1.742460578680038452e-01 8.486600220203399658e-02 5.352672934532165527e-01
5.734542384743690491e-03 3.128915652632713318e-02 5.497464537620544434e-01
-1.515395380556583405e-02 6.018591672182083130e-02 4.661418497562408447e-01
2.884227223694324493e-02 7.904317229986190796e-02 4.727048575878143311e-01
-1.748860776424407959e-01 3.780983015894889832e-02 7.304137945175170898e-01
-1.828170120716094971e-01 2.677625603973865509e-02 6.463158130645751953e-01
-9.811166673898696899e-02 9.442391991615295410e-02 5.717664957046508789e-01
-1.228788867592811584e-01 7.349366694688796997e-02 4.605115652084350586e-01
1.522458791732788086e-01 8.738534152507781982e-02 6.338340044021606445e-01
2.797658182680606842e-02 2.166250720620155334e-02 6.935539245605468750e-01
2.109461128711700439e-01 8.550435304641723633e-02 5.845069885253906250e-01
-1.575917750597000122e-01 3.381755948066711426e-02 5.482895374298095703e-01
-3.736732900142669678e-02 7.336721569299697876e-02 4.606839418411254883e-01
2.092712968587875366e-01 8.295913785696029663e-02 5.468189716339111328e-01
-4.485525190830230713e-02 6.141507253050804138e-02 7.532421350479125977e-01
2.264432162046432495e-01 3.210167586803436279e-02 5.992878675460815430e-01
-1.150429397821426392e-01 7.725041359663009644e-02 7.030979394912719727e-01
-2.097176164388656616e-01 5.379505455493927002e-02 7.295923829078674316e-01
3.247644901275634766e-01 7.153461128473281860e-02 6.086362600326538086e-01
1.813981682062149048e-01 7.843497395515441895e-02 6.898981332778930664e-01
-7.718082517385482788e-02 3.135806694626808167e-02 5.505104660987854004e-01
7.143661379814147949e-02 3.701637685298919678e-02 5.296672582626342773e-01
-2.433412149548530579e-02 9.409917891025543213e-02 5.948498249053955078e-01
4.411522299051284790e-02 2.587227150797843933e-02 5.882661938667297363e-01
-1.297036707401275635e-01 9.344673156738281250e-02 5.376613140106201172e-01
-1.785712316632270813e-03 9.251943230628967285e-02 6.186261773109436035e-01
-4.788116365671157837e-02 2.217758819460868835e-02 6.838915348052978516e-01
1.539213061332702637e-01 2.335530519485473633e-02 6.589640378952026367e-01
2.126646488904953003e-01 4.559081420302391052e-02 5.349862575531005859e-01
-3.396889567375183105e-01 5.115048214793205261e-02 5.417252779006958008e-01
-3.184517920017242432e-01 7.970573008060455322e-02 6.072223186492919922e-01
1.715227216482162476e-01 6.918757408857345581e-02 7.293007373809814453e-01
1.343618184328079224e-01 3.143718093633651733e-02 7.500977516174316406e-01
2.276725172996520996e-01 6.562835723161697388e-02 7.267786860466003418e-01
1.626545190811157227e-01 2.468203753232955933e-02 7.035620808601379395e-01
3.340078890323638916e-01 5.626508593559265137e-02 6.996778249740600586e-01
-1.497871279716491699e-01 9.295078366994857788e-02 5.830351710319519043e-01
-7.239821553230285645e-02 2.405747771263122559e-02 6.098690629005432129e-01
2.777801454067230225e-01 3.133868798613548279e-02 6.672443747520446777e-01
2.659710347652435303e-01 7.684594392776489258e-02 6.591927409172058105e-01
-2.171461656689643860e-02 2.787282131612300873e-02 7.372892498970031738e-01
-2.434607744216918945e-01 3.636316955089569092e-02 5.619804859161376953e-01
-8.183386921882629395e-02 6.413921713829040527e-02 7.441285848617553711e-01
3.784747794270515442e-03 2.899858914315700531e-02 7.446783781051635742e-01
2.087024301290512085e-01 6.462132930755615234e-02 7.343389987945556641e-01
-1.839570999145507812e-01 2.808092907071113586e-02 6.782982349395751953e-01
2.798278927803039551e-01 7.763751596212387085e-02 5.804388523101806641e-01
-1.989918500185012817e-01 2.941276319324970245e-02 6.001011729240417480e-01
2.441945075988769531e-01 2.831898815929889679e-02 6.760225892066955566e-01
1.806953698396682739e-01 7.295846939086914062e-02 7.145537734031677246e-01
1.067804694175720215e-01 9.149263799190521240e-02 5.950395464897155762e-01
-8.109936118125915527e-02 2.400358393788337708e-02 6.967162489891052246e-01
1.702205389738082886e-01 7.566225528717041016e-02 5.014272332191467285e-01
8.536761999130249023e-02 8.593966066837310791e-02 5.027788877487182617e-01
9.980633854866027832e-02 3.441768139600753784e-02 7.605861425399780273e-01
-1.461818218231201172e-01 7.221356779336929321e-02 4.614778757095336914e-01
-3.652554377913475037e-02 2.333994209766387939e-02 6.125323176383972168e-01
5.220717191696166992e-02 4.586946964263916016e-02 7.716126441955566406e-01
-2.915338277816772461e-01 7.675356417894363403e-02 4.982578456401824951e-01
-1.545842736959457397e-01 7.195243239402770996e-02 7.128380537033081055e-01
1.974737197160720825e-01 7.859352231025695801e-02 6.838529109954833984e-01
-1.323516964912414551e-01 4.364379122853279114e-02 5.018610954284667969e-01
2.402310669422149658e-01 4.371653497219085693e-02 5.511676669120788574e-01
1.175879500806331635e-02 8.641365915536880493e-02 6.700933575630187988e-01
-1.401473283767700195e-01 8.499076217412948608e-02 4.803142547607421875e-01
-2.571522295475006104e-01 3.765078634023666382e-02 6.908615827560424805e-01
8.697221428155899048e-02 6.878091394901275635e-02 7.403283119201660156e-01
-2.798270285129547119e-01 8.635028451681137085e-02 5.612903833389282227e-01
-3.184086382389068604e-01 7.721625268459320068e-02 6.250059604644775391e-01
-3.353805243968963623e-01 4.419046267867088318e-02 5.771192312240600586e-01
-2.084396481513977051e-01 3.888749703764915466e-02 5.342379808425903320e-01
1.861518472433090210e-01 2.461591735482215881e-02 6.698425412178039551e-01
5.666506290435791016e-02 9.088110923767089844e-02 6.294971704483032227e-01
-3.027973473072052002e-01 4.523368179798126221e-02 5.428193211555480957e-01
-3.233084976673126221e-01 7.191634178161621094e-02 6.465033292770385742e-01
7.565636187791824341e-02 4.428272694349288940e-02 5.057671666145324707e-01
-1.937967985868453979e-01 3.385236114263534546e-02 7.112531065940856934e-01
2.828479409217834473e-01 3.619540855288505554e-02 7.161009311676025391e-01
2.025370895862579346e-01 8.074112236499786377e-02 5.299143195152282715e-01
2.675744593143463135e-01 7.967388629913330078e-02 6.244677305221557617e-01
2.429229021072387695e-01 7.552212476730346680e-02 6.821839213371276855e-01
4.320156760513782501e-03 9.427740424871444702e-02 5.527485013008117676e-01
2.490962147712707520e-01 7.846742868423461914e-02 6.590204834938049316e-01
3.042128682136535645e-01 4.879476130008697510e-02 5.701459050178527832e-01
-2.941802740097045898e-01 4.974640533328056335e-02 5.206237435340881348e-01
2.235971093177795410e-01 2.755760960280895233e-02 6.963896751403808594e-01
9.969817101955413818e-02 8.955588936805725098e-02 6.322767138481140137e-01
-5.849878489971160889e-02 3.088222816586494446e-02 5.520290136337280273e-01
-2.466035038232803345e-01 7.062260806560516357e-02 6.896913051605224609e-01
-9.483074396848678589e-02 8.958674967288970947e-02 4.959993660449981689e-01
6.024870276451110840e-02 5.549280717968940735e-02 4.796416759490966797e-01
2.224337160587310791e-01 8.326652646064758301e-02 5.621213316917419434e-01
2.688318789005279541e-01 4.016290232539176941e-02 5.782646536827087402e-01
1.889524459838867188e-01 2.988482266664505005e-02 5.965902209281921387e-01
4.505275934934616089e-02 2.425866574048995972e-02 7.225183248519897461e-01
2.834284603595733643e-01 3.995855897665023804e-02 5.881169438362121582e-01
3.475764393806457520e-01 4.734379425644874573e-02 6.144654750823974609e-01
3.295700252056121826e-01 6.894556432962417603e-02 6.523967981338500977e-01
1.894263029098510742e-01 7.775573432445526123e-02 5.133877992630004883e-01
1.794310361146926880e-01 3.567612171173095703e-02 5.597071051597595215e-01
1.753256916999816895e-01 4.827514290809631348e-02 7.630942463874816895e-01
-8.434333652257919312e-02 4.204983636736869812e-02 5.037995576858520508e-01
-8.237235248088836670e-02 9.135633707046508789e-02 5.066324472427368164e-01
-2.476109713315963745e-01 6.295220553874969482e-02 7.066355347633361816e-01
-2.253821939229965210e-01 5.354572832584381104e-02 7.245593070983886719e-01
2.715943939983844757e-02 2.399263158440589905e-02 7.199301719665527344e-01
-9.684233367443084717e-02 2.402191981673240662e-02 6.890603303909301758e-01
1.551230996847152710e-01 8.862628042697906494e-02 5.581265687942504883e-01
-3.074245452880859375e-01 3.887723758816719055e-02 6.476407647132873535e-01
2.611230313777923584e-01 4.340320825576782227e-02 5.617635250091552734e-01
-1.760956048965454102e-01 8.978961408138275146e-02 5.101384520530700684e-01
-5.490702390670776367e-02 4.055066406726837158e-02 5.082386732101440430e-01
1.298766434192657471e-01 4.163520410656929016e-02 7.674691081047058105e-01
2.330031394958496094e-01 3.142401576042175293e-02 7.228967547416687012e-01
-1.225928142666816711e-01 9.294906258583068848e-02 5.975152850151062012e-01
-2.439881116151809692e-02 8.902283012866973877e-02 6.520150899887084961e-01
-2.474218010902404785e-01 4.077030345797538757e-02 5.380365252494812012e-01
-1.867778152227401733e-01 6.867804378271102905e-02 4.654971957206726074e-01
1.896616369485855103e-01 5.549197643995285034e-02 7.551770210266113281e-01
-1.678720563650131226e-01 7.549655437469482422e-02 6.984756588935852051e-01
1.345688290894031525e-02 8.400319516658782959e-02 4.811574220657348633e-01
-2.095348984003067017e-01 8.304987102746963501e-02 6.526342034339904785e-01
-2.160162478685379028e-02 2.456070482730865479e-02 5.974012613296508789e-01
1.543237268924713135e-01 7.430469989776611328e-02 7.147552967071533203e-01
1.745089292526245117e-01 2.455933764576911926e-02 6.484175324440002441e-01
-2.203330397605895996e-01 8.740222454071044922e-02 6.165857911109924316e-01
-2.388184517621994019e-01 3.253761678934097290e-02 5.929472446441650391e-01
1.366058737039566040e-01 7.697769999504089355e-02 4.926837980747222900e-01
6.733407825231552124e-02 2.732901647686958313e-02 5.802273154258728027e-01
-9.885985404253005981e-03 2.322028577327728271e-02 7.092010974884033203e-01
8.951671421527862549e-02 9.227290749549865723e-02 5.885834097862243652e-01
-8.400467038154602051e-02 2.256652712821960449e-02 6.489342451095581055e-01
-5.235844291746616364e-03 8.084210753440856934e-02 6.994739770889282227e-01
1.080222055315971375e-01 9.058050811290740967e-02 6.146687269210815430e-01
-2.680078148841857910e-01 3.895869106054306030e-02 5.578024387359619141e-01
3.979761153459548950e-03 2.457285672426223755e-02 7.223100662231445312e-01
3.171279728412628174e-01 3.670547530055046082e-02 6.777814626693725586e-01
4.681620001792907715e-02 9.354210644960403442e-02 5.853897929191589355e-01
1.422426402568817139e-01 8.454166352748870850e-02 6.636642813682556152e-01
-1.083147749304771423e-01 3.131528943777084351e-02 5.542480349540710449e-01
-3.706207126379013062e-02 5.504750460386276245e-02 4.720214009284973145e-01
1.023764684796333313e-01 3.468694537878036499e-02 5.446804761886596680e-01
-1.060713529586791992e-01 7.351498305797576904e-02 7.172830104827880859e-01
2.106552273035049438e-01 2.780242636799812317e-02 6.278359293937683105e-01
1.998306363821029663e-01 5.410163477063179016e-02 5.126391649246215820e-01
3.031903691589832306e-02 4.324613511562347412e-02 7.706302404403686523e-01
2.958044409751892090e-01 3.464578092098236084e-02 6.366434693336486816e-01
7.484979182481765747e-02 8.085334300994873047e-02 6.971262097358703613e-01
2.327134311199188232e-01 2.942483499646186829e-02 6.266672015190124512e-01
-2.331254482269287109e-01 8.969901502132415771e-02 5.499253273010253906e-01
7.861614972352981567e-02 2.258062362670898438e-02 7.045477032661437988e-01
-1.089036185294389725e-02 9.442396461963653564e-02 5.843044519424438477e-01
1.761764287948608398e-01 8.805216848850250244e-02 5.816937685012817383e-01
-2.653886079788208008e-01 5.980364978313446045e-02 7.042728662490844727e-01
-6.768293213099241257e-03 9.318785369396209717e-02 5.288506746292114258e-01
-8.701984584331512451e-02 8.975373208522796631e-02 6.405717134475708008e-01
2.373209148645401001e-01 5.449532344937324524e-02 7.459360361099243164e-01
-2.154685407876968384e-01 8.436509966850280762e-02 4.923321008682250977e-01
-2.320768386125564575e-01 8.459825813770294189e-02 6.331027746200561523e-01
-1.632362902164459229e-01 8.647371828556060791e-02 4.887556433677673340e-01
-3.290371298789978027e-01 5.248421803116798401e-02 6.733490824699401855e-01
9.865304455161094666e-03 2.759864181280136108e-02 5.725857019424438477e-01
2.952688634395599365e-01 7.493303716182708740e-02 6.461538672447204590e-01
-9.421185404062271118e-02 5.593993142247200012e-02 4.702776968479156494e-01
1.062934547662734985e-01 6.603592634201049805e-02 7.460420131683349609e-01
2.981560826301574707e-01 4.254291951656341553e-02 7.238287329673767090e-01
-7.422988116741180420e-02 8.443273603916168213e-02 4.757699370384216309e-01
6.527800858020782471e-02 8.610001951456069946e-02 4.980180859565734863e-01
-5.802374333143234253e-02 2.301540970802307129e-02 6.215120553970336914e-01
-2.727720141410827637e-01 8.598547428846359253e-02 5.332114100456237793e-01
-2.172563523054122925e-01 3.477438911795616150e-02 5.608150959014892578e-01
-3.196458816528320312e-01 4.585243389010429382e-02 5.508002638816833496e-01
9.901378303766250610e-02 7.871471345424652100e-02 4.855884909629821777e-01
9.366052597761154175e-02 2.715591154992580414e-02 7.379034161567687988e-01
-1.523469835519790649e-01 8.662711083889007568e-02 6.492303013801574707e-01
1.489965803921222687e-02 8.942276984453201294e-02 6.485009193420410156e-01
-1.179971471428871155e-01 9.412720799446105957e-02 5.691732764244079590e-01
-7.523056864738464355e-02 4.700773581862449646e-02 7.616661787033081055e-01
5.893357843160629272e-02 2.167313545942306519e-02 6.413225531578063965e-01
8.356964588165283203e-02 7.697155326604843140e-02 7.134448885917663574e-01
-7.124953903257846832e-03 8.601998537778854370e-02 6.725710034370422363e-01
1.328627467155456543e-01 6.869194656610488892e-02 7.365563511848449707e-01
-2.018019855022430420e-01 9.145846217870712280e-02 5.548745393753051758e-01
-6.289307028055191040e-02 9.068194031715393066e-02 5.020177364349365234e-01
8.230423182249069214e-02 8.675777912139892578e-02 6.614642143249511719e-01
2.781863808631896973e-01 7.467546314001083374e-02 5.582498311996459961e-01
-3.736402094364166260e-01 5.538269877433776855e-02 6.295077204704284668e-01
1.841706484556198120e-01 3.177709504961967468e-02 7.418521642684936523e-01
-2.908902242779731750e-02 4.194062948226928711e-02 5.037772655487060547e-01
-1.516468226909637451e-01 2.650676295161247253e-02 6.085504293441772461e-01
1.323456913232803345e-01 9.038688242435455322e-02 5.678201317787170410e-01
-9.292052127420902252e-03 2.821753919124603271e-02 5.677388310432434082e-01
-1.844646483659744263e-01 6.472277641296386719e-02 7.231296896934509277e-01
3.210915923118591309e-01 3.767143934965133667e-02 6.442963480949401855e-01
-1.850760579109191895e-01 9.147781878709793091e-02 5.872831940650939941e-01
-3.551517128944396973e-01 4.605584591627120972e-02 6.180830001831054688e-01
-3.687312901020050049e-01 -7.088795304298400879e-02 4.863286018371582031e-01
-3.459207117557525635e-01 -1.497113108634948730e-01 9.165173768997192383e-01
-3.827001750469207764e-01 -1.202011853456497192e-01 1.056139826774597168e+00
-3.404048383235931396e-01 -1.449607312679290771e-01 8.604534864425659180e-01
-3.882459998130798340e-01 -1.240725889801979065e-01 9.132025241851806641e-01
-3.780126869678497314e-01 -1.389320641756057739e-01 9.995207786560058594e-01
-3.903464078903198242e-01 -1.317928433418273926e-01 3.471177220344543457e-01
-3.343861103057861328e-01 -1.197315230965614319e-01 2.547159790992736816e-01
-3.509241640567779541e-01 -1.199305653572082520e-01 1.116532564163208008e+00
-3.455682992935180664e-01 -9.167987853288650513e-02 7.449650168418884277e-01
-3.476657271385192871e-01 -8.442574739456176758e-02 3.871546089649200439e-01
-3.697815835475921631e-01 -1.551766544580459595e-01 8.425650596618652344e-01
-3.604614734649658203e-01 -1.179063618183135986e-01 -1.852591633796691895e-01
-3.413103520870208740e-01 -1.080962121486663818e-01 8.825596570968627930e-01
-3.509575426578521729e-01 -1.609882116317749023e-01 7.311717867851257324e-01
-3.325535058975219727e-01 -1.257587075233459473e-01 5.954619646072387695e-01
-3.349117636680603027e-01 -1.088091805577278137e-01 4.593734741210937500e-01
-3.604385852813720703e-01 -7.363215088844299316e-02 4.241086840629577637e-01
-3.877846896648406982e-01 -1.208439767360687256e-01 9.475377202033996582e-01
-3.696613311767578125e-01 -1.398628056049346924e-01 -4.779064655303955078e-02
-3.525560498237609863e-01 -1.011326983571052551e-01 -8.368408679962158203e-02
-3.925389051437377930e-01 -9.230041503906250000e-02 7.191243767738342285e-01
-3.578287959098815918e-01 -9.811124950647354126e-02 -1.101166605949401855e-01
-3.928578495979309082e-01 -1.116569340229034424e-01 2.126013636589050293e-01
-3.391192555427551270e-01 -1.534007042646408081e-01 6.223834753036499023e-01
-3.685837984085083008e-01 -1.593544036149978638e-01 3.590277135372161865e-01
-3.813458979129791260e-01 -1.471957415342330933e-01 3.210185170173645020e-01
-3.956871330738067627e-01 -1.064701676368713379e-01 3.836103677749633789e-01
-3.717503249645233154e-01 -7.936897873878479004e-02 8.723381757736206055e-01
-3.340758681297302246e-01 -1.122220307588577271e-01 5.177293419837951660e-01
-3.641932606697082520e-01 -1.610544025897979736e-01 7.215439677238464355e-01
-3.934123814105987549e-01 -1.250900328159332275e-01 4.363957941532135010e-01
-3.878251314163208008e-01 -1.049905493855476379e-01 4.570725560188293457e-02
-3.681195974349975586e-01 -1.384827196598052979e-01 1.108494162559509277e+00
-3.593206703662872314e-01 -1.204110234975814819e-01 1.176228642463684082e+00
-3.424466550350189209e-01 -1.247979104518890381e-01 9.953896999359130859e-01
-3.333888053894042969e-01 -1.393103301525115967e-01 5.862922668457031250e-01
-3.482203781604766846e-01 -1.609721630811691284e-01 3.687652945518493652e-01
-3.379358947277069092e-01 -1.297237575054168701e-01 8.830677270889282227e-01
-3.860006630420684814e-01 -1.386118233203887939e-01 7.837509512901306152e-01
-3.849033713340759277e-01 -8.015954494476318359e-02 2.244438529014587402e-01
-3.627654612064361572e-01 -7.353706657886505127e-02 6.098982095718383789e-01
-3.593888878822326660e-01 -8.818534016609191895e-02 -2.045792341232299805e-02
-3.719881772994995117e-01 -1.022766232490539551e-01 1.131004929542541504e+00
-3.358916640281677246e-01 -1.441494673490524292e-01 3.030292093753814697e-01
-3.895899951457977295e-01 -1.119710803031921387e-01 9.570139646530151367e-02
-3.612440824508666992e-01 -1.635989546775817871e-01 5.602229237556457520e-01
-3.377537727355957031e-01 -1.034169942140579224e-01 6.451914906501770020e-01
-3.344790041446685791e-01 -1.305679827928543091e-01 2.325650155544281006e-01
-3.676734864711761475e-01 -1.588334739208221436e-01 3.086710274219512939e-01
-3.675919473171234131e-01 -1.289278119802474976e-01 -1.451854109764099121e-01
-3.441210389137268066e-01 -1.081389561295509338e-01 9.556293487548828125e-01
-3.677362203598022461e-01 -7.105074822902679443e-02 4.441848993301391602e-01
-3.702055513858795166e-01 -1.114579290151596069e-01 -1.736294627189636230e-01
-3.547059297561645508e-01 -8.006692677736282349e-02 2.307653427124023438e-01
-3.681310117244720459e-01 -8.236864209175109863e-02 9.273324012756347656e-01
-3.822500407695770264e-01 -1.342558562755584717e-01 9.709019660949707031e-01
-3.886607289314270020e-01 -1.371451467275619507e-01 4.063722193241119385e-01
-3.927525579929351807e-01 -8.708220720291137695e-02 4.608423113822937012e-01
-3.781253099441528320e-01 -1.295117288827896118e-01 -4.550617933273315430e-02
-3.674708306789398193e-01 -1.280891299247741699e-01 1.168266057968139648e+00
-3.471535742282867432e-01 -1.616110205650329590e-01 4.710365235805511475e-01
-3.865716755390167236e-01 -1.097797229886054993e-01 1.635038852691650391e-02
-3.669065237045288086e-01 -1.598999202251434326e-01 3.416635394096374512e-01
-3.923149108886718750e-01 -9.547314047813415527e-02 2.281789481639862061e-01
-3.616801798343658447e-01 -1.634175628423690796e-01 5.826126337051391602e-01
-3.859797716140747070e-01 -8.260774612426757812e-02 7.747883796691894531e-01
-3.653927445411682129e-01 -1.583546847105026245e-01 8.131366968154907227e-01
-3.756126761436462402e-01 -1.284552365541458130e-01 -8.516877889633178711e-02
-3.339360952377319336e-01 -1.396160423755645752e-01 6.406188011169433594e-01
-3.329889774322509766e-01 -1.382620185613632202e-01 5.468226671218872070e-01
-3.335587978363037109e-01 -1.283447891473770142e-01 2.808963656425476074e-01
-3.380839824676513672e-01 -1.420395821332931519e-01 8.225047588348388672e-01
-3.818263709545135498e-01 -9.815353155136108398e-02 -4.187130928039550781e-02
-3.913451433181762695e-01 -1.321769952774047852e-01 5.395069718360900879e-01
-3.881301283836364746e-01 -1.009447425603866577e-01 6.271761655807495117e-02
-3.450606167316436768e-01 -9.153529256582260132e-02 7.191807627677917480e-01
-3.328039348125457764e-01 -1.195379644632339478e-01 5.428135991096496582e-01
-3.939953446388244629e-01 -1.100452616810798645e-01 7.616387009620666504e-01
-3.806259036064147949e-01 -1.496859192848205566e-01 3.991190791130065918e-01
-3.866496980190277100e-01 -1.379775553941726685e-01 7.678190469741821289e-01
-3.774541020393371582e-01 -1.529442667961120605e-01 3.836721479892730713e-01
-3.465963900089263916e-01 -1.142696887254714966e-01 -7.294666767120361328e-02
-3.573602139949798584e-01 -9.837024658918380737e-02 1.067646503448486328e+00
-3.959708511829376221e-01 -1.118987798690795898e-01 4.792594015598297119e-01
-3.939234614372253418e-01 -1.167407110333442688e-01 7.297803759574890137e-01
-3.955492973327636719e-01 -1.147337034344673157e-01 5.895512700080871582e-01
-3.857184350490570068e-01 -1.423677802085876465e-01 6.706434488296508789e-01
-3.803356289863586426e-01 -1.214818581938743591e-01 1.087384939193725586e+00
-3.363034129142761230e-01 -1.428554654121398926e-01 7.412851452827453613e-01
-3.621049225330352783e-01 -9.027097374200820923e-02 1.017188310623168945e+00
-3.713704049587249756e-01 -1.440432369709014893e-01 1.027904987335205078e+00
-3.484079241752624512e-01 -1.321420967578887939e-01 -8.159750699996948242e-02
-3.356104791164398193e-01 -1.073835268616676331e-01 5.628729462623596191e-01
-3.336511254310607910e-01 -1.212515756487846375e-01 2.943433523178100586e-01
-3.441534638404846191e-01 -9.174419939517974854e-02 6.807852387428283691e-01
-3.855264782905578613e-01 -1.141947656869888306e-01 1.018817901611328125e+00
-3.863390088081359863e-01 -1.388020217418670654e-01 2.981404066085815430e-01
-3.901909887790679932e-01 -8.394320309162139893e-02 3.356715738773345947e-01
-3.585095107555389404e-01 -8.244109153747558594e-02 8.626651763916015625e-02
-3.431987762451171875e-01 -1.148804128170013428e-01 9.813759326934814453e-01
-3.820955753326416016e-01 -1.028511896729469299e-01 1.054410815238952637e+00
-3.373968005180358887e-01 -1.385405957698822021e-01 1.645635962486267090e-01
-3.424399495124816895e-01 -1.462974846363067627e-01 1.189080476760864258e-01
-3.417653143405914307e-01 -9.730400890111923218e-02 2.129248082637786865e-01
-3.790143430233001709e-01 -8.990421146154403687e-02 -1.846563816070556641e-02
-3.930689692497253418e-01 -8.839143812656402588e-02 5.703717470169067383e-01
-3.682773709297180176e-01 -8.134317398071289062e-02 9.088965654373168945e-01
-3.565991222858428955e-01 -8.522072434425354004e-02 8.798134326934814453e-01
-3.792839050292968750e-01 -1.040048673748970032e-01 1.091136455535888672e+00
-3.378480672836303711e-01 -1.016890183091163635e-01 3.494485616683959961e-01
-3.814134895801544189e-01 -7.320486009120941162e-02 4.522196650505065918e-01
-3.597942888736724854e-01 -1.401072442531585693e-01 -8.657258749008178711e-02
-3.373131453990936279e-01 -1.115376576781272888e-01 7.751061916351318359e-01
-3.902221024036407471e-01 -1.273752599954605103e-01 2.434767782688140869e-01
-3.879766464233398438e-01 -1.277265250682830811e-01 8.877468705177307129e-01
-3.331563770771026611e-01 -1.245118007063865662e-01 6.516578197479248047e-01
-3.470509648323059082e-01 -1.321955919265747070e-01 -6.613767147064208984e-02
-3.824760019779205322e-01 -9.174621105194091797e-02 9.729074239730834961e-01
-3.389122784137725830e-01 -1.540948450565338135e-01 5.116756558418273926e-01
-3.354904055595397949e-01 -1.192198544740676880e-01 1.979429125785827637e-01
-3.429796397686004639e-01 -1.096251159906387329e-01 9.413908123970031738e-01
-3.448527157306671143e-01 -1.354812234640121460e-01 -2.042055130004882812e-02
-3.476822078227996826e-01 -9.892538189888000488e-02 1.097959280014038086e-02
-3.697160482406616211e-01 -9.881306439638137817e-02 -1.394364833831787109e-01
-3.683581054210662842e-01 -1.605752110481262207e-01 6.270710229873657227e-01
-3.444944322109222412e-01 -1.274072080850601196e-01 1.033573627471923828e+00
-3.321789205074310303e-01 -1.251001060009002686e-01 5.042778849601745605e-01
-3.902555406093597412e-01 -1.107299178838729858e-01 9.088735580444335938e-01
-3.517475128173828125e-01 -8.408310264348983765e-02 1.851942241191864014e-01
-3.664535880088806152e-01 -7.795761525630950928e-02 8.270546197891235352e-01
-3.916298151016235352e-01 -8.667324483394622803e-02 6.427378654479980469e-01
-3.331032395362854004e-01 -1.249166205525398254e-01 3.186044692993164062e-01
-3.943626582622528076e-01 -9.251616895198822021e-02 4.244258701801300049e-01
-3.944305777549743652e-01 -1.195221915841102600e-01 3.939077258110046387e-01
-3.568023443222045898e-01 -7.808726280927658081e-02 2.474914491176605225e-01
