-5.927919596433639526e-02 5.632098019123077393e-02 1.769951879978179932e-01
-3.843020275235176086e-02 1.449055969715118408e-02 -6.599947810173034668e-03
-2.196941226720809937e-01 7.082721590995788574e-02 -3.394559770822525024e-02
-8.810642361640930176e-02 1.814630627632141113e-01 1.158499792218208313e-01
-6.897613406181335449e-02 1.393841207027435303e-01 1.918447017669677734e-01
-1.291857808828353882e-01 1.717164814472198486e-01 -1.615615487098693848e-01
-1.243564337491989136e-01 3.102626651525497437e-02 5.712481588125228882e-02
-2.177112698554992676e-01 1.453255265951156616e-01 -1.212564781308174133e-01
1.563960611820220947e-01 1.025930866599082947e-01 5.131229385733604431e-02
-5.032915621995925903e-03 1.467002928256988525e-01 -2.074294686317443848e-01
-1.832889914512634277e-01 5.919111147522926331e-02 9.328106045722961426e-02
-5.583042651414871216e-02 9.160682559013366699e-02 2.070477008819580078e-01
1.220672726631164551e-01 1.002226471900939941e-01 1.184105649590492249e-01
-5.101981386542320251e-02 1.062446832656860352e-01 -2.282023727893829346e-01
-1.429235935211181641e-01 1.152292937040328979e-01 1.882714629173278809e-01
2.341898158192634583e-02 1.869113296270370483e-01 2.410222217440605164e-02
1.794639229774475098e-02 9.553658217191696167e-02 -2.208346724510192871e-01
-4.537180438637733459e-02 1.993243098258972168e-01 -2.699167933315038681e-03
-2.510187625885009766e-01 1.201009601354598999e-01 -5.844693630933761597e-02
1.424570232629776001e-01 9.654655307531356812e-02 8.772066235542297363e-02
-1.281441450119018555e-01 1.489588171243667603e-01 1.723420023918151855e-01
1.181617081165313721e-01 1.541431993246078491e-01 -3.779692202806472778e-02
-8.732154965400695801e-04 1.820901781320571899e-01 -1.295100599527359009e-01
9.558565914630889893e-02 1.591089069843292236e-01 4.605394974350929260e-02
-2.207110971212387085e-01 1.661743223667144775e-01 5.812673270702362061e-02
4.419421032071113586e-02 1.531243175268173218e-01 -1.758570075035095215e-01
-3.727074712514877319e-02 1.989533603191375732e-01 -2.934742532670497894e-02
-2.339812219142913818e-01 8.417816460132598877e-02 -4.294829070568084717e-02
-1.555449515581130981e-01 9.295214712619781494e-02 -1.806797385215759277e-01
-1.271807774901390076e-02 1.841884553432464600e-01 8.413071930408477783e-02
7.129736244678497314e-03 1.525318771600723267e-01 -1.961712837219238281e-01
-1.760997325181961060e-01 1.307055950164794922e-01 1.638389229774475098e-01
-1.679875105619430542e-01 1.661660522222518921e-01 -1.473595499992370605e-01
-1.266980171203613281e-01 3.723978996276855469e-02 9.175760298967361450e-02
-7.825875282287597656e-02 5.760771408677101135e-02 1.747653484344482422e-01
-3.817435353994369507e-03 5.754872038960456848e-02 1.783854663372039795e-01
9.902316331863403320e-02 1.623531728982925415e-01 1.285032182931900024e-02
-1.590332388877868652e-01 1.889068186283111572e-01 -8.433783799409866333e-02
9.945605695247650146e-02 2.996917068958282471e-02 3.964008390903472900e-02
-2.368863224983215332e-01 1.047508716583251953e-01 8.723174035549163818e-02
-7.099619507789611816e-02 1.883229613304138184e-01 9.077052772045135498e-02
1.305891126394271851e-01 4.235897958278656006e-02 -5.298733711242675781e-02
-4.015631973743438721e-03 7.256288826465606689e-02 1.933728456497192383e-01
-2.343291230499744415e-02 1.630707830190658569e-01 1.507381498813629150e-01
-1.451430320739746094e-01 1.674453020095825195e-01 -1.612569689750671387e-01
-2.529752552509307861e-01 1.075012758374214172e-01 -3.095971420407295227e-02
1.600467115640640259e-01 1.182049065828323364e-01 -3.741899877786636353e-02
5.482603237032890320e-02 1.776785105466842651e-01 -8.060151338577270508e-02
-3.958841040730476379e-02 1.829465478658676147e-01 1.031898334622383118e-01
-1.634336262941360474e-02 1.913329064846038818e-01 4.902509599924087524e-02
-2.559171020984649658e-01 1.274268627166748047e-01 3.488697111606597900e-02
-2.348938286304473877e-01 1.630634665489196777e-01 2.508685737848281860e-02
-1.330489218235015869e-01 7.458171993494033813e-02 1.741636097431182861e-01
7.525114715099334717e-02 2.819972485303878784e-02 -8.451295644044876099e-02
-4.150822758674621582e-03 1.865550428628921509e-01 6.583986431360244751e-02
9.968668222427368164e-03 1.391520798206329346e-01 -2.107804715633392334e-01
-1.896533370018005371e-01 6.859409809112548828e-02 1.106072068214416504e-01
-1.027969121932983398e-01 3.549399226903915405e-02 -1.044645980000495911e-01
-1.616601645946502686e-01 4.295569658279418945e-02 5.910216271877288818e-02
-6.480973213911056519e-03 1.442587077617645264e-01 1.756857931613922119e-01
-8.365768939256668091e-03 1.325930655002593994e-02 -4.146095365285873413e-03
-1.189153343439102173e-01 4.094270616769790649e-02 -1.098411008715629578e-01
3.602479025721549988e-02 1.770740449428558350e-01 6.760761886835098267e-02
1.508131623268127441e-02 2.954247593879699707e-02 -1.233528852462768555e-01
-4.477055743336677551e-02 1.496575027704238892e-02 9.657708927989006042e-03
7.592873275279998779e-02 5.524424463510513306e-02 1.407971084117889404e-01
-1.103616058826446533e-01 1.198762282729148865e-01 1.989349722862243652e-01
-2.146710008382797241e-01 9.853436052799224854e-02 -1.212492510676383972e-01
-1.079905182123184204e-01 1.227878704667091370e-01 -2.160343825817108154e-01
-1.565443128347396851e-01 1.940774023532867432e-01 -4.596873372793197632e-02
-1.047199070453643799e-01 8.573218435049057007e-02 -2.042096853256225586e-01
-7.845814526081085205e-02 3.565969318151473999e-02 -1.237791329622268677e-01
9.459480643272399902e-04 2.149970829486846924e-02 8.765789866447448730e-02
-7.310386002063751221e-02 5.701621994376182556e-02 -1.793122589588165283e-01
-1.337125003337860107e-01 3.319029510021209717e-02 -4.481157287955284119e-02
4.520104452967643738e-02 1.838830262422561646e-01 -2.135855145752429962e-02
-1.148850023746490479e-01 3.532163053750991821e-02 -9.073118865489959717e-02
2.283547446131706238e-02 1.846730411052703857e-01 4.355055093765258789e-02
1.239357739686965942e-01 6.288729608058929443e-02 1.007925719022750854e-01
-2.064633667469024658e-01 1.595939695835113525e-01 1.011254116892814636e-01
-1.141540855169296265e-01 7.127033174037933350e-02 -1.832154393196105957e-01
-1.104020029306411743e-01 2.951258420944213867e-02 7.120781391859054565e-02
1.281095296144485474e-02 1.802075207233428955e-01 7.998545467853546143e-02
-7.717671245336532593e-02 8.406630903482437134e-02 -2.125009596347808838e-01
-4.268097877502441406e-02 3.333312273025512695e-02 -1.321115046739578247e-01
8.303160965442657471e-02 1.413923949003219604e-01 -1.629216969013214111e-01
-2.239824086427688599e-01 1.589689105749130249e-01 7.421093434095382690e-02
-8.617679774761199951e-02 2.796439826488494873e-02 9.009101241827011108e-02
-7.129251956939697266e-02 2.009327411651611328e-01 -3.374346718192100525e-02
-2.549435198307037354e-01 1.066937595605850220e-01 -8.033197373151779175e-04
-2.391877472400665283e-01 1.521718502044677734e-01 5.531477183103561401e-02
-1.884785741567611694e-01 8.533485978841781616e-02 -1.402254700660705566e-01
-2.297645807266235352e-02 6.167131289839744568e-02 1.856305301189422607e-01
-3.605999797582626343e-02 1.976784318685531616e-02 7.506261765956878662e-02
-1.203195899724960327e-01 1.494766175746917725e-01 -1.973686814308166504e-01
7.333883643150329590e-02 1.702609807252883911e-01 -8.777020126581192017e-02
-1.280123591423034668e-01 1.980298161506652832e-01 -4.992006719112396240e-02
3.685165196657180786e-03 3.367865830659866333e-02 -1.382626295089721680e-01
-1.742202937602996826e-01 1.802092343568801880e-01 7.948267459869384766e-02
1.107600033283233643e-01 8.689668774604797363e-02 1.336128115653991699e-01
8.045215904712677002e-02 2.197737991809844971e-02 2.177443355321884155e-03
1.218340098857879639e-01 1.422196626663208008e-01 -1.015770062804222107e-01
-4.461532831192016602e-02 1.932810842990875244e-01 -1.014024987816810608e-01
-3.407314419746398926e-02 5.198953673243522644e-02 1.726833283901214600e-01
1.270240247249603271e-01 1.287491768598556519e-01 7.855889201164245605e-02
2.351126447319984436e-02 4.532446339726448059e-02 -1.646752953529357910e-01
-6.198236346244812012e-02 1.276190131902694702e-01 2.010930776596069336e-01
7.297191768884658813e-03 1.282520145177841187e-01 1.875261068344116211e-01
-1.342578381299972534e-01 1.971137970685958862e-01 1.814579404890537262e-02
-1.040032953023910522e-01 1.433857977390289307e-01 1.846829056739807129e-01
-1.947489827871322632e-01 1.830934435129165649e-01 2.901859208941459656e-02
-2.004855573177337646e-01 1.070829182863235474e-01 1.452693939208984375e-01
-2.053289562463760376e-01 7.451780140399932861e-02 9.852917492389678955e-02
-3.601631522178649902e-02 1.759631037712097168e-01 -1.638846993446350098e-01
-2.097058445215225220e-01 1.235425919294357300e-01 1.359631717205047607e-01
-5.882776528596878052e-02 1.844551861286163330e-01 1.034939810633659363e-01
-2.305723577737808228e-01 7.923734188079833984e-02 4.059525206685066223e-02
-4.039441794157028198e-02 1.846942901611328125e-01 -1.386664509773254395e-01
-1.106533706188201904e-01 9.625484049320220947e-02 1.990385055541992188e-01
1.120775938034057617e-01 1.450316309928894043e-01 6.588307768106460571e-02
7.469759881496429443e-02 8.537511527538299561e-02 -1.937251389026641846e-01
7.476519048213958740e-02 2.357751131057739258e-02 -5.549117177724838257e-02
-1.742605715990066528e-01 1.804718971252441406e-01 -1.037930250167846680e-01
1.544597148895263672e-01 1.179093495011329651e-01 -7.552080601453781128e-02
-1.769758164882659912e-01 9.013360738754272461e-02 -1.591347157955169678e-01
-1.094490438699722290e-01 1.948774456977844238e-01 5.542860180139541626e-02
1.376848965883255005e-01 4.883108660578727722e-02 -6.581803411245346069e-02
-1.322803348302841187e-01 1.851653307676315308e-01 -1.239552050828933716e-01
1.135537922382354736e-01 4.936655610799789429e-02 -1.144967004656791687e-01
1.523592472076416016e-01 8.074066042900085449e-02 6.607235223054885864e-02
-2.521142959594726562e-01 1.040664911270141602e-01 2.875255048274993896e-02
-1.574842780828475952e-01 1.496725827455520630e-01 -1.778127253055572510e-01
-5.736616626381874084e-02 1.978406757116317749e-01 3.052235022187232971e-02
-2.230595946311950684e-01 9.969758242368698120e-02 1.098187491297721863e-01
-9.502853453159332275e-02 1.001092046499252319e-01 2.041311264038085938e-01
-6.271618604660034180e-02 1.852028369903564453e-01 -1.408085227012634277e-01
1.118004322052001953e-01 6.894250214099884033e-02 1.231853142380714417e-01
-5.808486416935920715e-02 1.920485794544219971e-01 7.068652659654617310e-02
-1.555372588336467743e-02 1.570133864879608154e-02 -4.852240905165672302e-02
1.399488151073455811e-01 7.048614323139190674e-02 -1.154837906360626221e-01
1.577794551849365234e-01 7.756866514682769775e-02 -8.453890681266784668e-02
5.419600382447242737e-02 7.929493486881256104e-02 -2.005410194396972656e-01
1.398327946662902832e-02 5.883898586034774780e-02 -1.904233098030090332e-01
1.215183734893798828e-02 6.498204171657562256e-02 1.831688582897186279e-01
-6.446944177150726318e-02 1.683637648820877075e-01 1.486469507217407227e-01
-1.744524538516998291e-01 1.441976726055145264e-01 -1.700950562953948975e-01
6.011724844574928284e-02 3.957148641347885132e-02 -1.371392905712127686e-01
-2.265004813671112061e-01 1.051661446690559387e-01 -1.081215739250183105e-01
1.179900914430618286e-01 4.655019566416740417e-02 7.716055214405059814e-02
-1.215974837541580200e-01 1.687106043100357056e-01 1.425151824951171875e-01
8.516515791416168213e-02 1.177302673459053040e-01 1.480048894882202148e-01
8.298054337501525879e-02 1.520749330520629883e-01 -1.413508057594299316e-01
4.077529534697532654e-02 1.805002540349960327e-01 -9.008623659610748291e-02
-1.420493423938751221e-01 3.940523415803909302e-02 -7.122357189655303955e-02
7.755097746849060059e-02 3.234560042619705200e-02 8.625730127096176147e-02
-1.493849456310272217e-01 1.357553303241729736e-01 1.764391064643859863e-01
-2.033496648073196411e-01 1.770315319299697876e-01 4.831888899207115173e-02
5.545457080006599426e-02 1.881728321313858032e-02 3.268691152334213257e-02
1.454242318868637085e-01 5.747571587562561035e-02 4.771657660603523254e-02
-7.787957787513732910e-03 1.952474713325500488e-01 -3.077453002333641052e-02
-1.618536412715911865e-01 7.297578454017639160e-02 1.514005959033966064e-01
-4.165212064981460571e-02 1.546593010425567627e-02 -2.711388096213340759e-02
1.672523021697998047e-01 9.039579331874847412e-02 -5.698278173804283142e-02
-2.403171360492706299e-02 1.797098219394683838e-01 1.076937541365623474e-01
5.472618713974952698e-02 1.752267032861709595e-01 -9.711822122335433960e-02
-6.326934695243835449e-02 3.455382585525512695e-02 1.289731264114379883e-01
-2.026229724287986755e-02 2.718186378479003906e-02 -1.151745617389678955e-01
-9.804901480674743652e-02 6.770099699497222900e-02 -1.863373219966888428e-01
-2.298305928707122803e-01 1.667246818542480469e-01 -4.047641158103942871e-02
4.923973232507705688e-03 1.513408869504928589e-02 -4.346366226673126221e-02
1.871053501963615417e-02 1.739328354597091675e-01 -1.442250907421112061e-01
-5.021752789616584778e-02 2.862591296434402466e-02 -1.122784838080406189e-01
-8.699677139520645142e-02 9.878073632717132568e-02 -2.190811336040496826e-01
-2.642288431525230408e-02 1.338755488395690918e-01 1.925081312656402588e-01
-1.119653582572937012e-01 1.886277794837951660e-01 -1.212084740400314331e-01
8.790056407451629639e-02 5.417022854089736938e-02 -1.508665978908538818e-01
-2.113517075777053833e-01 6.953095644712448120e-02 6.796830147504806519e-02
-7.161471247673034668e-02 2.786771208047866821e-02 -9.682325273752212524e-02
-1.028202623128890991e-01 1.987008452415466309e-01 2.725188806653022766e-02
7.993926107883453369e-02 1.709948182106018066e-01 8.881084620952606201e-03
6.706026196479797363e-02 3.671030700206756592e-02 1.100664809346199036e-01
1.408222690224647522e-02 1.228955686092376709e-01 -2.203614413738250732e-01
-2.430802136659622192e-01 9.819548577070236206e-02 5.890631675720214844e-02
1.612327545881271362e-01 1.131299436092376709e-01 1.039219088852405548e-02
1.340986937284469604e-01 9.367057681083679199e-02 1.028881520032882690e-01
1.443917304277420044e-01 1.157421544194221497e-01 6.538212299346923828e-02
-8.478839695453643799e-02 1.288002580404281616e-01 -2.211106717586517334e-01
9.023010730743408203e-02 1.560270190238952637e-01 -1.193028092384338379e-01
-1.943545490503311157e-01 5.367169901728630066e-02 -8.069577626883983612e-03
8.028459548950195312e-02 1.689772009849548340e-01 2.676533162593841553e-02
-1.431593298912048340e-01 1.913465559482574463e-01 -8.846512436866760254e-02
-3.677111491560935974e-02 1.703741401433944702e-02 5.387198179960250854e-02
5.633438751101493835e-02 1.540004909038543701e-01 1.204363331198692322e-01
1.313917785882949829e-01 4.323823750019073486e-02 3.240444511175155640e-02
-2.181572765111923218e-01 1.432103216648101807e-01 1.120635047554969788e-01
-7.031332701444625854e-03 1.950750797986984253e-01 -1.407334581017494202e-02
5.412433668971061707e-02 1.801857352256774902e-01 -5.748500674962997437e-02
6.568577885627746582e-02 1.772702038288116455e-01 -4.279133304953575134e-02
-2.931844070553779602e-02 4.124557226896286011e-02 -1.574734747409820557e-01
1.550770998001098633e-01 8.859119564294815063e-02 -9.985584765672683716e-02
9.853129088878631592e-02 1.644770801067352295e-01 -1.880264654755592346e-02
1.461182832717895508e-01 4.942794889211654663e-02 -5.188267678022384644e-04
7.943940162658691406e-02 2.206992357969284058e-02 -2.439353242516517639e-02
-2.353947795927524567e-02 1.970001608133316040e-01 -9.716516360640525818e-04
-7.868556678295135498e-02 1.992181837558746338e-01 -6.562802195549011230e-02
3.476122394204139709e-02 1.453568935394287109e-01 -1.935080587863922119e-01
-2.082315534353256226e-01 1.064870506525039673e-01 -1.380257904529571533e-01
-6.110899150371551514e-02 2.137218415737152100e-02 -6.775457412004470825e-02
8.741857111454010010e-02 6.326033174991607666e-02 -1.655181348323822021e-01
-1.781806498765945435e-01 1.723582893610000610e-01 -1.242714598774909973e-01
-1.174595654010772705e-01 5.631196871399879456e-02 1.557495892047882080e-01
-7.410123944282531738e-04 1.692083179950714111e-01 1.265214383602142334e-01
-1.440393030643463135e-01 5.314922332763671875e-02 1.280480325222015381e-01
-5.719216540455818176e-02 7.424100488424301147e-02 1.974782943725585938e-01
-3.916944563388824463e-02 2.304248511791229248e-02 9.242106229066848755e-02
-1.006582230329513550e-01 2.442527562379837036e-02 -3.737007826566696167e-02
-2.424062043428421021e-01 1.374652087688446045e-01 -8.042054623365402222e-02
-5.932748317718505859e-04 1.383699476718902588e-02 -2.497727423906326294e-02
1.016926020383834839e-01 6.919082999229431152e-02 -1.612995564937591553e-01
-6.384370476007461548e-02 2.008036673069000244e-01 -1.665295287966728210e-02
9.864687919616699219e-03 1.378415524959564209e-02 1.752595789730548859e-02
-2.031078487634658813e-01 1.297867149114608765e-01 -1.496083140373229980e-01
-1.580774188041687012e-01 1.827069222927093506e-01 -1.130217313766479492e-01
6.885644793510437012e-02 1.582297831773757935e-01 9.563774615526199341e-02
-2.352662943303585052e-02 1.904608309268951416e-01 -1.059275045990943909e-01
2.298660948872566223e-02 1.888968050479888916e-01 -4.865847900509834290e-02
1.644967943429946899e-01 1.003360226750373840e-01 2.343463897705078125e-02
-8.759897947311401367e-02 1.937367469072341919e-01 6.605143100023269653e-02
1.077889353036880493e-01 1.327617615461349487e-01 1.031139269471168518e-01
-9.957529604434967041e-02 7.032997906208038330e-02 1.847212016582489014e-01
3.818538039922714233e-03 1.868736743927001953e-01 -1.028526797890663147e-01
-1.041344553232192993e-02 4.866054281592369080e-02 -1.751425266265869141e-01
-1.927056014537811279e-01 5.704565718770027161e-02 -5.189231410622596741e-02
1.386949270963668823e-01 1.312161386013031006e-01 -9.147326648235321045e-02
1.580138504505157471e-02 1.754775643348693848e-02 5.958437919616699219e-02
-2.516800463199615479e-01 1.391814351081848145e-01 -4.663899540901184082e-02
5.031291767954826355e-02 1.209715753793716431e-01 1.719821989536285400e-01
7.704041898250579834e-02 1.315730810165405273e-01 1.406393647193908691e-01
-7.970222830772399902e-02 1.137793511152267456e-01 2.061602473258972168e-01
9.370076656341552734e-02 8.191048353910446167e-02 1.492627561092376709e-01
7.586365938186645508e-02 7.229991257190704346e-02 1.585402786731719971e-01
-1.297330856323242188e-01 1.945762634277343750e-01 4.652682319283485413e-02
-1.753304749727249146e-01 4.477192461490631104e-02 7.515132427215576172e-03
-2.111199684441089630e-02 1.852654814720153809e-01 -1.290085911750793457e-01
-9.425774961709976196e-02 1.527620255947113037e-01 1.750163137912750244e-01
-2.208707854151725769e-02 2.118533104658126831e-02 8.655130863189697266e-02
-1.070481091737747192e-01 2.633707970380783081e-02 5.145198479294776917e-02
4.980495944619178772e-02 2.003403007984161377e-02 -6.043390929698944092e-02
-2.060784548521041870e-01 1.811385154724121094e-01 -7.919466122984886169e-03
1.031842380762100220e-01 3.491515666246414185e-02 -7.879360020160675049e-02
6.145027652382850647e-02 1.371038556098937988e-01 1.466902792453765869e-01
-1.719521880149841309e-01 5.459799617528915405e-02 -8.894299715757369995e-02
1.334885358810424805e-01 6.420393288135528564e-02 8.748250454664230347e-02
-1.553736925125122070e-01 3.738091140985488892e-02 -5.167261697351932526e-03
3.944480791687965393e-02 1.979053020477294922e-02 6.063328683376312256e-02
-3.415380790829658508e-02 9.735737740993499756e-02 -2.268158197402954102e-01
1.661007255315780640e-01 7.344248890876770020e-02 -3.563115000724792480e-02
-7.471188902854919434e-03 1.749936640262603760e-01 -1.567736566066741943e-01
-1.728363335132598877e-01 1.841259598731994629e-01 6.392697989940643311e-02
3.909906372427940369e-02 1.744905114173889160e-01 -1.232234537601470947e-01
-2.343590110540390015e-01 1.189920604228973389e-01 -1.023277193307876587e-01
-5.773360282182693481e-02 1.668447852134704590e-01 -1.860201954841613770e-01
-4.753469675779342651e-02 1.890774518251419067e-01 -1.234864890575408936e-01
-2.101515419781208038e-02 1.430492103099822998e-02 2.910318970680236816e-02
-2.149951905012130737e-01 8.849765360355377197e-02 -1.058255657553672791e-01
-1.438742876052856445e-01 7.660724222660064697e-02 -1.711458563804626465e-01
7.769413292407989502e-03 1.040724664926528931e-01 1.991304755210876465e-01
-2.183176279067993164e-01 6.860096752643585205e-02 3.188186138868331909e-02
-1.102891415357589722e-01 4.139368981122970581e-02 1.239549294114112854e-01
4.082233086228370667e-02 4.795628041028976440e-02 1.505484879016876221e-01
6.513920426368713379e-02 1.458952128887176514e-01 -1.721914708614349365e-01
-2.103600651025772095e-03 1.927917599678039551e-01 1.579903252422809601e-02
8.611261844635009766e-03 1.605984121561050415e-01 -1.823644638061523438e-01
-2.010240256786346436e-01 1.554369628429412842e-01 -1.314769685268402100e-01
-8.306108415126800537e-02 2.012580037117004395e-01 -2.222357317805290222e-02
-1.039410829544067383e-01 1.976812481880187988e-01 -7.450147718191146851e-02
-2.232432365417480469e-01 1.725296080112457275e-01 -2.255849167704582214e-02
-2.118374854326248169e-01 9.529105573892593384e-02 1.231388971209526062e-01
-4.566306248307228088e-02 1.963565051555633545e-01 -8.054407685995101929e-02
1.245820522308349609e-01 1.488445103168487549e-01 6.690667942166328430e-03
-6.622949242591857910e-02 3.935604542493820190e-02 -1.418192684650421143e-01
-2.327727973461151123e-01 7.856146991252899170e-02 1.273742318153381348e-02
-1.908668875694274902e-01 5.375780165195465088e-02 4.403923824429512024e-02
1.509617641568183899e-02 8.375671505928039551e-02 1.947357654571533203e-01
-1.864951699972152710e-01 1.843476444482803345e-01 -6.528505682945251465e-02
-1.367649286985397339e-01 1.080011948943138123e-01 -2.017642557621002197e-01
1.108076721429824829e-01 1.527443379163742065e-01 3.725386038422584534e-02
-1.259716153144836426e-01 1.860630810260772705e-01 9.201060980558395386e-02
-2.217784076929092407e-01 8.016895502805709839e-02 -7.050749659538269043e-02
6.770323216915130615e-02 1.768870651721954346e-01 -2.176951244473457336e-02
-1.948235556483268738e-02 2.178314328193664551e-02 -9.071549028158187866e-02
-1.401703208684921265e-01 1.890618354082107544e-01 7.132491469383239746e-02
1.207022964954376221e-01 1.491622626781463623e-01 2.348480001091957092e-02
-1.232387125492095947e-01 1.285033524036407471e-01 1.914719045162200928e-01
1.186699569225311279e-01 8.680330216884613037e-02 -1.580246984958648682e-01
-2.530587315559387207e-01 1.122979819774627686e-01 4.300564900040626526e-02
9.637852013111114502e-02 1.524998545646667480e-01 7.179138809442520142e-02
2.680509909987449646e-02 1.881713122129440308e-01 -4.639038816094398499e-03
-3.903130441904067993e-02 5.311056599020957947e-02 -1.811723113059997559e-01
4.846506193280220032e-02 1.825504601001739502e-01 -5.638436879962682724e-03
-1.747114360332489014e-01 4.590624198317527771e-02 3.884658589959144592e-02
-8.196632564067840576e-02 2.528082579374313354e-02 -7.360395789146423340e-02
-7.390017807483673096e-02 1.828244328498840332e-02 -7.767038885504007339e-03
7.110932469367980957e-02 2.499008178710937500e-02 5.929802358150482178e-02
-5.970247834920883179e-02 1.999611556529998779e-01 4.573826678097248077e-03
-1.320803724229335785e-02 9.163364768028259277e-02 -2.240103483200073242e-01
-1.828441619873046875e-01 1.600836813449859619e-01 -1.444286704063415527e-01
1.698314398527145386e-01 9.600090235471725464e-02 -1.763194054365158081e-02
7.753746211528778076e-02 1.644477844238281250e-01 -1.092654541134834290e-01
-4.832065477967262268e-02 1.667055040597915649e-01 1.498456895351409912e-01
-1.524289846420288086e-01 4.678146913647651672e-02 -8.987486362457275391e-02
6.354954838752746582e-02 1.726522594690322876e-01 4.476603120565414429e-02
-1.180331856012344360e-01 2.652023732662200928e-02 6.766151636838912964e-04
-6.889355927705764771e-02 -9.253950119018554688e-01 -1.274355500936508179e-01
-1.626152694225311279e-01 -9.962005615234375000e-01 -3.727227449417114258e-04
-1.623186981305480003e-03 -1.016851663589477539e+00 2.840068191289901733e-02
-4.740805551409721375e-02 -1.016708135604858398e+00 7.551696151494979858e-03
6.903664767742156982e-02 -1.012632489204406738e+00 -2.532153576612472534e-02
-7.677031680941581726e-03 -1.011835336685180664e+00 8.075653016567230225e-02
1.566111892461776733e-01 -9.712459444999694824e-01 8.595480024814605713e-02
5.625943839550018311e-02 -9.326338768005371094e-01 -1.578320413827896118e-01
-1.562457084655761719e-01 -9.805340766906738281e-01 -1.141614615917205811e-01
1.725174486637115479e-01 -9.425962567329406738e-01 -1.382518745958805084e-02
9.467397630214691162e-02 -9.230906963348388672e-01 -9.290948510169982910e-02
-2.276753261685371399e-02 -9.347576498985290527e-01 -1.723175197839736938e-01
-1.413878202438354492e-01 -9.321074485778808594e-01 -7.583111524581909180e-02
1.042210236191749573e-01 -9.242871403694152832e-01 5.382551625370979309e-02
-1.722515821456909180e-01 -9.803615212440490723e-01 -8.731940388679504395e-02
5.303010344505310059e-02 -1.013995647430419922e+00 -3.641820698976516724e-02
1.838935613632202148e-01 -9.546527862548828125e-01 1.385440118610858917e-03
2.884899638593196869e-02 -9.257888197898864746e-01 1.112898290157318115e-01
-7.110854983329772949e-02 -9.865691661834716797e-01 -1.701769381761550903e-01
-5.679853633046150208e-02 -1.007962465286254883e+00 -1.063469946384429932e-01
-5.179783701896667480e-02 -9.589885473251342773e-01 -1.956681013107299805e-01
1.487646996974945068e-01 -9.696375131607055664e-01 9.897659718990325928e-02
9.625322371721267700e-02 -9.286816120147705078e-01 8.690802752971649170e-02
-1.210948973894119263e-01 -9.926282763481140137e-01 -1.246719807386398315e-01
-7.348039001226425171e-02 -1.003750443458557129e+00 -1.189136058092117310e-01
5.196940898895263672e-02 -9.498794078826904297e-01 -1.883702576160430908e-01
1.302947402000427246e-01 -9.365614652633666992e-01 7.999943196773529053e-02
1.095459610223770142e-01 -9.212936162948608398e-01 -4.684894159436225891e-02
-9.737332910299301147e-02 -9.184624552726745605e-01 -1.064578071236610413e-02
-6.617689877748489380e-02 -9.182428717613220215e-01 5.192326381802558899e-02
-8.342283964157104492e-02 -9.172477126121520996e-01 1.529518328607082367e-02
-5.073784850537776947e-03 -9.142541289329528809e-01 4.741220548748970032e-02
-5.705633014440536499e-02 -1.003812074661254883e+00 1.120309978723526001e-01
-8.539545536041259766e-02 -9.296131134033203125e-01 1.013332009315490723e-01
8.180727809667587280e-02 -9.173073768615722656e-01 2.202938497066497803e-02
-1.194439902901649475e-01 -9.238382577896118164e-01 -5.348285287618637085e-02
-1.368882656097412109e-01 -9.342081546783447266e-01 6.555297970771789551e-02
-1.149954199790954590e-01 -9.427273869514465332e-01 1.186435371637344360e-01
1.144472360610961914e-01 -9.975101947784423828e-01 -9.322495758533477783e-02
1.479332000017166138e-01 -9.395036101341247559e-01 -9.386432170867919922e-02
8.078504353761672974e-03 -9.245210886001586914e-01 1.092900037765502930e-01
-1.282968521118164062e-01 -9.968860745429992676e-01 8.553040027618408203e-02
8.102903515100479126e-02 -9.994052648544311523e-01 -1.200389266014099121e-01
1.732929497957229614e-01 -9.542900919914245605e-01 -7.660683989524841309e-02
-1.534959822893142700e-01 -9.496229290962219238e-01 -1.192108541727066040e-01
-1.002678498625755310e-01 -9.233760237693786621e-01 -8.750411868095397949e-02
-1.824715435504913330e-01 -9.859536290168762207e-01 3.928674384951591492e-03
2.141031250357627869e-02 -9.484384059906005859e-01 -1.937221586704254150e-01
2.779446355998516083e-02 -9.137974977493286133e-01 -7.352004945278167725e-02
1.764217764139175415e-01 -9.769352078437805176e-01 2.321804314851760864e-02
-1.646966040134429932e-01 -9.398075342178344727e-01 3.519133105874061584e-02
9.946244210004806519e-02 -9.417588114738464355e-01 1.242910027503967285e-01
-5.708462372422218323e-02 -9.988567233085632324e-01 1.292667537927627563e-01
4.359660204499959946e-03 -9.395524263381958008e-01 -1.831912398338317871e-01
1.222882419824600220e-02 -1.005860328674316406e+00 -1.246852725744247437e-01
-1.635533124208450317e-01 -9.358193874359130859e-01 -1.021482236683368683e-02
-8.451455086469650269e-02 -9.618241190910339355e-01 1.602364033460617065e-01
-1.605901122093200684e-02 -9.795279502868652344e-01 -1.921166479587554932e-01
-1.069334968924522400e-01 -9.361420273780822754e-01 1.076972335577011108e-01
-1.532906740903854370e-01 -9.943498373031616211e-01 -7.268890738487243652e-02
8.792994916439056396e-02 -9.414396286010742188e-01 -1.614574193954467773e-01
-1.857503056526184082e-01 -9.485089182853698730e-01 -2.584592625498771667e-02
5.732835829257965088e-02 -9.155031442642211914e-01 3.435275703668594360e-02
-7.832436263561248779e-02 -9.363472461700439453e-01 -1.580915004014968872e-01
1.087809577584266663e-01 -9.311957359313964844e-01 -1.178923696279525757e-01
-3.565379977226257324e-02 -9.122754335403442383e-01 -3.951631113886833191e-02
-4.193629324436187744e-02 -9.500191211700439453e-01 -1.926491558551788330e-01
-1.881379932165145874e-01 -9.818372726440429688e-01 -1.645986735820770264e-02
8.049609512090682983e-02 -9.304752945899963379e-01 1.061883568763732910e-01
5.958624649792909622e-03 -9.971402287483215332e-01 1.410948485136032104e-01
-1.363659054040908813e-01 -9.509094357490539551e-01 -1.416065990924835205e-01
-1.224687770009040833e-01 -9.747199416160583496e-01 1.359365880489349365e-01
-1.382421106100082397e-01 -9.672253727912902832e-01 1.250802725553512573e-01
1.011894568800926208e-01 -9.937481284141540527e-01 1.066112071275711060e-01
-8.067113906145095825e-02 -9.249341487884521484e-01 8.371645212173461914e-02
-9.853184968233108521e-02 -9.254302382469177246e-01 -1.029327213764190674e-01
-1.140127480030059814e-01 -9.219487905502319336e-01 6.725683808326721191e-03
1.313510909676551819e-02 -9.386984705924987793e-01 1.506362259387969971e-01
1.552335023880004883e-01 -9.406077265739440918e-01 5.232788994908332825e-02
-5.034345015883445740e-02 -1.010928630828857422e+00 -9.077626466751098633e-02
7.318200170993804932e-02 -1.011662364006042480e+00 2.311739698052406311e-02
-4.987791180610656738e-03 -9.502206444740295410e-01 -1.969412267208099365e-01
1.365339457988739014e-01 -9.806413650512695312e-01 -1.221370398998260498e-01
1.172592788934707642e-01 -9.983026981353759766e-01 6.799590587615966797e-02
-5.990325659513473511e-02 -1.012485265731811523e+00 -7.283860445022583008e-02
-8.075416088104248047e-02 -9.220592379570007324e-01 -1.009852290153503418e-01
5.961474031209945679e-02 -1.014026522636413574e+00 -7.250495720654726028e-03
6.885295361280441284e-02 -9.608253836631774902e-01 1.622339785099029541e-01
1.494449973106384277e-01 -9.368622899055480957e-01 -7.939080893993377686e-02
1.125505119562149048e-01 -9.512169361114501953e-01 -1.576740294694900513e-01
-1.393335908651351929e-01 -9.366888403892517090e-01 -1.034412533044815063e-01
-1.201478242874145508e-01 -9.336866736412048340e-01 -1.171500533819198608e-01
-6.997384130954742432e-02 -9.997813105583190918e-01 1.212174892425537109e-01
-1.571119576692581177e-01 -9.340267777442932129e-01 -4.057756811380386353e-02
-1.520441472530364990e-01 -9.331613183021545410e-01 -5.366352573037147522e-02
8.722357451915740967e-02 -9.167701601982116699e-01 -2.687697485089302063e-02
-9.803055971860885620e-02 -9.303135871887207031e-01 9.429565072059631348e-02
1.863383054733276367e-01 -9.648409485816955566e-01 -1.959380507469177246e-02
-2.532171271741390228e-02 -9.140751957893371582e-01 4.043184220790863037e-02
-3.520772233605384827e-02 -9.331375360488891602e-01 1.345821768045425415e-01
-6.074508279561996460e-02 -9.812564253807067871e-01 -1.820786446332931519e-01
1.397887468338012695e-01 -9.884820580482482910e-01 -9.477850794792175293e-02
1.716199219226837158e-01 -9.688162803649902344e-01 -8.240236341953277588e-02
-3.341860603541135788e-03 -9.194152355194091797e-01 -1.201252788305282593e-01
-4.520628601312637329e-02 -9.188578128814697266e-01 -1.061565428972244263e-01
7.763850688934326172e-02 -9.169967174530029297e-01 -6.144915893673896790e-02
1.579746305942535400e-01 -9.554009437561035156e-01 -1.098899990320205688e-01
6.305398419499397278e-04 -9.741722941398620605e-01 -1.974865496158599854e-01
-1.437495946884155273e-01 -9.908130168914794922e-01 8.733977377414703369e-02
-4.890007898211479187e-02 -9.164047837257385254e-01 -8.553250133991241455e-02
6.447793543338775635e-02 -9.385072588920593262e-01 1.371872872114181519e-01
1.088700070977210999e-01 -1.003400564193725586e+00 4.703050479292869568e-02
-1.295582503080368042e-01 -1.002173662185668945e+00 5.504553392529487610e-02
-1.683808267116546631e-01 -9.440842270851135254e-01 4.819604381918907166e-02
1.200889982283115387e-02 -9.564961791038513184e-01 -2.002502828836441040e-01
9.462690353393554688e-02 -9.802697300910949707e-01 1.403557807207107544e-01
-8.213061839342117310e-02 -1.013527274131774902e+00 -2.959731593728065491e-02
5.922491103410720825e-02 -9.949773550033569336e-01 -1.488502025604248047e-01
1.771798878908157349e-01 -9.724259972572326660e-01 -5.916923284530639648e-02
-1.146214529871940613e-01 -1.008293390274047852e+00 -3.828482329845428467e-02
8.027029782533645630e-02 -9.188708662986755371e-01 4.256208240985870361e-02
4.440063238143920898e-02 -9.124515056610107422e-01 -5.277165211737155914e-03
4.769735783338546753e-02 -9.275935292243957520e-01 1.124902218580245972e-01
-3.894458711147308350e-02 -9.709136486053466797e-01 -1.968372017145156860e-01
-1.318941116333007812e-01 -1.003595471382141113e+00 -5.154085159301757812e-02
-6.530812941491603851e-03 -9.223228693008422852e-01 9.981988370418548584e-02
-1.509942561388015747e-01 -9.335028529167175293e-01 2.970797941088676453e-02
7.661854475736618042e-02 -1.010254383087158203e+00 3.786607831716537476e-02
2.644452638924121857e-02 -1.014724493026733398e+00 -5.742166936397552490e-02
-1.740578711032867432e-01 -9.875640273094177246e-01 -5.515936389565467834e-02
1.790070086717605591e-01 -9.513589739799499512e-01 2.059619128704071045e-02
-7.274842262268066406e-02 -9.563513994216918945e-01 -1.879252642393112183e-01
6.312856823205947876e-02 -9.148762226104736328e-01 -5.445026978850364685e-02
1.178345903754234314e-01 -1.002959370613098145e+00 2.787037193775177002e-02
-4.146748408675193787e-02 -9.991875886917114258e-01 -1.482523381710052490e-01
-5.981552414596080780e-03 -9.110826849937438965e-01 -3.039518743753433228e-02
-1.059796810150146484e-01 -9.737004041671752930e-01 -1.694422066211700439e-01
-1.191228851675987244e-01 -1.006086111068725586e+00 -5.575910955667495728e-02
-6.290325522422790527e-02 -1.015570282936096191e+00 -2.355403453111648560e-02
6.518026441335678101e-02 -9.186078906059265137e-01 -9.189559519290924072e-02
-1.266835629940032959e-01 -9.992541670799255371e-01 -9.213583171367645264e-02
-5.688953772187232971e-02 -9.841546416282653809e-01 1.598907858133316040e-01
2.595577761530876160e-02 -1.006095409393310547e+00 -1.201987564563751221e-01
9.750733524560928345e-02 -9.493867754936218262e-01 -1.666404306888580322e-01
1.530738919973373413e-01 -9.532643556594848633e-01 8.793756365776062012e-02
-1.733965426683425903e-01 -9.422108530998229980e-01 -4.833370819687843323e-02
-1.809827536344528198e-01 -9.855794906616210938e-01 -3.853056207299232483e-02
9.998498857021331787e-02 -9.398768544197082520e-01 -1.503792703151702881e-01
-8.204036206007003784e-02 -9.207628369331359863e-01 5.633766576647758484e-02
7.710407674312591553e-02 -9.342249631881713867e-01 -1.520437151193618774e-01
9.658908098936080933e-02 -9.186462759971618652e-01 -4.169973358511924744e-02
9.400438517332077026e-02 -9.883021712303161621e-01 1.270124316215515137e-01
1.610972285270690918e-01 -9.883230328559875488e-01 -3.681015968322753906e-02
1.029756441712379456e-01 -9.198641180992126465e-01 8.336223661899566650e-03
-1.224110871553421021e-01 -1.006903648376464844e+00 2.223164588212966919e-02
4.744879435747861862e-03 -1.017588019371032715e+00 -1.465215347707271576e-03
-6.238192319869995117e-02 -9.225149750709533691e-01 8.356575667858123779e-02
1.133715733885765076e-01 -9.235372543334960938e-01 3.103778138756752014e-02
1.189858540892601013e-01 -9.235832691192626953e-01 1.585682667791843414e-02
1.271566301584243774e-01 -1.001373052597045898e+00 1.235283352434635162e-02
1.619094759225845337e-01 -9.890253543853759766e-01 -6.123136263340711594e-03
3.515487536787986755e-02 -1.015998840332031250e+00 -2.215855568647384644e-02
5.734376236796379089e-02 -1.002694129943847656e+00 -1.220189929008483887e-01
-2.388527989387512207e-02 -9.450889229774475098e-01 1.614925861358642578e-01
1.389091461896896362e-01 -9.923109412193298340e-01 6.076153740286827087e-02
-1.009152233600616455e-01 -9.395257830619812012e-01 -1.515572965145111084e-01
-5.911598354578018188e-02 -9.357705116271972656e-01 1.345361471176147461e-01
-3.579862043261528015e-02 -9.133147597312927246e-01 -6.065656989812850952e-02
3.539408743381500244e-02 -1.000033617019653320e+00 1.263857781887054443e-01
1.126604080200195312e-01 -9.858863949775695801e-01 -1.362287253141403198e-01
5.069393664598464966e-02 -9.982260465621948242e-01 1.262733042240142822e-01
-4.393473267555236816e-02 -9.993268847465515137e-01 1.316717267036437988e-01
-1.078894510865211487e-01 -1.009571790695190430e+00 2.415988594293594360e-02
-1.796264499425888062e-01 -9.774032235145568848e-01 5.719876661896705627e-02
7.179751247167587280e-02 -9.889646172523498535e-01 -1.581624895334243774e-01
-6.382721662521362305e-02 -9.162486195564270020e-01 3.438800573348999023e-02
3.110393695533275604e-02 -9.144638180732727051e-01 4.264780879020690918e-02
-8.199480921030044556e-02 -9.797278642654418945e-01 1.559286564588546753e-01
-1.501962840557098389e-01 -9.993111491203308105e-01 2.614230290055274963e-02
-4.392409697175025940e-02 -9.126415848731994629e-01 -1.921663060784339905e-03
-1.980194263160228729e-02 -9.124087095260620117e-01 2.068893611431121826e-02
-1.790634840726852417e-01 -9.622634053230285645e-01 6.675560772418975830e-02
-9.501533955335617065e-02 -9.182935953140258789e-01 -3.460859134793281555e-02
-3.614821657538414001e-02 -9.417849779129028320e-01 -1.835911273956298828e-01
1.411525160074234009e-01 -9.299477934837341309e-01 -5.215543136000633240e-02
3.035884909331798553e-02 -9.913091659545898438e-01 1.505382061004638672e-01
-1.172436550259590149e-01 -9.262861013412475586e-01 -8.247621357440948486e-02
1.095802038908004761e-01 -9.953498840332031250e-01 -1.094604134559631348e-01
1.525875478982925415e-01 -9.336927533149719238e-01 -4.596747085452079773e-02
-5.574631318449974060e-02 -1.002984046936035156e+00 -1.303597688674926758e-01
4.874353855848312378e-02 -1.014971375465393066e+00 7.465075701475143433e-03
1.934125088155269623e-02 -1.016207695007324219e+00 2.855846285820007324e-02
-1.742918342351913452e-01 -9.564178586006164551e-01 -9.530042111873626709e-02
-3.325866069644689560e-03 -1.007261157035827637e+00 1.061051934957504272e-01
-1.220502704381942749e-01 -9.427339434623718262e-01 -1.413818895816802979e-01
-2.310284879058599472e-03 -9.145144820213317871e-01 -8.636769652366638184e-02
4.684446752071380615e-02 -9.207060933113098145e-01 8.169180154800415039e-02
-1.465946435928344727e-01 -9.732363820075988770e-01 -1.359903663396835327e-01
-1.182921901345252991e-01 -9.847087860107421875e-01 1.277000457048416138e-01
2.040280960500240326e-04 -9.130471348762512207e-01 -7.113000005483627319e-02
7.964865863323211670e-02 -1.011354207992553711e+00 5.493039265275001526e-03
-7.266132533550262451e-02 -9.293057322502136230e-01 1.082042157649993896e-01
-4.461469501256942749e-02 -9.809133410453796387e-01 -1.867033988237380981e-01
-6.081652268767356873e-02 -9.139827489852905273e-01 -2.515285275876522064e-03
1.724567860364913940e-01 -9.820401072502136230e-01 -3.071317262947559357e-02
-8.153365552425384521e-02 -9.497155547142028809e-01 1.516769528388977051e-01
5.827216804027557373e-02 -1.009849905967712402e+00 -7.936391234397888184e-02
-4.750996083021163940e-02 -9.276490807533264160e-01 -1.463609337806701660e-01
1.343784183263778687e-01 -9.873113632202148438e-01 -1.073537617921829224e-01
6.058300286531448364e-02 -9.217476844787597656e-01 8.013552427291870117e-02
1.547433882951736450e-01 -9.334598779678344727e-01 -8.592768572270870209e-03
-6.442470848560333252e-02 -9.410938024520874023e-01 -1.742514967918395996e-01
-1.354286074638366699e-01 -9.654731154441833496e-01 -1.509384363889694214e-01
-3.593149408698081970e-02 -1.016865372657775879e+00 1.983292773365974426e-02
-1.167311072349548340e-01 -9.576776027679443359e-01 1.392798274755477905e-01
-1.929956078529357910e-01 -9.736831784248352051e-01 -3.697424009442329407e-02
-8.096670359373092651e-02 -9.162439703941345215e-01 -1.761492341756820679e-03
1.588597521185874939e-02 -9.253526329994201660e-01 -1.456136256456375122e-01
7.747018337249755859e-02 -1.007871985435485840e+00 6.067537143826484680e-02
-1.315391995012760162e-02 -1.000959038734436035e+00 -1.459751129150390625e-01
-1.112031787633895874e-01 -1.009656429290771484e+00 7.539309561252593994e-03
-1.174036040902137756e-01 -9.288547635078430176e-01 6.621704995632171631e-02
9.333582222461700439e-02 -9.176800847053527832e-01 -9.910784661769866943e-03
2.583342045545578003e-02 -9.114701747894287109e-01 -2.952255494892597198e-02
-2.210598997771739960e-02 -9.273957610130310059e-01 1.189055442810058594e-01
-9.046033769845962524e-02 -9.916790723800659180e-01 -1.500891894102096558e-01
-1.301806122064590454e-01 -9.314134716987609863e-01 -9.317436814308166504e-02
-8.086246997117996216e-02 -9.194465875625610352e-01 -8.138561248779296875e-02
1.327367126941680908e-01 -9.276855587959289551e-01 2.292056009173393250e-02
2.334462106227874756e-02 -9.113589525222778320e-01 -9.335661306977272034e-03
3.782800957560539246e-02 -9.311621189117431641e-01 -1.599133908748626709e-01
-1.675523221492767334e-01 -9.560600519180297852e-01 -1.073267012834548950e-01
-2.377011999487876892e-02 -9.729220867156982422e-01 1.756284832954406738e-01
-1.728692203760147095e-01 -9.446651935577392578e-01 -6.630252301692962646e-02
-1.339422762393951416e-01 -1.004940748214721680e+00 6.031829863786697388e-03
1.417341642081737518e-02 -9.185179471969604492e-01 7.884711027145385742e-02
1.095151007175445557e-01 -9.206486344337463379e-01 -4.521246999502182007e-03
6.855600327253341675e-02 -1.005783677101135254e+00 -9.847304224967956543e-02
1.054475158452987671e-01 -9.818980097770690918e-01 1.302034109830856323e-01
-1.203224211931228638e-01 -9.395383596420288086e-01 1.057897806167602539e-01
-1.002170071005821228e-01 -9.203181266784667969e-01 2.334878221154212952e-02
-9.554078429937362671e-02 -1.010799050331115723e+00 -4.807991534471511841e-02
8.520884811878204346e-02 -9.413732886314392090e-01 1.327645033597946167e-01
3.468542173504829407e-02 -9.430342316627502441e-01 1.553966999053955078e-01
-4.763045813888311386e-03 -1.015136599540710449e+00 5.284791067242622375e-02
3.822401165962219238e-02 -9.133684635162353516e-01 -6.134611740708351135e-02
3.482703864574432373e-02 -9.366670846939086914e-01 1.427529156208038330e-01
1.402679383754730225e-01 -9.518858790397644043e-01 1.034108996391296387e-01
9.007205069065093994e-02 -9.283370375633239746e-01 -1.242061108350753784e-01
-7.881159894168376923e-03 -9.629454016685485840e-01 1.775626987218856812e-01
-1.789062917232513428e-01 -9.803017377853393555e-01 -7.166300714015960693e-02
-8.985451608896255493e-02 -9.205139875411987305e-01 4.447871819138526917e-02
-1.523410081863403320e-01 -9.920701980590820312e-01 -8.600239455699920654e-02
4.295945167541503906e-02 -9.233714342117309570e-01 -1.312170475721359253e-01
-9.464396536350250244e-02 -1.012377619743347168e+00 -1.277603954076766968e-02
9.584186971187591553e-02 -1.005637288093566895e+00 5.210277065634727478e-02
-5.674317106604576111e-02 -1.009232878684997559e+00 8.581092953681945801e-02
-8.386909030377864838e-03 -9.421009421348571777e-01 1.577492356300354004e-01
-1.442665606737136841e-01 -9.294235110282897949e-01 -3.713709488511085510e-02
-1.316647976636886597e-01 -9.264197945594787598e-01 -4.771682247519493103e-02
1.311541497707366943e-01 -9.262661337852478027e-01 -4.344292357563972473e-02
-9.169692546129226685e-02 -9.989091157913208008e-01 -1.273422241210937500e-01
1.019040271639823914e-01 -9.268320202827453613e-01 7.227146625518798828e-02
-2.669359371066093445e-02 -1.009052991867065430e+00 -1.094753593206405640e-01
-7.860328257083892822e-02 -9.452251791954040527e-01 -1.748432964086532593e-01
-3.445646911859512329e-02 -9.164208769798278809e-01 5.837723985314369202e-02
-3.275346476584672928e-03 -1.017400503158569336e+00 -2.717640995979309082e-02
-6.850791722536087036e-02 -9.332455396652221680e-01 1.235621422529220581e-01
-1.179157048463821411e-01 -1.008537530899047852e+00 -1.409367471933364868e-02
7.776589598506689072e-03 -1.011225342750549316e+00 8.291690051555633545e-02
-1.472841501235961914e-01 -9.580041766166687012e-01 1.118835359811782837e-01
1.168669536709785461e-01 -9.396479129791259766e-01 1.047983169555664062e-01
1.832344233989715576e-01 -9.702876210212707520e-01 -3.475039824843406677e-02
1.577568612992763519e-02 -9.185504913330078125e-01 -1.141946464776992798e-01
-1.134842187166213989e-01 -1.005940675735473633e+00 -6.784260272979736328e-02
-2.171595767140388489e-02 -9.229595661163330078e-01 1.010143458843231201e-01
-4.071339033544063568e-03 -9.323063492774963379e-01 -1.678778231143951416e-01
1.211815699934959412e-01 -1.000765085220336914e+00 4.264579340815544128e-02
1.951894722878932953e-03 -1.013424754142761230e+00 6.794081628322601318e-02
7.014351431280374527e-03 -9.123682379722595215e-01 2.481080219149589539e-02
-6.322468072175979614e-02 -9.463541507720947266e-01 1.543682068586349487e-01
-1.231858357787132263e-01 -9.962292909622192383e-01 -1.100063472986221313e-01
-1.716240644454956055e-01 -9.400193691253662109e-01 4.554696381092071533e-03
-1.208643019199371338e-01 -9.228854179382324219e-01 -1.778090745210647583e-02
1.948943827301263809e-03 -9.997431635856628418e-01 -1.497042924165725708e-01
-1.406016647815704346e-01 -9.435036182403564453e-01 9.457497298717498779e-02
6.058310717344284058e-02 -1.009046792984008789e+00 6.988157331943511963e-02
-7.050452381372451782e-02 -9.259162545204162598e-01 9.550668299198150635e-02
2.176173031330108643e-02 -9.995677471160888672e-01 -1.474009752273559570e-01
7.529728859663009644e-02 -9.206414818763732910e-01 6.220282241702079773e-02
-1.281674113124608994e-02 -9.130863547325134277e-01 3.319147229194641113e-02
-8.653871715068817139e-02 -1.013192772865295410e+00 1.221825741231441498e-02
3.489547967910766602e-02 -1.009849190711975098e+00 8.219933509826660156e-02
9.921525418758392334e-02 -9.686387777328491211e-01 -1.700814515352249146e-01
4.911920055747032166e-02 -9.922412633895874023e-01 -1.604911088943481445e-01
1.091708764433860779e-01 -9.967728257179260254e-01 8.688484132289886475e-02
-1.835910826921463013e-01 -9.575647711753845215e-01 -7.493309676647186279e-02
1.373849213123321533e-01 -9.889923930168151855e-01 7.790817320346832275e-02
-1.131809279322624207e-01 -9.215292334556579590e-01 -3.390308469533920288e-02
-6.071850657463073730e-05 -9.195834994316101074e-01 8.603495359420776367e-02
1.427441984415054321e-01 -9.939200878143310547e-01 -5.908100679516792297e-02
-3.629895625635981560e-03 -9.109755754470825195e-01 -1.365728024393320084e-02
3.008254058659076691e-02 -9.207109808921813965e-01 -1.228555738925933838e-01
-1.408477276563644409e-01 -9.279392361640930176e-01 -1.295950450003147125e-02
5.676176026463508606e-02 -9.136818647384643555e-01 -4.190477728843688965e-02
-1.349241733551025391e-01 -9.944490790367126465e-01 -1.029290109872817993e-01
3.188152238726615906e-02 -9.120295643806457520e-01 4.538172855973243713e-03
-6.713700294494628906e-02 -9.686018824577331543e-01 -1.906626969575881958e-01
-1.140509359538555145e-02 -9.294970035552978516e-01 1.272060573101043701e-01
5.041832476854324341e-02 -9.160233736038208008e-01 -8.220067620277404785e-02
-9.344405680894851685e-02 -1.002044439315795898e+00 9.862650930881500244e-02
1.352524757385253906e-01 -9.452561736106872559e-01 -1.275898069143295288e-01
9.478157758712768555e-02 -9.262873530387878418e-01 -1.108882576227188110e-01
