-1.105541139841079712e-01 6.662791967391967773e-02 -6.214590072631835938e-01
-2.162785381078720093e-01 -4.451347514986991882e-03 -4.794276058673858643e-01
1.722394227981567383e-01 -9.226530790328979492e-03 -6.126770973205566406e-01
-2.313617765903472900e-01 -2.083643525838851929e-02 -6.443955898284912109e-01
-2.252670377492904663e-01 6.110717728734016418e-02 -5.612335801124572754e-01
1.976012438535690308e-02 -1.869678124785423279e-02 -7.587151527404785156e-01
-1.934230327606201172e-02 -2.332769334316253662e-02 -5.822831392288208008e-01
1.410228461027145386e-01 2.980110794305801392e-02 -5.580430030822753906e-01
-2.662714719772338867e-01 -6.930094212293624878e-03 -7.169781923294067383e-01
1.439016908407211304e-01 5.557974800467491150e-02 -7.095468044281005859e-01
-2.105964571237564087e-01 -1.442781090736389160e-02 -7.158786058425903320e-01
-1.147908121347427368e-01 -1.677060127258300781e-02 -5.236394405364990234e-01
-2.041688561439514160e-01 2.250640280544757843e-02 -4.533411264419555664e-01
-2.549654245376586914e-01 6.164810433983802795e-02 -6.613225936889648438e-01
-3.267759680747985840e-01 5.711288377642631531e-02 -5.966712236404418945e-01
2.197138667106628418e-01 -1.946918666362762451e-03 -6.304150223731994629e-01
1.734769046306610107e-01 3.682614117860794067e-02 -5.942631363868713379e-01
-3.970509171485900879e-01 3.274780511856079102e-02 -6.701760292053222656e-01
-2.303373962640762329e-01 5.485266447067260742e-02 -7.279546260833740234e-01
-1.079775765538215637e-01 -5.972983315587043762e-03 -7.880047559738159180e-01
8.992448449134826660e-02 3.918500989675521851e-02 -5.474198460578918457e-01
-2.529634833335876465e-01 6.278806924819946289e-02 -6.003819108009338379e-01
-1.528294384479522705e-01 6.631989777088165283e-02 -6.697760224342346191e-01
-4.064604938030242920e-01 3.464596346020698547e-03 -5.376074910163879395e-01
-1.785625219345092773e-01 4.315635934472084045e-02 -7.847369313240051270e-01
-6.699721515178680420e-02 6.540754437446594238e-02 -7.071999311447143555e-01
-2.937981486320495605e-01 5.688020959496498108e-02 -5.511831641197204590e-01
-2.547799944877624512e-01 5.666463822126388550e-02 -5.349410772323608398e-01
-2.723070085048675537e-01 -1.621496677398681641e-02 -6.554656624794006348e-01
-1.416662484407424927e-01 -9.682510048151016235e-03 -4.945479035377502441e-01
-2.996354997158050537e-01 4.016749933362007141e-02 -7.347068190574645996e-01
6.833918392658233643e-03 4.626009240746498108e-02 -5.293844938278198242e-01
1.947803795337677002e-02 3.410632535815238953e-02 -8.364642858505249023e-01
1.134657561779022217e-01 5.064044147729873657e-02 -6.024453043937683105e-01
-3.054907917976379395e-01 -8.157839998602867126e-03 -6.821323037147521973e-01
-8.794644474983215332e-02 6.399187445640563965e-02 -5.895239114761352539e-01
-1.408916860818862915e-01 -2.980675548315048218e-03 -4.776679277420043945e-01
1.053781360387802124e-01 -7.270338013768196106e-03 -8.036084175109863281e-01
-8.802654594182968140e-02 -7.540475577116012573e-03 -7.886846661567687988e-01
-5.735726654529571533e-02 -2.534800767898559570e-02 -6.969168186187744141e-01
-6.080011278390884399e-02 -1.756205782294273376e-02 -5.352764725685119629e-01
-6.798377633094787598e-02 -8.913850411772727966e-03 -7.890614271163940430e-01
1.959669589996337891e-01 4.463966563344001770e-02 -6.486648321151733398e-01
-1.169696152210235596e-01 6.610724329948425293e-02 -6.894401907920837402e-01
1.330697983503341675e-01 5.338887125253677368e-02 -6.385642886161804199e-01
-3.973294794559478760e-01 1.709934882819652557e-02 -4.929456710815429688e-01
-7.956304401159286499e-02 6.656240671873092651e-02 -6.285722255706787109e-01
2.897630035877227783e-01 1.688260212540626526e-02 -7.223524451255798340e-01
-2.458890974521636963e-01 -2.077414095401763916e-02 -6.035516858100891113e-01
2.151433229446411133e-01 3.807678073644638062e-02 -7.879739999771118164e-01
1.813099682331085205e-01 -1.273564621806144714e-02 -7.488865852355957031e-01
-2.603552117943763733e-02 6.553162634372711182e-02 -6.378962993621826172e-01
2.003878951072692871e-01 -8.689302951097488403e-03 -6.392867565155029297e-01
1.987819969654083252e-01 3.656905144453048706e-02 -8.032954931259155273e-01
4.604378342628479004e-02 -1.145333796739578247e-02 -7.929056882858276367e-01
-1.075982823967933655e-01 6.138106808066368103e-02 -7.383791208267211914e-01
5.222499370574951172e-02 8.309619501233100891e-03 -5.095283985137939453e-01
-1.913195848464965820e-01 6.551661342382431030e-02 -6.576776504516601562e-01
-1.970290988683700562e-01 5.858914181590080261e-02 -5.389539003372192383e-01
-3.033545315265655518e-01 5.417535081505775452e-02 -5.356233119964599609e-01
-3.794654607772827148e-01 5.388132296502590179e-03 -5.014081597328186035e-01
-4.050139337778091431e-02 -2.613627538084983826e-02 -6.079321503639221191e-01
7.256242632865905762e-02 5.899928882718086243e-02 -7.448152899742126465e-01
-3.341243267059326172e-01 5.461537465453147888e-02 -5.614844560623168945e-01
-1.095812991261482239e-01 -2.681908011436462402e-02 -6.283539533615112305e-01
-1.482511460781097412e-01 4.929108545184135437e-03 -7.992714643478393555e-01
7.326994836330413818e-02 -1.432675495743751526e-02 -7.793507575988769531e-01
2.088609337806701660e-01 4.689422249794006348e-02 -7.044937014579772949e-01
-2.289040833711624146e-01 -1.287604868412017822e-02 -7.133817672729492188e-01
-1.947768330574035645e-01 3.992316499352455139e-02 -4.730519056320190430e-01
1.681334972381591797e-01 -1.711626723408699036e-02 -7.004003524780273438e-01
-2.391160726547241211e-01 4.295487701892852783e-02 -7.610026597976684570e-01
-2.295491248369216919e-01 6.330960988998413086e-02 -6.631576418876647949e-01
-1.165620237588882446e-02 -2.689903602004051208e-02 -6.407737135887145996e-01
-1.486956179141998291e-01 -2.269872650504112244e-02 -6.906871199607849121e-01
-4.475210979580879211e-02 6.456588208675384521e-02 -7.177047133445739746e-01
-2.734351754188537598e-01 4.520696401596069336e-02 -4.889192879199981689e-01
2.860869765281677246e-01 2.015819959342479706e-02 -7.019307017326354980e-01
2.108390629291534424e-01 -1.166125759482383728e-02 -7.075000405311584473e-01
-9.225524961948394775e-02 5.653359368443489075e-02 -5.383319854736328125e-01
-1.194958165287971497e-01 -2.136330306529998779e-02 -5.498832464218139648e-01
-3.385212123394012451e-01 4.779151082038879395e-02 -5.169102549552917480e-01
-3.681774437427520752e-01 5.185067281126976013e-02 -6.037669181823730469e-01
1.349915713071823120e-01 3.414918854832649231e-02 -8.295176029205322266e-01
-1.126745641231536865e-01 -1.208680495619773865e-02 -7.667930722236633301e-01
-2.128719687461853027e-01 -2.631649374961853027e-03 -7.592880129814147949e-01
2.845005691051483154e-02 -1.585099101066589355e-02 -5.543866753578186035e-01
1.977853477001190186e-01 4.816711694002151489e-02 -7.345136404037475586e-01
-2.253426164388656616e-01 -2.218036726117134094e-02 -6.096152663230895996e-01
2.362594604492187500e-01 2.522142603993415833e-03 -7.853609919548034668e-01
4.645550251007080078e-02 2.587396465241909027e-02 -8.438346982002258301e-01
-1.184412315487861633e-01 -2.602959051728248596e-02 -6.026994585990905762e-01
-2.060959786176681519e-01 -1.760173961520195007e-02 -6.991510391235351562e-01
-1.351442337036132812e-01 -1.810035482048988342e-02 -7.310990095138549805e-01
3.646054863929748535e-01 -1.913499832153320312e-01 -7.205418944358825684e-01
3.534045517444610596e-01 -1.852849125862121582e-01 -7.283034920692443848e-01
3.563659191131591797e-01 -1.868884265422821045e-01 -7.262514829635620117e-01
3.612617850303649902e-01 -1.895395219326019287e-01 -7.228589653968811035e-01
3.627852499485015869e-01 -1.903643310070037842e-01 -7.218032479286193848e-01
3.611236810684204102e-01 -1.894646435976028442e-01 -7.229545712471008301e-01
3.554431796073913574e-01 -1.863887459039688110e-01 -7.268908619880676270e-01
3.574979007244110107e-01 -1.875013858079910278e-01 -7.254670858383178711e-01
3.610327243804931641e-01 -1.894153952598571777e-01 -7.230175733566284180e-01
3.650155961513519287e-01 -1.915720701217651367e-01 -7.202577590942382812e-01
3.671957850456237793e-01 -1.927525699138641357e-01 -7.187470197677612305e-01
3.584846556186676025e-01 -1.880357116460800171e-01 -7.247832417488098145e-01
3.596644401550292969e-01 -1.886744946241378784e-01 -7.239658236503601074e-01
3.640069365501403809e-01 -1.910258680582046509e-01 -7.209567427635192871e-01
3.598939180374145508e-01 -1.887987852096557617e-01 -7.238067388534545898e-01
3.671454787254333496e-01 -1.927254199981689453e-01 -7.187818288803100586e-01
3.640777170658111572e-01 -1.910642385482788086e-01 -7.209076881408691406e-01
3.558338582515716553e-01 -1.866002827882766724e-01 -7.266201376914978027e-01
3.533297181129455566e-01 -1.852443814277648926e-01 -7.283553481101989746e-01
3.529880046844482422e-01 -1.850593388080596924e-01 -7.285921573638916016e-01
3.547678887844085693e-01 -1.860231757164001465e-01 -7.273588180541992188e-01
3.659266531467437744e-01 -1.920653879642486572e-01 -7.196264266967773438e-01
3.657536804676055908e-01 -1.919718235731124878e-01 -7.197462916374206543e-01
3.565296530723571777e-01 -1.869770884513854980e-01 -7.261380553245544434e-01
3.542044460773468018e-01 -1.857180446386337280e-01 -7.277492284774780273e-01
3.625394105911254883e-01 -1.902312934398651123e-01 -7.219735980033874512e-01
3.600849211215972900e-01 -1.889022290706634521e-01 -7.236743569374084473e-01
3.623744249343872070e-01 -1.901418715715408325e-01 -7.220879197120666504e-01
3.669237196445465088e-01 -1.926052719354629517e-01 -7.189354896545410156e-01
3.549392819404602051e-01 -1.861159503459930420e-01 -7.272400259971618652e-01
3.657599091529846191e-01 -1.919750869274139404e-01 -7.197419404983520508e-01
3.556015193462371826e-01 -1.864745765924453735e-01 -7.267811298370361328e-01
3.597417473793029785e-01 -1.887163668870925903e-01 -7.239122390747070312e-01
3.681239187717437744e-01 -1.932551413774490356e-01 -7.181038856506347656e-01
3.632912933826446533e-01 -1.906384378671646118e-01 -7.214525938034057617e-01
3.629159927368164062e-01 -1.904352456331253052e-01 -7.217127084732055664e-01
3.671139776706695557e-01 -1.927083730697631836e-01 -7.188037037849426270e-01
3.561724722385406494e-01 -1.867837011814117432e-01 -7.263854742050170898e-01
3.661258220672607422e-01 -1.921732574701309204e-01 -7.194883823394775391e-01
3.623956143856048584e-01 -1.901533603668212891e-01 -7.220732569694519043e-01
3.691636919975280762e-01 -1.938182264566421509e-01 -7.173833250999450684e-01
3.602815270423889160e-01 -1.890087276697158813e-01 -7.235381603240966797e-01
3.593373894691467285e-01 -1.884973943233489990e-01 -7.241924405097961426e-01
3.576324582099914551e-01 -1.875742524862289429e-01 -7.253738641738891602e-01
3.662681281566619873e-01 -1.922502815723419189e-01 -7.193897962570190430e-01
3.550297915935516357e-01 -1.861649900674819946e-01 -7.271773219108581543e-01
3.596215546131134033e-01 -1.886513233184814453e-01 -7.239955067634582520e-01
3.682490289211273193e-01 -1.933229118585586548e-01 -7.180171608924865723e-01
3.677191138267517090e-01 -1.930359750986099243e-01 -7.183843255043029785e-01
3.682593703269958496e-01 -1.933285593986511230e-01 -7.180100083351135254e-01
3.669894039630889893e-01 -1.926409304141998291e-01 -7.188900113105773926e-01
3.557532727718353271e-01 -1.865567415952682495e-01 -7.266759872436523438e-01
3.631877899169921875e-01 -1.905823945999145508e-01 -7.215242981910705566e-01
3.618203401565551758e-01 -1.898418515920639038e-01 -7.224718332290649414e-01
3.599475026130676270e-01 -1.888277828693389893e-01 -7.237696647644042969e-01
3.674601018428802490e-01 -1.928956955671310425e-01 -7.185638546943664551e-01
3.616079986095428467e-01 -1.897269785404205322e-01 -7.226189970970153809e-01
3.574829101562500000e-01 -1.874932646751403809e-01 -7.254773974418640137e-01
3.655253052711486816e-01 -1.918481588363647461e-01 -7.199045419692993164e-01
3.616144061088562012e-01 -1.897304654121398926e-01 -7.226145863533020020e-01
3.670147359371185303e-01 -1.926545947790145874e-01 -7.188724279403686523e-01
3.551883697509765625e-01 -1.862508058547973633e-01 -7.270674705505371094e-01
3.613678514957427979e-01 -1.895969063043594360e-01 -7.227853536605834961e-01
3.574742376804351807e-01 -1.874886155128479004e-01 -7.254834771156311035e-01
3.661551177501678467e-01 -1.921891421079635620e-01 -7.194681763648986816e-01
3.702352941036224365e-01 -1.943984776735305786e-01 -7.166407704353332520e-01
3.646046519279479980e-01 -1.913495808839797974e-01 -7.205425500869750977e-01
3.611557185649871826e-01 -1.894820183515548706e-01 -7.229323983192443848e-01
3.690092265605926514e-01 -1.937346160411834717e-01 -7.174904346466064453e-01
3.660098314285278320e-01 -1.921104341745376587e-01 -7.195688486099243164e-01
3.601611852645874023e-01 -1.889434456825256348e-01 -7.236215472221374512e-01
3.687871992588043213e-01 -1.936143189668655396e-01 -7.176442146301269531e-01
3.679699003696441650e-01 -1.931717991828918457e-01 -7.182105779647827148e-01
3.559752702713012695e-01 -1.866769492626190186e-01 -7.265222072601318359e-01
3.618641495704650879e-01 -1.898657083511352539e-01 -7.224414944648742676e-01
3.581340312957763672e-01 -1.878458410501480103e-01 -7.250261902809143066e-01
3.666408658027648926e-01 -1.924521774053573608e-01 -7.191315293312072754e-01
3.587371706962585449e-01 -1.881724447011947632e-01 -7.246083617210388184e-01
3.609986901283264160e-01 -1.893969923257827759e-01 -7.230411767959594727e-01
3.636003434658050537e-01 -1.908057630062103271e-01 -7.212383747100830078e-01
3.645947873592376709e-01 -1.913442313671112061e-01 -7.205492854118347168e-01
3.575787246227264404e-01 -1.875451505184173584e-01 -7.254109978675842285e-01
3.599583208560943604e-01 -1.888336837291717529e-01 -7.237621545791625977e-01
3.530969023704528809e-01 -1.851183176040649414e-01 -7.285166382789611816e-01
3.658843040466308594e-01 -1.920425295829772949e-01 -7.196557521820068359e-01
3.681052327156066895e-01 -1.932450681924819946e-01 -7.181167602539062500e-01
3.625622987747192383e-01 -1.902436614036560059e-01 -7.219578027725219727e-01
3.583692312240600586e-01 -1.879732459783554077e-01 -7.248632907867431641e-01
3.651084899902343750e-01 -1.916223615407943726e-01 -7.201934456825256348e-01
3.634415864944458008e-01 -1.907198429107666016e-01 -7.213484048843383789e-01
3.560554087162017822e-01 -1.867203563451766968e-01 -7.264666557312011719e-01
3.691391646862030029e-01 -1.938049197196960449e-01 -7.174003124237060547e-01
3.542076349258422852e-01 -1.857197880744934082e-01 -7.277470231056213379e-01
3.618293702602386475e-01 -1.898468583822250366e-01 -7.224655747413635254e-01
3.592783510684967041e-01 -1.884654015302658081e-01 -7.242333292961120605e-01
3.562444746494293213e-01 -1.868226677179336548e-01 -7.263355851173400879e-01
3.653738200664520264e-01 -1.917661130428314209e-01 -7.200095057487487793e-01
3.596880435943603516e-01 -1.886873692274093628e-01 -7.239494323730468750e-01
3.606170713901519775e-01 -1.891903877258300781e-01 -7.233055830001831055e-01
3.566712141036987305e-01 -1.870536953210830688e-01 -7.260398864746093750e-01
3.689171373844146729e-01 -1.936847418546676636e-01 -7.175542116165161133e-01
3.651634156703948975e-01 -1.916521042585372925e-01 -7.201553583145141602e-01
3.622234463691711426e-01 -1.900602430105209351e-01 -7.221925854682922363e-01
3.657930791378021240e-01 -1.919931471347808838e-01 -7.197189927101135254e-01
3.582943677902221680e-01 -1.879326254129409790e-01 -7.249150872230529785e-01
3.603704273700714111e-01 -1.890568137168884277e-01 -7.234765887260437012e-01
3.580864071846008301e-01 -1.878200620412826538e-01 -7.250593304634094238e-01
3.675616681575775146e-01 -1.929507851600646973e-01 -7.184934616088867188e-01
3.557292222976684570e-01 -1.865437179803848267e-01 -7.266926765441894531e-01
3.634672164916992188e-01 -1.907337158918380737e-01 -7.213306427001953125e-01
3.700570762157440186e-01 -1.943019479513168335e-01 -7.167642712593078613e-01
3.592615723609924316e-01 -1.884563565254211426e-01 -7.242450118064880371e-01
3.602294921875000000e-01 -1.889805048704147339e-01 -7.235742807388305664e-01
3.617171347141265869e-01 -1.897859573364257812e-01 -7.225433588027954102e-01
3.663758337497711182e-01 -1.923086196184158325e-01 -7.193151712417602539e-01
3.624446392059326172e-01 -1.901798993349075317e-01 -7.220392227172851562e-01
3.588170111179351807e-01 -1.882155984640121460e-01 -7.245529890060424805e-01
3.609399199485778809e-01 -1.893651187419891357e-01 -7.230819463729858398e-01
3.552796840667724609e-01 -1.863002926111221313e-01 -7.270041704177856445e-01
3.655831813812255859e-01 -1.918793767690658569e-01 -7.198644280433654785e-01
3.580129444599151611e-01 -1.877802908420562744e-01 -7.251101136207580566e-01
3.539031147956848145e-01 -1.855548620223999023e-01 -7.279580235481262207e-01
3.615145385265350342e-01 -1.896763443946838379e-01 -7.226837277412414551e-01
3.665468990802764893e-01 -1.924012899398803711e-01 -7.191966176033020020e-01
3.659939765930175781e-01 -1.921018958091735840e-01 -7.195797562599182129e-01
3.648932874202728271e-01 -1.915058940649032593e-01 -7.203425168991088867e-01
3.599634468555450439e-01 -1.888364702463150024e-01 -7.237586379051208496e-01
3.597106933593750000e-01 -1.886995285749435425e-01 -7.239336967468261719e-01
3.619984090328216553e-01 -1.899382621049880981e-01 -7.223484516143798828e-01
3.609100282192230225e-01 -1.893490403890609741e-01 -7.231026887893676758e-01
3.692770302295684814e-01 -1.938796192407608032e-01 -7.173048257827758789e-01
3.615129590034484863e-01 -1.896755397319793701e-01 -7.226848602294921875e-01
3.589974045753479004e-01 -1.883134096860885620e-01 -7.244279980659484863e-01
3.644762337207794189e-01 -1.912800520658493042e-01 -7.206314802169799805e-01
3.631998896598815918e-01 -1.905889213085174561e-01 -7.215159535408020020e-01
3.543547093868255615e-01 -1.857993602752685547e-01 -7.276450991630554199e-01
3.697797954082489014e-01 -1.941518485546112061e-01 -7.169564366340637207e-01
3.621331155300140381e-01 -1.900112628936767578e-01 -7.222551703453063965e-01
3.671304285526275635e-01 -1.927172690629959106e-01 -7.187923192977905273e-01
3.582409024238586426e-01 -1.879037618637084961e-01 -7.249521613121032715e-01
3.613702058792114258e-01 -1.895981878042221069e-01 -7.227837443351745605e-01
3.688927590847015381e-01 -1.936715245246887207e-01 -7.175710797309875488e-01
3.643608987331390381e-01 -1.912175267934799194e-01 -7.207114100456237793e-01
3.656704127788543701e-01 -1.919266581535339355e-01 -7.198039889335632324e-01
3.652169406414031982e-01 -1.916810721158981323e-01 -7.201182246208190918e-01
3.565424084663391113e-01 -1.869840323925018311e-01 -7.261291742324829102e-01
3.625591099262237549e-01 -1.902420222759246826e-01 -7.219599485397338867e-01
3.638643324375152588e-01 -1.909487694501876831e-01 -7.210555076599121094e-01
3.662909865379333496e-01 -1.922627538442611694e-01 -7.193740010261535645e-01
3.608276546001434326e-01 -1.893044412136077881e-01 -7.231597304344177246e-01
3.659109771251678467e-01 -1.920569241046905518e-01 -7.196373343467712402e-01
3.542842566967010498e-01 -1.857612729072570801e-01 -7.276939153671264648e-01
3.590049445629119873e-01 -1.883174628019332886e-01 -7.244228124618530273e-01
3.626296222209930420e-01 -1.902801543474197388e-01 -7.219110727310180664e-01
3.639636635780334473e-01 -1.910025179386138916e-01 -7.209867238998413086e-01
3.560288548469543457e-01 -1.867059320211410522e-01 -7.264850139617919922e-01
3.649325370788574219e-01 -1.915270984172821045e-01 -7.203152775764465332e-01
3.704026341438293457e-01 -1.944890916347503662e-01 -7.165248394012451172e-01
3.614551723003387451e-01 -1.896442174911499023e-01 -7.227249741554260254e-01
3.640759885311126709e-01 -1.910632401704788208e-01 -7.209088206291198730e-01
3.600241839885711670e-01 -1.888692826032638550e-01 -7.237164378166198730e-01
3.650761842727661133e-01 -1.916049122810363770e-01 -7.202157974243164062e-01
3.615695238113403320e-01 -1.897061020135879517e-01 -7.226456403732299805e-01
3.560681939125061035e-01 -1.867271810770034790e-01 -7.264577150344848633e-01
3.674807250499725342e-01 -1.929069608449935913e-01 -7.185496091842651367e-01
3.610658049583435059e-01 -1.894333809614181519e-01 -7.229946851730346680e-01
3.631112277507781982e-01 -1.905409544706344604e-01 -7.215774059295654297e-01
3.678290545940399170e-01 -1.930955350399017334e-01 -7.183082103729248047e-01
3.670796155929565430e-01 -1.926897317171096802e-01 -7.188274860382080078e-01
3.550875782966613770e-01 -1.861962080001831055e-01 -7.271372675895690918e-01
3.624521195888519287e-01 -1.901840716600418091e-01 -7.220340967178344727e-01
3.628273308277130127e-01 -1.903871297836303711e-01 -7.217740416526794434e-01
3.662191927433013916e-01 -1.922238767147064209e-01 -7.194237112998962402e-01
3.562785387039184570e-01 -1.868411451578140259e-01 -7.263119816780090332e-01
3.607563972473144531e-01 -1.892657428979873657e-01 -7.232090830802917480e-01
3.677055835723876953e-01 -1.930286586284637451e-01 -7.183936834335327148e-01
3.557236492633819580e-01 -1.865406930446624756e-01 -7.266965508460998535e-01
3.636007010936737061e-01 -1.908059120178222656e-01 -7.212382555007934570e-01
3.549326956272125244e-01 -1.861124187707901001e-01 -7.272445559501647949e-01
3.655003607273101807e-01 -1.918345242738723755e-01 -7.199218273162841797e-01
3.596799373626708984e-01 -1.886828988790512085e-01 -7.239549756050109863e-01
3.679342269897460938e-01 -1.931525170803070068e-01 -7.182353138923645020e-01
3.669965565204620361e-01 -1.926446855068206787e-01 -7.188850641250610352e-01
3.567050099372863770e-01 -1.870720684528350830e-01 -7.260165214538574219e-01
3.581833243370056152e-01 -1.878725737333297729e-01 -7.249920964241027832e-01
3.590166866779327393e-01 -1.883238106966018677e-01 -7.244145870208740234e-01
3.676342070102691650e-01 -1.929899901151657104e-01 -7.184432148933410645e-01
3.608047068119049072e-01 -1.892919242382049561e-01 -7.231756448745727539e-01
3.654797673225402832e-01 -1.918233782052993774e-01 -7.199360728263854980e-01
3.641179203987121582e-01 -1.910859495401382446e-01 -7.208797931671142578e-01
3.557130694389343262e-01 -1.865349560976028442e-01 -7.267038226127624512e-01
3.636319935321807861e-01 -1.908228397369384766e-01 -7.212164998054504395e-01
3.676399588584899902e-01 -1.929931789636611938e-01 -7.184392213821411133e-01
3.693096637725830078e-01 -1.938972622156143188e-01 -7.172821760177612305e-01
3.567573726177215576e-01 -1.871004700660705566e-01 -7.259802222251892090e-01
3.565527498722076416e-01 -1.869896352291107178e-01 -7.261220216751098633e-01
3.651860356330871582e-01 -1.916644424200057983e-01 -7.201396226882934570e-01
3.538241386413574219e-01 -1.855121403932571411e-01 -7.280127406120300293e-01
3.569921851158142090e-01 -1.872275322675704956e-01 -7.258175015449523926e-01
3.590393364429473877e-01 -1.883360445499420166e-01 -7.243989109992980957e-01
3.682664632797241211e-01 -1.933323889970779419e-01 -7.180050611495971680e-01
3.579471707344055176e-01 -1.877446025609970093e-01 -7.251557111740112305e-01
3.612336218357086182e-01 -1.895242333412170410e-01 -7.228783965110778809e-01
3.598320782184600830e-01 -1.887653619050979614e-01 -7.238495945930480957e-01
3.617079555988311768e-01 -1.897811293601989746e-01 -7.225497364997863770e-01
3.574838638305664062e-01 -1.874938160181045532e-01 -7.254767417907714844e-01
3.596304953098297119e-01 -1.886561959981918335e-01 -7.239893078804016113e-01
3.565218448638916016e-01 -1.869728416204452515e-01 -7.261433601379394531e-01
3.600078821182250977e-01 -1.888604760169982910e-01 -7.237278223037719727e-01
3.591062128543853760e-01 -1.883722245693206787e-01 -7.243525981903076172e-01
3.562748730182647705e-01 -1.868391782045364380e-01 -7.263145446777343750e-01
3.679125010967254639e-01 -1.931406706571578979e-01 -7.182503938674926758e-01
3.689620196819305420e-01 -1.937089860439300537e-01 -7.175230979919433594e-01
3.671250343322753906e-01 -1.927143633365631104e-01 -7.187960147857666016e-01
3.631393313407897949e-01 -1.905561536550521851e-01 -7.215578556060791016e-01
3.542910516262054443e-01 -1.857649087905883789e-01 -7.276892066001892090e-01
3.651213347911834717e-01 -1.916293799877166748e-01 -7.201844453811645508e-01
3.648061752319335938e-01 -1.914587467908859253e-01 -7.204028964042663574e-01
3.631074726581573486e-01 -1.905389279127120972e-01 -7.215799093246459961e-01
3.606481552124023438e-01 -1.892072558403015137e-01 -7.232841253280639648e-01
3.677344024181365967e-01 -1.930442452430725098e-01 -7.183737754821777344e-01
3.670702278614044189e-01 -1.926846504211425781e-01 -7.188339829444885254e-01
3.592646420001983643e-01 -1.884579807519912720e-01 -7.242428064346313477e-01
3.545995354652404785e-01 -1.859319508075714111e-01 -7.274754047393798828e-01
3.676656484603881836e-01 -1.930070519447326660e-01 -7.184214591979980469e-01
3.624255061149597168e-01 -1.901696473360061646e-01 -7.220525741577148438e-01
3.636929094791412354e-01 -1.908558905124664307e-01 -7.211742401123046875e-01
3.577119708061218262e-01 -1.876172721385955811e-01 -7.253186702728271484e-01
3.577645719051361084e-01 -1.876458078622817993e-01 -7.252823114395141602e-01
3.673129677772521973e-01 -1.928160637617111206e-01 -7.186658382415771484e-01
3.627344965934753418e-01 -1.903369575738906860e-01 -7.218383550643920898e-01
3.564563691616058350e-01 -1.869373619556427002e-01 -7.261887788772583008e-01
3.646186292171478271e-01 -1.913571804761886597e-01 -7.205327749252319336e-01
3.684518933296203613e-01 -1.934327930212020874e-01 -7.178765535354614258e-01
3.534584045410156250e-01 -1.853140890598297119e-01 -7.282661795616149902e-01
3.681980073451995850e-01 -1.932953745126724243e-01 -7.180525064468383789e-01
3.649500012397766113e-01 -1.915365755558013916e-01 -7.203031778335571289e-01
3.681816458702087402e-01 -1.932864189147949219e-01 -7.180638909339904785e-01
3.691812455654144287e-01 -1.938277333974838257e-01 -7.173711657524108887e-01
3.604635894298553467e-01 -1.891072839498519897e-01 -7.234120368957519531e-01
3.598210811614990234e-01 -1.887592971324920654e-01 -7.238572239875793457e-01
3.557516932487487793e-01 -1.865558773279190063e-01 -7.266771197319030762e-01
3.625214695930480957e-01 -1.902215778827667236e-01 -7.219860553741455078e-01
3.615475296974182129e-01 -1.896942257881164551e-01 -7.226609587669372559e-01
3.615852892398834229e-01 -1.897146999835968018e-01 -7.226347327232360840e-01
3.658056259155273438e-01 -1.919998675584793091e-01 -7.197103500366210938e-01
3.656014204025268555e-01 -1.918892711400985718e-01 -7.198518514633178711e-01
3.602990806102752686e-01 -1.890181005001068115e-01 -7.235260009765625000e-01
3.601951003074645996e-01 -1.889618635177612305e-01 -7.235980033874511719e-01
3.632787764072418213e-01 -1.906316876411437988e-01 -7.214612364768981934e-01
3.537105321884155273e-01 -1.854506134986877441e-01 -7.280914783477783203e-01
3.666346967220306396e-01 -1.924487948417663574e-01 -7.191358208656311035e-01
3.566109240055084229e-01 -1.870211362838745117e-01 -7.260816693305969238e-01
3.617610037326812744e-01 -1.898098587989807129e-01 -7.225129604339599609e-01
3.617047667503356934e-01 -1.897793561220169067e-01 -7.225520014762878418e-01
3.636836111545562744e-01 -1.908508390188217163e-01 -7.211806774139404297e-01
3.583618402481079102e-01 -1.879691630601882935e-01 -7.248683571815490723e-01
3.662384748458862305e-01 -1.922343075275421143e-01 -7.194104194641113281e-01
3.553755879402160645e-01 -1.863522380590438843e-01 -7.269377112388610840e-01
3.679475784301757812e-01 -1.931597590446472168e-01 -7.182260751724243164e-01
3.574160635471343994e-01 -1.874570548534393311e-01 -7.255237698554992676e-01
3.606900274753570557e-01 -1.892299354076385498e-01 -7.232551574707031250e-01
3.572709560394287109e-01 -1.873784363269805908e-01 -7.256243228912353516e-01
3.684715330600738525e-01 -1.934434473514556885e-01 -7.178629636764526367e-01
3.637321591377258301e-01 -1.908771544694900513e-01 -7.211470603942871094e-01
3.597948551177978516e-01 -1.887450963258743286e-01 -7.238754034042358398e-01
3.623834252357482910e-01 -1.901468634605407715e-01 -7.220816612243652344e-01
3.572555184364318848e-01 -1.873700916767120361e-01 -7.256350517272949219e-01
3.616982698440551758e-01 -1.897758841514587402e-01 -7.225564718246459961e-01
3.558376133441925049e-01 -1.866023391485214233e-01 -7.266175746917724609e-01
3.576969504356384277e-01 -1.876092106103897095e-01 -7.253291010856628418e-01
3.608445823192596436e-01 -1.893136054277420044e-01 -7.231480479240417480e-01
3.688164949417114258e-01 -1.936302483081817627e-01 -7.176239490509033203e-01
3.531869947910308838e-01 -1.851671189069747925e-01 -7.284542322158813477e-01
3.638149201869964600e-01 -1.909219026565551758e-01 -7.210897803306579590e-01
3.558907806873321533e-01 -1.866312026977539062e-01 -7.265806794166564941e-01
3.604361116886138916e-01 -1.890924274921417236e-01 -7.234309911727905273e-01
3.649643063545227051e-01 -1.915442794561386108e-01 -7.202932834625244141e-01
3.628635406494140625e-01 -1.904068142175674438e-01 -7.217490673065185547e-01
3.677264750003814697e-01 -1.930399388074874878e-01 -7.183792591094970703e-01
3.644084632396697998e-01 -1.912433803081512451e-01 -7.206784486770629883e-01
3.644145429134368896e-01 -1.912465691566467285e-01 -7.206742167472839355e-01
3.635718524456024170e-01 -1.907902806997299194e-01 -7.212581634521484375e-01
3.672597110271453857e-01 -1.927872747182846069e-01 -7.187026739120483398e-01
3.636548519134521484e-01 -1.908352524042129517e-01 -7.212006449699401855e-01
3.655938506126403809e-01 -1.918852478265762329e-01 -7.198570370674133301e-01
3.548763394355773926e-01 -1.860819011926651001e-01 -7.272836565971374512e-01
3.589805662631988525e-01 -1.883042454719543457e-01 -7.244396209716796875e-01
3.682807385921478271e-01 -1.933401376008987427e-01 -7.179951667785644531e-01
3.675803840160369873e-01 -1.929609030485153198e-01 -7.184805274009704590e-01
3.590007126331329346e-01 -1.883151084184646606e-01 -7.244256734848022461e-01
3.573020696640014648e-01 -1.873953938484191895e-01 -7.256028056144714355e-01
3.572164773941040039e-01 -1.873490363359451294e-01 -7.256620526313781738e-01
3.535466492176055908e-01 -1.853618621826171875e-01 -7.282050848007202148e-01
3.654602468013763428e-01 -1.918128132820129395e-01 -7.199496030807495117e-01
3.539897203445434570e-01 -1.856017559766769409e-01 -7.278980016708374023e-01
3.592361807823181152e-01 -1.884426027536392212e-01 -7.242624759674072266e-01
3.547937572002410889e-01 -1.860371530055999756e-01 -7.273408174514770508e-01
3.603892028331756592e-01 -1.890670210123062134e-01 -7.234635353088378906e-01
3.625848293304443359e-01 -1.902559399604797363e-01 -7.219421267509460449e-01
3.650027513504028320e-01 -1.915650814771652222e-01 -7.202666401863098145e-01
3.610033988952636719e-01 -1.893996149301528931e-01 -7.230379581451416016e-01
3.688095211982727051e-01 -1.936264634132385254e-01 -7.176287770271301270e-01
3.551534116268157959e-01 -1.862319260835647583e-01 -7.270916700363159180e-01
3.590338230133056641e-01 -1.883331239223480225e-01 -7.244027853012084961e-01
3.564153313636779785e-01 -1.869151443243026733e-01 -7.262172102928161621e-01
3.534784317016601562e-01 -1.853248775005340576e-01 -7.282522916793823242e-01
3.614098429679870605e-01 -1.896195560693740845e-01 -7.227563261985778809e-01
3.614448904991149902e-01 -1.896385699510574341e-01 -7.227320671081542969e-01
3.633431494235992432e-01 -1.906665414571762085e-01 -7.214166522026062012e-01
3.641221225261688232e-01 -1.910882592201232910e-01 -7.208768725395202637e-01
3.682712018489837646e-01 -1.933349817991256714e-01 -7.180017828941345215e-01
3.608910739421844482e-01 -1.893386691808700562e-01 -7.231158018112182617e-01
3.645550906658172607e-01 -1.913228034973144531e-01 -7.205768823623657227e-01
3.650198280811309814e-01 -1.915743350982666016e-01 -7.202548384666442871e-01
3.668585419654846191e-01 -1.925700008869171143e-01 -7.189806699752807617e-01
3.604216277599334717e-01 -1.890845894813537598e-01 -7.234410643577575684e-01
3.548822402954101562e-01 -1.860850900411605835e-01 -7.272795438766479492e-01
3.598070144653320312e-01 -1.887516826391220093e-01 -7.238669991493225098e-01
3.683919608592987061e-01 -1.934003680944442749e-01 -7.179180979728698730e-01
3.553455173969268799e-01 -1.863358914852142334e-01 -7.269585728645324707e-01
3.604698479175567627e-01 -1.891106069087982178e-01 -7.234076261520385742e-01
3.617766499519348145e-01 -1.898182630538940430e-01 -7.225021719932556152e-01
3.582688271999359131e-01 -1.879187971353530884e-01 -7.249329090118408203e-01
3.571870625019073486e-01 -1.873330175876617432e-01 -7.256824374198913574e-01
3.616749942302703857e-01 -1.897631436586380005e-01 -7.225725650787353516e-01
3.621441125869750977e-01 -1.900172978639602661e-01 -7.222474813461303711e-01
3.621604740619659424e-01 -1.900260299444198608e-01 -7.222361564636230469e-01
3.650761842727661133e-01 -1.916049122810363770e-01 -7.202157378196716309e-01
3.583269715309143066e-01 -1.879502981901168823e-01 -7.248926162719726562e-01
3.617509305477142334e-01 -1.898043155670166016e-01 -7.225199341773986816e-01
3.634377121925354004e-01 -1.907176822423934937e-01 -7.213511466979980469e-01
3.642346858978271484e-01 -1.911492794752120972e-01 -7.207988500595092773e-01
3.621340394020080566e-01 -1.900118291378021240e-01 -7.222544550895690918e-01
3.612681329250335693e-01 -1.895428895950317383e-01 -7.228544354438781738e-01
3.663145005702972412e-01 -1.922754347324371338e-01 -7.193576693534851074e-01
3.610369563102722168e-01 -1.894177794456481934e-01 -7.230147719383239746e-01
3.650996088981628418e-01 -1.916175335645675659e-01 -7.201995253562927246e-01
3.633877336978912354e-01 -1.906905919313430786e-01 -7.213857769966125488e-01
3.606182038784027100e-01 -1.891909837722778320e-01 -7.233048081398010254e-01
3.663263320922851562e-01 -1.922818571329116821e-01 -7.193495035171508789e-01
3.648250401020050049e-01 -1.914689838886260986e-01 -7.203897833824157715e-01
3.566213548183441162e-01 -1.870267689228057861e-01 -7.260743975639343262e-01
3.537266850471496582e-01 -1.854593306779861450e-01 -7.280802726745605469e-01
3.665860891342163086e-01 -1.924225091934204102e-01 -7.191694974899291992e-01
3.630300462245941162e-01 -1.904968917369842529e-01 -7.216336131095886230e-01
3.666072189807891846e-01 -1.924339681863784790e-01 -7.191548347473144531e-01
3.569574654102325439e-01 -1.872087419033050537e-01 -7.258415818214416504e-01
3.618740737438201904e-01 -1.898710876703262329e-01 -7.224346399307250977e-01
3.636122047901153564e-01 -1.908122003078460693e-01 -7.212302684783935547e-01
3.647816479206085205e-01 -1.914454400539398193e-01 -7.204198241233825684e-01
3.680664300918579102e-01 -1.932240277528762817e-01 -7.181437015533447266e-01
3.569749295711517334e-01 -1.872182041406631470e-01 -7.258294820785522461e-01
3.631653189659118652e-01 -1.905701756477355957e-01 -7.215398550033569336e-01
3.610148727893829346e-01 -1.894058138132095337e-01 -7.230300307273864746e-01
3.655483126640319824e-01 -1.918605715036392212e-01 -7.198885679244995117e-01
3.553712666034698486e-01 -1.863498389720916748e-01 -7.269406318664550781e-01
3.606069684028625488e-01 -1.891848593950271606e-01 -7.233126759529113770e-01
3.543445169925689697e-01 -1.857939064502716064e-01 -7.276521921157836914e-01
3.637627065181732178e-01 -1.908936351537704468e-01 -7.211259007453918457e-01
3.580357730388641357e-01 -1.877926737070083618e-01 -7.250943779945373535e-01
3.663064837455749512e-01 -1.922710835933685303e-01 -7.193632125854492188e-01
3.622112274169921875e-01 -1.900535076856613159e-01 -7.222009897232055664e-01
3.656654357910156250e-01 -1.919240206480026245e-01 -7.198074460029602051e-01
3.680431842803955078e-01 -1.932115107774734497e-01 -7.181597948074340820e-01
3.601129651069641113e-01 -1.889173239469528198e-01 -7.236549854278564453e-01
3.613214194774627686e-01 -1.895717829465866089e-01 -7.228176593780517578e-01
3.573345541954040527e-01 -1.874129772186279297e-01 -7.255802750587463379e-01
3.694916963577270508e-01 -1.939958035945892334e-01 -7.171561121940612793e-01
3.639234304428100586e-01 -1.909807473421096802e-01 -7.210144996643066406e-01
3.704481720924377441e-01 -1.945137381553649902e-01 -7.164933085441589355e-01
3.640159070491790771e-01 -1.910308450460433960e-01 -7.209504842758178711e-01
3.567105531692504883e-01 -1.870750188827514648e-01 -7.260125875473022461e-01
3.536656498908996582e-01 -1.854262799024581909e-01 -7.281225323677062988e-01
3.658894002437591553e-01 -1.920452117919921875e-01 -7.196522951126098633e-01
3.578111231327056885e-01 -1.876709759235382080e-01 -7.252499461174011230e-01
3.623483777046203613e-01 -1.901277601718902588e-01 -7.221059799194335938e-01
3.546189069747924805e-01 -1.859424114227294922e-01 -7.274620532989501953e-01
3.670242130756378174e-01 -1.926597803831100464e-01 -7.188658714294433594e-01
3.614845573902130127e-01 -1.896601617336273193e-01 -7.227045297622680664e-01
3.645376563072204590e-01 -1.913132667541503906e-01 -7.205888628959655762e-01
3.584034144878387451e-01 -1.879916936159133911e-01 -7.248395681381225586e-01
3.671413660049438477e-01 -1.927231252193450928e-01 -7.187847495079040527e-01
3.634434044361114502e-01 -1.907208412885665894e-01 -7.213471531867980957e-01
3.629581928253173828e-01 -1.904579848051071167e-01 -7.216833829879760742e-01
3.561871647834777832e-01 -1.867916882038116455e-01 -7.263753414154052734e-01
3.568706810474395752e-01 -1.871618181467056274e-01 -7.259016633033752441e-01
3.633650243282318115e-01 -1.906783431768417358e-01 -7.214014530181884766e-01
3.628395795822143555e-01 -1.903937608003616333e-01 -7.217656373977661133e-01
3.581410646438598633e-01 -1.878496706485748291e-01 -7.250214219093322754e-01
3.539752662181854248e-01 -1.855939626693725586e-01 -7.279080748558044434e-01
3.654526174068450928e-01 -1.918086856603622437e-01 -7.199549078941345215e-01
3.624638020992279053e-01 -1.901903599500656128e-01 -7.220260500907897949e-01
3.565960228443145752e-01 -1.870130300521850586e-01 -7.260920405387878418e-01
3.681775033473968506e-01 -1.932841837406158447e-01 -7.180667519569396973e-01
3.668845295906066895e-01 -1.925840526819229126e-01 -7.189626693725585938e-01
3.687551021575927734e-01 -1.935970187187194824e-01 -7.176665067672729492e-01
3.660831153392791748e-01 -1.921501010656356812e-01 -7.195180654525756836e-01
3.688839972019195557e-01 -1.936667412519454956e-01 -7.175771594047546387e-01
3.667417764663696289e-01 -1.925067603588104248e-01 -7.190616130828857422e-01
3.617401719093322754e-01 -1.897984445095062256e-01 -7.225273847579956055e-01
3.696953356266021729e-01 -1.941061168909072876e-01 -7.170149683952331543e-01
3.568786978721618652e-01 -1.871660947799682617e-01 -7.258961200714111328e-01
3.683371245861053467e-01 -1.933706104755401611e-01 -7.179560661315917969e-01
3.695040345191955566e-01 -1.940024793148040771e-01 -7.171475291252136230e-01
3.654697537422180176e-01 -1.918180584907531738e-01 -7.199430465698242188e-01
3.611766993999481201e-01 -1.894933283329010010e-01 -7.229178547859191895e-01
3.526783883571624756e-01 -1.848917007446289062e-01 -7.288066744804382324e-01
3.670049905776977539e-01 -1.926493644714355469e-01 -7.188791632652282715e-01
3.638758659362792969e-01 -1.909548938274383545e-01 -7.210474610328674316e-01
3.595020771026611328e-01 -1.885866522789001465e-01 -7.240782976150512695e-01
3.670002520084381104e-01 -1.926468014717102051e-01 -7.188825011253356934e-01
3.599050045013427734e-01 -1.888047158718109131e-01 -7.237991094589233398e-01
3.548563718795776367e-01 -1.860709935426712036e-01 -7.272974848747253418e-01
3.542102873325347900e-01 -1.857211738824844360e-01 -7.277451753616333008e-01
3.640117347240447998e-01 -1.910285055637359619e-01 -7.209534049034118652e-01
3.668149411678314209e-01 -1.925463527441024780e-01 -7.190109491348266602e-01
3.660913407802581787e-01 -1.921546012163162231e-01 -7.195123434066772461e-01
3.652375638484954834e-01 -1.916922926902770996e-01 -7.201039195060729980e-01
3.612092435359954834e-01 -1.895110011100769043e-01 -7.228952646255493164e-01
3.593478202819824219e-01 -1.885030567646026611e-01 -7.241851091384887695e-01
3.604789376258850098e-01 -1.891155540943145752e-01 -7.234014272689819336e-01
3.661099374294281006e-01 -1.921647191047668457e-01 -7.194994688034057617e-01
3.601211011409759521e-01 -1.889218091964721680e-01 -7.236493825912475586e-01
3.596018850803375244e-01 -1.886406689882278442e-01 -7.240090966224670410e-01
3.564032912254333496e-01 -1.869087219238281250e-01 -7.262255549430847168e-01
3.686589896678924561e-01 -1.935448944568634033e-01 -7.177330851554870605e-01
3.527255356311798096e-01 -1.849172413349151611e-01 -7.287740111351013184e-01
3.641838431358337402e-01 -1.911217421293258667e-01 -7.208341360092163086e-01
3.594057559967041016e-01 -1.885345131158828735e-01 -7.241449952125549316e-01
3.657185137271881104e-01 -1.919526755809783936e-01 -7.197706699371337891e-01
3.530926704406738281e-01 -1.851160228252410889e-01 -7.285196185111999512e-01
3.697482645511627197e-01 -1.941347420215606689e-01 -7.169783115386962891e-01
3.546289205551147461e-01 -1.859478950500488281e-01 -7.274550795555114746e-01
3.653647303581237793e-01 -1.917610913515090942e-01 -7.200158238410949707e-01
3.628304004669189453e-01 -1.903888136148452759e-01 -7.217719554901123047e-01
3.588564693927764893e-01 -1.882369965314865112e-01 -7.245256304740905762e-01
3.703117668628692627e-01 -1.944398730993270874e-01 -7.165878415107727051e-01
3.650248050689697266e-01 -1.915771365165710449e-01 -7.202513813972473145e-01
3.549754321575164795e-01 -1.861355304718017578e-01 -7.272149920463562012e-01
3.636631369590759277e-01 -1.908397823572158813e-01 -7.211949229240417480e-01
3.656203150749206543e-01 -1.918995678424835205e-01 -7.198386788368225098e-01
3.591432869434356689e-01 -1.883922964334487915e-01 -7.243269085884094238e-01
3.685204088687896729e-01 -1.934699416160583496e-01 -7.178291082382202148e-01
3.597694337368011475e-01 -1.887314319610595703e-01 -7.238930463790893555e-01
3.620616793632507324e-01 -1.899725198745727539e-01 -7.223046422004699707e-01
3.568068146705627441e-01 -1.871271878480911255e-01 -7.259458899497985840e-01
3.592305183410644531e-01 -1.884396374225616455e-01 -7.242664694786071777e-01
3.630975484848022461e-01 -1.905334740877151489e-01 -7.215868830680847168e-01
3.593027889728546143e-01 -1.884787678718566895e-01 -7.242164015769958496e-01
3.612060546875000000e-01 -1.895093619823455811e-01 -7.228975296020507812e-01
3.687849342823028564e-01 -1.936131566762924194e-01 -7.176458239555358887e-01
3.638128042221069336e-01 -1.909207999706268311e-01 -7.210911512374877930e-01
3.570637106895446777e-01 -1.872662454843521118e-01 -7.257679104804992676e-01
3.540439009666442871e-01 -1.856311112642288208e-01 -7.278605103492736816e-01
3.645504117012023926e-01 -1.913201957941055298e-01 -7.205800414085388184e-01
3.554862737655639648e-01 -1.864121109247207642e-01 -7.268610000610351562e-01
3.532570302486419678e-01 -1.852050125598907471e-01 -7.284057140350341797e-01
3.593935370445251465e-01 -1.885278522968292236e-01 -7.241534590721130371e-01
3.573806583881378174e-01 -1.874378770589828491e-01 -7.255483269691467285e-01
3.554359376430511475e-01 -1.863848119974136353e-01 -7.268958687782287598e-01
3.580803871154785156e-01 -1.878167390823364258e-01 -7.250634431838989258e-01
3.688715100288391113e-01 -1.936599761247634888e-01 -7.175858616828918457e-01
3.548817038536071777e-01 -1.860847771167755127e-01 -7.272799015045166016e-01
3.679420650005340576e-01 -1.931567043066024780e-01 -7.182298898696899414e-01
3.619606792926788330e-01 -1.899179518222808838e-01 -7.223746180534362793e-01
3.639473617076873779e-01 -1.909936368465423584e-01 -7.209979891777038574e-01
3.576221466064453125e-01 -1.875686496496200562e-01 -7.253810167312622070e-01
3.661717176437377930e-01 -1.921981126070022583e-01 -7.194566726684570312e-01
3.601774871349334717e-01 -1.889524012804031372e-01 -7.236102819442749023e-01
3.587834239006042480e-01 -1.881974935531616211e-01 -7.245762348175048828e-01
3.595781624317169189e-01 -1.886278688907623291e-01 -7.240256071090698242e-01
3.560574352741241455e-01 -1.867214143276214600e-01 -7.264652252197265625e-01
3.650844097137451172e-01 -1.916093975305557251e-01 -7.202100157737731934e-01
3.621974587440490723e-01 -1.900461316108703613e-01 -7.222105264663696289e-01
3.598645329475402832e-01 -1.887828260660171509e-01 -7.238270640373229980e-01
3.607099652290344238e-01 -1.892406046390533447e-01 -7.232412695884704590e-01
3.561957478523254395e-01 -1.867963224649429321e-01 -7.263693809509277344e-01
3.549572527408599854e-01 -1.861256808042526245e-01 -7.272275686264038086e-01
3.673570752143859863e-01 -1.928399950265884399e-01 -7.186352014541625977e-01
3.575597107410430908e-01 -1.875348240137100220e-01 -7.254242300987243652e-01
3.566907942295074463e-01 -1.870643943548202515e-01 -7.260263562202453613e-01
3.620252013206481934e-01 -1.899527758359909058e-01 -7.223299145698547363e-01
3.572829961776733398e-01 -1.873850226402282715e-01 -7.256160378456115723e-01
3.586870133876800537e-01 -1.881452202796936035e-01 -7.246431112289428711e-01
3.648196458816528320e-01 -1.914659589529037476e-01 -7.203935384750366211e-01
3.690401613712310791e-01 -1.937513053417205811e-01 -7.174689173698425293e-01
3.558143973350524902e-01 -1.865897625684738159e-01 -7.266336083412170410e-01
3.559587001800537109e-01 -1.866679638624191284e-01 -7.265336513519287109e-01
3.626191914081573486e-01 -1.902744770050048828e-01 -7.219182848930358887e-01
3.615556359291076660e-01 -1.896985769271850586e-01 -7.226552367210388184e-01
3.554278314113616943e-01 -1.863804906606674194e-01 -7.269014716148376465e-01
3.555213510990142822e-01 -1.864311248064041138e-01 -7.268367409706115723e-01
3.590428233146667480e-01 -1.883379817008972168e-01 -7.243964672088623047e-01
3.589786887168884277e-01 -1.883032321929931641e-01 -7.244409322738647461e-01
3.662942051887512207e-01 -1.922644525766372681e-01 -7.193717360496520996e-01
3.631176352500915527e-01 -1.905444413423538208e-01 -7.215728759765625000e-01
3.610127568244934082e-01 -1.894045770168304443e-01 -7.230315208435058594e-01
3.637977838516235352e-01 -1.909126043319702148e-01 -7.211015820503234863e-01
3.687227666378021240e-01 -1.935794800519943237e-01 -7.176888585090637207e-01
-3.419208824634552002e-01 -3.322387933731079102e-01 -6.981325745582580566e-01
-3.408614993095397949e-01 -4.032355546951293945e-01 -7.084048986434936523e-01
-3.410925865173339844e-01 -3.946861922740936279e-01 -7.185294032096862793e-01
-3.610022962093353271e-01 -4.205276370048522949e-01 -6.813279390335083008e-01
-3.603691160678863525e-01 -5.149534344673156738e-01 -7.164294123649597168e-01
-3.677875995635986328e-01 -4.232141077518463135e-01 -7.187311053276062012e-01
-3.470503687858581543e-01 -3.795994520187377930e-01 -7.332754135131835938e-01
-3.402865231037139893e-01 -3.490579724311828613e-01 -7.224966287612915039e-01
-3.624047040939331055e-01 -2.857846319675445557e-01 -7.265401482582092285e-01
-3.439435958862304688e-01 -2.711601853370666504e-01 -7.318491935729980469e-01
-3.395895361900329590e-01 -3.462968170642852783e-01 -7.081437110900878906e-01
-3.648173213005065918e-01 -2.788254022598266602e-01 -7.150180935859680176e-01
-3.538879454135894775e-01 -2.121738344430923462e-01 -7.075121998786926270e-01
-3.685061335563659668e-01 -4.368079900741577148e-01 -7.154464125633239746e-01
-3.454712331295013428e-01 -4.624599218368530273e-01 -6.971838474273681641e-01
-3.465537726879119873e-01 -4.585438966751098633e-01 -6.928946375846862793e-01
-3.440407812595367432e-01 -2.890959978103637695e-01 -7.328300476074218750e-01
-3.422927856445312500e-01 -3.600383996963500977e-01 -7.278398871421813965e-01
-3.407734036445617676e-01 -2.770555317401885986e-01 -7.246544957160949707e-01
-3.424226939678192139e-01 -2.364434897899627686e-01 -7.223998308181762695e-01
-3.690443933010101318e-01 -4.604481756687164307e-01 -7.101073265075683594e-01
-3.526481091976165771e-01 -2.201727479696273804e-01 -7.035097479820251465e-01
-3.640429079532623291e-01 -2.716717720031738281e-01 -7.061021924018859863e-01
-3.583713173866271973e-01 -4.613973200321197510e-01 -7.273960113525390625e-01
-3.564158678054809570e-01 -3.343504369258880615e-01 -6.844019889831542969e-01
-3.527195155620574951e-01 -2.746303081512451172e-01 -7.360927462577819824e-01
-3.465742468833923340e-01 -2.847836017608642578e-01 -7.352912425994873047e-01
-3.400955796241760254e-01 -3.197252750396728516e-01 -7.052869200706481934e-01
