-5.645803809165954590e-01 3.682170063257217407e-02 -1.694051176309585571e-02
-5.216249823570251465e-01 1.217728108167648315e-01 2.882287278771400452e-02
-5.501548051834106445e-01 8.834198117256164551e-02 -2.418404817581176758e-02
-4.844013452529907227e-01 1.275488734245300293e-01 2.500633895397186279e-02
-4.604865610599517822e-01 5.135599896311759949e-02 -1.028656493872404099e-03
-5.227982997894287109e-01 6.475538015365600586e-03 1.151289604604244232e-02
-5.369998216629028320e-01 1.906162053346633911e-01 -1.506904605776071548e-03
-6.472091078758239746e-01 1.520847678184509277e-01 -1.886465027928352356e-02
-5.347026586532592773e-01 1.845810413360595703e-01 8.737536147236824036e-03
-6.937682032585144043e-01 2.963834255933761597e-02 -1.027909480035305023e-02
-5.676692724227905273e-01 1.877134740352630615e-01 -9.183877147734165192e-03
-4.500806927680969238e-01 1.222433745861053467e-01 1.960970088839530945e-02
-5.597468614578247070e-01 1.173525899648666382e-01 -2.555456385016441345e-02
-6.762846708297729492e-01 8.866732567548751831e-02 2.393225952982902527e-02
-6.784039139747619629e-01 1.994709670543670654e-02 1.906564459204673767e-02
-5.252044796943664551e-01 1.096330359578132629e-01 -2.321098372340202332e-02
-7.362305521965026855e-01 6.554098427295684814e-02 -2.447990700602531433e-03
-7.073484659194946289e-01 1.958871632814407349e-02 7.329907268285751343e-03
-5.409623384475708008e-01 1.271975338459014893e-01 2.862350642681121826e-02
-4.277648627758026123e-01 1.149697601795196533e-01 1.187330810353159904e-03
-6.940504312515258789e-01 1.182362213730812073e-01 1.529024541378021240e-02
-4.414098262786865234e-01 1.151444241404533386e-01 1.789147034287452698e-02
-5.316483378410339355e-01 9.424469619989395142e-02 3.175836056470870972e-02
-5.930204987525939941e-01 1.743024289608001709e-01 -1.657383516430854797e-02
-6.643146872520446777e-01 5.647644400596618652e-03 -4.216610454022884369e-03
-6.384608745574951172e-01 1.024371311068534851e-01 -2.534147724509239197e-02
-5.046096444129943848e-01 1.574040204286575317e-02 1.471685804426670074e-02
-5.923792123794555664e-01 8.453683555126190186e-02 -2.556746080517768860e-02
-4.416912794113159180e-01 9.129846841096878052e-02 -5.347682163119316101e-03
-4.843777418136596680e-01 1.526000201702117920e-01 -1.492165308445692062e-02
-5.325701832771301270e-01 7.519814372062683105e-02 3.214854374527931213e-02
-4.984309375286102295e-01 2.232223004102706909e-02 1.792494580149650574e-02
-5.532725453376770020e-01 3.982111066579818726e-02 3.042597696185112000e-02
-5.481532812118530273e-01 6.869806349277496338e-02 3.258389234542846680e-02
-6.200072765350341797e-01 1.501184701919555664e-02 2.511797472834587097e-02
-7.187427282333374023e-01 8.329918980598449707e-02 1.393175777047872543e-02
-5.150681734085083008e-01 1.385643929243087769e-01 2.565785124897956848e-02
-5.115072727203369141e-01 2.063765376806259155e-02 -3.017614129930734634e-03
-5.023747682571411133e-01 4.925253614783287048e-02 2.762494981288909912e-02
-5.715857148170471191e-01 8.604236692190170288e-02 -2.512777224183082581e-02
-4.669780135154724121e-01 1.542092263698577881e-01 1.552301086485385895e-02
-6.501722931861877441e-01 1.720561981201171875e-01 -2.105952706187963486e-03
-4.707551896572113037e-01 1.657426953315734863e-01 -7.243172265589237213e-03
-6.681380867958068848e-01 1.067304462194442749e-01 -2.278803288936614990e-02
-4.603024125099182129e-01 1.247363835573196411e-01 -1.291000004857778549e-02
-6.192961931228637695e-01 4.712572321295738220e-02 3.035597875714302063e-02
-4.406090378761291504e-01 1.488190442323684692e-01 1.906321034766733646e-03
-7.210047245025634766e-01 9.204258024692535400e-02 1.182799693197011948e-02
-5.288468599319458008e-01 3.810536861419677734e-02 2.863486483693122864e-02
-6.606004834175109863e-01 1.007390022277832031e-01 2.512840181589126587e-02
-4.614527523517608643e-01 6.147501617670059204e-02 2.143030241131782532e-02
-6.411896944046020508e-01 7.676646113395690918e-02 2.925061434507369995e-02
-6.694876551628112793e-01 3.653844445943832397e-02 2.413728833198547363e-02
-7.224162220954895020e-01 1.060441508889198303e-01 7.590536028146743774e-03
-5.856400132179260254e-01 7.586434483528137207e-03 -7.838740944862365723e-03
-5.990425944328308105e-01 1.464447081089019775e-01 -2.371161058545112610e-02
-5.839701294898986816e-01 2.095317840576171875e-02 2.758437022566795349e-02
-4.381730854511260986e-01 1.276681721210479736e-01 1.447183173149824142e-02
-5.448932647705078125e-01 1.542661339044570923e-01 2.278900519013404846e-02
-5.927366614341735840e-01 9.941782802343368530e-02 3.126507624983787537e-02
-5.597116351127624512e-01 4.492680728435516357e-02 -1.854853704571723938e-02
-6.753883361816406250e-01 5.959774553775787354e-02 2.499963715672492981e-02
-6.069749593734741211e-01 3.354447707533836365e-02 2.949561178684234619e-02
-5.542723536491394043e-01 2.041640877723693848e-02 2.648199349641799927e-02
-6.736758351325988770e-01 2.742711454629898071e-02 -1.289279665797948837e-02
-5.995002388954162598e-01 -3.023929893970489502e-03 -1.806110609322786331e-03
-6.362886428833007812e-01 6.551812589168548584e-02 -2.326216176152229309e-02
-7.024668455123901367e-01 1.401092261075973511e-01 -2.250980585813522339e-03
-5.849194526672363281e-01 6.702442467212677002e-02 -2.365428209304809570e-02
-5.889683961868286133e-01 1.775664836168289185e-02 -1.246897596865892410e-02
-5.888872742652893066e-01 -6.124675273895263672e-04 1.942202821373939514e-02
-6.154658794403076172e-01 1.684837043285369873e-03 -5.579313263297080994e-03
-6.496722102165222168e-01 1.146495938301086426e-01 -2.424568682909011841e-02
-6.107543110847473145e-01 1.501791775226593018e-01 2.099195495247840881e-02
-6.396433115005493164e-01 1.138404756784439087e-02 -9.929527528584003448e-03
-6.711643338203430176e-01 1.561092734336853027e-01 -1.153935305774211884e-02
-7.102366685867309570e-01 6.721148639917373657e-02 1.755516231060028076e-02
-4.937285184860229492e-01 4.698502644896507263e-02 -1.010153256356716156e-02
-4.714020788669586182e-01 8.974014222621917725e-02 -1.409887429326772690e-02
-7.149594426155090332e-01 1.000229790806770325e-01 1.276299823075532913e-02
-6.783187389373779297e-01 1.359557062387466431e-01 1.413041166961193085e-02
-4.628871679306030273e-01 9.908670186996459961e-02 -1.303448621183633804e-02
-6.372399926185607910e-01 3.592647984623908997e-02 2.789729461073875427e-02
-7.132182121276855469e-01 5.686315149068832397e-02 -1.265538018196821213e-02
-5.628035664558410645e-01 -6.471648812294006348e-04 5.533052608370780945e-04
-4.985529780387878418e-01 8.080441504716873169e-02 -1.800216734409332275e-02
-5.151341557502746582e-01 6.507249176502227783e-02 -1.799002289772033691e-02
-6.717875003814697266e-01 1.511365175247192383e-02 -8.375236764550209045e-03
-5.936000347137451172e-01 4.510308057069778442e-02 -2.026132866740226746e-02
-5.753790140151977539e-01 -8.613169193267822266e-04 1.848354376852512360e-02
-6.145862340927124023e-01 6.951683759689331055e-02 3.146559745073318481e-02
-4.342236518859863281e-01 7.651767134666442871e-02 4.755538888275623322e-03
-5.636462569236755371e-01 1.794569194316864014e-01 1.232699211686849594e-02
-4.780720770359039307e-01 3.988457471132278442e-02 2.015253901481628418e-02
-6.161370277404785156e-01 1.254245936870574951e-01 -2.553107216954231262e-02
-5.489793419837951660e-01 1.021587252616882324e-01 -2.486006170511245728e-02
-4.646242856979370117e-01 4.413740336894989014e-02 1.142757711932063103e-03
-5.769438743591308594e-01 1.776414215564727783e-01 1.264986768364906311e-02
-6.560534238815307617e-01 9.171810746192932129e-02 -2.403081953525543213e-02
-4.790161848068237305e-01 2.920759469270706177e-02 5.516094155609607697e-03
-5.896886587142944336e-01 7.385197281837463379e-02 3.255026414990425110e-02
-6.986247897148132324e-01 1.172536164522171021e-01 -1.653608307242393494e-02
-5.956012010574340820e-01 9.564809501171112061e-02 -2.621126174926757812e-02
-5.750047564506530762e-01 1.076306849718093872e-01 3.105593845248222351e-02
-5.974830389022827148e-01 2.251581847667694092e-02 -1.446551736444234848e-02
-4.292398691177368164e-01 9.766160696744918823e-02 1.220694277435541153e-02
-5.242302417755126953e-01 3.956141322851181030e-02 -1.337451767176389694e-02
-7.164058685302734375e-01 4.375948756933212280e-02 -8.632326498627662659e-03
-7.302085161209106445e-01 5.444485321640968323e-02 8.251440711319446564e-03
-6.489729285240173340e-01 1.602953970432281494e-01 -1.562830805778503418e-02
-4.620093703269958496e-01 1.639075279235839844e-01 8.574967272579669952e-03
-5.982095599174499512e-01 9.453833103179931641e-03 2.418898418545722961e-02
-4.668377339839935303e-01 7.131323963403701782e-02 2.437902987003326416e-02
-6.889804601669311523e-01 6.694380939006805420e-02 2.264902368187904358e-02
-5.467116236686706543e-01 1.779198646545410156e-03 2.097635529935359955e-03
-5.335925817489624023e-01 1.316112428903579712e-01 2.772752940654754639e-02
-7.095909118652343750e-01 5.444049835205078125e-02 1.734556257724761963e-02
-5.095310211181640625e-01 8.791165053844451904e-02 -2.031262964010238647e-02
-4.865684509277343750e-01 2.782846242189407349e-02 1.490546041168272495e-03
-6.541117429733276367e-01 1.309370398521423340e-01 -2.230783924460411072e-02
-6.405112743377685547e-01 1.335622668266296387e-01 2.202808111906051636e-02
-4.851586818695068359e-01 2.425676584243774414e-02 1.018353458493947983e-02
-4.569978415966033936e-01 6.941614300012588501e-02 -6.456915289163589478e-03
-7.143848538398742676e-01 7.276339828968048096e-02 -1.429477427154779434e-02
-6.571415662765502930e-01 1.543472260236740112e-01 -1.638383045792579651e-02
-5.089313983917236328e-01 1.324144601821899414e-01 -2.101995423436164856e-02
-5.443418622016906738e-01 5.746998637914657593e-02 3.192632645368576050e-02
-4.686274230480194092e-01 7.609257847070693970e-02 -1.141657214611768723e-02
-5.992925763130187988e-01 1.499421298503875732e-01 2.207057550549507141e-02
-5.111870765686035156e-01 3.691804409027099609e-02 -1.035848166793584824e-02
-4.780379235744476318e-01 1.558064818382263184e-01 1.722391694784164429e-02
-7.079827785491943359e-01 1.040071994066238403e-01 -1.573688164353370667e-02
-5.024757385253906250e-01 3.656691312789916992e-02 2.495817467570304871e-02
-6.625048518180847168e-01 1.564604043960571289e-01 9.252713993191719055e-03
-5.843999981880187988e-01 5.148550495505332947e-02 3.197726607322692871e-02
-6.281596422195434570e-01 6.743890047073364258e-02 3.053427487611770630e-02
-6.548316478729248047e-01 1.868034899234771729e-02 2.277684211730957031e-02
-4.387607276439666748e-01 7.033897936344146729e-02 1.254983432590961456e-02
-5.562878251075744629e-01 6.837598979473114014e-03 -4.233620129525661469e-03
-5.872690081596374512e-01 9.347210824489593506e-02 3.191410005092620850e-02
-6.911801099777221680e-01 8.492258936166763306e-02 -1.975544542074203491e-02
-5.554233789443969727e-01 1.698773652315139771e-01 1.733928732573986053e-02
-6.841959357261657715e-01 5.954573303461074829e-02 2.348427474498748779e-02
-5.830785632133483887e-01 1.804465949535369873e-01 -1.403373200446367264e-02
-4.364016950130462646e-01 1.011103317141532898e-01 1.679084450006484985e-02
-4.586213231086730957e-01 1.497575938701629639e-01 1.501470059156417847e-02
-4.658992886543273926e-01 1.402953863143920898e-01 1.962880790233612061e-02
-5.603761672973632812e-01 6.058051064610481262e-02 -2.159225195646286011e-02
-6.065145730972290039e-01 1.592558026313781738e-01 -2.085135504603385925e-02
-6.988473534584045410e-01 1.335866898298263550e-01 7.925495505332946777e-03
-6.498778462409973145e-01 1.030911356210708618e-01 -2.459559589624404907e-02
-4.523096680641174316e-01 9.146708250045776367e-02 2.215617150068283081e-02
-6.312558650970458984e-01 1.131464317440986633e-01 2.701493352651596069e-02
-5.598630905151367188e-01 7.744958996772766113e-02 -2.379568666219711304e-02
-6.740642786026000977e-01 9.740559011697769165e-02 -2.229801192879676819e-02
-4.959846735000610352e-01 1.437600851058959961e-01 2.307140082120895386e-02
-5.813671350479125977e-01 1.455246359109878540e-01 -2.402406185865402222e-02
-6.175399422645568848e-01 -8.050188422203063965e-03 4.001054912805557251e-03
-5.957540273666381836e-01 1.230273172259330750e-01 -2.607541903853416443e-02
-5.837134122848510742e-01 1.056323945522308350e-01 3.102191910147666931e-02
-5.046809911727905273e-01 6.260015815496444702e-02 -1.602243632078170776e-02
-4.684813022613525391e-01 1.182237192988395691e-01 2.404702827334403992e-02
-6.027356982231140137e-01 1.009679585695266724e-02 -9.836399927735328674e-03
-4.851351380348205566e-01 7.680711895227432251e-02 2.801859378814697266e-02
-5.295038819313049316e-01 1.204988583922386169e-01 -2.357096597552299500e-02
-6.904112100601196289e-01 8.751630783081054688e-03 2.456986578181385994e-03
-6.237938404083251953e-01 1.769006550312042236e-01 -1.114726811647415161e-02
-5.236551761627197266e-01 1.799903810024261475e-02 2.215496078133583069e-02
-5.136495828628540039e-01 1.498475223779678345e-01 -1.972016692161560059e-02
-7.253755927085876465e-01 7.757199555635452271e-02 -1.090822182595729828e-02
-4.776309728622436523e-01 9.956434369087219238e-02 2.695718035101890564e-02
-5.719638466835021973e-01 7.191933691501617432e-02 -2.378727495670318604e-02
-6.269450187683105469e-01 1.675865203142166138e-01 1.178254280239343643e-02
-6.601411700248718262e-01 1.769802719354629517e-02 -1.097446307539939880e-02
-6.026604771614074707e-01 1.396998614072799683e-01 2.448813244700431824e-02
-5.228060483932495117e-01 8.494389057159423828e-02 -2.156857401132583618e-02
-4.650829434394836426e-01 6.383276730775833130e-02 -7.596179842948913574e-03
-6.307956576347351074e-01 5.510869622230529785e-02 3.004109486937522888e-02
-6.094268560409545898e-01 -3.809206187725067139e-03 -1.459724269807338715e-03
-6.137651801109313965e-01 8.216665685176849365e-02 -2.541556581854820251e-02
-5.912913680076599121e-01 1.101111844182014465e-01 3.024556860327720642e-02
-4.566437602043151855e-01 9.922783821821212769e-02 2.318877354264259338e-02
-5.993417501449584961e-01 3.435908257961273193e-02 -1.793685927987098694e-02
-5.541648864746093750e-01 4.910801351070404053e-02 3.156445920467376709e-02
-6.090149879455566406e-01 7.914450019598007202e-02 3.163956850767135620e-02
-5.369625091552734375e-01 1.461042314767837524e-01 2.482181787490844727e-02
-6.870557069778442383e-01 1.521018594503402710e-01 -3.436575643718242645e-03
-5.772346854209899902e-01 2.892181277275085449e-02 -1.556943822652101517e-02
-7.010465860366821289e-01 7.120628654956817627e-02 1.993922516703605652e-02
-4.867144227027893066e-01 1.521553248167037964e-01 1.976739615201950073e-02
-6.569830179214477539e-01 1.672949641942977905e-01 2.246357267722487450e-03
-5.178004503250122070e-01 1.549852937459945679e-01 2.176497504115104675e-02
-5.389205217361450195e-01 1.014932841062545776e-01 -2.414164692163467407e-02
-6.559148430824279785e-01 1.471706777811050415e-01 1.532700844109058380e-02
-6.229072809219360352e-01 2.431853860616683960e-02 2.712323516607284546e-02
-4.851123094558715820e-01 1.745272874832153320e-01 8.900010026991367340e-03
-5.902583599090576172e-01 1.550486981868743896e-01 2.119050920009613037e-02
-6.276339292526245117e-01 1.498365402221679688e-01 -2.161515131592750549e-02
-5.964425206184387207e-01 6.708713620901107788e-02 -2.391267567873001099e-02
-5.869266986846923828e-01 9.956897795200347900e-02 -2.624770253896713257e-02
-5.034341812133789062e-01 6.218206137418746948e-02 2.933986112475395203e-02
-5.223592519760131836e-01 7.309351861476898193e-02 -2.012660726904869080e-02
-5.091335773468017578e-01 9.780336916446685791e-02 3.033777326345443726e-02
-5.844478011131286621e-01 -7.895365357398986816e-03 9.289806708693504333e-03
-6.286652684211730957e-01 4.098362848162651062e-02 -1.944699510931968689e-02
-4.618843197822570801e-01 1.107303351163864136e-01 -1.341301668435335159e-02
-6.742089986801147461e-01 1.304516941308975220e-01 -1.952829211950302124e-02
-6.352928876876831055e-01 2.672578394412994385e-02 2.665118128061294556e-02
-6.510891914367675781e-01 4.620712250471115112e-02 -1.956000924110412598e-02
-5.498051047325134277e-01 1.219431608915328979e-01 2.951488643884658813e-02
-5.335705280303955078e-01 7.112115621566772461e-03 1.766176335513591766e-02
-4.274210333824157715e-01 1.121210008859634399e-01 1.031430810689926147e-02
-4.499054849147796631e-01 7.753866910934448242e-02 2.046085149049758911e-02
-6.635822057723999023e-01 1.500576734542846680e-02 2.036237716674804688e-02
-5.008730888366699219e-01 1.767581701278686523e-01 1.082849875092506409e-02
-5.576710700988769531e-01 1.552519947290420532e-02 -9.049410000443458557e-03
-5.372124314308166504e-01 7.642050832509994507e-02 -2.204423770308494568e-02
-6.068311929702758789e-01 1.796897053718566895e-01 7.481588516384363174e-03
-5.951507687568664551e-01 1.081981435418128967e-01 -2.644562348723411560e-02
-6.664224267005920410e-01 1.726314425468444824e-03 1.258005946874618530e-02
-4.916489422321319580e-01 1.207370460033416748e-01 2.679120749235153198e-02
-7.004870176315307617e-01 6.553272157907485962e-02 -1.676590368151664734e-02
-5.059328675270080566e-01 1.271193921566009521e-01 2.711958065629005432e-02
-6.013664603233337402e-01 1.764268875122070312e-01 -1.494068186730146408e-02
-5.449021458625793457e-01 2.214985340833663940e-02 2.629422396421432495e-02
-4.919396638870239258e-01 3.097036853432655334e-02 2.064704522490501404e-02
-6.758930087089538574e-01 1.592522710561752319e-01 -2.961528953164815903e-03
-5.593155026435852051e-01 1.619072854518890381e-01 -2.070721611380577087e-02
-5.781270265579223633e-01 1.623559296131134033e-01 -2.086201682686805725e-02
-5.730112195014953613e-01 1.213320717215538025e-01 -2.590969577431678772e-02
-4.762480556964874268e-01 1.172160208225250244e-01 -1.659345999360084534e-02
-6.061255335807800293e-01 7.090757787227630615e-02 3.192249312996864319e-02
-4.516909718513488770e-01 1.056806966662406921e-01 -1.043766643851995468e-02
-6.713348031044006348e-01 1.222249269485473633e-01 -2.119589969515800476e-02
-5.302348136901855469e-01 1.020014211535453796e-01 -2.345030009746551514e-02
-4.537038207054138184e-01 1.149856820702552795e-01 -1.131384540349245071e-02
-5.496252775192260742e-01 1.632075458765029907e-01 1.996033266186714172e-02
-6.819500327110290527e-01 3.532310575246810913e-02 2.180014178156852722e-02
-6.880738139152526855e-01 4.661310464143753052e-02 2.199184149503707886e-02
-6.857362985610961914e-01 1.189121007919311523e-01 1.730155944824218750e-02
-6.604911684989929199e-01 1.195057556033134460e-01 2.216819673776626587e-02
-6.230956912040710449e-01 1.274847388267517090e-01 2.536555752158164978e-02
-5.745648145675659180e-01 5.361659079790115356e-02 -2.119803428649902344e-02
-6.089767217636108398e-01 9.270772337913513184e-03 2.385832369327545166e-02
-4.506141543388366699e-01 5.650110915303230286e-02 1.478814240545034409e-02
-6.587577462196350098e-01 6.432657688856124878e-02 2.744258195161819458e-02
-4.971750378608703613e-01 1.688314974308013916e-01 1.480420399457216263e-02
-6.056092381477355957e-01 1.281537562608718872e-01 -2.562806010246276855e-02
-7.137702107429504395e-01 1.119935810565948486e-01 -1.261221524327993393e-02
-5.641724467277526855e-01 8.075673878192901611e-02 3.283055499196052551e-02
-6.130952835083007812e-01 1.364244520664215088e-01 2.439761534333229065e-02
-6.363884806632995605e-01 4.606213048100471497e-02 -2.024880424141883850e-02
-4.640645086765289307e-01 9.013509005308151245e-02 2.484862506389617920e-02
-6.870064735412597656e-01 9.256603568792343140e-02 -2.053708955645561218e-02
-4.427855312824249268e-01 1.428893059492111206e-01 -4.098774399608373642e-03
-5.487460494041442871e-01 1.775593161582946777e-01 1.372305955737829208e-02
-5.316148400306701660e-01 9.015206247568130493e-02 -2.288318425416946411e-02
-4.922559857368469238e-01 9.464289247989654541e-02 -1.845313608646392822e-02
-6.112440824508666992e-01 1.108875498175621033e-01 -2.628281712532043457e-02
-5.586971044540405273e-01 1.831691265106201172e-01 -1.280874479562044144e-02
-6.434280872344970703e-01 3.294313326478004456e-02 -1.701899245381355286e-02
-5.053566694259643555e-01 1.840036809444427490e-01 4.883757792413234711e-03
-5.184682607650756836e-01 1.600550860166549683e-01 -1.836687326431274414e-02
-5.567014217376708984e-01 3.038470074534416199e-02 -1.446499768644571304e-02
-7.297968864440917969e-01 4.388328269124031067e-02 3.707848722115159035e-03
-7.219207882881164551e-01 6.737042963504791260e-02 1.355697959661483765e-02
-6.232973337173461914e-01 4.749777168035507202e-02 -2.086821570992469788e-02
-5.887493491172790527e-01 1.510381698608398438e-01 -2.314069867134094238e-02
-5.299545526504516602e-01 1.545205861330032349e-01 -2.053655683994293213e-02
-5.002143979072570801e-01 1.319525241851806641e-01 -1.995555311441421509e-02
-5.062684416770935059e-01 1.543291360139846802e-01 2.117751166224479675e-02
-5.052018761634826660e-01 1.711265742778778076e-02 2.057956531643867493e-03
-5.452228784561157227e-01 1.476868987083435059e-03 1.533219870179891586e-02
-6.838943958282470703e-01 1.337233334779739380e-01 -1.683175563812255859e-02
-5.161302685737609863e-01 1.687289476394653320e-01 -1.580352336168289185e-02
-5.307614803314208984e-01 1.779043227434158325e-01 -1.391343120485544205e-02
-6.852201819419860840e-01 1.056083813309669495e-01 -2.048290148377418518e-02
-5.331234931945800781e-01 1.718427538871765137e-01 1.630823686718940735e-02
-4.964779019355773926e-01 1.822194755077362061e-01 4.116480704396963120e-03
-5.754027366638183594e-01 1.124575436115264893e-01 -2.615623176097869873e-02
-5.401973724365234375e-01 1.908428221940994263e-02 -8.283805102109909058e-03
-6.862149238586425781e-01 2.563722431659698486e-02 1.891066506505012512e-02
-6.815108656883239746e-01 5.146003514528274536e-02 -1.770398393273353577e-02
-6.116693615913391113e-01 1.793974936008453369e-01 -1.167304627597332001e-02
-4.338139891624450684e-01 1.035114601254463196e-01 -3.061430063098669052e-03
-6.251701116561889648e-01 -5.691200494766235352e-04 -3.900239709764719009e-03
-5.826534032821655273e-01 1.178368851542472839e-01 2.959582582116127014e-02
-6.497713923454284668e-01 1.679384410381317139e-01 -1.086015440523624420e-02
-4.434728622436523438e-01 6.076678633689880371e-02 9.942205622792243958e-03
-5.335439443588256836e-01 2.463473379611968994e-02 2.594009414315223694e-02
-5.107303857803344727e-01 9.650678187608718872e-02 -2.114130929112434387e-02
-5.873023867607116699e-01 1.890422105789184570e-01 -1.759194768965244293e-03
-7.268022298812866211e-01 9.758235514163970947e-02 7.572670467197895050e-03
-7.069366574287414551e-01 4.114991053938865662e-02 -1.079904288053512573e-02
-5.397394895553588867e-01 1.770747900009155273e-01 1.390150748193264008e-02
-4.785538911819458008e-01 1.267883628606796265e-01 -1.679889485239982605e-02
-5.318528413772583008e-01 5.223290994763374329e-02 3.084522485733032227e-02
-6.521708965301513672e-01 1.321774423122406006e-01 2.065259963274002075e-02
-5.675667524337768555e-01 -2.991154789924621582e-03 1.553350500762462616e-02
-5.711085200309753418e-01 9.588754922151565552e-02 3.212902694940567017e-02
-6.336179375648498535e-01 1.296833753585815430e-01 -2.427843585610389709e-02
-7.068355083465576172e-01 1.209924370050430298e-01 -1.316674146801233292e-02
-5.357725024223327637e-01 1.440831571817398071e-01 -2.249410003423690796e-02
-4.973174035549163818e-01 1.591349542140960693e-01 1.878375932574272156e-02
-4.803864955902099609e-01 1.178133338689804077e-01 2.585525438189506531e-02
-5.517038702964782715e-01 6.382347643375396729e-02 -2.150558307766914368e-02
-6.871448159217834473e-01 9.937963634729385376e-02 2.066718786954879761e-02
-6.407376527786254883e-01 -6.009079515933990479e-03 1.084276288747787476e-02
-6.082618236541748047e-01 3.944526240229606628e-02 -1.928085088729858398e-02
-6.690508127212524414e-01 1.065540015697479248e-01 2.302571013569831848e-02
-6.143807172775268555e-01 1.266897022724151611e-01 2.630379423499107361e-02
-5.122721791267395020e-01 6.694541126489639282e-02 3.054962679743766785e-02
-6.474770903587341309e-01 1.368732303380966187e-01 -2.215454727411270142e-02
-5.696505308151245117e-01 1.804294586181640625e-01 -1.442656014114618301e-02
-5.420160889625549316e-01 1.861761808395385742e-01 -9.892777539789676666e-03
-5.632919073104858398e-01 2.205067873001098633e-02 -1.227322220802307129e-02
-6.446357965469360352e-01 1.511947363615036011e-01 1.601336896419525146e-02
-4.784875810146331787e-01 1.655264496803283691e-01 1.309376489371061325e-02
-4.991033077239990234e-01 1.164681538939476013e-01 2.801146358251571655e-02
-5.488467812538146973e-01 1.854825019836425781e-02 -9.286730550229549408e-03
-5.816539525985717773e-01 7.926160842180252075e-02 -2.490619197487831116e-02
-5.281019210815429688e-01 1.443603932857513428e-01 2.499125897884368896e-02
-5.468962192535400391e-01 1.785258203744888306e-01 -1.483185868710279465e-02
-4.724088013172149658e-01 9.890303015708923340e-02 -1.517747435718774796e-02
-7.025351524353027344e-01 1.066766828298568726e-01 1.556625403463840485e-02
-5.586811304092407227e-01 1.911473572254180908e-01 -5.135436076670885086e-04
-4.889596700668334961e-01 1.402780562639236450e-01 -1.758287101984024048e-02
-6.891651749610900879e-01 1.189714819192886353e-01 -1.849029213190078735e-02
-6.859794259071350098e-01 1.456873416900634766e-01 6.850557401776313782e-03
-5.898185968399047852e-01 1.364187151193618774e-02 2.562084048986434937e-02
-4.655544459819793701e-01 4.499475285410881042e-02 1.741315796971321106e-02
-6.808010339736938477e-01 3.296985104680061340e-02 -1.360969152301549911e-02
-5.461950898170471191e-01 1.911372244358062744e-01 -1.409330405294895172e-03
-6.853554248809814453e-01 1.310097873210906982e-01 1.390927191823720932e-02
-5.350275039672851562e-01 2.910049259662628174e-02 -1.153744664043188095e-02
-5.969139337539672852e-01 1.312342882156372070e-01 2.669118717312812805e-02
-6.066675186157226562e-01 -9.112544357776641846e-03 8.728533051908016205e-03
-5.089640021324157715e-01 1.149806156754493713e-01 -2.155170589685440063e-02
-5.351621508598327637e-01 4.257235303521156311e-02 -1.564591005444526672e-02
-5.217107534408569336e-01 9.967844188213348389e-02 -2.253941074013710022e-02
-6.518889069557189941e-01 8.135820180177688599e-02 -2.387846633791923523e-02
-5.958440303802490234e-01 -8.736319839954376221e-03 7.524589542299509048e-03
-5.292105078697204590e-01 5.237145721912384033e-02 -1.727165281772613525e-02
-6.543246507644653320e-01 8.432157337665557861e-03 1.942453905940055847e-02
-7.114590406417846680e-01 8.635389059782028198e-02 -1.560928765684366226e-02
-6.434010267257690430e-01 -4.672974348068237305e-03 1.823115977458655834e-03
-5.009442567825317383e-01 1.823447346687316895e-01 -5.537129007279872894e-03
-6.269622445106506348e-01 1.189304217696189880e-01 -2.548743784427642822e-02
-4.848598837852478027e-01 4.264169558882713318e-02 -6.313865073025226593e-03
-5.571900010108947754e-01 1.028639674186706543e-01 3.168879449367523193e-02
-7.071917653083801270e-01 3.633119165897369385e-02 1.555922999978065491e-02
-6.073442697525024414e-01 1.591489017009735107e-01 1.834127120673656464e-02
-6.700298786163330078e-01 1.207941025495529175e-01 2.023035660386085510e-02
-4.892031550407409668e-01 1.807097941637039185e-01 -1.189219765365123749e-03
-5.408228039741516113e-01 9.151413291692733765e-02 -2.375000715255737305e-02
-4.713942408561706543e-01 1.450974792242050171e-01 -1.353607233613729477e-02
-7.270752191543579102e-01 4.893878102302551270e-02 -5.333340726792812347e-03
-5.498003363609313965e-01 7.722755521535873413e-02 -2.313237637281417847e-02
-6.411458253860473633e-01 1.108609959483146667e-01 -2.503863349556922913e-02
-5.686246156692504883e-01 2.567674964666366577e-02 2.842079848051071167e-02
-4.637759625911712646e-01 1.369320452213287354e-01 -1.282719988375902176e-02
-6.873466372489929199e-01 4.011975228786468506e-02 -1.452369894832372665e-02
-6.696203947067260742e-01 4.775050655007362366e-02 -1.837757602334022522e-02
-6.444470286369323730e-01 1.097238063812255859e-01 2.606228366494178772e-02
-6.950437426567077637e-01 9.980350732803344727e-02 -1.901891455054283142e-02
-5.896533131599426270e-01 1.337649971246719360e-01 -2.535372972488403320e-02
-4.774987101554870605e-01 1.385908126831054688e-01 2.201117947697639465e-02
-7.031422853469848633e-01 7.540763914585113525e-02 -1.713257655501365662e-02
-6.648521423339843750e-01 6.908288598060607910e-02 -2.187091484665870667e-02
-5.737096667289733887e-01 1.415017545223236084e-01 2.562352642416954041e-02
-6.647687554359436035e-01 -1.449786126613616943e-03 4.373451694846153259e-03
-4.736863374710083008e-01 7.765786349773406982e-02 2.625073119997978210e-02
-4.359085857868194580e-01 8.562641590833663940e-02 1.542026083916425705e-02
-5.787039995193481445e-01 1.321525573730468750e-01 2.739317342638969421e-02
-6.943149566650390625e-01 1.426057517528533936e-01 -9.445299394428730011e-03
-5.225445628166198730e-01 7.935158908367156982e-02 3.165720775723457336e-02
-5.952488183975219727e-01 1.627933084964752197e-01 -2.042286470532417297e-02
-6.934884190559387207e-01 8.645596355199813843e-02 2.078882232308387756e-02
-5.791566967964172363e-01 1.859640777111053467e-01 6.186923943459987640e-03
-6.677863001823425293e-01 1.404588818550109863e-01 1.516347937285900116e-02
-6.144223213195800781e-01 2.887727692723274231e-02 2.843647822737693787e-02
-5.654161572456359863e-01 1.537666022777557373e-01 2.272760495543479919e-02
-5.323396921157836914e-01 1.561831831932067871e-01 2.201458439230918884e-02
-7.099143266677856445e-01 2.851590514183044434e-02 1.202412135899066925e-02
-4.701341986656188965e-01 1.622301936149597168e-01 1.270195748656988144e-02
-6.634138822555541992e-01 5.951017141342163086e-02 -2.085209265351295471e-02
-6.446939706802368164e-01 6.014615297317504883e-02 2.896745502948760986e-02
-6.298676729202270508e-01 7.780162990093231201e-02 -2.471989020705223083e-02
-5.236200094223022461e-01 2.198921889066696167e-02 -6.683789193630218506e-03
-6.786288022994995117e-01 6.932438910007476807e-02 -2.047405391931533813e-02
-5.799142122268676758e-01 1.651532500982284546e-01 1.832398585975170135e-02
-6.995793581008911133e-01 2.330365031957626343e-02 -6.079736165702342987e-03
-5.774439573287963867e-01 1.032344400882720947e-01 -2.614204585552215576e-02
-6.976300477981567383e-01 2.877236530184745789e-02 1.671923324465751648e-02
-7.360385656356811523e-01 8.240801841020584106e-02 -3.648911137133836746e-03
-4.441589117050170898e-01 1.473789215087890625e-01 1.013407483696937561e-02
-4.407704174518585205e-01 1.216906756162643433e-01 -6.704912520945072174e-03
-6.198396682739257812e-01 1.557977497577667236e-01 -2.085802704095840454e-02
-4.359073936939239502e-01 1.416754424571990967e-01 6.592391990125179291e-03
-5.139886736869812012e-01 4.255739226937294006e-02 2.793588489294052124e-02
-5.252608060836791992e-01 1.326714009046554565e-01 -2.268226817250251770e-02
-6.122478246688842773e-01 1.844362616539001465e-01 -2.993563655763864517e-03
-5.167365670204162598e-01 1.211745291948318481e-02 1.901320298202335835e-03
-5.734323859214782715e-01 -6.458029150962829590e-03 1.027963869273662567e-02
-5.652649402618408203e-01 1.361029744148254395e-01 2.699588611721992493e-02
-4.818131327629089355e-01 6.648962199687957764e-02 -1.258428487926721573e-02
-5.893803238868713379e-01 1.658621281385421753e-01 1.739301532506942749e-02
-5.763123035430908203e-01 4.237058758735656738e-02 3.119638562202453613e-02
-6.031432151794433594e-01 9.454344958066940308e-02 3.116145730018615723e-02
-5.125572681427001953e-01 2.716831117868423462e-02 2.383171766996383667e-02
-6.635080575942993164e-01 1.277463138103485107e-01 -2.158847823739051819e-02
-4.518509507179260254e-01 1.435219198465347290e-01 -8.124048821628093719e-03
-5.916811227798461914e-01 1.841400861740112305e-01 -1.071839593350887299e-02
-5.822412967681884766e-01 6.353362649679183960e-02 3.260851651430130005e-02
-4.464644491672515869e-01 6.891202181577682495e-02 1.740153133869171143e-02
-5.638004541397094727e-01 5.553737282752990723e-03 2.146957069635391235e-02
-4.958083629608154297e-01 2.166647464036941528e-02 2.294879173859953880e-03
-6.614586710929870605e-01 1.331942528486251831e-01 1.877263933420181274e-02
-6.342322230339050293e-01 4.596652835607528687e-02 2.919260412454605103e-02
-6.640482544898986816e-01 4.729722067713737488e-02 2.605825662612915039e-02
-6.183260679244995117e-01 9.718678146600723267e-02 -2.606566995382308960e-02
-5.189249515533447266e-01 1.212241053581237793e-01 -2.257869020104408264e-02
-6.372023820877075195e-01 1.577597260475158691e-01 -1.852403581142425537e-02
-6.225988864898681641e-01 1.611334085464477539e-02 -1.243366207927465439e-02
-5.218105912208557129e-01 5.827689915895462036e-02 3.070886060595512390e-02
-4.978593587875366211e-01 1.706615388393402100e-01 -1.230307947844266891e-02
-6.717179417610168457e-01 1.510116606950759888e-01 9.362719953060150146e-03
-4.873775839805603027e-01 1.414467394351959229e-01 2.267888560891151428e-02
-5.138310790061950684e-01 5.197363719344139099e-02 -1.512597408145666122e-02
-4.823821783065795898e-01 8.691827207803726196e-02 2.787438407540321350e-02
-6.462357640266418457e-01 6.782754510641098022e-02 -2.306085824966430664e-02
-4.535946846008300781e-01 1.103335171937942505e-01 2.187542244791984558e-02
-6.355784535408020020e-01 1.500438302755355835e-01 1.795172877609729767e-02
-6.435458660125732422e-01 8.316218107938766479e-02 -2.450008317828178406e-02
-4.819584488868713379e-01 4.946551099419593811e-02 2.412922307848930359e-02
-4.559249877929687500e-01 1.573905646800994873e-01 1.036144793033599854e-02
-6.181920170783996582e-01 1.769026219844818115e-01 7.335107773542404175e-03
-4.849293231964111328e-01 9.028975665569305420e-02 -1.683506742119789124e-02
-5.563198924064636230e-01 1.850324571132659912e-01 8.657946251332759857e-03
-5.887776017189025879e-01 1.390034556388854980e-01 2.553398162126541138e-02
-5.971150994300842285e-01 1.864372640848159790e-01 1.814765157178044319e-03
-6.181238889694213867e-01 1.678288280963897705e-01 -1.720408350229263306e-02
-6.330496072769165039e-01 1.249884292483329773e-01 2.481269836425781250e-02
-6.163225173950195312e-01 5.812180414795875549e-02 -2.274419739842414856e-02
-6.234731674194335938e-01 1.543122529983520508e-01 1.818101853132247925e-02
-6.012778282165527344e-01 1.108093410730361938e-01 2.966113388538360596e-02
-5.214005708694458008e-01 3.157071769237518311e-02 -1.029730401933193207e-02
-7.284821867942810059e-01 5.801253020763397217e-02 -7.129303179681301117e-03
-5.538207888603210449e-01 7.779178023338317871e-02 3.279139474034309387e-02
-5.381558537483215332e-01 1.046010553836822510e-01 3.128463774919509888e-02
-7.191592454910278320e-01 2.946083247661590576e-02 5.103724077343940735e-03
-5.151172876358032227e-01 1.844975054264068604e-01 6.675088778138160706e-03
-6.741428971290588379e-01 8.674347400665283203e-02 -2.214024215936660767e-02
-6.513564586639404297e-01 1.681510359048843384e-02 -1.141877099871635437e-02
-5.359099507331848145e-01 6.220297142863273621e-02 3.185852617025375366e-02
-6.238310933113098145e-01 9.853038191795349121e-02 2.944007515907287598e-02
-6.276687979698181152e-01 8.175632357597351074e-02 3.027904778718948364e-02
-4.740905761718750000e-01 6.227894872426986694e-02 2.480829879641532898e-02
-6.066311001777648926e-01 1.713724136352539062e-01 1.303155440837144852e-02
-5.436075329780578613e-01 8.029343932867050171e-02 3.255734592676162720e-02
-6.186340451240539551e-01 2.369441092014312744e-03 2.054993435740470886e-02
-4.512708783149719238e-01 1.265725195407867432e-01 -1.024539954960346222e-02
-5.898897647857666016e-01 3.950047120451927185e-02 3.075612708926200867e-02
-5.024941563606262207e-01 4.565387964248657227e-02 -1.151196286082267761e-02
7.197694182395935059e-01 -8.744197338819503784e-02 9.281053394079208374e-02
7.174905538558959961e-01 6.543360650539398193e-02 -5.246165674179792404e-03
9.602587819099426270e-01 -5.413394421339035034e-02 1.303861383348703384e-02
6.282728314399719238e-01 -1.157977730035781860e-01 -9.261122904717922211e-04
7.300018072128295898e-01 5.257380008697509766e-02 -5.621115490794181824e-02
7.822291851043701172e-01 4.017984867095947266e-02 -7.239040732383728027e-02
6.619831323623657227e-01 -4.377413541078567505e-02 8.019489794969558716e-02
9.558444619178771973e-01 -2.630073577165603638e-02 -3.082721959799528122e-03
7.688814401626586914e-01 -1.681843101978302002e-01 5.324839148670434952e-04
9.121278524398803711e-01 -6.486416608095169067e-02 -6.811124831438064575e-02
9.154452085494995117e-01 -1.147176101803779602e-01 4.904020577669143677e-02
6.687161922454833984e-01 3.570487350225448608e-02 3.850281238555908203e-02
6.555743813514709473e-01 -1.206761226058006287e-02 -6.946851313114166260e-02
7.495934367179870605e-01 -4.174965247511863708e-02 -9.418421238660812378e-02
6.887446045875549316e-01 -1.447310447692871094e-01 4.693033546209335327e-02
7.655980587005615234e-01 -1.338009983301162720e-01 -5.673454329371452332e-02
9.019306302070617676e-01 -1.334655880928039551e-01 4.293005913496017456e-02
9.462774991989135742e-01 -5.092620477080345154e-02 -4.535457491874694824e-02
6.023396253585815430e-01 -7.389888167381286621e-03 -2.628223411738872528e-02
8.983752131462097168e-01 -1.165935769677162170e-02 5.376461148262023926e-02
6.366195678710937500e-01 -1.033121123909950256e-01 -3.191177919507026672e-02
8.072755336761474609e-01 6.176517903804779053e-02 6.823346484452486038e-03
7.314072847366333008e-01 3.774885088205337524e-02 5.306219682097434998e-02
8.065100312232971191e-01 -1.463512182235717773e-01 -4.529630392789840698e-02
6.566352844238281250e-01 -2.091124653816223145e-03 6.481352448463439941e-02
9.435729980468750000e-01 -6.716486811637878418e-02 -4.626879096031188965e-02
6.489433646202087402e-01 -1.255684494972229004e-01 4.271803796291351318e-02
8.577645421028137207e-01 4.836742579936981201e-02 -3.684352710843086243e-02
7.659288048744201660e-01 5.421239882707595825e-02 3.326897695660591125e-02
8.617646098136901855e-01 -1.519793868064880371e-01 -2.480899915099143982e-02
7.945316433906555176e-01 4.046775400638580322e-02 4.797919839620590210e-02
7.162340879440307617e-01 -1.552783250808715820e-01 -1.270682830363512039e-02
6.437521576881408691e-01 -1.250210404396057129e-02 -6.364104151725769043e-02
7.135429978370666504e-01 -8.368722349405288696e-02 -7.874064147472381592e-02
7.990119457244873047e-01 -4.069127514958381653e-02 -9.591751545667648315e-02
5.898758769035339355e-01 -6.440588086843490601e-02 1.230389997363090515e-02
6.641680598258972168e-01 4.736332595348358154e-02 1.471684128046035767e-02
9.550904035568237305e-01 -4.767293483018875122e-02 -3.354564309120178223e-02
9.356151223182678223e-01 -3.377256542444229126e-02 3.888445720076560974e-02
6.329109668731689453e-01 -2.938481792807579041e-02 -5.914698913693428040e-02
9.011337757110595703e-01 1.876030862331390381e-02 2.380548603832721710e-02
7.235162258148193359e-01 -1.617482900619506836e-01 2.867317758500576019e-02
7.327426671981811523e-01 -5.092807114124298096e-03 8.263316005468368530e-02
7.028655409812927246e-01 3.555613756179809570e-02 -6.626750528812408447e-02
9.058150649070739746e-01 3.462366759777069092e-03 -5.937451496720314026e-02
7.669882774353027344e-01 -1.486104726791381836e-01 6.719107925891876221e-02
6.731303930282592773e-01 2.880859375000000000e-02 4.827026277780532837e-02
8.178079128265380859e-01 -3.718182444572448730e-03 -9.112656861543655396e-02
8.779688477516174316e-01 -1.492443382740020752e-01 3.905299678444862366e-02
7.443215847015380859e-01 -7.693080604076385498e-02 -8.671410381793975830e-02
7.096910476684570312e-01 -1.208217889070510864e-01 7.927598059177398682e-02
7.596529722213745117e-01 -1.304882168769836426e-01 8.121027797460556030e-02
6.557610630989074707e-01 4.253366589546203613e-02 -3.205136209726333618e-02
7.585523128509521484e-01 -1.460633426904678345e-02 8.744522184133529663e-02
6.537238955497741699e-01 -5.222116410732269287e-02 -6.800977140665054321e-02
6.120306253433227539e-01 -8.316826075315475464e-02 -2.509516105055809021e-02
8.791253566741943359e-01 4.159815609455108643e-02 -2.868709526956081390e-02
8.308720588684082031e-01 -1.668250560760498047e-01 1.678885077126324177e-03
9.427629709243774414e-01 -1.565289869904518127e-02 -3.616621717810630798e-02
9.062986969947814941e-01 -6.288781762123107910e-03 4.533899202942848206e-02
8.032344579696655273e-01 -5.869536846876144409e-02 9.491898119449615479e-02
5.918275713920593262e-01 -6.803412735462188721e-02 8.314184378832578659e-05
8.554954528808593750e-01 -9.643461555242538452e-03 7.096612453460693359e-02
7.216838002204895020e-01 -5.059640854597091675e-02 9.404204040765762329e-02
7.936757802963256836e-01 -7.838772237300872803e-02 -8.932069689035415649e-02
6.271480321884155273e-01 -9.231063723564147949e-02 5.539251863956451416e-02
8.614549636840820312e-01 -1.611329913139343262e-01 4.231838975101709366e-03
6.425123810768127441e-01 3.756659477949142456e-02 1.375122275203466415e-02
6.513928174972534180e-01 -3.707426041364669800e-02 7.519120723009109497e-02
9.407649040222167969e-01 -1.477653533220291138e-02 1.888826116919517517e-02
8.101488351821899414e-01 -1.184529289603233337e-01 -6.989318132400512695e-02
6.680964827537536621e-01 -1.425483524799346924e-01 2.631286345422267914e-02
8.151499032974243164e-01 -1.284863799810409546e-01 8.006469905376434326e-02
9.132401347160339355e-01 -3.453142195940017700e-02 5.606818571686744690e-02
8.410338163375854492e-01 1.016235351562500000e-02 -8.255548030138015747e-02
7.170011997222900391e-01 -1.030983775854110718e-01 -7.020726054906845093e-02
8.113530874252319336e-01 3.470639139413833618e-02 5.076412484049797058e-02
7.979975938796997070e-01 6.144830584526062012e-02 -4.114495962858200073e-02
8.856260776519775391e-01 3.642097860574722290e-02 6.454864516854286194e-03
7.092140316963195801e-01 -6.330266594886779785e-02 9.308747947216033936e-02
7.853608131408691406e-01 -5.213299393653869629e-02 -9.506657719612121582e-02
6.507713198661804199e-01 4.482273012399673462e-02 -1.645450107753276825e-02
7.283719778060913086e-01 6.713066250085830688e-02 -1.406437717378139496e-02
9.281139373779296875e-01 -1.103426739573478699e-01 4.086259752511978149e-02
6.316260695457458496e-01 3.308744728565216064e-02 6.509273312985897064e-03
9.350006580352783203e-01 -1.229839920997619629e-01 4.976594820618629456e-03
7.215276360511779785e-01 -1.308369636535644531e-02 8.494309335947036743e-02
6.969152092933654785e-01 -6.474369764328002930e-02 9.084204584360122681e-02
8.382885456085205078e-01 -7.085487991571426392e-02 -8.822102099657058716e-02
7.652064561843872070e-01 6.390449404716491699e-02 1.329498831182718277e-02
6.538310647010803223e-01 -1.024634689092636108e-01 6.793732941150665283e-02
6.575164794921875000e-01 -1.313992440700531006e-01 -1.265371404588222504e-02
9.279421567916870117e-01 -7.338722050189971924e-02 -5.702504143118858337e-02
8.298586606979370117e-01 -1.645538508892059326e-01 3.487453237175941467e-02
9.593411684036254883e-01 -3.882624581456184387e-02 4.909560084342956543e-03
8.044652342796325684e-01 -8.504010736942291260e-02 9.454260766506195068e-02
6.331804394721984863e-01 -2.583282440900802612e-02 6.394407153129577637e-02
7.902970314025878906e-01 -1.397310048341751099e-01 7.516806572675704956e-02
9.278471469879150391e-01 2.087280154228210449e-05 1.930812560021877289e-02
8.828639388084411621e-01 -2.161520719528198242e-02 6.642726808786392212e-02
6.695085763931274414e-01 -1.328472346067428589e-01 5.131119862198829651e-02
8.847881555557250977e-01 -5.296738818287849426e-02 7.475064694881439209e-02
7.049865722656250000e-01 -1.025579050183296204e-01 -6.728761643171310425e-02
9.483143091201782227e-01 -1.254618912935256958e-02 -6.741882301867008209e-03
9.378486871719360352e-01 -1.126346588134765625e-01 -2.090111561119556427e-02
6.223040819168090820e-01 -1.066849380731582642e-01 -1.019007526338100433e-02
7.463577985763549805e-01 -1.042202264070510864e-01 -7.528759539127349854e-02
6.927891969680786133e-01 -7.738000899553298950e-02 -7.559816539287567139e-02
6.448315382003784180e-01 1.255446672439575195e-02 -5.527956783771514893e-02
8.507438898086547852e-01 -7.238373160362243652e-03 -8.640489727258682251e-02
8.029747605323791504e-01 -1.548726707696914673e-01 -3.399199619889259338e-02
6.990569829940795898e-01 5.482778698205947876e-02 2.180334739387035370e-02
8.570077419281005859e-01 -8.354453742504119873e-02 -8.128715306520462036e-02
7.134582996368408203e-01 5.411813408136367798e-02 -4.944709315896034241e-02
9.140926003456115723e-01 -1.065368875861167908e-01 -4.926639795303344727e-02
6.550913453102111816e-01 -5.977158993482589722e-02 7.869844138622283936e-02
8.744352459907531738e-01 -1.566027700901031494e-01 -9.067934006452560425e-04
5.970811843872070312e-01 -4.607371985912322998e-02 -2.573972754180431366e-02
7.846500873565673828e-01 -1.537431776523590088e-01 6.189947947859764099e-02
6.893365383148193359e-01 -1.494464576244354248e-01 -4.325470887124538422e-03
7.145931124687194824e-01 -3.067504428327083588e-02 8.964585512876510620e-02
8.234692811965942383e-01 -5.697636306285858154e-02 9.196925163269042969e-02
5.869932174682617188e-01 -2.947804518043994904e-02 7.278325501829385757e-03
8.113572597503662109e-01 -1.648503541946411133e-01 4.060095548629760742e-02
6.733015775680541992e-01 -1.404259949922561646e-01 -1.073854323476552963e-02
7.343714833259582520e-01 6.215976178646087646e-02 -4.075931012630462646e-02
7.944810986518859863e-01 6.663952767848968506e-02 -1.224635727703571320e-02
7.771399617195129395e-01 -8.804035186767578125e-02 9.598672389984130859e-02
5.931140184402465820e-01 -5.530643463134765625e-02 -1.574729569256305695e-02
6.632173061370849609e-01 4.917958378791809082e-02 -2.384403347969055176e-02
8.257429599761962891e-01 2.620612829923629761e-02 5.531223118305206299e-02
6.123545169830322266e-01 -7.316451519727706909e-02 -3.272041305899620056e-02
6.296831369400024414e-01 -1.134258732199668884e-01 3.698821738362312317e-02
8.287360072135925293e-01 -1.211878061294555664e-01 -6.644149124622344971e-02
6.778551936149597168e-01 -7.805709540843963623e-02 8.512128144502639771e-02
9.631493091583251953e-01 -7.116915285587310791e-02 -8.902122266590595245e-03
9.201905131340026855e-01 -9.559909999370574951e-02 5.471245571970939636e-02
9.051961302757263184e-01 -1.442644596099853516e-01 9.682266041636466980e-03
6.393747925758361816e-01 -1.227504760026931763e-01 -5.627559963613748550e-03
6.635667085647583008e-01 -4.125060141086578369e-02 -7.384631037712097168e-02
6.058993935585021973e-01 -2.897373214364051819e-02 4.509377107024192810e-02
7.779169678688049316e-01 -1.621564030647277832e-01 -2.003120630979537964e-02
8.178269863128662109e-01 -1.098067909479141235e-01 8.773686736822128296e-02
8.492970466613769531e-01 -1.610940843820571899e-01 3.345571085810661316e-02
5.944173336029052734e-01 -4.155745357275009155e-02 3.383134305477142334e-02
7.224657535552978516e-01 1.879093050956726074e-02 6.814812123775482178e-02
6.221678256988525391e-01 6.248164921998977661e-03 3.893163800239562988e-02
9.492235183715820312e-01 -1.730094105005264282e-02 4.562626592814922333e-03
6.552048921585083008e-01 -1.358749568462371826e-01 2.485858276486396790e-02
7.534064054489135742e-01 1.993376761674880981e-02 6.918301433324813843e-02
7.174287438392639160e-01 4.872595518827438354e-02 3.796101361513137817e-02
8.829574584960937500e-01 3.058578073978424072e-02 -4.917527735233306885e-02
7.341723442077636719e-01 9.946726262569427490e-03 7.492832839488983154e-02
8.429712653160095215e-01 -1.389177292585372925e-01 6.735001504421234131e-02
6.919281482696533203e-01 -8.138716220855712891e-02 8.842889964580535889e-02
8.269760012626647949e-01 -2.087484858930110931e-02 -9.310919046401977539e-02
7.519049048423767090e-01 -2.418406307697296143e-02 -9.461604803800582886e-02
6.267226934432983398e-01 -4.354788362979888916e-02 6.405423581600189209e-02
7.314965724945068359e-01 -5.166158080101013184e-02 -9.076737612485885620e-02
6.928985118865966797e-01 -1.032429412007331848e-01 -6.299714744091033936e-02
9.398671388626098633e-01 -1.512415707111358643e-03 -1.630287431180477142e-02
6.120330095291137695e-01 -5.156276375055313110e-02 5.412071943283081055e-02
6.025521755218505859e-01 -2.751547843217849731e-02 -3.369631618261337280e-02
8.117868304252624512e-01 -9.477869421243667603e-02 9.230533987283706665e-02
