-6.105376482009887695e-01 1.419984698295593262e-01 3.398364782333374023e-02
-8.371771574020385742e-01 2.741785347461700439e-01 -7.094650715589523315e-02
-6.070314645767211914e-01 2.570939809083938599e-02 5.483931675553321838e-02
-6.569370031356811523e-01 1.209219023585319519e-01 1.629555821418762207e-01
-7.803513407707214355e-01 1.026057600975036621e-01 -1.021812111139297485e-01
-8.053992986679077148e-01 1.139450147747993469e-01 -2.903473936021327972e-02
-6.120467782020568848e-01 5.020738393068313599e-02 -1.211026012897491455e-01
-5.787257552146911621e-01 5.448364466428756714e-02 3.676535561680793762e-02
-6.063704490661621094e-01 1.750944554805755615e-02 1.946230791509151459e-02
-5.759676098823547363e-01 4.491369426250457764e-02 -1.708444394171237946e-02
-7.583581209182739258e-01 2.654450535774230957e-01 -3.702196106314659119e-02
-8.702019453048706055e-01 2.209323644638061523e-01 -4.941740259528160095e-02
-7.166090607643127441e-01 2.246299386024475098e-01 -1.121557801961898804e-01
-7.985784411430358887e-01 1.198290586471557617e-01 -9.977836161851882935e-02
-6.374205946922302246e-01 1.727889180183410645e-01 -5.098729580640792847e-02
-5.882612466812133789e-01 1.050176769495010376e-01 -3.185771033167839050e-02
-8.002545833587646484e-01 1.274866759777069092e-01 -1.149352192878723145e-01
-7.657266855239868164e-01 1.448117345571517944e-01 1.665731370449066162e-01
-8.185372352600097656e-01 2.242736518383026123e-01 1.425491124391555786e-01
-7.046354413032531738e-01 2.322360873222351074e-01 5.672310665249824524e-02
-7.255071401596069336e-01 1.937251687049865723e-01 1.694518923759460449e-01
-5.815528035163879395e-01 7.806216180324554443e-02 -5.405779182910919189e-02
-8.016396164894104004e-01 2.681294679641723633e-01 -9.062097221612930298e-02
-7.453722953796386719e-01 2.056040763854980469e-01 1.679300814867019653e-01
-7.380791902542114258e-01 9.580461680889129639e-02 1.381117701530456543e-01
-6.662962436676025391e-01 2.276204526424407959e-02 1.682075671851634979e-02
-7.527080178260803223e-01 7.902396470308303833e-02 7.346644997596740723e-02
-7.524241209030151367e-01 1.417434066534042358e-01 -1.893264502286911011e-01
-6.301398277282714844e-01 1.673193424940109253e-01 -3.275500610470771790e-02
-8.400513529777526855e-01 2.532199919223785400e-01 1.044474542140960693e-01
-7.598145008087158203e-01 2.223072350025177002e-01 -1.583656817674636841e-01
-7.070730328559875488e-01 4.047731310129165649e-02 1.828273199498653412e-02
-6.759298443794250488e-01 2.141587883234024048e-01 -5.684107076376676559e-03
-6.605403423309326172e-01 3.288616240024566650e-02 -1.031233146786689758e-01
-7.319390177726745605e-01 2.537292242050170898e-01 -8.771135471761226654e-03
-5.949078202247619629e-01 1.198653578758239746e-01 1.220728084444999695e-02
-6.264467239379882812e-01 1.615296304225921631e-01 4.329211264848709106e-02
-8.346735835075378418e-01 2.612617909908294678e-01 -1.013207584619522095e-01
-7.409407496452331543e-01 2.463029325008392334e-01 9.471923857927322388e-02
-6.712993979454040527e-01 1.993018537759780884e-01 -8.218688517808914185e-02
-7.292950749397277832e-01 2.507688999176025391e-01 -3.073976747691631317e-02
-6.909779906272888184e-01 2.084408253431320190e-01 -1.057388111948966980e-01
-6.515656113624572754e-01 1.867552548646926880e-01 5.839787796139717102e-02
-6.254277825355529785e-01 1.546465158462524414e-01 -6.856857240200042725e-02
-8.408774733543395996e-01 1.556438207626342773e-01 -1.157164946198463440e-02
-6.514927744865417480e-01 2.325811982154846191e-02 -7.486769556999206543e-02
-8.274099826812744141e-01 2.834112644195556641e-01 3.836563974618911743e-02
-7.121727466583251953e-01 4.181490838527679443e-02 -6.016137078404426575e-03
-6.017990708351135254e-01 1.317578256130218506e-01 2.235758583992719650e-03
-6.072163581848144531e-01 1.261456012725830078e-01 -7.628582417964935303e-02
-6.227505207061767578e-01 3.274591267108917236e-02 8.306133747100830078e-02
-5.827467441558837891e-01 9.474956989288330078e-02 -1.593837141990661621e-02
-8.145577311515808105e-01 2.789563536643981934e-01 -5.749290809035301208e-02
-7.570930123329162598e-01 1.989303231239318848e-01 1.745388954877853394e-01
-6.808207035064697266e-01 1.526811420917510986e-01 -1.759525388479232788e-01
-7.228138446807861328e-01 2.353238761425018311e-01 9.628421813249588013e-02
-6.406534910202026367e-01 1.637233346700668335e-01 -9.639068692922592163e-02
-7.214605212211608887e-01 2.089931070804595947e-01 1.499380171298980713e-01
-8.000380992889404297e-01 1.438962668180465698e-01 -1.436721235513687134e-01
-5.917655229568481445e-01 1.082417890429496765e-01 -4.797593876719474792e-02
-7.018164396286010742e-01 2.339792549610137939e-01 2.008592151105403900e-02
-7.883664369583129883e-01 1.049462184309959412e-01 5.768902227282524109e-02
-6.137937307357788086e-01 1.156008765101432800e-01 1.074147149920463562e-01
-8.691930770874023438e-01 2.106369435787200928e-01 -3.501578420400619507e-02
-6.493846178054809570e-01 1.553668081760406494e-01 1.300195008516311646e-01
-6.895799040794372559e-01 1.794742941856384277e-01 1.556171178817749023e-01
-7.701624631881713867e-01 1.271106004714965820e-01 1.451988220214843750e-01
-6.834326386451721191e-01 2.071301788091659546e-01 -9.119533747434616089e-02
-6.295899152755737305e-01 1.972045004367828369e-02 -6.994090229272842407e-02
-7.381940484046936035e-01 2.317361384630203247e-01 1.282146275043487549e-01
-8.381778597831726074e-01 1.750037521123886108e-01 8.678800612688064575e-02
-6.101531982421875000e-01 1.414495557546615601e-01 -3.554302826523780823e-02
-7.616961002349853516e-01 2.543009221553802490e-01 -9.655329585075378418e-02
-6.118356585502624512e-01 7.669380307197570801e-02 1.185560151934623718e-01
-6.389532089233398438e-01 1.533661037683486938e-01 -1.146306917071342468e-01
-7.414016127586364746e-01 8.952438831329345703e-02 1.229773685336112976e-01
-6.139031052589416504e-01 1.491868048906326294e-01 -3.900634124875068665e-03
-8.241771459579467773e-01 2.588546872138977051e-01 -1.110952496528625488e-01
-6.229417920112609863e-01 2.536532282829284668e-02 6.438484787940979004e-02
-6.075713634490966797e-01 1.150920689105987549e-01 -9.866859763860702515e-02
-8.028035163879394531e-01 2.159035503864288330e-01 -1.631282120943069458e-01
-6.031204462051391602e-01 1.253864020109176636e-01 -5.954995751380920410e-02
-8.276160955429077148e-01 1.403639018535614014e-01 2.095391415059566498e-02
-5.790394544601440430e-01 6.352319568395614624e-02 -5.266774445772171021e-02
-7.738290429115295410e-01 9.971205890178680420e-02 8.583203703165054321e-02
-8.418288826942443848e-01 2.689567804336547852e-01 7.917606085538864136e-02
-8.337057828903198242e-01 2.465388476848602295e-01 1.169900521636009216e-01
-8.132397532463073730e-01 1.920875608921051025e-01 -1.596745550632476807e-01
-8.329156637191772461e-01 2.176330238580703735e-01 1.287793815135955811e-01
-8.177936673164367676e-01 2.723418176174163818e-01 -8.236519992351531982e-02
-5.932165980339050293e-01 1.041850894689559937e-01 -6.650415807962417603e-02
-8.000338077545166016e-01 2.811711430549621582e-01 3.168438747525215149e-02
-8.202719688415527344e-01 1.336808502674102783e-01 3.513491526246070862e-02
-5.926903486251831055e-01 6.477293372154235840e-02 -9.740643948316574097e-02
-7.188620567321777344e-01 2.428854703903198242e-01 -4.359155893325805664e-02
-7.823784351348876953e-01 1.163497269153594971e-01 1.082040816545486450e-01
-7.800378799438476562e-01 2.562696635723114014e-01 -1.093766689300537109e-01
-7.394025325775146484e-01 2.384239584207534790e-01 1.147737503051757812e-01
-6.126771569252014160e-01 1.129045039415359497e-01 -1.146092936396598816e-01
-7.866616249084472656e-01 1.089187636971473694e-01 7.830650359392166138e-02
-8.099813461303710938e-01 1.207805350422859192e-01 -5.080924555659294128e-02
-7.544288635253906250e-01 2.296529412269592285e-01 1.449514627456665039e-01
-8.181266188621520996e-01 1.335458010435104370e-01 -7.073993980884552002e-02
-7.739373445510864258e-01 1.498239487409591675e-01 -1.795361191034317017e-01
-6.475086212158203125e-01 4.031886905431747437e-02 1.015477925539016724e-01
-6.406742334365844727e-01 2.283905446529388428e-02 5.415570735931396484e-02
-5.968484878540039062e-01 1.928959786891937256e-02 -2.792638540267944336e-02
-6.838445663452148438e-01 2.199786156415939331e-01 -2.055126801133155823e-02
-5.890581607818603516e-01 4.987990111112594604e-02 -8.361665159463882446e-02
-6.719510555267333984e-01 5.656054615974426270e-02 1.245906725525856018e-01
-7.472320199012756348e-01 2.206212580204010010e-01 1.531410068273544312e-01
-7.527686953544616699e-01 8.492490649223327637e-02 -1.184716746211051941e-01
-6.527066230773925781e-01 1.764575242996215820e-01 -9.773398935794830322e-02
-8.268018364906311035e-01 1.460334211587905884e-01 -7.729542255401611328e-02
-5.950449705123901367e-01 2.355831861495971680e-02 2.721150964498519897e-02
-6.590784192085266113e-01 7.852360606193542480e-02 1.519584655761718750e-01
-5.783702731132507324e-01 4.480651766061782837e-02 -4.049050062894821167e-02
-7.310753464698791504e-01 1.729664355516433716e-01 -1.904924213886260986e-01
-8.238866925239562988e-01 1.640801578760147095e-01 1.059141233563423157e-01
-5.993785858154296875e-01 8.551787585020065308e-02 -1.073561236262321472e-01
-7.787914276123046875e-01 1.080083549022674561e-01 9.655546396970748901e-02
-6.858765482902526855e-01 2.219197452068328857e-01 2.060019224882125854e-02
-8.357351422309875488e-01 2.853851914405822754e-01 -1.010371930897235870e-02
-7.899444103240966797e-01 9.849819540977478027e-02 -9.234848432242870331e-03
-7.733480334281921387e-01 2.329415082931518555e-01 1.482197940349578857e-01
-6.690110564231872559e-01 8.731448650360107422e-02 -1.771298348903656006e-01
-5.875419378280639648e-01 3.018555790185928345e-02 -4.905880987644195557e-02
-6.630529165267944336e-01 1.961952298879623413e-01 -6.400679051876068115e-02
-7.613590359687805176e-01 1.117504537105560303e-01 1.348610520362854004e-01
-7.731857895851135254e-01 1.884965747594833374e-01 1.751653105020523071e-01
-5.878680944442749023e-01 1.047779321670532227e-01 2.267159707844257355e-02
-6.372885704040527344e-01 1.418134272098541260e-01 1.256013661623001099e-01
-6.558156013488769531e-01 1.763966977596282959e-01 1.064319983124732971e-01
-8.130127191543579102e-01 1.538421064615249634e-01 -1.332451701164245605e-01
-8.252836465835571289e-01 1.359861493110656738e-01 3.966670949012041092e-03
-7.145605683326721191e-01 2.420589625835418701e-01 3.110932186245918274e-02
-8.466622233390808105e-01 1.701271384954452515e-01 4.003082215785980225e-02
-7.053022980690002441e-01 3.806202858686447144e-02 -2.071738801896572113e-02
-6.786890029907226562e-01 1.866892278194427490e-01 -1.317050457000732422e-01
-7.457612156867980957e-01 9.964502602815628052e-02 -1.580140143632888794e-01
-8.459740877151489258e-01 2.765686511993408203e-01 5.422010272741317749e-02
-7.018072605133056641e-01 2.307556718587875366e-01 -4.762996360659599304e-02
-7.948387265205383301e-01 2.811342477798461914e-01 -5.332520697265863419e-03
-6.836205720901489258e-01 5.320125818252563477e-02 1.113867163658142090e-01
-6.942433714866638184e-01 2.188257277011871338e-01 -7.989429682493209839e-02
-5.868535637855529785e-01 9.518918395042419434e-02 -5.336653441190719604e-02
-6.101722121238708496e-01 9.643915295600891113e-02 -1.235558092594146729e-01
-6.110518574714660645e-01 3.082098811864852905e-02 -9.336872398853302002e-02
-8.559723496437072754e-01 1.841225028038024902e-01 3.250142559409141541e-02
-7.613312602043151855e-01 2.568961083889007568e-01 9.188035130500793457e-02
-6.622114777565002441e-01 4.301276803016662598e-02 -1.272191107273101807e-01
-6.194117069244384766e-01 5.712790042161941528e-02 -1.338282376527786255e-01
-6.674395203590393066e-01 2.270391583442687988e-02 -4.059604555368423462e-02
-7.829074859619140625e-01 1.410836279392242432e-01 -1.646329164505004883e-01
-7.965022325515747070e-01 2.317979335784912109e-01 -1.529914885759353638e-01
-7.714267969131469727e-01 8.297716081142425537e-02 7.456559222191572189e-03
-8.312609195709228516e-01 2.835642099380493164e-01 -3.365064784884452820e-02
-7.340329885482788086e-01 7.475717365741729736e-02 -1.267657727003097534e-01
-7.243190407752990723e-01 1.167846918106079102e-01 -1.890017837285995483e-01
-8.190701007843017578e-01 1.684830486774444580e-01 -1.389886140823364258e-01
-7.012875080108642578e-01 6.102102249860763550e-02 -1.376143246889114380e-01
-8.649569749832153320e-01 2.093868702650070190e-01 4.689209908246994019e-02
-8.327544927597045898e-01 1.752841472625732422e-01 1.015560775995254517e-01
-7.819062471389770508e-01 2.443457543849945068e-01 1.348710358142852783e-01
-6.985817551612854004e-01 3.733002394437789917e-02 2.907792478799819946e-02
-7.115386128425598145e-01 8.946724236011505127e-02 -1.727040708065032959e-01
-7.577561736106872559e-01 7.637563347816467285e-02 -7.192493230104446411e-02
-6.680296063423156738e-01 2.058438509702682495e-01 3.475366160273551941e-02
-8.157441616058349609e-01 1.267512142658233643e-01 2.322674356400966644e-02
-7.160531282424926758e-01 1.887470930814743042e-01 -1.717905700206756592e-01
-6.576451063156127930e-01 1.853076517581939697e-01 8.798864483833312988e-02
-7.454644441604614258e-01 2.600111663341522217e-01 3.476471081376075745e-02
-8.157093524932861328e-01 1.253275424242019653e-01 -3.420493751764297485e-02
-6.185492277145385742e-01 1.546345353126525879e-01 1.819356158375740051e-02
-8.452178835868835449e-01 1.646053493022918701e-01 2.392342872917652130e-02
-7.064209580421447754e-01 5.307790637016296387e-02 -1.117092594504356384e-01
-8.421812057495117188e-01 1.888720542192459106e-01 -1.120909377932548523e-01
-6.489551663398742676e-01 7.048936188220977783e-02 -1.613415181636810303e-01
-6.488720774650573730e-01 1.946264505386352539e-02 2.897991985082626343e-02
-5.959440469741821289e-01 9.155073761940002441e-02 -9.418616443872451782e-02
-7.305625081062316895e-01 1.086390763521194458e-01 1.610894799232482910e-01
-8.105317950248718262e-01 2.619715332984924316e-01 -1.078051626682281494e-01
-5.877459645271301270e-01 9.634572267532348633e-02 4.829181358218193054e-02
-6.398339867591857910e-01 1.786478906869888306e-01 -2.787578292191028595e-02
-7.672749757766723633e-01 1.072265207767486572e-01 1.178579479455947876e-01
-7.359948754310607910e-01 6.841842085123062134e-02 7.759370654821395874e-02
-6.037117242813110352e-01 1.182481795549392700e-01 7.536184787750244141e-02
-7.938638329505920410e-01 2.646735310554504395e-01 9.901791810989379883e-02
-7.110317945480346680e-01 2.406621724367141724e-01 -6.515787914395332336e-03
-5.927547216415405273e-01 1.123432219028472900e-01 3.476209938526153564e-02
-6.327555179595947266e-01 4.481800645589828491e-02 -1.298867315053939819e-01
-8.700652718544006348e-01 2.197312414646148682e-01 3.547425568103790283e-02
-6.416460871696472168e-01 1.804542839527130127e-01 3.147958219051361084e-02
-6.113796234130859375e-01 1.231914609670639038e-01 9.167497605085372925e-02
-6.771488189697265625e-01 2.130498588085174561e-01 -3.647321090102195740e-02
-6.192843914031982422e-01 7.407292723655700684e-02 -1.412713229656219482e-01
-5.879800319671630859e-01 6.886780261993408203e-02 7.237806916236877441e-02
-6.288247108459472656e-01 1.488364636898040771e-01 9.510693699121475220e-02
-7.641255259513854980e-01 8.796422183513641357e-02 -1.003728434443473816e-01
-7.751042842864990234e-01 2.589524090290069580e-01 1.013494357466697693e-01
-6.347875595092773438e-01 1.644399613142013550e-01 -7.404222339391708374e-02
-7.499007582664489746e-01 2.632007598876953125e-01 2.174180559813976288e-02
-6.953877210617065430e-01 3.325687348842620850e-02 -3.171198302879929543e-03
-8.739548921585083008e-01 2.551490664482116699e-01 1.642492227256298065e-02
-6.358701586723327637e-01 1.434460580348968506e-01 -1.245904639363288879e-01
-5.772722363471984863e-01 7.386972010135650635e-02 -2.940634824335575104e-02
-8.083471655845642090e-01 1.251567602157592773e-01 -8.221095055341720581e-02
-7.613568902015686035e-01 7.649938762187957764e-02 -5.359499901533126831e-02
-8.538641333580017090e-01 2.464838624000549316e-01 9.061047434806823730e-02
-7.022080421447753906e-01 2.279031276702880859e-01 -6.582245975732803345e-02
-5.938932299613952637e-01 2.079467475414276123e-02 5.029087420552968979e-03
-7.651969194412231445e-01 8.762043714523315430e-02 6.933373212814331055e-02
-6.885138154029846191e-01 3.759685903787612915e-02 5.789678916335105896e-02
-7.490351796150207520e-01 8.263514190912246704e-02 9.389950335025787354e-02
-6.298379898071289062e-01 1.687187999486923218e-01 -1.128492318093776703e-02
-7.912766933441162109e-01 1.506512314081192017e-01 1.453469544649124146e-01
-5.993177890777587891e-01 4.972290247678756714e-02 -1.038627028465270996e-01
-7.256095409393310547e-01 2.427620440721511841e-01 -6.908977776765823364e-02
-7.765265703201293945e-01 2.084354460239410400e-01 -1.743975877761840820e-01
-7.984412312507629395e-01 2.012952417135238647e-01 -1.708551198244094849e-01
-5.949970483779907227e-01 1.197718754410743713e-01 -1.909651421010494232e-02
-6.897226572036743164e-01 1.084395498037338257e-01 -1.890489161014556885e-01
-6.485418677330017090e-01 1.648414433002471924e-01 -1.144664511084556580e-01
-7.441527247428894043e-01 6.163919717073440552e-02 -1.540571823716163635e-02
-7.743310928344726562e-01 2.725406289100646973e-01 3.962986543774604797e-02
-6.312047243118286133e-01 3.791611641645431519e-02 9.624029695987701416e-02
-8.668466210365295410e-01 2.710759043693542480e-01 -9.194469079375267029e-03
-8.356297016143798828e-01 1.638918668031692505e-01 7.224802672863006592e-02
-7.016986608505249023e-01 1.646759808063507080e-01 -1.828044503927230835e-01
-5.769842863082885742e-01 4.213008284568786621e-02 5.772348958998918533e-03
-6.196116209030151367e-01 1.555415987968444824e-01 -2.364987879991531372e-02
-6.900324821472167969e-01 3.903942555189132690e-02 -8.945640176534652710e-02
-5.827704668045043945e-01 6.903945654630661011e-02 5.522636696696281433e-02
-6.909919381141662598e-01 2.262458950281143188e-01 -6.116599310189485550e-03
-6.269575357437133789e-01 1.291935741901397705e-01 1.204992011189460754e-01
-7.687024474143981934e-01 8.083762228488922119e-02 -3.705361112952232361e-02
-6.488162279129028320e-01 6.587446480989456177e-02 1.387368142604827881e-01
-7.811250090599060059e-01 1.810714155435562134e-01 -1.825986653566360474e-01
-5.988580584526062012e-01 1.247120127081871033e-01 -3.209981694817543030e-02
-6.862331032752990723e-01 2.164364755153656006e-01 -6.260645389556884766e-02
-8.528658151626586914e-01 2.631967067718505859e-01 -7.835078239440917969e-02
-6.278569102287292480e-01 9.866992384195327759e-02 -1.500019133090972900e-01
-6.652213335037231445e-01 1.773740649223327637e-01 -1.249280944466590881e-01
-6.074323654174804688e-01 3.493898361921310425e-02 7.662423700094223022e-02
-7.754938006401062012e-01 2.530480623245239258e-01 1.161427497863769531e-01
-6.542630195617675781e-01 1.923353224992752075e-01 4.039121046662330627e-02
-8.561578989028930664e-01 2.507644295692443848e-01 -8.946189284324645996e-02
-7.676233053207397461e-01 1.124872714281082153e-01 -1.494730859994888306e-01
-6.873591542243957520e-01 1.196959093213081360e-01 1.772703826427459717e-01
-7.576817870140075684e-01 2.459213435649871826e-01 1.177260950207710266e-01
-7.768579125404357910e-01 2.229627966880798340e-01 -1.621582955121994019e-01
-6.028631329536437988e-01 1.296315491199493408e-01 3.791178017854690552e-02
-6.212818026542663574e-01 1.465160995721817017e-01 7.565580308437347412e-02
-8.729445934295654297e-01 2.245406359434127808e-01 2.200178429484367371e-02
-6.919826269149780273e-01 9.508573263883590698e-02 1.649528294801712036e-01
-5.796992778778076172e-01 8.684291690587997437e-02 6.772233173251152039e-04
-8.661362528800964355e-01 1.997223496437072754e-01 -1.802127063274383545e-02
-7.306193709373474121e-01 5.561761558055877686e-02 -6.049185246229171753e-02
-7.349966764450073242e-01 2.304366230964660645e-01 -1.251052767038345337e-01
-7.559286355972290039e-01 1.859301924705505371e-01 1.795538812875747681e-01
-6.747080087661743164e-01 1.767118275165557861e-01 1.408704966306686401e-01
-8.672735095024108887e-01 2.050377130508422852e-01 1.886694505810737610e-02
-7.736178040504455566e-01 1.064742133021354675e-01 -1.283268034458160400e-01
-8.206152319908142090e-01 2.433435022830963135e-01 1.296754330396652222e-01
-7.791409492492675781e-01 8.909526467323303223e-02 -2.777926623821258545e-02
-7.191339731216430664e-01 4.964272677898406982e-02 -6.762021034955978394e-02
-6.216827630996704102e-01 1.045711338520050049e-01 -1.387034952640533447e-01
-7.261963486671447754e-01 1.745286285877227783e-01 1.812347322702407837e-01
-8.747469782829284668e-01 2.437376976013183594e-01 -3.232534974813461304e-02
-6.722638010978698730e-01 6.284782290458679199e-02 -1.562977135181427002e-01
-6.704537868499755859e-01 1.903685182332992554e-01 1.083874776959419250e-01
-7.290304303169250488e-01 2.364074289798736572e-01 -1.006798744201660156e-01
-5.941535830497741699e-01 6.328667700290679932e-02 8.629930019378662109e-02
-8.754876255989074707e-01 2.322625070810317993e-01 -1.749136298894882202e-02
-6.203542947769165039e-01 1.562932133674621582e-02 2.052534185349941254e-02
-6.539245247840881348e-01 1.848828792572021484e-02 -3.677901625633239746e-02
-7.975617647171020508e-01 2.083865106105804443e-01 1.610150933265686035e-01
-6.464439034461975098e-01 3.086240589618682861e-02 -1.041813567280769348e-01
-7.345016598701477051e-01 1.097197979688644409e-01 -1.791135817766189575e-01
-7.002146244049072266e-01 1.979358792304992676e-01 -1.439177542924880981e-01
-6.420124173164367676e-01 5.804401636123657227e-02 1.287414133548736572e-01
-6.036517620086669922e-01 6.558581441640853882e-02 -1.184579879045486450e-01
-7.995143532752990723e-01 2.780799865722656250e-01 -4.937690496444702148e-02
-8.113501071929931641e-01 1.355202496051788330e-01 -1.033525615930557251e-01
-8.125839829444885254e-01 1.804667115211486816e-01 1.422482728958129883e-01
-7.753980159759521484e-01 2.747041583061218262e-01 -9.311191737651824951e-03
-8.626813888549804688e-01 2.140725404024124146e-01 -7.684374600648880005e-02
-6.237073540687561035e-01 1.347250044345855713e-01 1.065543368458747864e-01
-6.269755959510803223e-01 1.480515301227569580e-02 -3.973932936787605286e-02
-8.756548166275024414e-01 2.335569560527801514e-01 5.980270449072122574e-03
-7.582935094833374023e-01 1.618780940771102905e-01 1.790042519569396973e-01
-6.677832603454589844e-01 4.123005270957946777e-02 9.512566030025482178e-02
-7.494110465049743652e-01 8.910080790519714355e-02 1.097317337989807129e-01
-8.678798675537109375e-01 2.227340340614318848e-01 -6.336414813995361328e-02
-7.488855123519897461e-01 1.496459096670150757e-01 1.792234480381011963e-01
-7.521182298660278320e-01 2.603148818016052246e-01 -5.275442823767662048e-02
-7.150598764419555664e-01 2.376947104930877686e-01 -6.089186295866966248e-02
-8.633527755737304688e-01 2.191627770662307739e-01 6.589350849390029907e-02
-6.178433299064636230e-01 8.892015367746353149e-02 -1.392626613378524780e-01
-7.025703191757202148e-01 2.157167196273803711e-01 -1.099849194288253784e-01
-6.842347383499145508e-01 1.665722429752349854e-01 1.627832353115081787e-01
-6.127331852912902832e-01 1.420457363128662109e-01 4.991846904158592224e-02
-7.468730807304382324e-01 1.153795421123504639e-01 -1.755138486623764038e-01
-7.117562890052795410e-01 8.617573976516723633e-02 1.472522616386413574e-01
-6.519330739974975586e-01 3.356559574604034424e-02 8.421007543802261353e-02
-7.661902904510498047e-01 2.705416679382324219e-01 2.509278804063796997e-02
-6.200577616691589355e-01 1.369511485099792480e-01 9.323617070913314819e-02
-7.091492414474487305e-01 4.378537833690643311e-02 3.674890473484992981e-02
-8.154318928718566895e-01 1.373620480298995972e-01 7.245935499668121338e-02
-6.627105474472045898e-01 1.657022833824157715e-01 -1.404416412115097046e-01
-7.718597054481506348e-01 9.887886047363281250e-02 -1.137142628431320190e-01
-8.421446084976196289e-01 2.119032442569732666e-01 1.136776730418205261e-01
-6.991792321205139160e-01 2.307332158088684082e-01 3.802562505006790161e-02
-6.318709850311279297e-01 3.183535486459732056e-02 -1.069962009787559509e-01
-7.048835754394531250e-01 1.313437968492507935e-01 -1.947548538446426392e-01
-6.322226524353027344e-01 1.447625309228897095e-01 1.111676171422004700e-01
-7.035419940948486328e-01 2.281399667263031006e-01 7.419641315937042236e-02
-7.494070529937744141e-01 2.508905529975891113e-01 -8.932194113731384277e-02
-8.592290282249450684e-01 2.617049813270568848e-01 6.486558914184570312e-02
-7.320412993431091309e-01 2.497527301311492920e-01 -5.175650492310523987e-02
-7.529217004776000977e-01 1.181076839566230774e-01 1.531682312488555908e-01
-6.648053526878356934e-01 1.078191995620727539e-01 -1.807394325733184814e-01
-6.000553369522094727e-01 1.207021251320838928e-01 5.357776954770088196e-02
-8.610610961914062500e-01 2.690369188785552979e-01 4.550050571560859680e-02
-8.711482286453247070e-01 2.130101621150970459e-01 -1.669763028621673584e-02
-7.449325323104858398e-01 8.576036989688873291e-02 -1.345982551574707031e-01
-8.025984764099121094e-01 1.866571009159088135e-01 -1.687455624341964722e-01
-7.576342821121215820e-01 2.673891782760620117e-01 8.010830730199813843e-03
-7.720611095428466797e-01 8.945719897747039795e-02 5.283606052398681641e-02
-6.023089289665222168e-01 1.954908668994903564e-02 -4.725009948015213013e-02
-7.039373517036437988e-01 2.090294361114501953e-01 -1.282545775175094604e-01
-8.276582956314086914e-01 1.582164913415908813e-01 8.553960174322128296e-02
-7.172988057136535645e-01 7.579136639833450317e-02 1.258590966463088989e-01
-6.718790531158447266e-01 2.335207164287567139e-02 -2.430574595928192139e-02
-7.133539915084838867e-01 2.327701151371002197e-01 8.346889168024063110e-02
-7.873740196228027344e-01 1.379476487636566162e-01 1.360066086053848267e-01
-7.175235152244567871e-01 1.613704562187194824e-01 1.833092719316482544e-01
-6.645377874374389648e-01 4.825153201818466187e-02 1.125076562166213989e-01
-7.743324041366577148e-01 2.743943929672241211e-01 1.260402239859104156e-02
-6.965848207473754883e-01 9.236903488636016846e-02 -1.805714368820190430e-01
-7.029144167900085449e-01 2.192124128341674805e-01 1.041092127561569214e-01
-6.544491052627563477e-01 1.669793576002120972e-01 1.218602135777473450e-01
-6.454540491104125977e-01 1.761640012264251709e-01 7.584229111671447754e-02
-6.942334771156311035e-01 3.754861652851104736e-02 4.451209306716918945e-02
-5.906589031219482422e-01 4.924750328063964844e-02 7.053662091493606567e-02
-7.648974657058715820e-01 2.443257272243499756e-01 -1.251764893531799316e-01
-6.669872999191284180e-01 1.437575221061706543e-01 1.628987789154052734e-01
-8.099784851074218750e-01 2.841945290565490723e-01 1.606833562254905701e-02
-7.074100971221923828e-01 4.653986543416976929e-02 5.738271400332450867e-02
-6.826710104942321777e-01 1.413631290197372437e-01 1.751362383365631104e-01
-6.920821070671081543e-01 3.374857455492019653e-02 -5.407147854566574097e-02
-8.565099835395812988e-01 2.796152234077453613e-01 9.850831702351570129e-04
-8.149730563163757324e-01 1.559434831142425537e-01 1.129831373691558838e-01
-6.227610111236572266e-01 1.669074594974517822e-02 -5.388468876481056213e-02
-7.397517561912536621e-01 1.350107938051223755e-01 -1.920672506093978882e-01
-8.044422864913940430e-01 2.399095147848129272e-01 -1.429365426301956177e-01
-8.283867835998535156e-01 2.160276472568511963e-01 -1.439737081527709961e-01
-7.392328977584838867e-01 6.352062523365020752e-02 -7.488536089658737183e-02
-8.131875395774841309e-01 2.826191782951354980e-01 -3.512402623891830444e-02
-8.141209483146667480e-01 2.105812728404998779e-01 1.489973962306976318e-01
-7.184541225433349609e-01 6.467878818511962891e-02 -1.256605535745620728e-01
-5.800387859344482422e-01 7.993521541357040405e-02 3.173780441284179688e-02
-8.338558077812194824e-01 1.700778156518936157e-01 -1.090823113918304443e-01
-7.578966617584228516e-01 2.480516731739044189e-01 -1.097661480307579041e-01
-6.332879066467285156e-01 7.724992185831069946e-02 -1.555005908012390137e-01
-8.121019005775451660e-01 1.690885424613952637e-01 1.340097039937973022e-01
-8.001521229743957520e-01 1.596855819225311279e-01 -1.594967544078826904e-01
-6.898871064186096191e-01 6.342934072017669678e-02 -1.504847109317779541e-01
-7.284590005874633789e-01 1.456376165151596069e-01 -1.963447034358978271e-01
-8.070806264877319336e-01 1.189737990498542786e-01 3.444667533040046692e-02
-8.533129692077636719e-01 2.582493126392364502e-01 8.100154250860214233e-02
-6.880310177803039551e-01 2.208582013845443726e-01 4.960725456476211548e-02
-6.248802542686462402e-01 8.914113044738769531e-02 1.358243376016616821e-01
-8.504788875579833984e-01 2.190706431865692139e-01 -1.115098521113395691e-01
-7.637434005737304688e-01 2.631637752056121826e-01 7.142213732004165649e-02
-8.082195520401000977e-01 2.516245543956756592e-01 1.254239529371261597e-01
-7.634166479110717773e-01 2.691860795021057129e-01 -2.111147716641426086e-02
-6.670321226119995117e-01 1.454978138208389282e-01 -1.684182137250900269e-01
-7.964671850204467773e-01 1.157564073801040649e-01 6.921771168708801270e-02
-7.712249159812927246e-01 1.356591731309890747e-01 -1.722480505704879761e-01
-6.381583213806152344e-01 1.253477334976196289e-01 -1.490326672792434692e-01
-7.861425280570983887e-01 9.598504006862640381e-02 -3.916542977094650269e-02
-6.710121631622314453e-01 3.245874494314193726e-02 6.452396512031555176e-02
-5.978461503982543945e-01 2.884674817323684692e-02 -7.157764583826065063e-02
-7.416753172874450684e-01 1.610929071903228760e-01 1.838100850582122803e-01
-6.137817502021789551e-01 1.281045079231262207e-01 -9.501986205577850342e-02
-7.382587194442749023e-01 6.913188844919204712e-02 -1.020900234580039978e-01
-7.425184249877929688e-01 2.550460100173950195e-01 6.098751351237297058e-02
-7.037805914878845215e-01 4.346988350152969360e-02 -8.010592311620712280e-02
-6.791216731071472168e-01 1.984159052371978760e-01 -1.062832325696945190e-01
-7.857033014297485352e-01 2.723007798194885254e-01 -6.083036586642265320e-02
-6.563394069671630859e-01 5.235785245895385742e-02 -1.442639231681823730e-01
-8.331983089447021484e-01 1.494015306234359741e-01 3.358361870050430298e-02
-8.438288569450378418e-01 1.878497302532196045e-01 9.054441004991531372e-02
-6.508333683013916016e-01 1.224225759506225586e-01 -1.664548516273498535e-01
-6.020967960357666016e-01 9.500766545534133911e-02 9.806851297616958618e-02
-8.659508824348449707e-01 1.994333565235137939e-01 3.403203096240758896e-03
-7.326636314392089844e-01 5.486994236707687378e-02 -4.032364860177040100e-02
-7.845039963722229004e-01 9.601904451847076416e-02 2.694498002529144287e-02
-8.403353095054626465e-01 2.078921794891357422e-01 -1.275499612092971802e-01
-8.599935770034790039e-01 1.890966743230819702e-01 -3.770170360803604126e-02
-7.415791749954223633e-01 1.280180662870407104e-01 1.710997968912124634e-01
-6.804769635200500488e-01 2.709480375051498413e-02 -3.497016802430152893e-02
-7.738535404205322266e-01 1.580086499452590942e-01 1.684003621339797974e-01
-7.657766938209533691e-01 8.007910847663879395e-02 2.616989985108375549e-02
-7.234448790550231934e-01 4.827689379453659058e-02 -2.145770192146301270e-02
-7.853984236717224121e-01 2.030023485422134399e-01 1.680332422256469727e-01
-6.574813723564147949e-01 1.940930485725402832e-01 -4.676510021090507507e-02
-6.622829437255859375e-01 7.659879326820373535e-02 -1.693489998579025269e-01
-8.200207352638244629e-01 2.782375514507293701e-01 6.463107466697692871e-02
-8.051289916038513184e-01 2.804854512214660645e-01 4.577251523733139038e-02
-6.367208361625671387e-01 1.254489868879318237e-01 1.397205889225006104e-01
-6.442416310310363770e-01 9.798090159893035889e-02 -1.669633984565734863e-01
-6.655327081680297852e-01 2.743051201105117798e-02 5.010699853301048279e-02
-8.540408015251159668e-01 1.963263601064682007e-01 7.123908400535583496e-02
-7.269237637519836426e-01 2.508553862571716309e-01 1.193183101713657379e-02
-7.665553092956542969e-01 2.618141770362854004e-01 -7.717508077621459961e-02
-7.486160397529602051e-01 6.854330748319625854e-02 3.709338977932929993e-02
-7.986996173858642578e-01 1.871154755353927612e-01 1.599495559930801392e-01
-6.787750124931335449e-01 2.584122866392135620e-02 -1.038039755076169968e-02
-7.806544303894042969e-01 1.643916964530944824e-01 -1.806513220071792603e-01
-6.750123500823974609e-01 3.736547380685806274e-02 7.740795612335205078e-02
-8.557594418525695801e-01 1.913776695728302002e-01 -7.195390015840530396e-02
-6.490505933761596680e-01 1.842474192380905151e-01 -5.570473521947860718e-02
-7.090839147567749023e-01 4.152677208185195923e-02 -4.754029959440231323e-02
-6.119583845138549805e-01 1.020352095365524292e-01 1.143046468496322632e-01
-8.020092248916625977e-01 1.140445023775100708e-01 -6.187686324119567871e-02
-6.915224194526672363e-01 5.229846388101577759e-02 -1.279345601797103882e-01
-7.103973031044006348e-01 1.055010110139846802e-01 -1.864566355943679810e-01
-7.017391920089721680e-01 7.502790540456771851e-02 -1.606980562210083008e-01
-8.174096941947937012e-01 2.852158546447753906e-01 -1.062060799449682236e-02
-7.203335165977478027e-01 5.304700136184692383e-02 -8.259917050600051880e-02
-7.984667420387268066e-01 2.506797909736633301e-01 -1.280785799026489258e-01
-8.463167548179626465e-01 2.036891728639602661e-01 1.008173674345016479e-01
-6.860157847404479980e-01 7.322569191455841064e-02 -1.653224527835845947e-01
-6.236136555671691895e-01 1.836340129375457764e-02 3.786545991897583008e-02
-8.615494370460510254e-01 2.735123634338378906e-01 2.791843935847282410e-02
-8.634836673736572266e-01 2.517329752445220947e-01 -7.278392463922500610e-02
-8.390472531318664551e-01 2.838829159736633301e-01 2.601902559399604797e-02
-8.014589548110961914e-01 2.773216366767883301e-01 5.996480211615562439e-02
-7.856209874153137207e-01 2.679478824138641357e-01 -7.927127182483673096e-02
-7.126933336257934570e-01 1.804691553115844727e-01 1.727956384420394897e-01
-8.480044007301330566e-01 1.750409603118896484e-01 -6.863556802272796631e-02
-7.810772657394409180e-01 2.393194735050201416e-01 -1.425300091505050659e-01
-7.609320878982543945e-01 1.828993856906890869e-01 -1.883160322904586792e-01
-8.199733495712280273e-01 1.293370723724365234e-01 -7.950320839881896973e-03
-6.637310981750488281e-01 1.582002639770507812e-01 1.481932550668716431e-01
-7.387221455574035645e-01 2.569744288921356201e-01 -2.074465714395046234e-02
-6.899750828742980957e-01 2.031992077827453613e-01 1.188752129673957825e-01
-6.706498265266418457e-01 2.096408307552337646e-01 1.060727238655090332e-02
-6.704115867614746094e-01 1.596667766571044922e-01 -1.590326130390167236e-01
-7.936476469039916992e-01 2.727775275707244873e-01 7.282725721597671509e-02
-7.319392561912536621e-01 2.515823543071746826e-01 4.414889216423034668e-02
-8.034322857856750488e-01 1.549134105443954468e-01 1.325766146183013916e-01
-6.552951931953430176e-01 9.659147262573242188e-02 1.604425907135009766e-01
-7.239823341369628906e-01 4.879033565521240234e-02 -1.410293858498334885e-03
-8.298298120498657227e-01 1.837791800498962402e-01 1.176250949501991272e-01
-8.129695653915405273e-01 1.292062401771545410e-01 5.382288247346878052e-02
-5.955348014831542969e-01 1.015933156013488770e-01 -8.061096072196960449e-02
-7.795944213867187500e-01 2.195817530155181885e-01 1.614253371953964233e-01
-6.274448633193969727e-01 5.409917235374450684e-02 1.184677109122276306e-01
-6.947418451309204102e-01 1.955249309539794922e-01 1.404963880777359009e-01
-6.886318922042846680e-01 2.145376205444335938e-01 8.352947980165481567e-02
-6.138049960136413574e-01 1.409522742033004761e-01 -6.202488392591476440e-02
-6.712692379951477051e-01 3.938373178243637085e-02 -1.135575324296951294e-01
-8.193044662475585938e-01 2.643679678440093994e-01 1.021356210112571716e-01
-7.172054648399353027e-01 2.304635643959045410e-01 -9.628601372241973877e-02
-5.849140882492065430e-01 2.720819413661956787e-02 -1.483581773936748505e-02
-5.935498476028442383e-01 8.655104041099548340e-02 8.174340426921844482e-02
-8.229732513427734375e-01 2.731668651103973389e-01 8.094085752964019775e-02
-8.508921265602111816e-01 2.049196958541870117e-01 -1.047206223011016846e-01
-6.302890181541442871e-01 1.485080569982528687e-01 -1.021405830979347229e-01
-5.746095776557922363e-01 6.191723793745040894e-02 -1.106285117566585541e-02
-6.257945895195007324e-01 1.347498595714569092e-02 -1.044886559247970581e-02
-6.182964444160461426e-01 4.933045804500579834e-02 1.071472987532615662e-01
-6.245549321174621582e-01 1.201004832983016968e-01 -1.314826905727386475e-01
-7.741828560829162598e-01 2.711021900177001953e-01 -4.471092298626899719e-02
-6.399480700492858887e-01 8.714404702186584473e-02 1.485791951417922974e-01
-7.441428899765014648e-01 6.188656389713287354e-02 -1.122535206377506256e-03
-8.562654256820678711e-01 2.753121852874755859e-01 -3.996469825506210327e-02
-8.127361536026000977e-01 2.529488503932952881e-01 -1.239120662212371826e-01
-7.914810180664062500e-01 1.287587285041809082e-01 -1.364743411540985107e-01
-8.215538263320922852e-01 2.554503381252288818e-01 1.157805174589157104e-01
-8.348790407180786133e-01 2.326844334602355957e-01 1.239623650908470154e-01
-6.825750470161437988e-01 1.317111849784851074e-01 -1.872268915176391602e-01
-6.461167931556701660e-01 1.291139721870422363e-01 1.495171040296554565e-01
-7.763429284095764160e-01 9.466165304183959961e-02 -8.654166758060455322e-02
-6.677830815315246582e-01 1.871646344661712646e-01 -1.088507622480392456e-01
-6.031348109245300293e-01 6.309635192155838013e-02 1.018704622983932495e-01
-6.212223172187805176e-01 1.306592822074890137e-01 -1.110782325267791748e-01
-7.220771312713623047e-01 2.246302813291549683e-01 1.233415231108665466e-01
-8.205859661102294922e-01 2.025405913591384888e-01 -1.531729251146316528e-01
-7.224442362785339355e-01 1.305028051137924194e-01 -1.948673129081726074e-01
-8.341509103775024414e-01 1.560504138469696045e-01 5.601937696337699890e-02
-6.474317908287048340e-01 1.447056233882904053e-01 -1.439201384782791138e-01
-6.790136694908142090e-01 2.080994248390197754e-01 -7.386679202318191528e-02
-7.286835908889770508e-01 8.268628269433975220e-02 -1.501022428274154663e-01
-6.087937355041503906e-01 1.978604495525360107e-02 3.543626517057418823e-02
-8.713970184326171875e-01 2.449295818805694580e-01 -5.166024342179298401e-02
-5.839406847953796387e-01 8.262366801500320435e-02 5.066207051277160645e-02
-4.528143405914306641e-01 -1.209630817174911499e-02 4.383682087063789368e-02
-4.301537573337554932e-01 7.327178865671157837e-02 -6.787334382534027100e-02
-4.250919222831726074e-01 7.192946225404739380e-02 5.113321915268898010e-02
-4.657006859779357910e-01 6.650475412607192993e-02 4.720414057374000549e-03
-4.714014530181884766e-01 6.350155174732208252e-02 1.827983185648918152e-02
-3.345316052436828613e-01 5.396446585655212402e-02 4.233279451727867126e-02
-4.851205348968505859e-01 7.394792512059211731e-03 -6.237037479877471924e-02
-4.131426811218261719e-01 -1.609673351049423218e-02 -7.825405895709991455e-02
-4.251816272735595703e-01 7.558520138263702393e-02 1.643327251076698303e-02
-4.811758995056152344e-01 5.728428810834884644e-02 -3.281757608056068420e-02
-3.595056235790252686e-01 4.788547009229660034e-02 -1.636353880167007446e-01
-4.185411632061004639e-01 2.616061270236968994e-02 -1.744751483201980591e-01
-4.638822376728057861e-01 3.921332955360412598e-02 -1.274444162845611572e-01
-3.148179948329925537e-01 5.010020732879638672e-02 -7.109705358743667603e-02
-4.012392759323120117e-01 7.775763422250747681e-02 -3.314031288027763367e-03
-4.421081840991973877e-01 5.383500829339027405e-03 1.196316778659820557e-01
-4.806377887725830078e-01 5.419194698333740234e-02 -5.633702874183654785e-02
-3.547742068767547607e-01 6.799830496311187744e-02 -9.730747342109680176e-02
-3.649843335151672363e-01 -1.177698001265525818e-02 -8.662928640842437744e-02
-3.422971367835998535e-01 4.819055646657943726e-02 -1.483007967472076416e-01
-4.017370939254760742e-01 4.882835596799850464e-02 1.245967745780944824e-01
-3.951747119426727295e-01 -1.633494347333908081e-02 -7.877680659294128418e-02
-3.246723115444183350e-01 2.930691651999950409e-02 -1.372309327125549316e-01
-3.290995359420776367e-01 6.079741939902305603e-02 -1.194715965539216995e-02
-3.874831497669219971e-01 7.702550292015075684e-02 -1.482252031564712524e-03
-4.767099618911743164e-01 7.680714130401611328e-03 -8.696028590202331543e-02
-4.176057875156402588e-01 6.654854118824005127e-02 8.149251341819763184e-02
-4.419627189636230469e-01 -5.332674831151962280e-03 9.199428558349609375e-02
-4.713447690010070801e-01 6.050986796617507935e-02 4.806168749928474426e-02
-3.415373563766479492e-01 6.598085165023803711e-04 4.327460005879402161e-02
-3.541395962238311768e-01 5.603063106536865234e-02 7.302962243556976318e-02
-4.684324860572814941e-01 6.476230919361114502e-05 -8.280491828918457031e-02
-3.119008243083953857e-01 3.896756097674369812e-02 4.863401874899864197e-03
-3.643704354763031006e-01 7.407344877719879150e-02 -1.114045083522796631e-02
-4.523688256740570068e-01 -3.851745277643203735e-04 9.975035488605499268e-02
-4.985039830207824707e-01 1.312316022813320160e-02 -1.333511620759963989e-02
-3.304172158241271973e-01 -2.541180700063705444e-03 -3.775092214345932007e-02
-4.554990231990814209e-01 7.019479572772979736e-02 -1.776499673724174500e-02
-4.371418952941894531e-01 -1.795010641217231750e-02 -9.025241248309612274e-03
-4.023425877094268799e-01 1.247627660632133484e-03 -1.511262506246566772e-01
-3.086519837379455566e-01 3.873085230588912964e-02 -7.919919490814208984e-02
-4.861730933189392090e-01 4.586644470691680908e-02 -6.741869449615478516e-02
-3.873023092746734619e-01 -1.186975464224815369e-02 -1.054769754409790039e-01
-4.185429215431213379e-01 -1.915449276566505432e-02 -4.082167148590087891e-02
-4.047054648399353027e-01 -1.286160945892333984e-02 6.671756505966186523e-02
-3.658493161201477051e-01 -3.510762006044387817e-03 7.209157943725585938e-02
-4.737527668476104736e-01 -4.749868065118789673e-03 4.387858882546424866e-02
-4.007322192192077637e-01 7.226952165365219116e-02 -9.990885853767395020e-02
-3.636236190795898438e-01 7.440091669559478760e-02 -2.636137977242469788e-02
-4.571481645107269287e-01 4.172511398792266846e-05 -1.040817797183990479e-01
-4.132319092750549316e-01 -2.006843313574790955e-02 -2.168525755405426025e-02
-4.458715915679931641e-01 7.294796407222747803e-02 -1.548899337649345398e-02
-4.562077224254608154e-01 6.600183248519897461e-02 -6.692365556955337524e-02
-4.633710682392120361e-01 -9.020756930112838745e-03 4.344722256064414978e-02
-3.832539916038513184e-01 3.791431710124015808e-02 -1.805171817541122437e-01
-4.122134447097778320e-01 3.769299760460853577e-02 -1.756736487150192261e-01
-3.155582547187805176e-01 9.023081511259078979e-03 -2.887867763638496399e-02
-4.606588780879974365e-01 6.503047049045562744e-02 4.694456234574317932e-02
-3.773150444030761719e-01 5.683979019522666931e-02 9.641176462173461914e-02
-3.787894248962402344e-01 5.964679270982742310e-02 -1.484102755784988403e-01
-4.179014265537261963e-01 2.406753599643707275e-03 -1.482594013214111328e-01
-3.979111313819885254e-01 -1.980425789952278137e-02 -6.296915002167224884e-03
-4.051323533058166504e-01 1.102484576404094696e-02 -1.679812520742416382e-01
-3.248105049133300781e-01 4.430218040943145752e-02 4.122740402817726135e-02
-3.412711620330810547e-01 2.362932264804840088e-02 -1.588905453681945801e-01
-3.659857809543609619e-01 6.447768211364746094e-02 6.160556897521018982e-02
-3.645423054695129395e-01 -1.465784758329391479e-02 -5.425955727696418762e-02
-3.949411809444427490e-01 3.983919322490692139e-02 -1.790561974048614502e-01
-4.242138564586639404e-01 -1.810865476727485657e-02 -4.922784119844436646e-02
-3.987412750720977783e-01 -1.061368733644485474e-02 -1.132570207118988037e-01
-4.736559092998504639e-01 2.597225829958915710e-03 8.046936988830566406e-02
-4.137552380561828613e-01 -1.867588236927986145e-02 -5.278371274471282959e-02
-3.486604988574981689e-01 -9.920306503772735596e-03 -5.967029184103012085e-02
-4.682462215423583984e-01 4.526992887258529663e-02 -1.125553697347640991e-01
-4.284167587757110596e-01 9.073330089449882507e-03 -1.541767865419387817e-01
-4.170289933681488037e-01 -2.815611660480499268e-03 1.064417213201522827e-01
-4.906084537506103516e-01 3.584131598472595215e-03 1.836554333567619324e-02
-4.201170206069946289e-01 7.030238211154937744e-02 -1.000521928071975708e-01
-4.357114136219024658e-01 -9.618457406759262085e-03 7.867148518562316895e-02
-4.627802968025207520e-01 6.561961024999618530e-02 -4.853909462690353394e-02
-4.501176774501800537e-01 6.182572990655899048e-02 8.116401731967926025e-02
-4.456858038902282715e-01 -8.735600858926773071e-03 7.512234151363372803e-02
-4.756818413734436035e-01 5.957607179880142212e-02 -4.384483024477958679e-02
-3.151845335960388184e-01 1.224807649850845337e-02 -8.068048954010009766e-02
-4.928814172744750977e-01 1.861473917961120605e-02 7.120729982852935791e-02
-3.348900079727172852e-01 4.752533137798309326e-02 -1.395459026098251343e-01
-4.915703535079956055e-01 2.529096789658069611e-02 -7.221168279647827148e-02
-4.761173129081726074e-01 1.504132803529500961e-02 -1.022400110960006714e-01
-3.134579062461853027e-01 1.238210313022136688e-02 -6.872449815273284912e-02
-4.088601768016815186e-01 -1.954229548573493958e-02 -4.175953567028045654e-02
-3.268716037273406982e-01 2.190455794334411621e-03 -7.987146079540252686e-02
-3.400986194610595703e-01 6.291209161281585693e-02 -9.815920889377593994e-02
-4.279524385929107666e-01 7.590667903423309326e-02 -3.781139105558395386e-02
-3.445540964603424072e-01 -5.715128034353256226e-03 -8.720137178897857666e-02
-3.276990354061126709e-01 1.143332198262214661e-02 4.106428474187850952e-02
-3.386886715888977051e-01 5.491751432418823242e-02 -1.282799690961837769e-01
-3.346956074237823486e-01 6.509068608283996582e-02 -4.411663860082626343e-02
-3.686197102069854736e-01 5.336894467473030090e-02 9.637977182865142822e-02
-3.484563529491424561e-01 4.716810956597328186e-02 -1.563244611024856567e-01
-3.660797774791717529e-01 6.191951408982276917e-02 7.110142707824707031e-02
-4.130282104015350342e-01 -1.149794086813926697e-02 7.530906796455383301e-02
-3.708221912384033203e-01 7.789485156536102295e-03 -1.610596328973770142e-01
-3.357149064540863037e-01 6.230865418910980225e-02 7.517419755458831787e-03
-4.635705947875976562e-01 6.208728998899459839e-03 1.047589778900146484e-01
-3.720607757568359375e-01 7.068412005901336670e-02 3.874152153730392456e-02
-3.804107010364532471e-01 -1.438413932919502258e-02 -8.575753867626190186e-02
-3.576574921607971191e-01 -9.599532932043075562e-03 2.885067462921142578e-02
-4.710754156112670898e-01 3.901746124029159546e-02 1.105616688728332520e-01
-4.738601446151733398e-01 -7.026787847280502319e-03 -1.176621019840240479e-02
-3.218142688274383545e-01 6.243184208869934082e-03 6.393529474735260010e-05
-3.656592667102813721e-01 7.209549844264984131e-02 -8.427247405052185059e-02
-4.334014654159545898e-01 -1.826716959476470947e-02 -2.431328967213630676e-02
-3.979444801807403564e-01 9.827932342886924744e-03 1.264410912990570068e-01
-3.683263957500457764e-01 7.525321841239929199e-02 -4.333292692899703979e-02
-3.117945790290832520e-01 4.184435307979583740e-02 -9.018725156784057617e-02
-4.126789569854736328e-01 7.426827400922775269e-02 -8.049851655960083008e-02
-4.831169247627258301e-01 5.286218971014022827e-02 5.276365950703620911e-02
-4.324357807636260986e-01 6.171876564621925354e-02 9.475651383399963379e-02
-3.932250440120697021e-01 7.315659523010253906e-02 4.332238063216209412e-02
-4.196656942367553711e-01 -1.373399049043655396e-02 6.359766423702239990e-02
-4.274873435497283936e-01 1.006882637739181519e-03 1.152634918689727783e-01
-3.133863210678100586e-01 2.211314998567104340e-02 -1.021669656038284302e-01
-3.583038747310638428e-01 3.536610305309295654e-02 1.076398789882659912e-01
-4.773117303848266602e-01 -2.621538937091827393e-03 -4.268847033381462097e-02
-4.058578908443450928e-01 -8.336890488862991333e-03 8.701212704181671143e-02
-3.929222524166107178e-01 7.784894108772277832e-02 -3.878230601549148560e-02
