-2.327662110328674316e-01 6.140508651733398438e-01 1.609373390674591064e-01
1.923618018627166748e-01 4.725576341152191162e-01 -4.262858331203460693e-01
7.910148054361343384e-02 4.934004843235015869e-01 2.834672331809997559e-01
-1.664035320281982422e-01 4.348804354667663574e-01 -9.568861871957778931e-02
3.613109886646270752e-01 4.935675561428070068e-01 -2.265890240669250488e-01
-1.474915593862533569e-01 4.687057733535766602e-01 3.228362798690795898e-01
2.114863991737365723e-01 4.821615517139434814e-01 1.276426315307617188e-01
-2.050905823707580566e-01 5.781192779541015625e-01 3.399763107299804688e-01
-8.996722102165222168e-02 6.247585415840148926e-01 -3.344418108463287354e-01
7.121429592370986938e-02 6.228387951850891113e-01 -1.642886698246002197e-01
-2.968462407588958740e-01 6.065725088119506836e-01 -3.839301466941833496e-01
-2.557852119207382202e-02 6.229908466339111328e-01 -3.471085131168365479e-01
-1.082848310470581055e-01 5.869128108024597168e-01 2.866265773773193359e-01
-2.800287306308746338e-02 4.931128025054931641e-01 -5.560445785522460938e-01
-1.873172372579574585e-01 6.275663375854492188e-01 -2.674266099929809570e-01
-5.142639875411987305e-01 5.948029160499572754e-01 1.189433559775352478e-01
2.725050598382949829e-02 6.175704002380371094e-01 1.563074439764022827e-02
3.301254659891128540e-02 6.258571743965148926e-01 -1.646496206521987915e-01
-1.404445171356201172e-01 4.747598469257354736e-01 -4.688583612442016602e-01
1.764519512653350830e-01 4.857394099235534668e-01 -4.997263550758361816e-01
-2.185762822628021240e-01 4.592389762401580811e-01 -3.528572618961334229e-01
-5.384292006492614746e-01 5.866236686706542969e-01 1.489295959472656250e-01
-4.039491713047027588e-02 4.342412948608398438e-01 -6.599876284599304199e-02
-2.205943614244461060e-01 4.731989502906799316e-01 -4.265610873699188232e-01
-6.018419861793518066e-01 5.016739964485168457e-01 1.505979895591735840e-01
4.762312024831771851e-02 4.432109296321868896e-01 -2.575821280479431152e-01
2.029024660587310791e-01 5.048797130584716797e-01 -5.445706844329833984e-01
-1.481921225786209106e-01 6.252745985984802246e-01 3.799816220998764038e-02
-4.971781373023986816e-01 5.510827898979187012e-01 3.376976549625396729e-01
2.609916925430297852e-01 4.636406302452087402e-01 -1.379582732915878296e-01
2.915817797183990479e-01 5.624880790710449219e-01 1.917113363742828369e-02
-3.837678134441375732e-01 5.411453247070312500e-01 -4.608801603317260742e-01
-4.540919065475463867e-01 4.583105742931365967e-01 2.733588963747024536e-02
-7.875964045524597168e-02 4.337109327316284180e-01 -8.420424163341522217e-02
1.284492611885070801e-01 4.454756379127502441e-01 -5.077498033642768860e-02
-6.022227406501770020e-01 5.693849921226501465e-01 1.200166866183280945e-01
-3.615600615739822388e-02 5.694010853767395020e-01 -5.983377099037170410e-01
3.059844374656677246e-01 4.950878918170928955e-01 1.987449079751968384e-02
-6.188768744468688965e-01 5.065546035766601562e-01 9.776964038610458374e-02
-6.304551661014556885e-02 6.151928305625915527e-01 1.079865917563438416e-01
-2.801297903060913086e-01 4.653628468513488770e-01 3.112167418003082275e-01
-2.692338228225708008e-01 4.393236637115478516e-01 -7.242049276828765869e-02
-7.066620886325836182e-02 6.112838983535766602e-01 -4.522456228733062744e-01
-1.962430477142333984e-01 5.886392593383789062e-01 -5.156570076942443848e-01
3.401993513107299805e-01 5.228251218795776367e-01 -4.494270384311676025e-01
-3.723049461841583252e-01 6.206070780754089355e-01 -1.326461434364318848e-01
-2.472660094499588013e-01 6.041414141654968262e-01 -4.307065010070800781e-01
-4.162797927856445312e-01 4.547501802444458008e-01 -6.719708442687988281e-02
1.926269829273223877e-01 4.543108344078063965e-01 -2.472761571407318115e-01
1.177510544657707214e-01 5.769741535186767578e-01 -5.678945183753967285e-01
-1.346714198589324951e-01 4.341720044612884521e-01 8.972793817520141602e-03
2.824308574199676514e-01 4.941475987434387207e-01 -4.495586454868316650e-01
1.657032966613769531e-01 4.928029477596282959e-01 2.090206444263458252e-01
-1.331315934658050537e-02 4.350745379924774170e-01 -9.358101338148117065e-02
-4.965430498123168945e-01 6.038520932197570801e-01 1.206768304109573364e-02
-3.544327616691589355e-01 5.457834005355834961e-01 -4.842703640460968018e-01
-5.585620999336242676e-01 5.765209794044494629e-01 1.842651367187500000e-01
-4.497500956058502197e-01 6.120204925537109375e-01 -6.619681417942047119e-02
2.834242880344390869e-01 5.756647586822509766e-01 -2.906515449285507202e-02
-4.631046950817108154e-01 6.100454926490783691e-01 -2.875500172376632690e-02
-5.462937355041503906e-01 5.924751162528991699e-01 4.259373992681503296e-02
-2.188696265220642090e-01 4.412629902362823486e-01 -1.852626204490661621e-01
-3.938092887401580811e-01 5.664580464363098145e-01 -4.352408647537231445e-01
-1.891723275184631348e-01 5.870616436004638672e-01 3.065280616283416748e-01
3.952600359916687012e-01 5.355570912361145020e-01 -2.518129050731658936e-01
1.637035310268402100e-01 5.854760408401489258e-01 1.035721376538276672e-01
-8.747352659702301025e-02 4.540087878704071045e-01 -3.718810081481933594e-01
1.464710831642150879e-01 5.958715677261352539e-01 -4.819060266017913818e-01
-4.308157265186309814e-01 4.829871654510498047e-01 -2.930708825588226318e-01
-2.613297998905181885e-01 4.380190670490264893e-01 2.982877194881439209e-03
1.399873495101928711e-01 5.460984110832214355e-01 2.434789240360260010e-01
5.474557727575302124e-02 6.126593947410583496e-01 3.764779120683670044e-02
-3.206737637519836426e-01 4.495778977870941162e-01 -1.803481876850128174e-01
1.517570763826370239e-02 4.390762150287628174e-01 2.884217351675033569e-02
-1.147125363349914551e-01 4.360697865486145020e-01 -1.641245186328887939e-01
1.668199896812438965e-01 5.110089182853698730e-01 -5.730112195014953613e-01
3.825874328613281250e-01 5.376051068305969238e-01 -1.393197923898696899e-01
1.353550702333450317e-02 4.529305100440979004e-01 1.776219010353088379e-01
2.713724225759506226e-02 4.882083535194396973e-01 -5.440255403518676758e-01
7.976042479276657104e-02 6.204037666320800781e-01 -1.067341119050979614e-01
1.402415335178375244e-03 5.955889225006103516e-01 -5.303826928138732910e-01
-4.969119727611541748e-01 4.666760563850402832e-01 8.809659630060195923e-02
-3.181353211402893066e-01 6.258780956268310547e-01 -8.856484293937683105e-02
4.433213919401168823e-02 5.983226895332336426e-01 -5.127807259559631348e-01
1.874684989452362061e-01 5.516781210899353027e-01 1.890602111816406250e-01
-5.203067064285278320e-01 5.835417509078979492e-01 2.021311819553375244e-01
-2.218962311744689941e-01 6.069891452789306641e-01 2.115194499492645264e-01
-4.597909450531005859e-01 5.044867396354675293e-01 -3.377112746238708496e-01
-1.985276490449905396e-01 5.512848496437072754e-01 3.997485339641571045e-01
-1.483742743730545044e-01 6.301153302192687988e-01 -5.163191631436347961e-02
8.991246670484542847e-02 6.147352457046508789e-01 -2.947068959474563599e-02
8.519884198904037476e-02 5.979973673820495605e-01 1.176378503441810608e-01
-5.719168782234191895e-01 5.845033526420593262e-01 -6.126691028475761414e-02
-1.434274464845657349e-01 5.826067328453063965e-01 3.129881322383880615e-01
-6.792964786291122437e-02 5.844390988349914551e-01 2.803322672843933105e-01
-4.959949553012847900e-01 5.171446800231933594e-01 -3.218464255332946777e-01
-2.189557552337646484e-01 4.415804147720336914e-01 1.427302062511444092e-01
-2.469013631343841553e-01 4.709700047969818115e-01 -4.008740484714508057e-01
-2.196955084800720215e-01 5.165428519248962402e-01 -5.471453070640563965e-01
2.217295467853546143e-01 5.940417647361755371e-01 -3.925907611846923828e-02
-5.893193185329437256e-02 4.774818420410156250e-01 -5.006027221679687500e-01
-4.885355532169342041e-01 5.474550724029541016e-01 -3.536237180233001709e-01
-2.826460599899291992e-01 5.713620185852050781e-01 -5.103362798690795898e-01
-1.833180338144302368e-01 6.255868673324584961e-01 3.907053917646408081e-02
-3.381907045841217041e-01 6.234257817268371582e-01 -1.844206452369689941e-02
2.395983040332794189e-01 5.139179229736328125e-01 1.561830043792724609e-01
-6.067466735839843750e-01 5.572289228439331055e-01 1.789394915103912354e-01
-1.605060845613479614e-01 5.902994871139526367e-01 -5.244043469429016113e-01
-1.623148769140243530e-01 4.491016268730163574e-01 2.209637463092803955e-01
-1.036849915981292725e-01 4.824522733688354492e-01 -5.093660354614257812e-01
-3.103891015052795410e-01 6.195578575134277344e-01 -2.671299576759338379e-01
1.754564940929412842e-01 6.080047488212585449e-01 -3.439188301563262939e-01
3.778901100158691406e-01 5.105018615722656250e-01 -3.227978050708770752e-01
5.596958100795745850e-03 4.616976082324981689e-01 -4.295669198036193848e-01
-2.664596736431121826e-01 4.741810560226440430e-01 3.491565287113189697e-01
-3.807471990585327148e-01 6.063550710678100586e-01 -3.030828535556793213e-01
-5.652331560850143433e-02 4.670547842979431152e-01 2.883508503437042236e-01
1.459206342697143555e-01 6.064239740371704102e-01 -4.065618515014648438e-01
-4.813914597034454346e-01 4.652977585792541504e-01 1.287226676940917969e-01
-1.647857576608657837e-02 6.247330904006958008e-01 -3.647216781973838806e-02
-5.506204366683959961e-01 4.800016283988952637e-01 -6.817728281021118164e-03
-3.385992348194122314e-01 6.157901287078857422e-01 1.130871698260307312e-01
-6.016161441802978516e-01 5.703018903732299805e-01 -7.762883603572845459e-02
2.037270367145538330e-01 5.767797827720642090e-01 9.504865854978561401e-02
1.038125231862068176e-01 6.192494630813598633e-01 -2.724243998527526855e-01
-4.366777539253234863e-01 4.952390789985656738e-01 3.569699525833129883e-01
-3.755580186843872070e-01 6.134608387947082520e-01 -2.484227418899536133e-01
-2.950590252876281738e-01 4.540011882781982422e-01 2.385140657424926758e-01
3.699090480804443359e-01 5.028415918350219727e-01 -1.394774913787841797e-01
5.039224773645401001e-02 6.221755146980285645e-01 -8.444331586360931396e-02
-3.280292749404907227e-01 5.901753306388854980e-01 -4.328409433364868164e-01
-4.654362797737121582e-01 4.897310137748718262e-01 -2.790518105030059814e-01
3.771794587373733521e-02 4.394592940807342529e-01 -1.965486407279968262e-01
-5.976511240005493164e-01 5.012764334678649902e-01 -5.783675983548164368e-02
1.554132103919982910e-01 6.092255115509033203e-01 -7.346576452255249023e-02
-2.801918685436248779e-01 4.395304918289184570e-01 3.645435720682144165e-02
-1.449672728776931763e-01 6.175481081008911133e-01 -3.950531184673309326e-01
-3.271747827529907227e-01 4.614580869674682617e-01 2.760707736015319824e-01
-1.645279675722122192e-02 5.293438434600830078e-01 -6.167514324188232422e-01
3.999553620815277100e-03 5.728981494903564453e-01 2.822058200836181641e-01
-3.823049664497375488e-01 4.504306912422180176e-01 1.126769110560417175e-01
-8.525496721267700195e-02 5.533609986305236816e-01 -6.078651547431945801e-01
-5.737714171409606934e-01 4.862271547317504883e-01 8.286953717470169067e-02
-7.504375278949737549e-02 4.340807199478149414e-01 -1.304063946008682251e-02
1.597943007946014404e-01 5.708531141281127930e-01 -5.664652585983276367e-01
-4.323419928550720215e-01 5.749561786651611328e-01 3.155143857002258301e-01
-3.209238946437835693e-01 4.728620052337646484e-01 3.344826996326446533e-01
-5.002657175064086914e-01 6.033334136009216309e-01 -6.027138605713844299e-02
-3.538320064544677734e-01 5.868063569068908691e-01 3.006416261196136475e-01
-7.219627499580383301e-02 4.993750452995300293e-01 -5.651122331619262695e-01
1.155450195074081421e-02 4.470457732677459717e-01 1.330029368400573730e-01
8.910942822694778442e-02 5.992975831031799316e-01 -4.940975606441497803e-01
1.262740045785903931e-02 5.551041960716247559e-01 -6.172499656677246094e-01
-1.495743244886398315e-01 6.206037998199462891e-01 9.335232526063919067e-02
-3.592821359634399414e-01 4.585110843181610107e-01 2.376919090747833252e-01
-1.372106820344924927e-01 4.379291534423828125e-01 1.004561409354209900e-01
-3.616011887788772583e-02 4.571995735168457031e-01 2.331342697143554688e-01
-1.428028047084808350e-01 4.357380568981170654e-01 5.818132311105728149e-02
2.959767282009124756e-01 4.745225906372070312e-01 -8.982309699058532715e-02
-2.328555881977081299e-01 6.155560612678527832e-01 -3.698776364326477051e-01
-2.697437703609466553e-01 4.941956698894500732e-01 4.004727602005004883e-01
-1.400805860757827759e-01 6.317670941352844238e-01 -1.492473483085632324e-01
-5.871805548667907715e-01 5.017011165618896484e-01 -9.924123436212539673e-02
-3.596341609954833984e-02 5.974968671798706055e-01 2.083838284015655518e-01
-4.613777399063110352e-01 5.944742560386657715e-01 -2.683326005935668945e-01
-3.043839931488037109e-01 6.234816908836364746e-01 -2.187251150608062744e-01
2.486532628536224365e-01 4.928687214851379395e-01 -4.783923625946044922e-01
1.022220030426979065e-01 4.421034753322601318e-01 -7.965099066495895386e-02
2.644594758749008179e-02 6.114280223846435547e-01 -4.412358403205871582e-01
-1.576689332723617554e-01 4.694026112556457520e-01 -4.386219382286071777e-01
3.188506066799163818e-01 4.967059791088104248e-01 -4.096963405609130859e-01
-4.446817636489868164e-01 5.880783200263977051e-01 -3.238467872142791748e-01
-3.319728374481201172e-02 4.473344981670379639e-01 1.653609871864318848e-01
-5.308147072792053223e-01 4.775967597961425781e-01 1.562982499599456787e-01
5.008047074079513550e-02 5.708158016204833984e-01 -5.956004261970520020e-01
-4.067944586277008057e-01 4.683712124824523926e-01 2.702979743480682373e-01
1.651136875152587891e-01 4.738593697547912598e-01 -4.516308307647705078e-01
-1.783454567193984985e-01 4.350768923759460449e-01 2.461022883653640747e-02
1.071238741278648376e-01 6.172491908073425293e-01 -3.156331181526184082e-01
2.439342737197875977e-01 4.734598100185394287e-01 -3.808374404907226562e-01
-2.493031919002532959e-01 6.262403130531311035e-01 1.646778732538223267e-02
2.823950946331024170e-01 4.680891931056976318e-01 -2.031499743461608887e-01
-5.540798902511596680e-01 5.390709638595581055e-01 -2.600069642066955566e-01
-2.525106966495513916e-01 4.500522017478942871e-01 -2.582750916481018066e-01
-4.178763926029205322e-01 4.707887470722198486e-01 -2.400354444980621338e-01
-2.239771634340286255e-01 5.939720869064331055e-01 -4.857280552387237549e-01
3.063525259494781494e-01 4.750740230083465576e-01 -2.474402189254760742e-01
-1.146284788846969604e-01 4.334984719753265381e-01 -5.943312868475914001e-02
7.641497999429702759e-02 4.413945674896240234e-01 -2.161070704460144043e-02
-5.411230772733688354e-02 6.286722421646118164e-01 -2.593811154365539551e-01
-2.927696704864501953e-01 6.260784864425659180e-01 -1.692087948322296143e-02
2.658116817474365234e-01 5.725024938583374023e-01 -4.829010367393493652e-01
-1.573297679424285889e-01 4.339731335639953613e-01 -4.553997516632080078e-02
-2.060090005397796631e-02 6.288664937019348145e-01 -1.505025774240493774e-01
1.238884776830673218e-02 4.366365969181060791e-01 -1.404072940349578857e-01
-3.915369808673858643e-01 6.132568120956420898e-01 9.636343270540237427e-02
-4.014565646648406982e-01 6.182381510734558105e-01 -4.296294599771499634e-02
-5.796815156936645508e-01 5.611888170242309570e-01 -1.877259314060211182e-01
-3.032235205173492432e-01 4.412148296833038330e-01 -4.226198792457580566e-02
-3.993434011936187744e-01 4.823321998119354248e-01 3.394283950328826904e-01
2.468216121196746826e-01 5.663245320320129395e-01 -5.214109420776367188e-01
-5.795136690139770508e-01 5.079371929168701172e-01 -1.522126644849777222e-01
2.587495744228363037e-01 4.652864634990692139e-01 -2.628964185714721680e-01
-1.786420941352844238e-01 4.375303983688354492e-01 9.047118574380874634e-02
-6.638541817665100098e-02 6.257513165473937988e-01 -7.907584309577941895e-03
-2.781677246093750000e-01 6.179014444351196289e-01 1.188442781567573547e-01
-1.362166404724121094e-01 6.061456203460693359e-01 2.022701203823089600e-01
-3.807345032691955566e-01 4.583079814910888672e-01 -1.906799376010894775e-01
3.044242411851882935e-02 4.580292105674743652e-01 -4.041649997234344482e-01
-2.504500746726989746e-02 4.658485352993011475e-01 2.688650488853454590e-01
-1.798223853111267090e-01 6.026935577392578125e-01 -4.707615375518798828e-01
3.055114299058914185e-02 6.246736049652099609e-01 -2.755392491817474365e-01
1.485629975795745850e-01 4.464297890663146973e-01 -1.100724115967750549e-01
3.029895126819610596e-01 4.839920401573181152e-01 -3.638320267200469971e-01
9.748528152704238892e-02 6.045678257942199707e-01 -4.588530659675598145e-01
-4.755173027515411377e-01 6.033506393432617188e-01 -1.656770855188369751e-01
6.269004195928573608e-02 4.430080056190490723e-01 3.399675339460372925e-02
-1.539942324161529541e-01 5.440514683723449707e-01 4.004951715469360352e-01
-1.855253726243972778e-01 4.702904224395751953e-01 3.345414698123931885e-01
-1.714657247066497803e-01 6.129639148712158203e-01 1.646220386028289795e-01
-2.030230909585952759e-01 6.296333074569702148e-01 -2.118725478649139404e-01
-4.323555529117584229e-01 4.601073265075683594e-01 -1.151901334524154663e-01
2.125819027423858643e-01 5.914018154144287109e-01 -5.851909518241882324e-04
-3.020629286766052246e-01 5.723852515220642090e-01 3.595517575740814209e-01
1.524308323860168457e-01 4.923035800457000732e-01 -5.331101417541503906e-01
2.126783728599548340e-01 5.040310621261596680e-01 1.782792806625366211e-01
2.130357921123504639e-01 6.013648509979248047e-01 -3.593905866146087646e-01
-4.161387681961059570e-01 6.165310144424438477e-01 -7.754525542259216309e-02
2.615499198436737061e-01 5.024331212043762207e-01 1.133944168686866760e-01
-1.382054239511489868e-01 4.612393677234649658e-01 2.893675565719604492e-01
-2.480517327785491943e-02 5.877109766006469727e-01 2.468875348567962646e-01
3.557454049587249756e-01 4.925528764724731445e-01 -2.701768577098846436e-01
-2.829158008098602295e-01 6.086698174476623535e-01 1.964589059352874756e-01
-5.498194098472595215e-01 5.874162316322326660e-01 1.128607913851737976e-01
-1.877785921096801758e-01 6.313940882682800293e-01 -1.352221518754959106e-01
-5.542006492614746094e-01 5.869199037551879883e-01 -1.133362799882888794e-01
-1.589954197406768799e-01 4.568141698837280273e-01 -3.677040934562683105e-01
-4.745183885097503662e-02 4.393922090530395508e-01 -2.321515381336212158e-01
-3.103026747703552246e-01 5.017200112342834473e-01 -4.670188426971435547e-01
1.731816679239273071e-02 5.811882615089416504e-01 2.473462522029876709e-01
-4.839586317539215088e-01 5.795710682868957520e-01 2.626835107803344727e-01
-3.347558975219726562e-01 4.436027109622955322e-01 -1.616435497999191284e-02
-2.498449683189392090e-01 6.288222074508666992e-01 -1.755318641662597656e-01
-1.533343940973281860e-01 5.925101041793823242e-01 2.770029604434967041e-01
4.289157688617706299e-03 4.585225880146026611e-01 2.176698446273803711e-01
-1.213225275278091431e-01 6.261850595474243164e-01 -3.125715255737304688e-01
-2.860513925552368164e-01 4.490618109703063965e-01 1.996717751026153564e-01
2.732329815626144409e-02 5.900156497955322266e-01 2.053695619106292725e-01
-3.167243301868438721e-01 4.447025358676910400e-01 -1.110688075423240662e-01
-4.173619151115417480e-01 5.089699029922485352e-01 -3.946321606636047363e-01
-1.992997527122497559e-02 4.785112440586090088e-01 3.097639679908752441e-01
-4.501295983791351318e-01 5.479293465614318848e-01 -3.975289463996887207e-01
2.131004631519317627e-01 5.732517838478088379e-01 -5.293607711791992188e-01
-1.404827833175659180e-02 4.992154240608215332e-01 3.482117652893066406e-01
-3.433953970670700073e-02 4.382658302783966064e-01 6.299323588609695435e-02
-3.254628181457519531e-01 5.266059637069702148e-01 -4.975254535675048828e-01
8.081573992967605591e-02 5.917251110076904297e-01 -5.316176414489746094e-01
-4.561964571475982666e-01 4.661129415035247803e-01 1.974980533123016357e-01
3.413902968168258667e-02 6.229109168052673340e-01 -3.105403184890747070e-01
-2.572150826454162598e-01 4.805968701839447021e-01 -4.361977875232696533e-01
-3.520137965679168701e-01 4.703583121299743652e-01 3.129885494709014893e-01
-4.059983193874359131e-01 5.873118042945861816e-01 -3.718549907207489014e-01
-3.156536519527435303e-01 6.134608387947082520e-01 1.487126350402832031e-01
-4.250245541334152222e-02 5.863872766494750977e-01 -5.608542561531066895e-01
-4.805356860160827637e-01 4.652556180953979492e-01 -5.356005579233169556e-02
-4.943519830703735352e-01 4.787652194499969482e-01 2.414102852344512939e-01
2.327488064765930176e-01 6.011113524436950684e-01 -3.022257387638092041e-01
-4.733570665121078491e-02 5.965993404388427734e-01 -5.263674259185791016e-01
-4.104442596435546875e-01 4.843699932098388672e-01 -3.232540190219879150e-01
2.796049714088439941e-01 5.917855501174926758e-01 -2.004317939281463623e-01
1.760932505130767822e-01 5.821813941001892090e-01 -5.248786807060241699e-01
-8.154124021530151367e-02 4.384657144546508789e-01 -2.163227498531341553e-01
3.620846271514892578e-01 5.571461915969848633e-01 -3.600601553916931152e-01
6.839243322610855103e-02 4.502456188201904297e-01 -3.307152390480041504e-01
9.065372496843338013e-02 5.057791471481323242e-01 -5.830357074737548828e-01
-3.038966059684753418e-01 4.898234307765960693e-01 3.888904750347137451e-01
-3.602151870727539062e-01 4.474935829639434814e-01 -6.923674046993255615e-02
3.744947612285614014e-01 5.527037382125854492e-01 -1.702936589717864990e-01
-1.225833445787429810e-01 4.553998112678527832e-01 2.553221583366394043e-01
-1.273213028907775879e-01 5.880711674690246582e-01 -5.412123203277587891e-01
2.343799769878387451e-01 5.555607676506042480e-01 -5.520461797714233398e-01
1.414343416690826416e-01 5.975729227066040039e-01 5.930351465940475464e-02
-1.041512489318847656e-01 5.392921566963195801e-01 3.912828862667083740e-01
-3.694604635238647461e-01 5.118036866188049316e-01 4.088552594184875488e-01
-1.988815069198608398e-01 6.199919581413269043e-01 -3.525423407554626465e-01
2.918517589569091797e-01 4.801221489906311035e-01 -2.317340672016143799e-02
1.948544681072235107e-01 6.030613780021667480e-01 -7.841818034648895264e-02
-5.424233078956604004e-01 4.883530139923095703e-01 2.224287986755371094e-01
-2.761776745319366455e-01 6.231762170791625977e-01 -2.592967152595520020e-01
-2.437676787376403809e-01 4.551095366477966309e-01 2.603872418403625488e-01
-5.965212583541870117e-01 5.666649937629699707e-01 -1.215281859040260315e-01
-2.143462002277374268e-01 4.913428425788879395e-01 3.940656483173370361e-01
9.106855839490890503e-02 5.886190533638000488e-01 1.621547639369964600e-01
-2.721862196922302246e-01 5.849951505661010742e-01 3.199293911457061768e-01
1.299467086791992188e-01 4.683052897453308105e-01 1.644300222396850586e-01
-4.753184020519256592e-01 6.063433289527893066e-01 4.397074133157730103e-02
-2.082656621932983398e-01 4.358984827995300293e-01 -7.268679887056350708e-02
1.204877868294715881e-01 5.969881415367126465e-01 8.774393051862716675e-02
-3.266635835170745850e-01 4.476481080055236816e-01 1.529399156570434570e-01
-4.127203673124313354e-02 6.059587001800537109e-01 1.632498204708099365e-01
3.606170117855072021e-01 5.402778387069702148e-01 -6.698988378047943115e-02
2.748427540063858032e-02 5.505362153053283691e-01 3.180463612079620361e-01
-6.066303849220275879e-01 5.120588541030883789e-01 1.928659379482269287e-01
-1.333349347114562988e-01 6.283736228942871094e-01 -2.754605412483215332e-01
-5.106385946273803711e-01 4.887616634368896484e-01 -2.036359906196594238e-01
-3.669460713863372803e-01 4.602234959602355957e-01 -2.275249660015106201e-01
-2.626108825206756592e-01 5.930130481719970703e-01 -4.679234921932220459e-01
-3.661732971668243408e-01 4.883065223693847656e-01 -3.831499516963958740e-01
1.187758073210716248e-01 4.583476483821868896e-01 -3.767181038856506348e-01
-5.215369164943695068e-03 4.555793404579162598e-01 -3.905623853206634521e-01
4.284230619668960571e-02 6.027315258979797363e-01 1.257574856281280518e-01
-5.744889378547668457e-01 5.395165681838989258e-01 -2.229801714420318604e-01
-8.841557055711746216e-02 4.347901940345764160e-01 2.272769063711166382e-02
-5.270270109176635742e-01 5.490024089813232422e-01 -3.007845878601074219e-01
-4.985380768775939941e-01 6.008068919181823730e-01 7.677305489778518677e-02
2.691479921340942383e-01 4.736638069152832031e-01 -3.433859646320343018e-01
3.701114952564239502e-01 5.602785944938659668e-01 -2.459360957145690918e-01
-3.834634721279144287e-01 6.190596222877502441e-01 3.339357674121856689e-03
1.971538662910461426e-01 6.077982187271118164e-01 -1.812452524900436401e-01
-6.199897527694702148e-01 5.322868227958679199e-01 -1.065211966633796692e-01
-1.093709617853164673e-01 5.767623782157897949e-01 -5.731662511825561523e-01
1.591255515813827515e-02 6.139125823974609375e-01 6.354650110006332397e-02
-2.615252137184143066e-01 6.290622949600219727e-01 -1.270740032196044922e-01
-1.711192429065704346e-01 4.433378577232360840e-01 1.706383824348449707e-01
1.439465582370758057e-01 4.468184113502502441e-01 -1.952729821205139160e-01
-2.807960510253906250e-01 4.495149850845336914e-01 -2.267156839370727539e-01
2.788735926151275635e-01 5.907159447669982910e-01 -3.203109502792358398e-01
7.815989106893539429e-02 4.586237370967864990e-01 -3.969152271747589111e-01
-3.459240198135375977e-01 5.040998458862304688e-01 -4.464570879936218262e-01
-5.825732350349426270e-01 5.805508494377136230e-01 7.600354403257369995e-02
-2.258310914039611816e-01 4.850258529186248779e-01 -4.701711535453796387e-01
4.580230265855789185e-02 4.768995344638824463e-01 2.668731212615966797e-01
-2.122195214033126831e-01 4.510649442672729492e-01 -2.970131039619445801e-01
1.583413183689117432e-01 6.129524707794189453e-01 -2.848865985870361328e-01
3.186656534671783447e-01 5.603814721107482910e-01 -2.707019448280334473e-02
-1.661722511053085327e-01 4.386990666389465332e-01 -1.868575513362884521e-01
-9.936981648206710815e-02 4.514300823211669922e-01 2.242645323276519775e-01
-4.472244679927825928e-01 6.080125570297241211e-01 8.544190973043441772e-02
-3.392063975334167480e-01 5.791994333267211914e-01 3.331421017646789551e-01
-5.085349082946777344e-01 4.973248541355133057e-01 -2.474339008331298828e-01
5.551861971616744995e-02 5.935640931129455566e-01 1.677449941635131836e-01
-4.075982570648193359e-01 6.144731044769287109e-01 -1.749662607908248901e-01
-5.558827519416809082e-01 5.554479956626892090e-01 2.732345461845397949e-01
-2.911069989204406738e-01 5.323919653892517090e-01 -5.243499875068664551e-01
3.147995471954345703e-01 5.827229022979736328e-01 -2.294942736625671387e-01
-3.804621100425720215e-01 6.102632880210876465e-01 1.407228112220764160e-01
-4.037542045116424561e-01 6.024848818778991699e-01 1.902949512004852295e-01
1.176939979195594788e-01 5.292441248893737793e-01 -6.086333394050598145e-01
-2.976003885269165039e-01 6.259951591491699219e-01 -1.738114804029464722e-01
2.603834122419357300e-02 4.834489822387695312e-01 2.974686622619628906e-01
-4.963769316673278809e-01 5.661624670028686523e-01 3.027395308017730713e-01
-5.918107032775878906e-01 4.938095510005950928e-01 1.521781086921691895e-03
-9.688034653663635254e-02 4.709881842136383057e-01 -4.655194580554962158e-01
-5.340902805328369141e-01 4.749888181686401367e-01 8.932443708181381226e-02
-2.936051785945892334e-01 5.916827321052551270e-01 2.909130454063415527e-01
-1.947825253009796143e-01 4.508758783340454102e-01 2.354373037815093994e-01
5.895734578371047974e-02 6.139550209045410156e-01 -4.064658880233764648e-01
1.088877394795417786e-01 4.807614684104919434e-01 2.309056222438812256e-01
-1.438146531581878662e-01 5.081399083137512207e-01 -5.641965866088867188e-01
2.429673075675964355e-01 5.736221671104431152e-01 5.393909662961959839e-02
-3.736764490604400635e-01 5.898754596710205078e-01 -3.947939574718475342e-01
-5.113088488578796387e-01 5.174677371978759766e-01 3.418253362178802490e-01
3.852462023496627808e-02 4.666898548603057861e-01 2.345481812953948975e-01
-3.203155398368835449e-01 4.789216816425323486e-01 -3.849523961544036865e-01
-1.919333934783935547e-01 6.214921474456787109e-01 9.076002985239028931e-02
-6.527200341224670410e-02 5.639516115188598633e-01 3.390841782093048096e-01
-2.324072271585464478e-02 4.482071995735168457e-01 -3.324663639068603516e-01
3.290873169898986816e-01 5.384287834167480469e-01 1.126385480165481567e-02
1.175001636147499084e-01 5.098638534545898438e-01 2.748840153217315674e-01
-3.946139812469482422e-01 4.936778247356414795e-01 3.736484944820404053e-01
9.370660036802291870e-02 6.210927367210388184e-01 -1.944119632244110107e-01
9.134337306022644043e-04 4.380003511905670166e-01 -1.931125521659851074e-01
-3.439359962940216064e-01 6.044279336929321289e-01 -3.553506135940551758e-01
-9.220428764820098877e-03 4.716744422912597656e-01 -4.812056124210357666e-01
-4.479898512363433838e-01 6.025776863098144531e-01 1.478749215602874756e-01
1.428122520446777344e-01 6.158270835876464844e-01 -2.057763338088989258e-01
-2.303536832332611084e-01 5.632797479629516602e-01 3.817935883998870850e-01
-9.924408048391342163e-02 5.976036787033081055e-01 2.367423772811889648e-01
-3.335218727588653564e-01 4.564588665962219238e-01 -2.357648909091949463e-01
-2.296248823404312134e-02 5.487464666366577148e-01 3.477878570556640625e-01
-8.948373794555664062e-02 6.303450465202331543e-01 -2.269019484519958496e-01
-4.136293828487396240e-01 4.530376791954040527e-01 8.171496540307998657e-02
-5.098278522491455078e-01 5.971397161483764648e-01 -1.447423696517944336e-01
9.272854775190353394e-02 6.107180118560791016e-01 1.200752705335617065e-02
1.292274594306945801e-01 4.554113149642944336e-01 8.402777463197708130e-02
1.585775315761566162e-01 6.007246375083923340e-01 -4.415002167224884033e-01
1.677483916282653809e-01 6.028430461883544922e-01 -2.180914580821990967e-02
-2.712103724479675293e-02 6.166439056396484375e-01 -4.125306308269500732e-01
-3.158220946788787842e-01 4.632791578769683838e-01 -3.056690096855163574e-01
-2.324829697608947754e-01 6.283243298530578613e-01 -1.994563639163970947e-02
1.387009769678115845e-02 4.370785355567932129e-01 -1.937576383352279663e-02
2.545989751815795898e-01 5.979489684104919434e-01 -2.543881535530090332e-01
1.306369602680206299e-01 6.123977303504943848e-01 -3.575534224510192871e-01
2.090183794498443604e-01 5.910278558731079102e-01 -4.561844766139984131e-01
-1.149788647890090942e-01 6.127763986587524414e-01 -4.365337789058685303e-01
-4.551574885845184326e-01 6.106527447700500488e-01 5.847908556461334229e-03
-1.130800023674964905e-01 6.303393840789794922e-01 -7.282041013240814209e-02
-1.342236399650573730e-01 4.854822158813476562e-01 3.690702915191650391e-01
-3.743390738964080811e-02 4.347764253616333008e-01 -1.199675798416137695e-01
-1.840971708297729492e-01 6.290399432182312012e-01 -2.231700718402862549e-02
1.172515377402305603e-01 4.461787939071655273e-01 -2.372595667839050293e-01
-1.647422313690185547e-01 6.003139019012451172e-01 2.423825263977050781e-01
3.130792826414108276e-02 4.752226471900939941e-01 -4.962602853775024414e-01
-9.893372654914855957e-03 6.064088940620422363e-01 1.410878598690032959e-01
-3.427298963069915771e-01 5.964051485061645508e-01 2.580007910728454590e-01
1.035245582461357117e-01 4.656423926353454590e-01 -4.338655173778533936e-01
2.830192148685455322e-01 5.829290747642517090e-01 -3.999432325363159180e-01
-1.225616484880447388e-01 4.625447094440460205e-01 -4.159037172794342041e-01
1.592401266098022461e-01 4.572002589702606201e-01 5.672764033079147339e-02
-4.066720902919769287e-01 5.931592583656311035e-01 2.486989200115203857e-01
-4.361909031867980957e-01 5.973799228668212891e-01 2.021809816360473633e-01
-5.843917280435562134e-02 4.487230777740478516e-01 -3.355383276939392090e-01
-6.033723056316375732e-02 6.204288005828857422e-01 -3.817349672317504883e-01
-4.752419888973236084e-01 4.662709236145019531e-01 -8.862326294183731079e-02
-3.144207298755645752e-01 6.198480129241943359e-01 7.926715165376663208e-02
-1.640193909406661987e-02 -6.495854854583740234e-01 -4.152277112007141113e-02
2.509409934282302856e-02 -2.131116986274719238e-01 -1.983334869146347046e-01
-8.157392591238021851e-02 -4.270173609256744385e-01 -1.610604971647262573e-01
8.337651193141937256e-02 -4.918299913406372070e-01 9.162278473377227783e-02
8.009222149848937988e-02 -2.904036045074462891e-01 1.046840101480484009e-01
1.745015196502208710e-02 -2.024477720260620117e-01 1.103920489549636841e-01
1.263859272003173828e-01 -2.694344520568847656e-01 5.599725991487503052e-02
3.639300912618637085e-02 -3.681850433349609375e-01 1.311903595924377441e-01
-1.813278347253799438e-02 1.592695713043212891e-03 -1.483968086540699005e-02
8.702917397022247314e-02 -5.817402601242065430e-01 2.361563593149185181e-02
1.171082481741905212e-01 -1.230746358633041382e-01 -1.129259839653968811e-01
-8.323568105697631836e-02 -1.990899741649627686e-01 -1.772434115409851074e-01
-1.909009180963039398e-02 -4.051710367202758789e-01 -1.842237859964370728e-01
-5.986074730753898621e-02 -4.028027355670928955e-01 -1.764430701732635498e-01
6.046215444803237915e-02 -3.148308992385864258e-01 -1.846493631601333618e-01
-1.473328284919261932e-02 -1.488691866397857666e-01 9.391216933727264404e-02
1.248235031962394714e-01 -2.365349978208541870e-01 -1.337969750165939331e-01
1.288573443889617920e-01 -4.802786111831665039e-01 1.867280527949333191e-02
1.311614513397216797e-01 -1.434773206710815430e-01 -9.076035767793655396e-02
1.200655326247215271e-01 -4.778853058815002441e-01 -7.937131077051162720e-02
-1.128772124648094177e-01 -5.104708671569824219e-01 8.236702531576156616e-02
-1.519317626953125000e-01 -2.781639397144317627e-01 -1.091566681861877441e-01
-9.505383670330047607e-02 -4.352429509162902832e-02 -4.738779366016387939e-02
-6.680952012538909912e-02 -6.384565830230712891e-01 -2.915523573756217957e-02
-3.708156943321228027e-02 -5.299243330955505371e-02 3.695964068174362183e-02
9.647133201360702515e-02 -4.720595479011535645e-02 -5.421897023916244507e-02
-1.477116048336029053e-01 -5.135042071342468262e-01 -5.782924592494964600e-03
-4.759705439209938049e-02 -6.419639587402343750e-01 -4.364608973264694214e-02
-4.040990024805068970e-02 -4.887475967407226562e-01 1.279730349779129028e-01
-1.550829112529754639e-01 -4.854246675968170166e-01 -3.516973927617073059e-03
6.528990715742111206e-02 -1.191571354866027832e-02 -4.171776026487350464e-02
2.004481293261051178e-02 -6.529312133789062500e-01 -3.131428733468055725e-03
5.444401130080223083e-02 -2.931385040283203125e-01 -1.891364455223083496e-01
-6.372931599617004395e-02 -2.467294335365295410e-01 -1.905955225229263306e-01
2.454734593629837036e-02 -3.608854711055755615e-01 -1.899925470352172852e-01
1.139865890145301819e-01 -5.343053936958312988e-01 -2.357846684753894806e-02
-1.252042502164840698e-01 -1.698388010263442993e-01 3.797589987516403198e-02
5.269324779510498047e-02 -1.208872795104980469e-01 -1.755690127611160278e-01
-9.820172935724258423e-02 -4.542469978332519531e-01 1.080366373062133789e-01
1.322061717510223389e-01 -3.409480452537536621e-01 -1.163334026932716370e-01
-1.170000061392784119e-01 -4.464276731014251709e-01 9.340092539787292480e-02
-8.566035330295562744e-02 -1.315494179725646973e-01 5.947358906269073486e-02
9.530846774578094482e-02 -9.026671946048736572e-02 1.601012423634529114e-02
-2.189442329108715057e-02 -4.065601229667663574e-01 1.380539089441299438e-01
1.493962109088897705e-01 -3.941058814525604248e-01 -6.892122328281402588e-03
3.961236774921417236e-02 -3.241709470748901367e-01 -1.914293318986892700e-01
-9.246904402971267700e-02 -3.543234765529632568e-01 -1.698277592658996582e-01
2.235222235321998596e-02 -6.940546631813049316e-02 5.174578726291656494e-02
4.166263714432716370e-02 -9.976731240749359131e-02 -1.737338602542877197e-01
2.118092216551303864e-02 -5.694507360458374023e-01 -1.146103516221046448e-01
-1.141628921031951904e-01 -1.481504142284393311e-01 -1.377348750829696655e-01
1.095752865076065063e-01 -2.194330245256423950e-01 -1.514816284179687500e-01
-3.964545205235481262e-02 -7.927954196929931641e-02 -1.673492938280105591e-01
6.526657938957214355e-02 -4.484469890594482422e-01 -1.530040204524993896e-01
9.364118427038192749e-02 -4.411033391952514648e-01 9.389945864677429199e-02
-3.321252018213272095e-02 -1.167198419570922852e-01 7.708813250064849854e-02
-1.294231712818145752e-01 -3.870206475257873535e-01 -1.326658874750137329e-01
-7.017826288938522339e-02 -1.394167393445968628e-01 -1.734198331832885742e-01
4.895238205790519714e-03 -3.692594170570373535e-02 3.062731772661209106e-02
-1.085779741406440735e-01 -8.726437389850616455e-02 -1.090190857648849487e-01
1.080885753035545349e-01 -6.737610697746276855e-02 -5.918082594871520996e-02
1.442680656909942627e-01 -3.114404678344726562e-01 2.856319397687911987e-02
1.500804126262664795e-01 -2.411704063415527344e-01 -7.580066099762916565e-03
1.180239692330360413e-01 -1.457269638776779175e-01 -1.231462359428405762e-01
1.120587438344955444e-01 -2.712458074092864990e-01 7.448332011699676514e-02
-1.245696917176246643e-01 -5.377815961837768555e-01 5.248143523931503296e-02
3.091923147439956665e-02 -5.538408756256103516e-01 1.047558635473251343e-01
-1.454563438892364502e-01 -3.301480412483215332e-01 6.106430292129516602e-02
1.117712184786796570e-01 -3.753010034561157227e-01 -1.366273611783981323e-01
8.857577294111251831e-02 -8.917981386184692383e-02 -1.369306892156600952e-01
-1.065717414021492004e-01 -5.594965219497680664e-01 6.617171317338943481e-02
-1.242373064160346985e-01 -2.103488892316818237e-01 5.855494737625122070e-02
1.171864196658134460e-01 -2.946107387542724609e-01 7.226045429706573486e-02
-1.472599506378173828e-01 -2.411830723285675049e-01 -1.131726577877998352e-01
-3.490107879042625427e-02 -6.587740778923034668e-01 1.268943026661872864e-02
-1.001558825373649597e-01 -5.665024518966674805e-01 -8.078770339488983154e-02
-1.337133441120386124e-02 -2.166758328676223755e-01 1.159711182117462158e-01
8.196878433227539062e-02 -5.732396841049194336e-01 -6.120001152157783508e-02
-1.155244410037994385e-01 -2.426495403051376343e-01 -1.565829515457153320e-01
-7.124074548482894897e-02 -1.180082261562347412e-01 -1.663797646760940552e-01
7.699640840291976929e-02 -3.678205013275146484e-01 1.123460531234741211e-01
1.372043788433074951e-01 -3.759525716304779053e-01 -9.748334437608718872e-02
-1.948272809386253357e-02 -3.535731136798858643e-01 -1.938572973012924194e-01
6.903010606765747070e-02 -5.986863374710083008e-01 -4.900917410850524902e-02
9.934147447347640991e-02 -5.561298131942749023e-01 -4.479433596134185791e-02
1.364473104476928711e-01 -2.902538776397705078e-01 -1.155380234122276306e-01
-1.890644803643226624e-02 -4.803695082664489746e-01 1.318875998258590698e-01
-1.086118966341018677e-01 -3.704626262187957764e-01 -1.558730304241180420e-01
-1.615242362022399902e-01 -3.769865334033966064e-01 3.036520630121231079e-02
-1.020327955484390259e-01 -1.477950066328048706e-01 5.385486036539077759e-02
-1.572400629520416260e-01 -2.171929776668548584e-01 -7.677091658115386963e-02
1.422420144081115723e-01 -1.693738847970962524e-01 -3.516812995076179504e-02
1.992855221033096313e-03 -7.068812847137451172e-04 -8.173743262887001038e-03
5.262067541480064392e-02 -5.101078748703002930e-01 1.089267730712890625e-01
-1.358888745307922363e-01 -5.020762085914611816e-01 5.237011611461639404e-02
-3.304633125662803650e-02 -7.494181394577026367e-03 -1.196773424744606018e-01
7.255989313125610352e-02 -2.566722035408020020e-02 -1.006041616201400757e-01
-1.600518524646759033e-01 -4.531816244125366211e-01 -4.208528622984886169e-02
-1.687874794006347656e-01 -2.798884212970733643e-01 -4.895292222499847412e-02
-9.946162812411785126e-03 -1.832803040742874146e-01 1.063875257968902588e-01
1.353077031672000885e-02 -2.313542068004608154e-01 -2.008771151304244995e-01
-9.161570668220520020e-02 -1.024215221405029297e-01 -1.434629857540130615e-01
7.064031809568405151e-02 -5.574341416358947754e-01 -9.190928936004638672e-02
1.413317918777465820e-01 -4.366438090801239014e-01 -4.722714796662330627e-02
9.134376421570777893e-03 -4.677549004554748535e-01 -1.657262295484542847e-01
9.779874980449676514e-02 -5.693584680557250977e-01 1.009374856948852539e-03
3.933314234018325806e-02 -6.014413237571716309e-01 7.355162501335144043e-02
1.310081779956817627e-01 -1.965392231941223145e-01 2.520416304469108582e-02
1.560002565383911133e-01 -2.842558920383453369e-01 -3.077725879848003387e-02
-1.928961649537086487e-02 -6.229882240295410156e-01 -7.741683721542358398e-02
-1.632165014743804932e-01 -2.748059034347534180e-01 -7.865771651268005371e-02
2.819511666893959045e-02 -1.139208525419235229e-01 -1.821057051420211792e-01
-3.522720187902450562e-02 -6.332013607025146484e-01 -6.279951333999633789e-02
-5.614160094410181046e-03 -2.490287870168685913e-01 1.237052828073501587e-01
-6.495028734207153320e-02 -4.683421850204467773e-01 -1.561245918273925781e-01
1.020640209317207336e-01 -5.144356489181518555e-01 -8.497697114944458008e-02
9.266988188028335571e-02 -6.151089072227478027e-02 -8.955171331763267517e-03
2.070205844938755035e-02 -1.845806986093521118e-01 -1.967332959175109863e-01
1.381551027297973633e-01 -1.495601534843444824e-01 -5.515840649604797363e-02
-9.284044057130813599e-02 -3.449605703353881836e-01 1.138248145580291748e-01
2.570038288831710815e-02 -1.543354243040084839e-01 9.302747994661331177e-02
1.474200189113616943e-01 -3.578896522521972656e-01 -7.684193551540374756e-02
-7.295847684144973755e-02 -1.057422459125518799e-01 5.398313701152801514e-02
-1.285461187362670898e-01 -1.627800911664962769e-01 -1.223816573619842529e-01
-7.686636596918106079e-02 -5.557416677474975586e-01 9.530274569988250732e-02
1.109400764107704163e-01 -7.632720470428466797e-02 -7.713265717029571533e-02
1.525701284408569336e-01 -3.745249211788177490e-01 -2.005059644579887390e-02
-6.127709522843360901e-02 -6.203116774559020996e-01 6.387912482023239136e-02
-1.174076423048973083e-01 -4.220038056373596191e-01 9.572081267833709717e-02
-1.404422521591186523e-01 -5.332725644111633301e-01 -2.332032658159732819e-02
-1.525780260562896729e-01 -4.155283570289611816e-01 -8.891344070434570312e-02
-5.173680931329727173e-02 -4.884153604507446289e-01 -1.534918993711471558e-01
1.340109109878540039e-01 -3.381732106208801270e-01 5.114285647869110107e-02
-1.392746865749359131e-01 -3.630106151103973389e-01 -1.249961182475090027e-01
-3.742747753858566284e-02 2.321869134902954102e-03 -1.005632504820823669e-01
7.415595650672912598e-02 -5.361913442611694336e-01 8.345095813274383545e-02
-1.635387837886810303e-01 -4.365597367286682129e-01 1.816302537918090820e-03
-5.253718420863151550e-02 -6.814289093017578125e-02 -1.562978923320770264e-01
-9.543832391500473022e-02 -5.083698034286499023e-02 -2.615044824779033661e-02
5.021406710147857666e-02 -6.154224872589111328e-01 -5.278278887271881104e-02
-9.083744138479232788e-02 -2.344937324523925781e-01 9.597329795360565186e-02
-6.551705300807952881e-02 -5.839468240737915039e-01 -9.637201577425003052e-02
1.367188394069671631e-01 -4.648907184600830078e-01 -6.853630766272544861e-03
-1.585676074028015137e-01 -4.705202579498291016e-01 -2.275637164711952209e-02
1.456180214881896973e-01 -3.324020802974700928e-01 2.569938451051712036e-02
-1.122456714510917664e-01 -5.899807810783386230e-01 2.088634297251701355e-02
4.865027219057083130e-02 -6.227796077728271484e-01 4.031786322593688965e-02
-5.404648557305335999e-02 -5.767642855644226074e-01 9.734867513179779053e-02
1.233109757304191589e-01 -2.222082018852233887e-01 4.821807146072387695e-02
6.952615082263946533e-02 -4.606412053108215332e-01 1.098085939884185791e-01
8.652547746896743774e-02 -3.811752796173095703e-02 -3.398997336626052856e-02
-1.550777442753314972e-02 -2.521013319492340088e-01 -2.017787098884582520e-01
-1.474756896495819092e-01 -5.000339150428771973e-01 -4.656255990266799927e-02
1.783231273293495178e-04 -5.940728187561035156e-01 9.475216269493103027e-02
-7.702469080686569214e-02 -5.937548875808715820e-01 7.402136921882629395e-02
-8.949986845254898071e-02 -6.230297088623046875e-01 -1.544893905520439148e-02
-1.071788817644119263e-01 -2.228576540946960449e-01 -1.623895019292831421e-01
1.506929695606231689e-01 -2.436342835426330566e-01 -7.320356369018554688e-02
-4.388670623302459717e-02 -6.549466848373413086e-01 -1.337035186588764191e-02
-1.298367232084274292e-01 -5.583326220512390137e-01 -2.475109323859214783e-02
-1.618105769157409668e-01 -2.559736967086791992e-01 4.100631922483444214e-03
-8.612921833992004395e-02 -2.792501449584960938e-01 1.089992374181747437e-01
-2.867134846746921539e-02 -3.787767291069030762e-01 -1.886920481920242310e-01
-9.118065237998962402e-02 -5.130599737167358398e-01 1.008650958538055420e-01
-1.321497410535812378e-01 -3.048869669437408447e-01 -1.400459110736846924e-01
6.258437037467956543e-02 -9.067744016647338867e-02 -1.600265800952911377e-01
1.052547767758369446e-01 -1.380999237298965454e-01 3.564606606960296631e-02
-1.455081999301910400e-01 -3.836534619331359863e-01 -1.115705370903015137e-01
5.599268525838851929e-02 -1.246533691883087158e-01 6.978046894073486328e-02
-9.151356667280197144e-02 -1.987265050411224365e-01 8.445142954587936401e-02
8.031984418630599976e-02 -2.530948221683502197e-01 9.813331067562103271e-02
2.522230148315429688e-03 -4.041376113891601562e-01 -1.844387203454971313e-01
7.197386026382446289e-02 -5.580992698669433594e-01 7.387813180685043335e-02
-4.109717905521392822e-02 -1.465025246143341064e-01 8.844151347875595093e-02
-1.577430069446563721e-01 -2.030586749315261841e-01 -5.836448818445205688e-02
-1.021769549697637558e-02 -5.278828740119934082e-02 4.290960729122161865e-02
1.145295798778533936e-01 -5.287679433822631836e-01 1.331096887588500977e-02
1.141418144106864929e-02 -4.299329519271850586e-01 1.356262713670730591e-01
4.678426310420036316e-02 -8.948318660259246826e-02 5.564404278993606567e-02
1.374318897724151611e-01 -1.775077283382415771e-01 -1.758499071002006531e-03
1.519209742546081543e-01 -2.711922824382781982e-01 -7.352219521999359131e-02
1.029494218528270721e-02 -5.546848177909851074e-01 -1.265856623649597168e-01
1.085482761263847351e-01 -4.071722626686096191e-01 8.320596814155578613e-02
-1.890081912279129028e-02 -5.708252787590026855e-01 -1.190439984202384949e-01
-1.701778769493103027e-01 -3.872508108615875244e-01 -2.374285086989402771e-02
1.516888439655303955e-01 -2.278724610805511475e-01 -5.649831518530845642e-02
-5.335900932550430298e-02 -2.564243972301483154e-01 1.184357702732086182e-01
2.142059244215488434e-02 -3.870105147361755371e-01 1.352495700120925903e-01
2.552388235926628113e-03 -5.090402960777282715e-01 1.256432682275772095e-01
-1.686851680278778076e-01 -3.549877107143402100e-01 -5.841983109712600708e-02
-1.312647759914398193e-01 -2.363984286785125732e-01 5.932042747735977173e-02
-4.999117553234100342e-02 -5.613390207290649414e-01 -1.187846958637237549e-01
-1.013969108462333679e-01 -1.097023487091064453e-01 3.071086108684539795e-02
-3.955042734742164612e-02 -6.328831315040588379e-01 6.302179396152496338e-02
-1.596772074699401855e-01 -2.392669022083282471e-01 -7.951680570840835571e-02
-1.597803235054016113e-01 -4.171392321586608887e-01 -6.962384283542633057e-02
-1.475016176700592041e-01 -4.471483230590820312e-01 5.091882497072219849e-02
-7.949828356504440308e-02 -4.872219562530517578e-01 -1.421900689601898193e-01
-1.621595025062561035e-01 -2.247955352067947388e-01 -2.913103625178337097e-02
-1.313211619853973389e-01 -2.430723607540130615e-01 -1.388298273086547852e-01
-8.899775892496109009e-02 -3.866182267665863037e-01 1.178627312183380127e-01
3.449747711420059204e-02 -4.358041286468505859e-02 2.906978875398635864e-02
5.936763435602188110e-02 -6.170789003372192383e-01 -3.378034383058547974e-02
-4.055302962660789490e-02 -1.446937769651412964e-01 -1.871804147958755493e-01
1.309430301189422607e-01 -4.086310863494873047e-01 -9.752108156681060791e-02
-8.082174509763717651e-02 -5.696828961372375488e-01 -9.682077914476394653e-02
-2.439928427338600159e-02 -3.787244856357574463e-01 1.378739625215530396e-01
1.293123364448547363e-01 -2.986425757408142090e-01 5.626934766769409180e-02
-1.108288243412971497e-01 -3.402916789054870605e-01 -1.584833562374114990e-01
-2.824228443205356598e-02 -4.317725300788879395e-01 1.364245265722274780e-01
-1.322442442178726196e-01 -3.739659786224365234e-01 8.170439302921295166e-02
-4.346930235624313354e-02 -6.064355969429016113e-01 -8.813310414552688599e-02
