-2.089452594518661499e-01 1.191326044499874115e-02 5.783956497907638550e-03
-5.389901623129844666e-02 -6.794983893632888794e-02 2.251089923083782196e-02
1.788925081491470337e-01 6.762301549315452576e-03 1.213248446583747864e-02
1.056686639785766602e-01 9.216073900461196899e-02 -5.956061556935310364e-02
2.037015706300735474e-01 1.254032552242279053e-01 -8.066428825259208679e-03
1.350814849138259888e-01 1.278946250677108765e-01 1.405945792794227600e-02
-1.587788313627243042e-01 -7.868483662605285645e-02 -9.513025172054767609e-03
2.059807926416397095e-01 8.990249037742614746e-02 5.859111621975898743e-02
2.442278861999511719e-01 6.150507926940917969e-02 -5.954413674771785736e-03
-1.177731454372406006e-01 4.872867837548255920e-02 -5.716961622238159180e-02
2.310103774070739746e-01 1.094980761408805847e-01 -1.794903911650180817e-02
4.438564553856849670e-02 3.419117629528045654e-02 8.220572024583816528e-02
4.655479639768600464e-02 1.170263811945915222e-01 2.369548892602324486e-04
1.687717437744140625e-01 8.521357178688049316e-02 6.699475646018981934e-02
-1.343632489442825317e-01 1.945818401873111725e-02 5.163122713565826416e-02
4.757957160472869873e-02 1.027259454131126404e-01 -4.823995381593704224e-02
1.404122114181518555e-01 7.680406793951988220e-03 -3.532000631093978882e-02
-1.348570734262466431e-01 2.884626016020774841e-02 -6.571526080369949341e-02
-7.123042643070220947e-02 -2.423873357474803925e-02 6.992495805025100708e-02
4.954047873616218567e-02 -4.562337696552276611e-02 1.069077663123607635e-02
1.996874213218688965e-01 2.421208657324314117e-02 -8.109959773719310760e-03
2.230565398931503296e-01 1.231890395283699036e-01 1.634010858833789825e-02
1.879992783069610596e-01 1.010680794715881348e-01 -4.097682237625122070e-02
8.929138630628585815e-02 -1.948967017233371735e-02 -3.113166615366935730e-02
-1.154413744807243347e-01 1.600477844476699829e-03 6.406581401824951172e-02
3.011053800582885742e-02 -2.197192795574665070e-02 6.774332374334335327e-02
-6.087280064821243286e-02 -4.076623171567916870e-02 6.239672377705574036e-02
-1.252586990594863892e-01 -7.693223655223846436e-02 -1.440173666924238205e-02
-1.081918999552726746e-01 -7.132228463888168335e-02 2.876288257539272308e-02
9.439771063625812531e-03 -7.767306640744209290e-03 -6.943008303642272949e-02
2.020777314901351929e-01 1.085246354341506958e-01 4.808739200234413147e-02
-6.078433990478515625e-02 7.599795609712600708e-02 3.298242390155792236e-02
-3.575458656996488571e-03 -7.990403100848197937e-03 7.734243571758270264e-02
1.390711814165115356e-01 -1.047083921730518341e-02 -3.410389646887779236e-03
-1.912959516048431396e-01 2.174044772982597351e-02 1.222386769950389862e-02
1.462847143411636353e-01 4.371237754821777344e-02 7.508862018585205078e-02
-5.421370640397071838e-02 -4.889423400163650513e-02 -5.017772316932678223e-02
1.491769254207611084e-01 6.047855317592620850e-02 7.514175027608871460e-02
2.181524038314819336e-01 5.294339358806610107e-02 -2.462279982864856720e-02
1.560716778039932251e-01 -4.875609651207923889e-03 1.284275017678737640e-02
-1.121773645281791687e-01 6.272705644369125366e-02 -4.085931181907653809e-02
-2.958225272595882416e-02 -5.988442897796630859e-02 -2.369318529963493347e-02
2.808697707951068878e-02 7.096572220325469971e-02 6.821205466985702515e-02
1.091457307338714600e-01 7.489698380231857300e-02 -6.582728028297424316e-02
1.717026978731155396e-01 4.885163903236389160e-02 -4.819206520915031433e-02
-1.491998285055160522e-01 -7.145024836063385010e-02 -3.244467079639434814e-02
1.949032843112945557e-01 3.311690315604209900e-02 -2.539098449051380157e-02
-8.474165946245193481e-02 4.507213085889816284e-02 -7.059948891401290894e-02
-2.920900098979473114e-02 -6.552043557167053223e-02 7.692479994148015976e-03
9.397716820240020752e-02 -2.821592427790164948e-02 3.131560236215591431e-02
4.123533517122268677e-02 -4.514660686254501343e-04 7.780107855796813965e-02
-8.779763430356979370e-02 3.045937418937683105e-02 -7.611279189586639404e-02
-1.972607225179672241e-01 -5.954463034868240356e-02 -4.287819191813468933e-02
7.641191035509109497e-02 4.471070319414138794e-02 -7.301958650350570679e-02
-1.444906294345855713e-01 -7.416311651468276978e-02 2.276350557804107666e-02
7.761029899120330811e-02 9.394125640392303467e-02 -5.932936817407608032e-02
-1.614866405725479126e-02 8.772783726453781128e-02 3.888169303536415100e-02
6.053650379180908203e-02 1.650378666818141937e-02 -6.995404511690139771e-02
-9.173398464918136597e-02 7.740781456232070923e-02 -8.192577399313449860e-03
-1.355134695768356323e-02 3.975208848714828491e-02 -7.984058558940887451e-02
4.875351116061210632e-02 9.094516932964324951e-02 -6.038768216967582703e-02
-3.416486829519271851e-02 3.005998209118843079e-02 -8.068136125802993774e-02
-1.174790561199188232e-01 3.383493050932884216e-02 -6.835781037807464600e-02
-1.596395224332809448e-01 7.293030619621276855e-03 -6.700787693262100220e-02
1.596188098192214966e-01 1.180306449532508850e-01 -3.292345628142356873e-02
-9.218593686819076538e-02 -1.704744063317775726e-02 6.912910938262939453e-02
4.080196842551231384e-02 -4.512136429548263550e-02 3.112246282398700714e-02
2.175133228302001953e-01 1.060899049043655396e-01 4.631786793470382690e-02
-2.079870253801345825e-01 8.239373564720153809e-03 -4.059046134352684021e-02
1.150263696908950806e-01 1.244217902421951294e-02 -5.175863206386566162e-02
1.634075641632080078e-01 8.321397751569747925e-02 -5.362035334110260010e-02
2.334391325712203979e-01 1.187150701880455017e-01 2.182080037891864777e-02
1.080870926380157471e-01 1.264847517013549805e-01 5.566450767219066620e-03
-1.874957233667373657e-01 4.075866192579269409e-03 -5.754956603050231934e-02
-5.081958323717117310e-02 5.939842015504837036e-02 5.618825182318687439e-02
-1.793367713689804077e-01 2.792754955589771271e-02 1.555230468511581421e-02
5.883202701807022095e-02 7.328256964683532715e-03 7.885382324457168579e-02
4.419573396444320679e-02 -2.845240943133831024e-02 5.884411558508872986e-02
-1.275502443313598633e-01 6.252027302980422974e-02 -1.719398796558380127e-02
2.348730862140655518e-01 1.200870200991630554e-01 5.333239212632179260e-03
-1.663212031126022339e-01 9.977621957659721375e-03 4.219779744744300842e-02
1.814032495021820068e-01 1.096865832805633545e-01 5.002561956644058228e-02
-2.147684097290039062e-01 -5.534405261278152466e-02 -4.095515608787536621e-02
3.595630452036857605e-02 -4.941993206739425659e-02 3.902300260961055756e-03
1.954265087842941284e-01 1.170687973499298096e-01 3.986062854528427124e-02
-1.389646232128143311e-01 3.796743601560592651e-02 -5.751849710941314697e-02
1.808232963085174561e-01 1.813955605030059814e-02 -1.866444759070873260e-02
1.222745105624198914e-01 1.037276536226272583e-01 5.574810132384300232e-02
-6.808126717805862427e-02 8.468049764633178711e-02 -2.440806291997432709e-02
-1.079020723700523376e-01 -6.781564652919769287e-02 -3.467631340026855469e-02
-1.812667995691299438e-01 3.378548100590705872e-02 -2.616884000599384308e-02
1.818465441465377808e-01 5.581947788596153259e-02 -4.625923186540603638e-02
-1.428041420876979828e-02 -5.355194956064224243e-02 4.205894842743873596e-02
-1.052706018090248108e-01 1.763888262212276459e-02 6.266842037439346313e-02
2.259851545095443726e-01 7.522320002317428589e-02 -2.895632013678550720e-02
-8.782270550727844238e-02 7.685397565364837646e-02 -2.812751755118370056e-02
-2.296972833573818207e-02 7.684414088726043701e-02 -6.176908686757087708e-02
1.480544358491897583e-01 2.271298877894878387e-02 -4.464998468756675720e-02
-1.765471100807189941e-01 -7.819169759750366211e-02 -5.543921608477830887e-03
-4.102420434355735779e-02 3.302051499485969543e-02 7.311362773180007935e-02
2.361889034509658813e-01 6.196720898151397705e-02 4.495885968208312988e-02
-1.898044645786285400e-01 1.349601987749338150e-02 -5.026840046048164368e-02
-1.639552861452102661e-01 -9.187711402773857117e-03 5.058953166007995605e-02
-1.800400763750076294e-01 -8.176697418093681335e-03 4.349341616034507751e-02
7.187002152204513550e-02 4.694620147347450256e-02 8.121593296527862549e-02
4.470303189009428024e-03 7.804955542087554932e-02 5.751247704029083252e-02
-2.040732502937316895e-01 7.275911048054695129e-03 1.836864091455936432e-02
2.395092099905014038e-01 4.814586043357849121e-02 1.791621930897235870e-02
5.609320849180221558e-02 -3.620117902755737305e-02 -2.305475436151027679e-02
1.745987385511398315e-01 1.240645125508308411e-01 -2.097258530557155609e-02
1.055401042103767395e-01 1.038462370634078979e-01 -5.138078704476356506e-02
1.073723509907722473e-01 -1.797009818255901337e-02 -2.056959271430969238e-02
-6.991291791200637817e-02 4.652987048029899597e-02 -7.285027205944061279e-02
2.849264815449714661e-02 -3.215645253658294678e-02 5.911320075392723083e-02
-3.416106477379798889e-02 2.000757306814193726e-02 7.729665935039520264e-02
-8.578358218073844910e-03 1.877721026539802551e-02 -7.992720603942871094e-02
-3.222541138529777527e-02 8.951461315155029297e-02 -4.221332073211669922e-02
-1.962129771709442139e-01 -5.865897983312606812e-02 2.991052903234958649e-02
4.063717648386955261e-02 1.028286293148994446e-01 3.967380523681640625e-02
-2.780125848948955536e-02 5.211404711008071899e-02 -7.602081447839736938e-02
-5.408884491771459579e-03 7.101070135831832886e-02 6.074775010347366333e-02
-1.474602818489074707e-01 4.270879924297332764e-02 -4.723744839429855347e-02
-1.681612432003021240e-01 3.904902189970016479e-02 6.496233865618705750e-03
1.621648222208023071e-01 9.841364622116088867e-02 -4.866422712802886963e-02
-1.592258363962173462e-01 -7.879423350095748901e-02 3.393436316400766373e-03
-7.237560302019119263e-02 -4.496908187866210938e-02 -5.747238546609878540e-02
-5.096354335546493530e-02 -1.151684857904911041e-02 -7.544939965009689331e-02
1.397638618946075439e-01 1.270336210727691650e-01 -1.575606875121593475e-02
1.554537564516067505e-01 -1.253211870789527893e-03 -7.869401015341281891e-03
-1.238510385155677795e-01 -5.337852984666824341e-02 5.048153549432754517e-02
1.255500018596649170e-01 -1.802760548889636993e-02 2.159033343195915222e-02
-4.086778033524751663e-03 4.632222652435302734e-02 7.499487698078155518e-02
5.330356955528259277e-02 -3.217428177595138550e-02 5.097962543368339539e-02
1.269005145877599716e-02 1.871978864073753357e-02 8.164824545383453369e-02
-8.028732612729072571e-03 -5.860365182161331177e-02 -1.197340153157711029e-02
-1.183905079960823059e-01 6.554089486598968506e-02 3.193036827724426985e-04
-3.927501291036605835e-02 1.738893613219261169e-02 -8.091985434293746948e-02
6.951288878917694092e-02 -1.618155278265476227e-02 6.373155117034912109e-02
-2.041501849889755249e-01 -1.478797011077404022e-02 3.288886323571205139e-02
2.602771222591400146e-01 8.191278576850891113e-02 2.643633075058460236e-02
1.015179045498371124e-02 8.799490332603454590e-02 -5.802935361862182617e-02
2.445677667856216431e-01 1.030045747756958008e-01 -1.300675142556428909e-02
-6.782983988523483276e-02 -6.837899237871170044e-02 -2.074296399950981140e-02
-4.020339623093605042e-02 9.126978367567062378e-02 1.570561528205871582e-02
1.444821357727050781e-01 1.225526407361030579e-01 3.218456357717514038e-02
-7.222883403301239014e-02 1.543592754751443863e-02 -8.011727780103683472e-02
1.759173162281513214e-02 -3.545091301202774048e-02 -4.449490085244178772e-02
2.561027407646179199e-01 9.865104407072067261e-02 2.916062250733375549e-02
-1.145907789468765259e-01 -1.247098855674266815e-02 6.539117544889450073e-02
2.214953601360321045e-01 4.441026970744132996e-02 4.404678568243980408e-02
1.980389356613159180e-01 1.101566404104232788e-01 -3.214205428957939148e-02
-8.865411579608917236e-02 -6.030971556901931763e-02 -4.297841712832450867e-02
2.001297175884246826e-01 2.043607085943222046e-02 2.806907892227172852e-02
5.542246252298355103e-02 1.085909232497215271e-01 3.544408082962036133e-02
1.778416484594345093e-01 3.664318472146987915e-02 -3.916196152567863464e-02
7.095801830291748047e-02 9.746371209621429443e-02 5.481363087892532349e-02
9.431110322475433350e-02 8.351851254701614380e-02 -6.459353119134902954e-02
1.061838865280151367e-01 4.221886768937110901e-02 8.033341169357299805e-02
2.441205270588397980e-02 1.109514981508255005e-01 -2.067155949771404266e-02
2.513969689607620239e-02 -2.082162164151668549e-02 -5.699171125888824463e-02
-5.542104318737983704e-02 1.215501688420772552e-02 -8.062034845352172852e-02
-2.264150884002447128e-03 -2.755173109471797943e-02 6.811422109603881836e-02
-7.977209240198135376e-02 5.943270772695541382e-02 4.442592710256576538e-02
8.850124478340148926e-02 1.138402298092842102e-01 -3.883740678429603577e-02
-1.494281291961669922e-01 -5.824971944093704224e-02 -5.024972185492515564e-02
2.760402671992778778e-02 1.120063513517379761e-01 8.140990510582923889e-03
-2.207795381546020508e-01 -6.860356032848358154e-02 -1.680769957602024078e-02
6.872893869876861572e-02 -3.016067482531070709e-02 4.680794104933738708e-02
1.428625285625457764e-01 8.362926542758941650e-02 6.968760490417480469e-02
-1.683203727006912231e-01 -1.040933094918727875e-02 -6.751222163438796997e-02
-1.800126433372497559e-01 -2.015483565628528595e-02 4.596561193466186523e-02
5.025437846779823303e-02 8.732781559228897095e-02 6.029268354177474976e-02
1.155135333538055420e-01 -9.310176596045494080e-03 -2.944595180451869965e-02
-1.359067410230636597e-01 5.662361904978752136e-02 -2.960987016558647156e-02
-5.300582200288772583e-02 2.910379879176616669e-02 7.195859402418136597e-02
1.309732440859079361e-02 -2.313429303467273712e-02 -5.842431634664535522e-02
3.093637712299823761e-02 4.401214420795440674e-02 7.991849631071090698e-02
1.037855222821235657e-01 3.104059770703315735e-02 -6.467381864786148071e-02
1.677392870187759399e-01 4.107268899679183960e-02 6.935751438140869141e-02
-2.353936433792114258e-01 -8.200371637940406799e-03 -6.328031886368989944e-03
-1.513173133134841919e-01 4.996207356452941895e-02 -2.673366293311119080e-02
-1.622243970632553101e-01 -5.920396745204925537e-02 -4.866801574826240540e-02
1.448427289724349976e-01 1.194682419300079346e-01 -3.235615417361259460e-02
1.439066082239151001e-01 1.044418737292289734e-01 -4.806200414896011353e-02
1.449706107378005981e-01 1.132220104336738586e-01 4.695796594023704529e-02
-9.070628881454467773e-02 1.823042333126068115e-02 6.654108315706253052e-02
1.083751022815704346e-01 1.345880329608917236e-03 6.658042222261428833e-02
-8.559491485357284546e-02 1.045923400670289993e-02 -7.937546819448471069e-02
-5.354302749037742615e-02 -6.209342926740646362e-02 -3.000820428133010864e-02
-1.633990705013275146e-01 3.766430914402008057e-02 -4.183305799961090088e-02
-2.457815557718276978e-01 -4.789528250694274902e-02 -2.270927093923091888e-02
4.077635332942008972e-02 5.817930400371551514e-02 -7.561471313238143921e-02
1.101408228278160095e-01 -2.160979434847831726e-03 -4.145115986466407776e-02
1.508850604295730591e-02 1.031714454293251038e-01 2.711990103125572205e-02
1.837914586067199707e-01 8.692666143178939819e-02 6.425994634628295898e-02
1.791690587997436523e-01 9.999937377870082855e-03 -3.931555896997451782e-03
-1.053060069680213928e-01 -5.690339207649230957e-02 -4.975005984306335449e-02
-4.237187094986438751e-04 -5.876643210649490356e-02 -3.056025598198175430e-04
7.028373330831527710e-02 1.209480091929435730e-01 6.126820575445890427e-03
-1.233710125088691711e-01 5.810071527957916260e-02 1.687918044626712799e-02
2.523090243339538574e-01 8.124601095914840698e-02 3.740877658128738403e-02
-1.489296555519104004e-01 4.972821846604347229e-02 5.827637854963541031e-03
3.500564768910408020e-02 3.811100870370864868e-02 -7.788304239511489868e-02
-1.389475762844085693e-01 -3.425692021846771240e-02 -6.702651828527450562e-02
1.291367709636688232e-01 -7.027437910437583923e-03 -2.296380512416362762e-02
-3.972951695322990417e-02 6.598598510026931763e-02 -6.698589026927947998e-02
-5.157053843140602112e-02 -5.519369244575500488e-02 4.825254157185554504e-02
-4.564335942268371582e-02 4.404124617576599121e-02 6.757955253124237061e-02
-1.601131409406661987e-01 2.055760845541954041e-02 3.843554481863975525e-02
4.322427511215209961e-02 1.160712465643882751e-01 -1.254016533493995667e-02
3.886568173766136169e-02 1.125441491603851318e-01 1.702723838388919830e-02
-6.082223355770111084e-02 -7.093326002359390259e-02 -3.252364695072174072e-03
9.436870366334915161e-02 1.077413856983184814e-01 4.755802825093269348e-02
1.821390837430953979e-01 8.377556502819061279e-02 -4.822347313165664673e-02
-2.127317190170288086e-01 1.316529512405395508e-02 -2.279710397124290466e-02
-1.238351538777351379e-01 -7.242066413164138794e-02 2.725081145763397217e-02
6.167382001876831055e-02 -1.945542357861995697e-02 -4.540419206023216248e-02
-8.690818399190902710e-02 -3.873929381370544434e-05 7.072509080171585083e-02
-1.560456603765487671e-01 -7.072779536247253418e-02 2.780095860362052917e-02
1.258538663387298584e-01 1.271623075008392334e-01 -1.251816377043724060e-02
1.943099945783615112e-01 1.256845146417617798e-01 2.363162115216255188e-02
-2.084663063287734985e-01 -4.775559902191162109e-02 -4.846702516078948975e-02
-2.234778106212615967e-01 -4.524304717779159546e-02 -4.351900890469551086e-02
-5.540072452276945114e-03 7.379152625799179077e-02 -6.724990904331207275e-02
3.767818585038185120e-02 -2.789826132357120514e-02 -4.573557898402214050e-02
2.094449996948242188e-01 1.019244492053985596e-01 -3.324692323803901672e-02
7.973939180374145508e-02 -6.214883178472518921e-04 7.244262099266052246e-02
6.721917539834976196e-02 1.176087036728858948e-01 -2.514169923961162567e-02
-4.538133740425109863e-02 -3.294394910335540771e-02 -6.319106370210647583e-02
-2.260501831769943237e-01 -1.745427586138248444e-02 -4.369160532951354980e-02
-1.435618251562118530e-01 -4.896560311317443848e-02 5.039407312870025635e-02
-8.413190394639968872e-02 -1.300073601305484772e-02 -7.620176672935485840e-02
-2.796937711536884308e-02 4.366244748234748840e-02 7.172662019729614258e-02
1.454610973596572876e-01 6.878468394279479980e-02 -5.976282432675361633e-02
-4.478931799530982971e-02 5.568525940179824829e-02 -7.242993265390396118e-02
-1.217558011412620544e-01 2.151251956820487976e-02 5.551015213131904602e-02
8.705341815948486328e-02 1.616132631897926331e-02 -6.328196823596954346e-02
2.082782052457332611e-02 -3.974315524101257324e-02 5.219455808401107788e-02
-8.671043813228607178e-02 3.405040502548217773e-02 -4.887733757495880127e-01
8.318836987018585205e-02 -1.221473142504692078e-02 -3.304689824581146240e-01
-8.216884732246398926e-02 2.442476898431777954e-02 -4.533676803112030029e-01
3.658153116703033447e-02 1.261420547962188721e-02 -3.605532348155975342e-01
4.469896107912063599e-02 4.749687388539314270e-03 -3.293537497520446777e-01
8.464253693819046021e-02 7.922708056867122650e-03 -3.613340556621551514e-01
-4.273699223995208740e-02 -1.078360900282859802e-02 -3.698523640632629395e-01
-7.034092396497726440e-02 1.440955325961112976e-03 -4.486036002635955811e-01
-1.467957906424999237e-02 -1.513642445206642151e-02 -3.160280585289001465e-01
2.837113663554191589e-02 -2.056401968002319336e-02 -3.238949775695800781e-01
4.302617162466049194e-03 3.073454648256301880e-02 -5.278347730636596680e-01
-3.984662890434265137e-02 -6.088351830840110779e-03 -4.124568104743957520e-01
5.146641284227371216e-03 -1.596026122570037842e-04 -4.320380389690399170e-01
2.255073934793472290e-02 1.293226238340139389e-02 -4.677996337413787842e-01
-1.218780428171157837e-01 5.692445859313011169e-02 -6.575567722320556641e-01
-3.840557485818862915e-02 -3.813127055764198303e-03 -4.256527721881866455e-01
-1.240360438823699951e-01 2.832929603755474091e-02 -5.054466128349304199e-01
6.296667456626892090e-02 -2.597827836871147156e-02 -2.702900767326354980e-01
2.785028889775276184e-02 2.088532596826553345e-02 -3.964463472366333008e-01
-5.408054590225219727e-02 1.146628707647323608e-02 -3.948602080345153809e-01
7.817815989255905151e-02 2.909809350967407227e-03 -3.845204114913940430e-01
2.267892658710479736e-02 1.833228021860122681e-02 -3.853476047515869141e-01
-6.456440687179565430e-02 3.822357207536697388e-02 -4.927696883678436279e-01
-1.015015095472335815e-01 1.955968886613845825e-02 -5.360897779464721680e-01
2.124754339456558228e-02 2.580878883600234985e-02 -5.013839006423950195e-01
-9.921148419380187988e-02 7.287498563528060913e-03 -4.564267396926879883e-01
9.094152599573135376e-03 4.685761407017707825e-03 -4.488194882869720459e-01
9.539628028869628906e-02 -1.548178121447563171e-02 -3.011649847030639648e-01
-2.279410138726234436e-03 4.920287057757377625e-03 -4.554537236690521240e-01
-1.270617991685867310e-01 5.014988407492637634e-02 -5.819348096847534180e-01
-5.937783420085906982e-02 4.304022714495658875e-02 -6.030483245849609375e-01
6.153403222560882568e-02 -8.567616343498229980e-03 -3.646757304668426514e-01
-8.627048134803771973e-02 3.647993505001068115e-02 -4.974612593650817871e-01
-3.429625183343887329e-02 4.232015460729598999e-02 -5.032868981361389160e-01
-1.339288987219333649e-02 -4.053242504596710205e-03 -4.216215014457702637e-01
-7.054643332958221436e-02 -1.838166266679763794e-03 -4.234340488910675049e-01
-9.484831988811492920e-02 3.410424292087554932e-02 -4.946437180042266846e-01
3.384904935956001282e-02 2.518164739012718201e-02 -4.189713299274444580e-01
-3.805849701166152954e-02 3.961393237113952637e-02 -4.902083873748779297e-01
-7.853446900844573975e-02 4.289351403713226318e-02 -5.191916227340698242e-01
-4.545181989669799805e-03 2.811940014362335205e-02 -5.299744606018066406e-01
1.942608505487442017e-04 -5.691343918442726135e-03 -4.101904332637786865e-01
-5.563424527645111084e-02 2.184107340872287750e-02 -4.269988536834716797e-01
-7.180477678775787354e-02 9.431634098291397095e-04 -3.942387700080871582e-01
-1.819213666021823883e-02 4.753646254539489746e-02 -5.506030321121215820e-01
1.777459681034088135e-02 1.278885267674922943e-02 -3.640620112419128418e-01
-1.001838371157646179e-01 8.522924967110157013e-03 -4.465580582618713379e-01
2.973319962620735168e-02 2.982097305357456207e-02 -4.447152018547058105e-01
-1.373167335987091064e-02 1.813624612987041473e-02 -3.935462236404418945e-01
3.458287566900253296e-02 -7.966510951519012451e-03 -3.851187229156494141e-01
-8.302846550941467285e-02 5.624216981232166290e-03 -4.131987094879150391e-01
-1.185126751661300659e-01 1.906840316951274872e-02 -4.818743169307708740e-01
-1.523239314556121826e-01 3.849186003208160400e-02 -5.908386707305908203e-01
4.543337970972061157e-03 -1.084112189710140228e-02 -3.014644980430603027e-01
-9.945941716432571411e-02 2.486506104469299316e-02 -5.593413710594177246e-01
2.653008326888084412e-02 2.817621082067489624e-02 -4.330666363239288330e-01
-4.588761180639266968e-02 1.009661704301834106e-03 -3.639506101608276367e-01
-4.315634071826934814e-02 2.022369578480720520e-02 -5.291384458541870117e-01
-3.215391561388969421e-02 4.273150116205215454e-03 -3.602745234966278076e-01
5.555336177349090576e-02 -1.738932356238365173e-02 -2.620393633842468262e-01
-5.768425017595291138e-02 5.572199448943138123e-02 -6.008820533752441406e-01
-6.778244674205780029e-02 2.828207612037658691e-02 -4.562616348266601562e-01
-8.627724647521972656e-02 2.245266735553741455e-02 -5.488858819007873535e-01
6.953710317611694336e-02 -1.778595522046089172e-02 -3.188707530498504639e-01
2.524720504879951477e-02 3.240632638335227966e-02 -4.592089056968688965e-01
-9.911064058542251587e-02 9.829562157392501831e-03 -4.834206104278564453e-01
-7.082833349704742432e-02 1.504992600530385971e-02 -5.167869925498962402e-01
5.969610065221786499e-02 -1.330728828907012939e-02 -2.699211239814758301e-01
6.687375158071517944e-02 -2.151883766055107117e-02 -3.013530373573303223e-01
-3.479025512933731079e-02 4.723988473415374756e-02 -5.320223569869995117e-01
4.638852924108505249e-02 2.145209535956382751e-02 -4.036524891853332520e-01
1.379171758890151978e-02 2.687807194888591766e-02 -5.110501646995544434e-01
-6.126170232892036438e-02 -1.121915876865386963e-03 -4.365363121032714844e-01
3.659527748823165894e-02 -1.473089307546615601e-02 -3.535286784172058105e-01
1.641464233398437500e-02 -5.386283621191978455e-03 -3.065531849861145020e-01
9.450607001781463623e-02 -1.621218025684356689e-02 -2.642620205879211426e-01
9.532500058412551880e-02 -2.641165629029273987e-03 -3.415828943252563477e-01
7.832788676023483276e-02 1.110208965837955475e-02 -3.710102140903472900e-01
7.930160313844680786e-02 3.074947744607925415e-04 -3.763719797134399414e-01
1.022152230143547058e-02 -3.357045352458953857e-03 -3.149482607841491699e-01
-6.978022307157516479e-02 4.986719042062759399e-02 -6.222597360610961914e-01
7.842614501714706421e-02 7.374393753707408905e-03 -3.929581046104431152e-01
-1.759522408246994019e-02 2.632179111242294312e-02 -5.347672104835510254e-01
-1.115807592868804932e-01 1.272523216903209686e-02 -4.853776693344116211e-01
1.983028277754783630e-02 5.318068899214267731e-03 -4.448339045047760010e-01
-4.214685410261154175e-02 4.007887467741966248e-02 -5.852693319320678711e-01
-5.782707408070564270e-02 1.872626692056655884e-02 -5.287960767745971680e-01
-7.735993713140487671e-03 1.220212318003177643e-02 -3.703563809394836426e-01
-4.075486212968826294e-04 -2.001463249325752258e-02 -3.182207942008972168e-01
7.661321759223937988e-02 -1.236177422106266022e-02 -2.703416347503662109e-01
-7.412791252136230469e-02 5.765368416905403137e-02 -6.045982837677001953e-01
8.040571957826614380e-02 -7.398886606097221375e-03 -3.512746989727020264e-01
4.608963429927825928e-02 -9.795404970645904541e-03 -2.828091979026794434e-01
-1.329412460327148438e-01 5.942296236753463745e-02 -6.396220922470092773e-01
-1.022781133651733398e-01 3.686937689781188965e-02 -5.099647641181945801e-01
9.008081257343292236e-02 -1.361084170639514923e-02 -3.167100846767425537e-01
-1.779685169458389282e-02 3.268410451710224152e-03 -3.482808768749237061e-01
7.130175828933715820e-02 -6.820280104875564575e-03 -2.872412204742431641e-01
1.018831506371498108e-01 -1.082560606300830841e-02 -2.895103693008422852e-01
8.939667791128158569e-02 5.157281644642353058e-03 -3.543360829353332520e-01
8.897917717695236206e-02 -5.185261368751525879e-03 -2.969586849212646484e-01
-1.308398842811584473e-01 5.113088712096214294e-02 -5.897036790847778320e-01
-3.071548976004123688e-02 -1.262496225535869598e-02 -3.692390620708465576e-01
-9.962178766727447510e-03 2.051167003810405731e-02 -4.010717570781707764e-01
-6.839687377214431763e-02 -3.215331584215164185e-03 -4.117612838745117188e-01
4.556740075349807739e-02 1.120538264513015747e-02 -4.432005286216735840e-01
-1.404976993799209595e-01 5.670206993818283081e-02 -6.288191676139831543e-01
-9.089830517768859863e-02 5.922275781631469727e-02 -6.160743236541748047e-01
-4.511727392673492432e-02 4.560535773634910583e-02 -5.219858288764953613e-01
-6.101541221141815186e-02 2.123985625803470612e-02 -5.390478372573852539e-01
-1.291052401065826416e-01 3.736872225999832153e-02 -5.362461805343627930e-01
6.869564205408096313e-02 1.579198427498340607e-02 -3.886784911155700684e-01
-9.984219074249267578e-02 1.238219439983367920e-02 -4.993755817413330078e-01
-2.328062243759632111e-02 4.718766361474990845e-02 -5.366566181182861328e-01
-6.278437376022338867e-02 4.362090677022933960e-02 -5.160254240036010742e-01
6.319759041070938110e-02 1.921843923628330231e-02 -4.292897582054138184e-01
-1.119115725159645081e-01 4.515143856406211853e-02 -6.306927204132080078e-01
-5.612023919820785522e-02 1.421804074198007584e-02 -4.039230644702911377e-01
3.230580687522888184e-02 1.020057685673236847e-02 -4.519805908203125000e-01
-4.388290643692016602e-02 -9.909965097904205322e-03 -3.806517720222473145e-01
-2.955580130219459534e-02 2.573066204786300659e-02 -4.280564188957214355e-01
-1.387088447809219360e-01 5.056363344192504883e-02 -5.951836705207824707e-01
4.436744004487991333e-02 -2.489788830280303955e-02 -2.638849914073944092e-01
1.839933171868324280e-02 3.492776304483413696e-02 -4.719525277614593506e-01
3.467171639204025269e-02 1.767889037728309631e-02 -4.702254533767700195e-01
-1.105992943048477173e-01 5.430571734905242920e-02 -5.900045633316040039e-01
5.603732168674468994e-02 1.484179124236106873e-02 -4.398970305919647217e-01
4.188536852598190308e-02 2.760122157633304596e-02 -4.726504981517791748e-01
9.987925738096237183e-02 -1.555990800261497498e-02 -2.712895870208740234e-01
-5.512653291225433350e-02 6.387185305356979370e-03 -3.832304477691650391e-01
-4.219171032309532166e-02 4.809763282537460327e-02 -5.365316271781921387e-01
-8.783555030822753906e-02 1.055475696921348572e-02 -4.945818185806274414e-01
-3.253653272986412048e-02 9.677594527602195740e-03 -4.860903322696685791e-01
-6.598041951656341553e-02 1.086173579096794128e-03 -3.858473896980285645e-01
-4.206844046711921692e-02 2.718004398047924042e-02 -5.514096617698669434e-01
-1.086050420999526978e-01 4.080780223011970520e-02 -6.173224449157714844e-01
-9.905148297548294067e-02 2.525279670953750610e-02 -4.700787067413330078e-01
-7.869650423526763916e-02 1.463913545012474060e-02 -4.234980344772338867e-01
-7.738608866930007935e-03 7.888635620474815369e-03 -3.563306331634521484e-01
-1.422706544399261475e-01 3.928153216838836670e-02 -6.090028285980224609e-01
-6.404099613428115845e-02 2.792577445507049561e-02 -5.633321404457092285e-01
-6.834760308265686035e-02 5.474081262946128845e-02 -5.796067118644714355e-01
-9.394560754299163818e-02 4.819710552692413330e-02 -5.507150888442993164e-01
-6.769211590290069580e-02 2.999261021614074707e-03 -4.589239954948425293e-01
5.022564530372619629e-02 -1.514492928981781006e-02 -3.444148004055023193e-01
-2.261046878993511200e-02 8.660735562443733215e-03 -4.785455167293548584e-01
4.884203523397445679e-02 -2.255407348275184631e-02 -3.050257563591003418e-01
-7.623708248138427734e-02 4.042338579893112183e-02 -5.075037479400634766e-01
5.114246159791946411e-03 -1.530304178595542908e-02 -3.597208857536315918e-01
-2.581074647605419159e-02 3.571435064077377319e-02 -4.693136513233184814e-01
3.486350923776626587e-02 -2.141693606972694397e-02 -3.169283270835876465e-01
-2.204978652298450470e-02 4.846285283565521240e-02 -5.614603161811828613e-01
1.942354813218116760e-02 -1.566664874553680420e-02 -3.550340831279754639e-01
-7.516998052597045898e-02 2.394717745482921600e-02 -5.527418851852416992e-01
-9.732950478792190552e-02 5.553277209401130676e-02 -5.902925133705139160e-01
-7.558282464742660522e-02 3.668328002095222473e-02 -5.950579643249511719e-01
7.087357342243194580e-03 -2.124974131584167480e-02 -3.110685944557189941e-01
-9.783137589693069458e-02 5.170076340436935425e-02 -6.413186788558959961e-01
-1.277761012315750122e-01 2.173399180173873901e-02 -5.305420160293579102e-01
3.007058054208755493e-02 -1.261185854673385620e-03 -4.145105779170989990e-01
-2.273411117494106293e-02 1.237981952726840973e-02 -3.779287934303283691e-01
-1.471921205520629883e-01 3.493255749344825745e-02 -5.596672296524047852e-01
-9.916631504893302917e-03 4.373942315578460693e-02 -5.178488492965698242e-01
2.765792608261108398e-02 -2.229349687695503235e-02 -3.114078342914581299e-01
-1.420593559741973877e-01 4.395024478435516357e-02 -6.263360977172851562e-01
-3.555430471897125244e-02 5.086662992835044861e-02 -5.848028659820556641e-01
4.179660230875015259e-02 2.896622754633426666e-02 -4.565421044826507568e-01
-1.059597432613372803e-01 1.699106022715568542e-02 -5.219774246215820312e-01
-4.104496166110038757e-02 4.134699702262878418e-04 -4.474433958530426025e-01
-7.798707485198974609e-02 9.230578318238258362e-03 -4.899890422821044922e-01
7.335459440946578979e-02 -5.396241322159767151e-03 -3.656648397445678711e-01
-2.992480993270874023e-02 3.731331974267959595e-02 -4.776154160499572754e-01
-7.379385828971862793e-02 1.172101311385631561e-02 -5.022860765457153320e-01
5.782824009656906128e-04 3.395369648933410645e-02 -5.370999574661254883e-01
-5.263132601976394653e-02 3.794464096426963806e-02 -5.871655941009521484e-01
4.126258194446563721e-03 3.474745899438858032e-02 -4.639562666416168213e-01
-9.868314489722251892e-03 -1.808557659387588501e-02 -3.322252035140991211e-01
-4.218869656324386597e-02 1.708402112126350403e-02 -5.175889134407043457e-01
2.200874313712120056e-02 9.100538678467273712e-03 -4.561960101127624512e-01
-1.359920054674148560e-01 3.648863732814788818e-02 -6.007967591285705566e-01
-4.169280454516410828e-02 3.382739797234535217e-02 -4.652018845081329346e-01
3.613876551389694214e-02 3.393360413610935211e-03 -4.271861016750335693e-01
3.663269430398941040e-02 -2.486293762922286987e-02 -2.726575434207916260e-01
-3.574099764227867126e-02 3.184239566326141357e-02 -4.548302888870239258e-01
-6.441589444875717163e-02 3.131141886115074158e-02 -4.653215706348419189e-01
5.942574143409729004e-02 1.926278322935104370e-02 -4.005214273929595947e-01
-8.855114877223968506e-02 5.980297178030014038e-02 -6.288848519325256348e-01
-2.789823710918426514e-02 2.891429141163825989e-02 -4.401318728923797607e-01
3.196466714143753052e-03 1.683849282562732697e-02 -4.933848679065704346e-01
-1.774698123335838318e-02 -9.566992521286010742e-04 -4.369249939918518066e-01
-1.126636713743209839e-01 4.030148684978485107e-02 -5.305643677711486816e-01
-1.102114990353584290e-01 2.139087021350860596e-02 -5.425752997398376465e-01
-3.512457758188247681e-02 6.795539520680904388e-03 -4.751517474651336670e-01
6.706387549638748169e-02 8.584037423133850098e-04 -3.922605514526367188e-01
-1.672336272895336151e-02 3.595408797264099121e-02 -4.692679345607757568e-01
-2.420938014984130859e-02 9.235627949237823486e-04 -4.469950199127197266e-01
5.113082379102706909e-02 1.083904411643743515e-02 -3.533328473567962646e-01
-4.506126046180725098e-03 -1.506716758012771606e-02 -3.613073527812957764e-01
8.429714292287826538e-02 -2.135675400495529175e-02 -2.513918280601501465e-01
-8.861845731735229492e-02 5.397658795118331909e-02 -5.779945850372314453e-01
-5.037858337163925171e-02 1.261637359857559204e-02 -5.030052065849304199e-01
1.555388048291206360e-02 8.558357134461402893e-03 -3.493782579898834229e-01
2.126710861921310425e-02 -1.941148191690444946e-03 -4.169467687606811523e-01
-4.225483164191246033e-02 4.424003139138221741e-02 -5.929131507873535156e-01
3.019749745726585388e-02 2.044311724603176117e-02 -4.810616075992584229e-01
1.981584355235099792e-02 -2.098134160041809082e-02 -3.214608430862426758e-01
9.893596172332763672e-03 1.908046938478946686e-02 -3.902707695960998535e-01
8.006066828966140747e-02 -7.177138701081275940e-03 -2.867678403854370117e-01
-1.233890205621719360e-01 4.461807012557983398e-02 -5.559092164039611816e-01
1.648827269673347473e-02 -2.217392995953559875e-02 -3.093631565570831299e-01
-4.813903942704200745e-03 -1.483451575040817261e-02 -3.043818473815917969e-01
2.014244347810745239e-02 3.647758439183235168e-02 -5.044073462486267090e-01
-2.153708040714263916e-02 4.577765241265296936e-02 -5.262635946273803711e-01
5.837026983499526978e-03 3.252002224326133728e-02 -4.520403444766998291e-01
-1.414025723934173584e-01 5.095612257719039917e-02 -6.470904946327209473e-01
8.460661023855209351e-02 -2.368057891726493835e-02 -2.701942324638366699e-01
-1.839861646294593811e-02 -1.599297672510147095e-02 -3.473249673843383789e-01
9.424570947885513306e-02 7.458440959453582764e-04 -3.329682350158691406e-01
-9.014621376991271973e-02 6.135260686278343201e-03 -4.256773293018341064e-01
3.966729342937469482e-02 1.421586796641349792e-02 -4.567877948284149170e-01
-4.483226686716079712e-02 -8.391980081796646118e-03 -3.942803144454956055e-01
7.031649351119995117e-03 7.080259732902050018e-03 -3.473701477050781250e-01
-9.693568944931030273e-02 5.779009312391281128e-02 -6.047539114952087402e-01
-1.211764588952064514e-01 5.245952308177947998e-02 -5.878041982650756836e-01
-1.157218292355537415e-01 4.202847927808761597e-02 -6.221791505813598633e-01
2.306694164872169495e-03 2.222518436610698700e-02 -4.046234488487243652e-01
-5.060517042875289917e-02 1.762105897068977356e-02 -5.224736928939819336e-01
-4.596014320850372314e-02 5.314608104526996613e-03 -3.731418550014495850e-01
-1.504749357700347900e-01 4.175114631652832031e-02 -6.121793389320373535e-01
-5.433254688978195190e-02 1.023592241108417511e-02 -4.939530193805694580e-01
9.947740286588668823e-02 -9.798722341656684875e-03 -3.144742548465728760e-01
4.445210099220275879e-02 -2.488562837243080139e-02 -2.878966629505157471e-01
-1.128085404634475708e-01 5.082646757364273071e-02 -6.450442075729370117e-01
9.505058825016021729e-02 -1.981548592448234558e-02 -2.796490788459777832e-01
-1.884341239929199219e-02 1.512150559574365616e-02 -3.850840330123901367e-01
3.191364184021949768e-02 1.815452240407466888e-02 -3.842304646968841553e-01
4.581990838050842285e-02 2.731341682374477386e-02 -4.476809799671173096e-01
-1.260294318199157715e-01 6.074362248182296753e-02 -6.482710242271423340e-01
-1.436064299196004868e-02 3.972826153039932251e-02 -4.892514348030090332e-01
-8.040672540664672852e-02 5.331376567482948303e-03 -4.678017199039459229e-01
7.220660895109176636e-02 -2.371953427791595459e-02 -2.836159467697143555e-01
-9.556738287210464478e-02 4.559750109910964966e-02 -5.399307608604431152e-01
-3.972036018967628479e-02 2.147320657968521118e-02 -4.169356524944305420e-01
-9.584721177816390991e-03 3.501761332154273987e-02 -5.488674044609069824e-01
7.325950264930725098e-02 4.714969545602798462e-03 -3.314906358718872070e-01
-2.432712726294994354e-02 4.619736224412918091e-03 -3.559660911560058594e-01
-1.470752209424972534e-01 3.850882500410079956e-02 -6.019140481948852539e-01
-1.027710363268852234e-01 4.778767377138137817e-02 -5.538449883460998535e-01
-3.721879795193672180e-02 -1.210640184581279755e-02 -3.523180782794952393e-01
-4.806932061910629272e-02 2.907282672822475433e-03 -4.600264728069305420e-01
2.078912779688835144e-02 1.501504518091678619e-02 -3.720337152481079102e-01
-7.993008941411972046e-02 2.096723206341266632e-02 -5.422026515007019043e-01
-3.739129006862640381e-02 2.322089299559593201e-02 -5.366436839103698730e-01
-5.234423279762268066e-02 -6.545912474393844604e-04 -4.416565597057342529e-01
-3.987354785203933716e-02 1.287677697837352753e-02 -3.891597390174865723e-01
-7.864654064178466797e-02 1.853742077946662903e-02 -4.334582388401031494e-01
3.584971278905868530e-02 -1.359008252620697021e-03 -3.104497194290161133e-01
-5.892626568675041199e-02 5.509256571531295776e-02 -5.857622027397155762e-01
1.174462214112281799e-02 3.249514475464820862e-02 -5.226173400878906250e-01
-2.796917408704757690e-02 -1.370741799473762512e-02 -3.357188701629638672e-01
-7.821147143840789795e-02 2.610454522073268890e-02 -5.613361597061157227e-01
3.269307315349578857e-02 -4.537390545010566711e-03 -3.019253611564636230e-01
-6.095169484615325928e-02 3.895784914493560791e-02 -5.943924784660339355e-01
2.557081356644630432e-02 6.027277559041976929e-03 -3.377067744731903076e-01
-1.132509931921958923e-01 1.374734193086624146e-02 -4.734404087066650391e-01
-4.376636818051338196e-02 2.410135231912136078e-02 -5.424717068672180176e-01
-2.724988944828510284e-02 -1.457566767930984497e-02 -3.492357730865478516e-01
-1.095544993877410889e-01 2.658088132739067078e-02 -5.659477710723876953e-01
-8.279971778392791748e-03 1.897937059402465820e-02 -5.073088407516479492e-01
7.446365803480148315e-02 1.375980023294687271e-02 -4.034065902233123779e-01
-8.809420466423034668e-02 1.228874642401933670e-02 -5.035380721092224121e-01
-1.313450746238231659e-02 7.370125502347946167e-03 -4.697096943855285645e-01
-9.734566509723663330e-02 3.010682016611099243e-02 -5.794259905815124512e-01
-8.979929238557815552e-02 4.392374679446220398e-02 -5.294509530067443848e-01
6.777234375476837158e-02 1.197060849517583847e-02 -3.639521598815917969e-01
-1.227860897779464722e-01 3.640714287757873535e-02 -6.034330725669860840e-01
-1.927706040441989899e-02 3.342437744140625000e-02 -4.575110077857971191e-01
-1.379417777061462402e-01 2.717313915491104126e-02 -5.305614471435546875e-01
-1.365273892879486084e-01 4.168675839900970459e-02 -5.587764382362365723e-01
-1.672747917473316193e-02 2.097943983972072601e-02 -5.185575485229492188e-01
-8.686855435371398926e-02 4.454753361642360687e-03 -4.566260576248168945e-01
-6.007026135921478271e-02 -3.426931798458099365e-03 -4.214479327201843262e-01
5.532171577215194702e-02 -1.846660301089286804e-02 -3.251590430736541748e-01
-8.693471550941467285e-03 1.524053327739238739e-02 -4.955717921257019043e-01
7.509088516235351562e-02 -2.043700590729713440e-02 -2.521758377552032471e-01
-5.800959095358848572e-02 5.410998687148094177e-02 -5.767631530761718750e-01
-2.818418107926845551e-02 4.973671212792396545e-02 -5.719788074493408203e-01
-8.736019954085350037e-03 3.093142807483673096e-02 -4.444314837455749512e-01
-1.328839361667633057e-01 3.027212806046009064e-02 -5.749298930168151855e-01
-7.876906543970108032e-03 1.308005303144454956e-03 -3.371632397174835205e-01
7.977847009897232056e-03 -2.005849778652191162e-02 -3.265540301799774170e-01
1.533098518848419189e-02 1.028362661600112915e-03 -4.316949546337127686e-01
1.376341283321380615e-02 -1.292121037840843201e-02 -3.711183667182922363e-01
6.198284029960632324e-02 2.160792239010334015e-03 -3.189021348953247070e-01
-1.101722121238708496e-01 3.265187516808509827e-02 -5.023547410964965820e-01
4.511734470725059509e-03 -1.172240264713764191e-02 -3.796695172786712646e-01
1.135364174842834473e-02 1.690398901700973511e-02 -4.878995716571807861e-01
2.287773787975311279e-02 -6.411820650100708008e-03 -3.977952003479003906e-01
-4.812076687812805176e-03 3.870551288127899170e-02 -4.850286245346069336e-01
-1.720461249351501465e-02 3.935541026294231415e-03 -4.577144384384155273e-01
2.515107393264770508e-02 -1.353073678910732269e-02 -3.642470240592956543e-01
-1.083857044577598572e-01 2.029730379581451416e-02 -4.680377542972564697e-01
2.544225007295608521e-02 9.180099703371524811e-03 -3.489417731761932373e-01
-9.912072122097015381e-02 4.016721993684768677e-02 -6.132495403289794922e-01
1.717583462595939636e-02 -1.220023259520530701e-02 -2.906888127326965332e-01
-6.218692660331726074e-02 3.590214252471923828e-02 -4.821011424064636230e-01
5.302315205335617065e-02 -2.579255774617195129e-02 -2.764909267425537109e-01
3.827594220638275146e-02 -9.398631751537322998e-03 -3.769716024398803711e-01
3.264993429183959961e-02 2.868578769266605377e-02 -4.904395341873168945e-01
8.019481599330902100e-02 -1.511341705918312073e-02 -3.216633796691894531e-01
4.315616935491561890e-02 3.734119236469268799e-04 -4.116200506687164307e-01
-1.961401104927062988e-02 4.302701354026794434e-02 -5.080856680870056152e-01
7.257864624261856079e-02 2.610395662486553192e-03 -3.222282826900482178e-01
1.573977246880531311e-02 4.293110221624374390e-03 -3.350436389446258545e-01
5.096682161092758179e-02 1.445525139570236206e-02 -3.694976270198822021e-01
-9.468900039792060852e-03 -1.030697673559188843e-02 -3.895063996315002441e-01
-7.527714967727661133e-02 1.757289469242095947e-02 -5.278512835502624512e-01
2.832500636577606201e-02 -2.320298925042152405e-02 -2.750370800495147705e-01
-2.648681774735450745e-02 -1.067489199340343475e-02 -3.865281343460083008e-01
-9.281872957944869995e-02 7.723993621766567230e-03 -4.748014509677886963e-01
-6.969988346099853516e-03 4.198093712329864502e-02 -5.059814453125000000e-01
-1.163873896002769470e-01 1.893110573291778564e-02 -5.263294577598571777e-01
3.309665247797966003e-03 -1.697530224919319153e-02 -2.956091165542602539e-01
5.550266802310943604e-02 -4.894340410828590393e-03 -2.947733998298645020e-01
-1.189185306429862976e-02 -3.964999690651893616e-03 -3.266575336456298828e-01
-5.102351307868957520e-02 3.304416313767433167e-02 -4.655832946300506592e-01
-1.098403483629226685e-01 6.103878468275070190e-02 -6.454977989196777344e-01
-1.138647198677062988e-01 5.881088227033615112e-02 -6.190187931060791016e-01
7.370634377002716064e-02 9.132132865488529205e-03 -3.529939055442810059e-01
-1.007609367370605469e-01 5.867232382297515869e-02 -6.124045848846435547e-01
-1.419558376073837280e-01 4.457292705774307251e-02 -5.754853487014770508e-01
-1.367869079113006592e-01 4.791660606861114502e-02 -6.399849653244018555e-01
6.458561122417449951e-02 6.180095486342906952e-03 -3.353864550590515137e-01
4.521283507347106934e-02 -1.042739115655422211e-02 -3.685054779052734375e-01
3.559280559420585632e-02 2.649367228150367737e-02 -4.273265600204467773e-01
-7.954502105712890625e-02 4.520661383867263794e-02 -6.191751360893249512e-01
9.227868169546127319e-02 -2.891408279538154602e-03 -3.090413808822631836e-01
-4.255566000938415527e-02 1.717215776443481445e-02 -4.040767550468444824e-01
-4.841555282473564148e-02 5.239550024271011353e-02 -6.028137803077697754e-01
-9.833736717700958252e-02 5.275224149227142334e-02 -5.752859711647033691e-01
-8.478916436433792114e-02 3.994698077440261841e-02 -5.101101994514465332e-01
-8.711180090904235840e-02 2.553468942642211914e-02 -5.609691739082336426e-01
7.653741538524627686e-02 1.306062750518321991e-02 -3.847690224647521973e-01
-1.875559240579605103e-02 2.525223046541213989e-02 -4.224000573158264160e-01
7.604344934225082397e-02 1.021235249936580658e-02 -3.612242043018341064e-01
-6.762450933456420898e-02 2.562702447175979614e-02 -4.470414221286773682e-01
-3.430725634098052979e-02 9.745720773935317993e-03 -3.765100538730621338e-01
4.524949938058853149e-02 1.849270984530448914e-02 -3.875735402107238770e-01
6.927655637264251709e-02 -2.603411301970481873e-02 -2.563551366329193115e-01
-8.739398419857025146e-02 4.848594963550567627e-02 -6.301843523979187012e-01
4.855927079916000366e-02 -1.328353025019168854e-02 -3.539633452892303467e-01
-2.121045626699924469e-02 2.110405825078487396e-02 -4.073191285133361816e-01
3.396138921380043030e-02 2.093629911541938782e-03 -3.221330046653747559e-01
3.948462754487991333e-02 6.872391328215599060e-03 -4.359788596630096436e-01
-6.274664402008056641e-02 -5.215369164943695068e-03 -3.979258239269256592e-01
-1.212258040904998779e-01 4.290172457695007324e-02 -5.474607944488525391e-01
5.144410580396652222e-02 -2.683207392692565918e-03 -3.025663793087005615e-01
-2.773700840771198273e-02 1.729651540517807007e-02 -5.122964978218078613e-01
-1.231178492307662964e-01 2.509698085486888885e-02 -4.974367022514343262e-01
4.571815580129623413e-02 -1.887933164834976196e-02 -3.280578851699829102e-01
-9.194790571928024292e-02 1.999352127313613892e-02 -5.389639735221862793e-01
7.845474779605865479e-02 -9.698178619146347046e-04 -3.093052506446838379e-01
4.800382256507873535e-02 -3.278860822319984436e-03 -3.949510157108306885e-01
-5.607189983129501343e-02 1.759209856390953064e-02 -4.137962758541107178e-01
-7.423014938831329346e-02 5.212629213929176331e-02 -5.632833838462829590e-01
-5.938206985592842102e-02 -2.971520647406578064e-03 -3.749174177646636963e-01
-1.391884833574295044e-01 3.431116044521331787e-02 -5.413975119590759277e-01
1.123890653252601624e-02 3.361830115318298340e-02 -4.593146741390228271e-01
-1.815686188638210297e-02 -2.016400918364524841e-03 -3.353741466999053955e-01
9.102630615234375000e-02 -7.837979122996330261e-03 -3.362210690975189209e-01
-1.000319942831993103e-01 3.724482655525207520e-02 -6.043999791145324707e-01
-1.095372885465621948e-01 4.483881592750549316e-02 -5.457489490509033203e-01
-7.196206599473953247e-03 2.629866451025009155e-02 -4.236559271812438965e-01
-6.856953352689743042e-02 1.798593811690807343e-02 -4.238560497760772705e-01
-1.309562623500823975e-01 2.376579307019710541e-02 -5.398203730583190918e-01
2.297228947281837463e-02 1.881335861980915070e-03 -3.247700929641723633e-01
-1.173940077424049377e-01 2.550662308931350708e-02 -4.904338121414184570e-01
5.433794111013412476e-02 -2.621022984385490417e-02 -2.669979035854339600e-01
1.984145492315292358e-02 -1.847362145781517029e-02 -3.386666774749755859e-01
-1.081486940383911133e-01 3.776359930634498596e-02 -5.177428126335144043e-01
-2.785038761794567108e-02 3.353701904416084290e-03 -4.585800170898437500e-01
-2.095134928822517395e-03 -2.988185733556747437e-03 -3.226693868637084961e-01
-8.722589164972305298e-02 4.606784135103225708e-02 -5.375319123268127441e-01
5.690117180347442627e-02 -2.349598333239555359e-03 -3.912934660911560059e-01
-1.210676282644271851e-01 3.167860954999923706e-02 -5.854113101959228516e-01
6.510654836893081665e-02 -2.495996654033660889e-03 -3.019068837165832520e-01
-8.052772283554077148e-02 2.114651352167129517e-02 -4.423211216926574707e-01
