1.052080914378166199e-01 -6.082651019096374512e-02 8.676870912313461304e-02
1.293799281120300293e-01 1.062341034412384033e-04 2.200443148612976074e-01
1.307408660650253296e-01 -2.014547586441040039e-03 2.384762912988662720e-01
1.182444244623184204e-01 7.251648232340812683e-03 1.744778826832771301e-02
1.380609720945358276e-01 -4.985027387738227844e-02 -1.795489788055419922e-01
1.677019596099853516e-01 -4.235035926103591919e-02 1.648117154836654663e-01
8.847622573375701904e-02 -5.051517859101295471e-03 -1.929530501365661621e-01
1.773141622543334961e-01 -2.084342762827873230e-03 4.545039683580398560e-02
3.701493144035339355e-03 -3.925264626741409302e-02 2.859543561935424805e-01
1.758950352668762207e-01 -4.557049274444580078e-02 7.841303944587707520e-02
-8.968338370323181152e-03 -2.493223547935485840e-02 -1.707953661680221558e-01
1.922308802604675293e-01 -8.203754201531410217e-03 3.001113049685955048e-02
1.802414059638977051e-01 -6.239503622055053711e-03 1.295360922813415527e-01
-1.574146002531051636e-02 -5.171116441488265991e-02 1.546162813901901245e-01
7.922522723674774170e-03 -3.915298730134963989e-04 7.256092131137847900e-02
1.995740681886672974e-01 -2.486695721745491028e-02 1.020470708608627319e-01
-1.935126632452011108e-02 -1.421693712472915649e-02 -7.215955853462219238e-02
-5.105450749397277832e-03 -4.118766635656356812e-03 2.520751208066940308e-02
3.004278615117073059e-02 -5.345167219638824463e-02 -1.847831308841705322e-01
9.047023206949234009e-02 -1.894004642963409424e-02 3.434580862522125244e-01
-8.758798241615295410e-03 -7.599497213959693909e-03 -3.723016008734703064e-02
3.648188710212707520e-02 3.998206928372383118e-03 1.235184818506240845e-01
1.474559009075164795e-01 -5.321224033832550049e-02 1.025637239217758179e-01
4.740496724843978882e-02 -5.937620252370834351e-02 1.681963652372360229e-01
5.790098011493682861e-02 -6.437411159276962280e-02 1.092901453375816345e-02
5.562049895524978638e-02 -6.319973617792129517e-02 -7.018308341503143311e-02
1.372493207454681396e-01 2.889130264520645142e-03 1.660441160202026367e-01
-8.930465579032897949e-01 1.505479589104652405e-02 -3.564936667680740356e-02
-8.452657461166381836e-01 1.007995977997779846e-01 2.639826014637947083e-02
-6.591231226921081543e-01 7.210756838321685791e-02 8.554814010858535767e-02
-7.652997970581054688e-01 1.060691028833389282e-01 5.078096687793731689e-02
-8.690354824066162109e-01 5.953272059559822083e-02 5.403774976730346680e-02
-8.612902164459228516e-01 3.586124628782272339e-02 5.350220948457717896e-02
-8.254480957984924316e-01 1.091471016407012939e-01 1.461369823664426804e-02
-5.965593457221984863e-01 -1.525875180959701538e-03 9.901004377752542496e-04
-8.854553699493408203e-01 1.579143106937408447e-02 2.830918692052364349e-02
-4.531316459178924561e-01 1.180272176861763000e-01 -9.463606402277946472e-03
-5.993624925613403320e-01 4.895160719752311707e-02 8.325070142745971680e-02
-6.051868200302124023e-01 2.140630036592483521e-02 6.563531607389450073e-02
-6.101005077362060547e-01 2.156250923871994019e-02 -5.957007780671119690e-02
-6.711165904998779297e-01 1.131848096847534180e-01 -5.061974376440048218e-02
-5.574005842208862305e-01 4.293151944875717163e-02 -6.585886329412460327e-02
-4.603438973426818848e-01 1.206066682934761047e-01 2.833851240575313568e-02
-5.906190872192382812e-01 1.345171034336090088e-02 5.362119525671005249e-02
-6.928703784942626953e-01 4.506746307015419006e-02 8.186469227075576782e-02
-8.763051033020019531e-01 8.474496006965637207e-02 -4.271363839507102966e-02
-4.670200943946838379e-01 2.337130159139633179e-02 -1.038286834955215454e-02
-6.679078936576843262e-01 2.364459261298179626e-02 7.064403593540191650e-02
-6.118872165679931641e-01 9.723658114671707153e-02 7.751828432083129883e-02
-4.887333810329437256e-01 1.929137855768203735e-02 -1.626246050000190735e-02
-4.592112302780151367e-01 5.413708463311195374e-02 6.491772830486297607e-02
-5.132414698600769043e-01 1.227813288569450378e-01 -2.249943464994430542e-02
-8.727161884307861328e-01 9.804351627826690674e-02 7.871598005294799805e-03
-5.106319189071655273e-01 4.055325314402580261e-02 -5.428126826882362366e-02
-9.438713788986206055e-01 2.885343134403228760e-02 -2.919253893196582794e-04
-4.162024557590484619e-01 1.063059270381927490e-01 3.729109093546867371e-02
-6.523421406745910645e-01 1.286888867616653442e-01 2.826605364680290222e-02
-7.803995609283447266e-01 2.824544534087181091e-02 -7.046163082122802734e-02
-7.046185135841369629e-01 8.000006526708602905e-02 -7.640838623046875000e-02
-4.647297859191894531e-01 7.554117590188980103e-02 7.116024196147918701e-02
-8.709101080894470215e-01 3.095701336860656738e-03 -1.378749683499336243e-02
-7.136267423629760742e-01 1.140785813331604004e-01 -4.529448971152305603e-02
-4.094315171241760254e-01 4.200506210327148438e-02 -1.323064556345343590e-03
-8.349834680557250977e-01 2.725443616509437561e-02 5.564381554722785950e-02
-5.886315703392028809e-01 3.699708729982376099e-02 7.696391642093658447e-02
-9.037652015686035156e-01 5.545509234070777893e-02 -5.185910686850547791e-02
-6.846194863319396973e-01 1.129282191395759583e-01 -5.013290047645568848e-02
-7.298341989517211914e-01 1.035991311073303223e-01 6.176260113716125488e-02
-7.553856372833251953e-01 4.418935626745223999e-02 -7.795538753271102905e-02
-7.481186985969543457e-01 2.528930455446243286e-02 6.814715266227722168e-02
-3.957667946815490723e-01 6.899248808622360229e-02 4.549907892942428589e-02
-5.446333289146423340e-01 3.838919848203659058e-02 -6.094834953546524048e-02
-6.894397139549255371e-01 5.166973546147346497e-02 -8.032269030809402466e-02
-6.146920323371887207e-01 8.829608559608459473e-03 -4.405602067708969116e-02
-4.648995399475097656e-01 8.932586014270782471e-02 6.828717887401580811e-02
-6.791343688964843750e-01 1.297665387392044067e-01 8.895279839634895325e-03
-6.382356286048889160e-01 4.001013934612274170e-02 8.086247742176055908e-02
-7.441143393516540527e-01 5.960386246442794800e-02 -7.961256057024002075e-02
-6.199611425399780273e-01 9.636519849300384521e-02 -6.707085669040679932e-02
-4.963190853595733643e-01 9.132641553878784180e-02 -5.447661131620407104e-02
-6.696239113807678223e-01 1.163027435541152954e-01 5.488126352429389954e-02
-6.588950753211975098e-01 4.978713393211364746e-02 8.432815968990325928e-02
-7.218042612075805664e-01 1.114607155323028564e-01 5.345550924539566040e-02
-5.201970934867858887e-01 1.092622429132461548e-01 6.374944001436233521e-02
-5.694035291671752930e-01 7.864399999380111694e-02 -7.098059356212615967e-02
-8.469799757003784180e-01 1.633499935269355774e-02 -5.243769660592079163e-02
-4.346004724502563477e-01 1.045959666371345520e-01 -2.532357536256313324e-02
-7.206003069877624512e-01 4.519294947385787964e-03 4.717443138360977173e-02
-5.434610247611999512e-01 1.753927767276763916e-02 -3.940885886549949646e-02
-6.466673016548156738e-01 6.802293658256530762e-02 -7.908762991428375244e-02
-4.582418501377105713e-01 2.477416768670082092e-02 2.240955457091331482e-02
-5.747426748275756836e-01 1.714324951171875000e-02 -4.770110920071601868e-02
-7.969430685043334961e-01 4.353092610836029053e-02 -7.464693486690521240e-02
-5.831332802772521973e-01 7.077947258949279785e-03 3.981077298521995544e-02
-6.418172717094421387e-01 2.245278283953666687e-02 6.906893104314804077e-02
-8.297853469848632812e-01 1.465154439210891724e-02 4.569266363978385925e-02
-6.650304794311523438e-01 1.304489374160766602e-01 1.234549004584550858e-02
-9.508124589920043945e-01 3.457374870777130127e-02 -9.819664992392063141e-03
-9.505716562271118164e-01 4.040346294641494751e-02 5.881640128791332245e-03
-3.812175989151000977e-01 5.745767429471015930e-02 9.104376658797264099e-03
-8.159697055816650391e-01 1.125267297029495239e-01 -2.525013172999024391e-03
-5.591474175453186035e-01 1.308887898921966553e-01 -5.214559845626354218e-03
-9.366506338119506836e-01 7.181141525506973267e-02 -3.428533440455794334e-03
-6.254464983940124512e-01 -4.122938960790634155e-03 -3.583837533369660378e-03
-5.939938426017761230e-01 1.159106642007827759e-01 6.026092544198036194e-02
-8.044384717941284180e-01 5.239453911781311035e-02 7.051751762628555298e-02
-4.997094273567199707e-01 1.517600193619728088e-02 -1.045750733464956284e-02
-7.475782036781311035e-01 -6.232198327779769897e-03 1.766989193856716156e-02
-8.041457533836364746e-01 9.097880125045776367e-02 -5.875733122229576111e-02
-5.769956111907958984e-01 1.321206986904144287e-01 1.516253966838121414e-02
-8.548921346664428711e-01 9.205582737922668457e-02 3.717387095093727112e-02
-3.970524370670318604e-01 8.293225616216659546e-02 4.678865149617195129e-02
-4.894240498542785645e-01 4.898747056722640991e-02 6.973349303007125854e-02
-7.353732585906982422e-01 3.584489598870277405e-02 7.544676214456558228e-02
-8.319430351257324219e-01 1.038351953029632568e-01 2.763412334024906158e-02
-6.486569046974182129e-01 4.220723360776901245e-02 -7.645270228385925293e-02
-4.103288352489471436e-01 8.221850544214248657e-02 -2.974483370780944824e-02
-9.472697377204895020e-01 5.830777436494827271e-02 7.502768188714981079e-03
-5.229579210281372070e-01 1.021351665258407593e-01 -5.265577509999275208e-02
-4.089567661285400391e-01 4.079167544841766357e-02 1.169853657484054565e-02
-7.346453666687011719e-01 3.584774583578109741e-02 -7.616328448057174683e-02
-7.005550265312194824e-01 -5.978677421808242798e-03 2.032205834984779358e-02
-4.359514117240905762e-01 1.095676049590110779e-01 4.267919436097145081e-02
-5.300361514091491699e-01 9.266536682844161987e-03 2.267322503030300140e-02
-5.742460489273071289e-01 2.289649099111557007e-03 -1.138940360397100449e-02
-6.958301663398742676e-01 -7.948156446218490601e-03 4.913493059575557709e-03
-3.765816390514373779e-01 7.653752714395523071e-02 -5.793005228042602539e-03
-6.470874547958374023e-01 1.078327447175979614e-01 6.761736422777175903e-02
-7.966480851173400879e-01 7.253422588109970093e-02 6.953641027212142944e-02
-6.475359797477722168e-01 8.295015990734100342e-02 8.340832591056823730e-02
-7.464599609375000000e-01 1.193625703454017639e-01 2.981912158429622650e-02
-5.582148432731628418e-01 2.309443056583404541e-02 -5.103746429085731506e-02
-8.541948199272155762e-01 8.312447369098663330e-02 -5.303122103214263916e-02
-6.996468901634216309e-01 1.076057553291320801e-02 -5.694839358329772949e-02
-4.392043352127075195e-01 1.177829653024673462e-01 2.158088050782680511e-02
-5.311891436576843262e-01 5.044526979327201843e-02 7.773742824792861938e-02
-6.243407726287841797e-01 1.888560131192207336e-02 6.452339887619018555e-02
-6.794974207878112793e-01 4.069843888282775879e-02 8.082866668701171875e-02
-5.546563863754272461e-01 7.134895026683807373e-02 8.392412960529327393e-02
-5.730991959571838379e-01 2.149453386664390564e-02 6.180039793252944946e-02
-8.690437674522399902e-01 1.904210448265075684e-02 -4.972934350371360779e-02
-6.983389854431152344e-01 7.541291415691375732e-02 8.250927180051803589e-02
-8.060321211814880371e-01 9.520849585533142090e-02 5.237023904919624329e-02
-8.499795794486999512e-01 7.808295637369155884e-02 5.284795165061950684e-02
-5.091428160667419434e-01 5.233134701848030090e-02 7.516878843307495117e-02
-4.228925406932830811e-01 5.203581228852272034e-02 -2.887493371963500977e-02
-8.450174331665039062e-01 1.050701364874839783e-02 3.601735830307006836e-02
-5.775734186172485352e-01 3.776451200246810913e-02 -6.660950183868408203e-02
-4.236043095588684082e-01 3.521282970905303955e-02 1.776274479925632477e-02
-7.592961788177490234e-01 6.954021751880645752e-02 -7.695627957582473755e-02
-6.240393519401550293e-01 2.222656458616256714e-02 -6.215797364711761475e-02
-8.115258216857910156e-01 2.352112904191017151e-02 5.793724581599235535e-02
-7.786187529563903809e-01 -5.657624453306198120e-03 -2.026554383337497711e-02
-5.149470567703247070e-01 8.518108725547790527e-02 7.792507857084274292e-02
-6.110661625862121582e-01 3.154429048299789429e-02 7.492103427648544312e-02
-7.890202999114990234e-01 -6.572138518095016479e-03 1.534004928544163704e-03
-5.596314072608947754e-01 1.276277005672454834e-01 -1.949395239353179932e-02
-9.066257476806640625e-01 2.354124560952186584e-02 -4.043708741664886475e-02
-6.732508540153503418e-01 1.391562819480895996e-02 6.096696853637695312e-02
-7.782652378082275391e-01 1.052965819835662842e-01 4.812094196677207947e-02
-6.608428955078125000e-01 1.173624694347381592e-01 -4.478300735354423523e-02
-7.482215166091918945e-01 1.135166734457015991e-03 -4.286501929163932800e-02
-6.546535491943359375e-01 1.263003349304199219e-01 -2.565788850188255310e-02
-7.607606053352355957e-01 5.751316249370574951e-02 7.775674015283584595e-02
-5.918648838996887207e-01 1.086977720260620117e-01 -5.501511320471763611e-02
-5.155086517333984375e-01 3.598508238792419434e-02 6.613588333129882812e-02
-8.982967138290405273e-01 8.658062666654586792e-02 -2.505324222147464752e-02
-5.661110281944274902e-01 5.681063979864120483e-03 -2.134376764297485352e-02
-6.890413165092468262e-01 2.003775537014007568e-02 -6.597526371479034424e-02
-5.512744188308715820e-01 4.218336194753646851e-03 4.221696872264146805e-03
-8.492291569709777832e-01 4.590190201997756958e-02 5.977075919508934021e-02
-6.350849270820617676e-01 -1.966755837202072144e-03 -2.273486740887165070e-02
-6.537522673606872559e-01 1.311415880918502808e-01 8.562533184885978699e-05
-4.790171980857849121e-01 1.188295036554336548e-01 4.197509214282035828e-02
-4.929239749908447266e-01 1.271547824144363403e-01 1.153129246085882187e-02
-6.491056680679321289e-01 -9.793452918529510498e-04 -2.983151376247406006e-02
-9.100944995880126953e-01 2.526147291064262390e-02 2.753607369959354401e-02
-4.635471701622009277e-01 3.831823915243148804e-02 5.370864644646644592e-02
-7.820379137992858887e-01 4.210147261619567871e-02 7.233733683824539185e-02
-7.470547556877136230e-01 -8.311700075864791870e-03 -1.445410540327429771e-03
-6.647316813468933105e-01 3.527246415615081787e-03 4.490298405289649963e-02
-5.867816805839538574e-01 1.224286109209060669e-01 4.989291727542877197e-02
-5.259791016578674316e-01 1.193070113658905029e-01 -3.262512385845184326e-02
-6.193869113922119141e-01 1.303290128707885742e-01 -1.350162737071514130e-02
-8.886420726776123047e-01 8.425585925579071045e-02 -3.688776120543479919e-02
-4.199596643447875977e-01 6.919544190168380737e-02 -3.508413583040237427e-02
-5.069523453712463379e-01 2.591737732291221619e-02 5.271334201097488403e-02
-6.960971951484680176e-01 9.884890913963317871e-02 7.110092043876647949e-02
-6.807827353477478027e-01 1.208562478423118591e-01 4.501035436987876892e-02
-7.835672497749328613e-01 1.163028031587600708e-01 1.962169446051120758e-02
-5.568410158157348633e-01 7.525421679019927979e-02 -7.011839747428894043e-02
-7.629890441894531250e-01 -7.810760289430618286e-03 -6.991118192672729492e-03
-5.874718427658081055e-01 2.966091409325599670e-02 -6.293398141860961914e-02
-8.711057901382446289e-01 9.927086532115936279e-02 -6.137114018201828003e-03
-8.987435102462768555e-01 8.759399503469467163e-02 1.347902137786149979e-02
-7.291947007179260254e-01 8.449707925319671631e-02 7.598020881414413452e-02
-8.015596866607666016e-01 1.072640717029571533e-01 3.607526421546936035e-02
-8.467664718627929688e-01 1.038590520620346069e-01 -1.912267319858074188e-02
-5.855951309204101562e-01 8.729133009910583496e-02 -6.970673799514770508e-02
-6.998066902160644531e-01 4.168497771024703979e-02 -7.832773029804229736e-02
-5.133537650108337402e-01 1.265273988246917725e-01 3.111560083925724030e-02
-7.083915472030639648e-01 5.284901708364486694e-03 4.885005578398704529e-02
-6.982499361038208008e-01 -3.768432885408401489e-03 -2.946539595723152161e-02
-8.043961524963378906e-01 1.145324110984802246e-01 -6.219631060957908630e-03
-7.930212020874023438e-01 2.333373576402664185e-02 -6.635014712810516357e-02
-5.988512039184570312e-01 6.766565144062042236e-02 -7.585118710994720459e-02
-6.766031384468078613e-01 -3.391865640878677368e-03 2.840216830372810364e-02
-6.187203526496887207e-01 1.112071350216865540e-01 6.551629304885864258e-02
-4.530190229415893555e-01 8.591975271701812744e-02 6.669960170984268188e-02
-5.558481812477111816e-01 1.029638200998306274e-02 -2.979676052927970886e-02
-6.130294799804687500e-01 7.242414355278015137e-02 8.623010665178298950e-02
-3.860059976577758789e-01 8.807416260242462158e-02 -1.122351735830307007e-02
-6.329020857810974121e-01 1.298673152923583984e-01 -1.469769515097141266e-02
-4.198305606842041016e-01 8.470696955919265747e-02 5.684254318475723267e-02
-5.468030571937561035e-01 7.181383669376373291e-03 -1.538468152284622192e-02
-5.476150512695312500e-01 7.859725505113601685e-03 2.855498157441616058e-02
-8.376410007476806641e-01 6.267395615577697754e-02 -6.838455051183700562e-02
-7.876973152160644531e-01 1.081687510013580322e-01 4.008088633418083191e-02
-6.582990884780883789e-01 8.624324202537536621e-02 -7.401791960000991821e-02
-8.222398161888122559e-01 3.639407455921173096e-02 -6.967416405677795410e-02
-5.999958515167236328e-01 3.174679726362228394e-02 -6.631748378276824951e-02
-7.005615234375000000e-01 1.013210564851760864e-01 -6.264112144708633423e-02
-7.219465374946594238e-01 1.016589999198913574e-01 -6.063205748796463013e-02
-3.997741341590881348e-01 5.952212214469909668e-02 -1.973107084631919861e-02
-6.269899010658264160e-01 7.635567337274551392e-02 8.563190698623657227e-02
-6.164066791534423828e-01 7.102549076080322266e-02 -7.693242281675338745e-02
-9.394415616989135742e-01 6.653132289648056030e-02 -2.049493603408336639e-02
-8.174538612365722656e-01 1.122885569930076599e-02 -5.206012353301048279e-02
-9.266637563705444336e-01 2.430662512779235840e-02 1.463683322072029114e-02
-4.127895534038543701e-01 1.021813228726387024e-01 -1.657532341778278351e-02
-8.746623992919921875e-01 2.184981107711791992e-02 3.996610641479492188e-02
-7.142816185951232910e-01 1.224468201398849487e-01 3.271265327930450439e-02
-3.756076693534851074e-01 9.014543145895004272e-02 5.674155894666910172e-03
-5.836536884307861328e-01 2.886064350605010986e-03 -2.012163773179054260e-02
-6.116521358489990234e-01 1.319145113229751587e-01 -3.886165795847773552e-03
-6.917043328285217285e-01 8.873960375785827637e-02 -7.248314470052719116e-02
-7.589825987815856934e-01 9.340134263038635254e-02 6.564480066299438477e-02
-5.460173487663269043e-01 6.441939622163772583e-02 -6.927250325679779053e-02
-4.984475672245025635e-01 1.092931032180786133e-01 6.061097979545593262e-02
-5.702136158943176270e-01 1.671273261308670044e-03 8.309144526720046997e-03
-7.810965776443481445e-01 1.027528196573257446e-01 -5.022618174552917480e-02
-7.229759693145751953e-01 -3.396663814783096313e-03 2.979917451739311218e-02
-7.939552664756774902e-01 1.021717786788940430e-01 -4.790609702467918396e-02
-7.374266386032104492e-01 1.199073120951652527e-01 -2.732976526021957397e-02
-4.025834202766418457e-01 1.076074838638305664e-01 1.586540415883064270e-02
-7.145050764083862305e-01 1.176079213619232178e-01 4.453578218817710876e-02
-8.883066773414611816e-01 2.136731892824172974e-02 -4.587892070412635803e-02
-7.662178277969360352e-01 -4.677660763263702393e-04 3.346027806401252747e-02
-6.509126424789428711e-01 -5.903270095586776733e-03 -5.473503842949867249e-03
-5.723363161087036133e-01 7.990057021379470825e-02 8.393417298793792725e-02
-6.930946707725524902e-01 1.813396811485290527e-03 -4.271344095468521118e-02
-6.312517523765563965e-01 1.304030418395996094e-01 2.451308444142341614e-02
-7.658083438873291016e-01 -5.969893187284469604e-03 1.575277186930179596e-02
-5.866466164588928223e-01 5.993634834885597229e-02 8.526875823736190796e-02
-9.000762104988098145e-01 8.969529718160629272e-02 -8.563732262700796127e-04
-6.686519980430603027e-01 1.298937052488327026e-01 -6.201852113008499146e-03
-4.880125224590301514e-01 3.029934689402580261e-02 -3.726631775498390198e-02
-8.259581923484802246e-01 5.762461200356483459e-02 6.610380858182907104e-02
-8.588834404945373535e-01 8.982221782207489014e-02 -4.367624223232269287e-02
-4.344522953033447266e-01 1.124619916081428528e-01 -1.211905572563409805e-02
-9.158629179000854492e-01 4.246967285871505737e-02 3.496690839529037476e-02
-7.169144153594970703e-01 8.096273243427276611e-02 7.897903770208358765e-02
-9.228900671005249023e-01 1.687177270650863647e-02 -3.213390940800309181e-03
-8.018522262573242188e-01 5.972819775342941284e-02 -7.459078729152679443e-02
-7.151436805725097656e-01 5.028500407934188843e-02 8.177735656499862671e-02
-5.695996880531311035e-01 9.164760261774063110e-02 7.988777011632919312e-02
-5.484466552734375000e-01 1.309183388948440552e-01 1.900760084390640259e-02
-8.037577867507934570e-01 -3.137525171041488647e-03 -2.491545863449573517e-02
-4.691056609153747559e-01 9.948277473449707031e-02 -4.260816425085067749e-02
-4.762413203716278076e-01 3.843887150287628174e-02 -4.161351174116134644e-02
-4.660440385341644287e-01 1.234411671757698059e-01 1.511098537594079971e-02
-7.163907289505004883e-01 1.436262577772140503e-02 -6.155717372894287109e-02
-7.625765204429626465e-01 8.330717682838439941e-02 -7.089599967002868652e-02
-7.032573819160461426e-01 2.523808926343917847e-02 7.120320200920104980e-02
-6.060546040534973145e-01 1.351726800203323364e-02 5.595523864030838013e-02
-6.135873794555664062e-01 -2.503033727407455444e-03 1.450291182845830917e-02
-7.080405354499816895e-01 1.225576996803283691e-01 -2.767308987677097321e-02
-8.012134432792663574e-01 1.326184347271919250e-02 5.012353137135505676e-02
-4.971528649330139160e-01 1.227408200502395630e-01 3.818226978182792664e-02
-8.109982013702392578e-01 2.957414090633392334e-02 -6.820444762706756592e-02
-9.384225606918334961e-01 5.604957789182662964e-02 -3.244566172361373901e-02
-6.067447662353515625e-01 1.257892698049545288e-01 -2.873740345239639282e-02
-8.869387507438659668e-01 9.231767803430557251e-02 1.277411915361881256e-02
-4.943936467170715332e-01 3.809500485658645630e-02 -4.768559709191322327e-02
-7.311322093009948730e-01 9.107957780361175537e-02 -6.889027357101440430e-02
-8.826273083686828613e-01 3.630316630005836487e-02 -5.733514949679374695e-02
-5.840041637420654297e-01 7.184816896915435791e-02 -7.392901927232742310e-02
-7.057868838310241699e-01 1.462338864803314209e-02 6.144103035330772400e-02
-7.391853332519531250e-01 1.097147762775421143e-01 5.218847841024398804e-02
-5.934705734252929688e-01 1.312868297100067139e-01 2.318923920392990112e-02
-5.311020016670227051e-01 3.309817612171173096e-02 6.668379902839660645e-02
-9.182223677635192871e-01 8.166862279176712036e-02 -1.177475415170192719e-02
-5.697910189628601074e-01 1.020891740918159485e-01 -5.914556235074996948e-02
-8.343486785888671875e-01 -1.935500651597976685e-03 6.796470377594232559e-03
-8.456431627273559570e-01 1.060801446437835693e-01 -1.200035912916064262e-03
-4.679512381553649902e-01 2.092907205224037170e-02 1.271718367934226990e-02
-7.355943322181701660e-01 2.237051725387573242e-03 -4.515603184700012207e-02
-7.474647760391235352e-01 9.182377159595489502e-02 -6.681638211011886597e-02
-7.869789600372314453e-01 5.487877875566482544e-02 -7.663290202617645264e-02
-4.322484731674194336e-01 8.264031261205673218e-02 -3.927745670080184937e-02
-6.320571899414062500e-01 1.010442823171615601e-01 -6.401824951171875000e-02
-5.749225616455078125e-01 1.274880021810531616e-01 -2.200222387909889221e-02
-7.719801664352416992e-01 2.933339774608612061e-02 6.808399409055709839e-02
-6.104465723037719727e-01 5.233069136738777161e-02 -7.604315131902694702e-02
-4.832904040813446045e-01 4.908309504389762878e-02 -5.153893306851387024e-02
-4.067015945911407471e-01 1.077098697423934937e-01 6.633996963500976562e-04
-6.955041885375976562e-01 1.316409558057785034e-03 4.161974787712097168e-02
-5.189470648765563965e-01 9.645843505859375000e-02 7.358887791633605957e-02
-9.154393672943115234e-01 1.437838375568389893e-02 -1.381592079997062683e-02
-4.997548758983612061e-01 2.143069356679916382e-02 -2.840556204319000244e-02
-7.591156959533691406e-01 7.233826816082000732e-02 7.622248679399490356e-02
-5.348265767097473145e-01 1.463320106267929077e-02 4.199698567390441895e-02
-5.457012653350830078e-01 1.285942643880844116e-01 -1.330547034740447998e-02
-4.617973268032073975e-01 1.108797788619995117e-01 -2.812820486724376678e-02
-6.827383637428283691e-01 1.101446673274040222e-01 6.161527708172798157e-02
-7.701309323310852051e-01 1.089408621191978455e-02 -5.669017136096954346e-02
-4.903397262096405029e-01 1.569974794983863831e-02 1.160497777163982391e-05
-7.883985042572021484e-01 8.842082321643829346e-02 -6.393024325370788574e-02
-8.253648281097412109e-01 -3.518048673868179321e-03 -1.107824686914682388e-02
-5.653935074806213379e-01 1.301854103803634644e-01 2.727420441806316376e-02
-4.390230774879455566e-01 3.581660240888595581e-02 -1.869071274995803833e-02
-8.417953848838806152e-01 6.162712350487709045e-02 6.174282729625701904e-02
-4.806102514266967773e-01 4.090766608715057373e-02 6.186245381832122803e-02
-7.968654632568359375e-01 1.021837592124938965e-01 4.662318527698516846e-02
-8.613666296005249023e-01 1.817724108695983887e-02 4.074242338538169861e-02
-8.553063273429870605e-01 1.620247960090637207e-03 9.936033748090267181e-03
-4.479595422744750977e-01 1.089052557945251465e-01 -2.550769038498401642e-02
-8.052665591239929199e-01 3.335308283567428589e-03 3.433251008391380310e-02
-5.169689059257507324e-01 5.644070729613304138e-02 -6.279066950082778931e-02
-5.666724443435668945e-01 1.121540740132331848e-02 -3.576346114277839661e-02
-5.144432187080383301e-01 1.285855770111083984e-01 -9.406884200870990753e-04
-4.187070131301879883e-01 1.121904030442237854e-01 2.016644692048430443e-03
-4.124110341072082520e-01 4.632660001516342163e-02 -1.520014926791191101e-02
-3.744696378707885742e-01 6.894740462303161621e-02 2.494122646749019623e-02
-6.239243149757385254e-01 9.438306093215942383e-02 7.901209592819213867e-02
-6.194107532501220703e-01 8.341073244810104370e-02 -7.384353876113891602e-02
-6.299073696136474609e-01 3.036815673112869263e-03 4.008383303880691528e-02
-6.860865354537963867e-01 1.175462827086448669e-02 -5.739222839474678040e-02
-5.226775407791137695e-01 2.700017765164375305e-02 5.849967896938323975e-02
-7.737628221511840820e-01 1.207000017166137695e-02 5.303509533405303955e-02
-8.609894514083862305e-01 4.358169063925743103e-02 -6.460528820753097534e-02
-7.554464340209960938e-01 1.139299198985099792e-02 -5.799614638090133667e-02
-8.758199810981750488e-01 7.299420982599258423e-02 4.644111543893814087e-02
-7.986620664596557617e-01 8.679316937923431396e-02 6.182872503995895386e-02
-3.923470079898834229e-01 1.008690148591995239e-01 1.765135675668716431e-05
-5.152642726898193359e-01 1.582402735948562622e-02 -2.400998398661613464e-02
-8.658778667449951172e-01 1.090327277779579163e-02 2.915139496326446533e-02
-8.396543860435485840e-01 1.065295934677124023e-01 1.083931699395179749e-02
-9.165366888046264648e-01 3.709494322538375854e-02 -4.532615095376968384e-02
-8.160520792007446289e-01 -3.083933144807815552e-03 1.212104596197605133e-02
-8.943463563919067383e-01 3.845890611410140991e-02 4.340248182415962219e-02
-8.292546272277832031e-01 1.092130243778228760e-01 -1.100419182330369949e-02
-6.814723014831542969e-01 5.152836441993713379e-03 4.862229526042938232e-02
-6.520615816116333008e-01 1.160153299570083618e-01 5.727447941899299622e-02
-8.783925175666809082e-01 6.939718872308731079e-02 -5.540317296981811523e-02
-7.728862762451171875e-01 1.147536486387252808e-01 -2.945971488952636719e-02
-4.361104965209960938e-01 9.436491131782531738e-02 -3.532931953668594360e-02
-5.745482444763183594e-01 1.135230511426925659e-01 6.302690505981445312e-02
-4.725335240364074707e-01 2.320578694343566895e-02 3.099219873547554016e-02
-4.515035152435302734e-01 6.607808172702789307e-02 -4.706773906946182251e-02
-4.705569744110107422e-01 5.739668011665344238e-02 6.937445700168609619e-02
-8.282904624938964844e-01 9.097510576248168945e-02 4.954610019922256470e-02
-6.724191308021545410e-01 1.115381717681884766e-03 -3.910645470023155212e-02
-5.812308192253112793e-01 1.046381294727325439e-01 7.204680144786834717e-02
-5.006829500198364258e-01 3.462632000446319580e-02 6.141959503293037415e-02
-8.107825517654418945e-01 3.522737324237823486e-02 6.501252204179763794e-02
-5.008565783500671387e-01 6.326685845851898193e-02 -6.047259271144866943e-02
-7.138918042182922363e-01 2.721051499247550964e-02 -7.192372530698776245e-02
-9.010778069496154785e-01 1.769869029521942139e-02 2.289475314319133759e-02
-7.568244934082031250e-01 1.137515455484390259e-01 -3.727383539080619812e-02
-5.843887925148010254e-01 1.275994628667831421e-01 3.782559931278228760e-02
-7.303586602210998535e-01 1.245568245649337769e-01 -1.004265714436769485e-02
-4.758106768131256104e-01 1.171789616346359253e-01 -2.259338833391666412e-02
-4.922111034393310547e-01 1.738196238875389099e-02 2.672304771840572357e-02
-5.132156014442443848e-01 1.941812038421630859e-02 4.389495402574539185e-02
-4.968122839927673340e-01 1.029067561030387878e-01 -4.683312773704528809e-02
-7.950726151466369629e-01 9.010899811983108521e-03 -5.219101905822753906e-02
-4.669336676597595215e-01 6.170045211911201477e-02 -5.121096223592758179e-02
-3.843414187431335449e-01 6.533756107091903687e-02 -1.035824511200189590e-02
-5.354375839233398438e-01 1.259801387786865234e-01 -1.970658637583255768e-02
-7.118821144104003906e-01 9.077674150466918945e-02 -7.040011882781982422e-02
-6.659712195396423340e-01 5.712959915399551392e-02 -8.022941648960113525e-02
-8.024107813835144043e-01 -3.985133022069931030e-03 1.395622268319129944e-02
-8.625732660293579102e-01 7.873518764972686768e-02 4.781813547015190125e-02
-9.002050161361694336e-01 3.009306639432907104e-02 3.658321499824523926e-02
-4.593336880207061768e-01 1.090145260095596313e-01 5.212842673063278198e-02
-8.337836861610412598e-01 1.032193079590797424e-01 -3.085723519325256348e-02
-9.126017093658447266e-01 1.823598146438598633e-02 1.582825556397438049e-02
-6.370853781700134277e-01 1.007431373000144958e-01 7.439231127500534058e-02
-8.904138803482055664e-01 7.099851965904235840e-03 -1.313582621514797211e-02
-5.186224579811096191e-01 7.140019536018371582e-02 -6.439848244190216064e-02
-4.341728091239929199e-01 3.843529522418975830e-02 3.921360149979591370e-02
-6.252437233924865723e-01 6.420025974512100220e-02 8.661473542451858521e-02
-9.271996021270751953e-01 6.250596046447753906e-02 -3.694688901305198669e-02
-4.839391708374023438e-01 3.094220533967018127e-02 5.202311277389526367e-02
-7.023331522941589355e-01 1.203554421663284302e-01 4.158602282404899597e-02
-7.107089161872863770e-01 -2.019349485635757446e-03 3.388763964176177979e-02
-6.004239320755004883e-01 9.155854582786560059e-02 -6.883847713470458984e-02
-5.356413722038269043e-01 7.798928767442703247e-02 8.170441538095474243e-02
-8.749017119407653809e-01 9.089076519012451172e-02 2.739559300243854523e-02
-8.543910980224609375e-01 6.763481348752975464e-02 -6.309948861598968506e-02
-8.614470958709716797e-01 2.716333046555519104e-02 -5.823371186852455139e-02
-3.950367569923400879e-01 1.024578884243965149e-01 2.569123171269893646e-02
-5.709324479103088379e-01 1.224315688014030457e-01 4.951093718409538269e-02
-7.077900767326354980e-01 1.020357757806777954e-01 6.686133891344070435e-02
-5.903243422508239746e-01 1.289650052785873413e-01 -1.859652809798717499e-02
-7.665187120437622070e-01 1.157111972570419312e-01 3.167282417416572571e-02
-5.531857609748840332e-01 5.165776982903480530e-02 8.078891783952713013e-02
-9.000324606895446777e-01 5.439938604831695557e-02 4.308960959315299988e-02
-6.459865570068359375e-01 1.398727297782897949e-02 6.014461070299148560e-02
-4.553703069686889648e-01 3.142571821808815002e-02 3.957105427980422974e-02
-7.916284799575805664e-01 -1.088138669729232788e-03 -3.407007455825805664e-02
-8.089876174926757812e-01 1.309715211391448975e-03 -3.682412952184677124e-02
-5.466324687004089355e-01 1.084179133176803589e-01 6.710117310285568237e-02
-6.930518746376037598e-01 1.288040876388549805e-01 7.414109073579311371e-03
-4.689708948135375977e-01 1.031921058893203735e-01 6.070335209369659424e-02
-7.758013010025024414e-01 6.993547827005386353e-02 -7.533004879951477051e-02
-7.466111183166503906e-01 8.027487993240356445e-02 7.542096078395843506e-02
-7.461925745010375977e-01 2.227972447872161865e-02 -6.835561245679855347e-02
-8.575878739356994629e-01 6.681159138679504395e-04 -1.203598454594612122e-02
-3.858169615268707275e-01 9.277752041816711426e-02 3.270047158002853394e-02
-6.430677175521850586e-01 -1.599300652742385864e-03 2.940273843705654144e-02
-6.046856641769409180e-01 1.323945671319961548e-01 1.282841246575117111e-02
-5.089192390441894531e-01 1.449852809309959412e-02 2.881865575909614563e-02
-9.020165205001831055e-01 7.980668544769287109e-02 -3.515494242310523987e-02
-5.024238824844360352e-01 9.157261252403259277e-02 7.397798448801040649e-02
-6.330962181091308594e-01 1.184286475181579590e-01 5.520078539848327637e-02
-5.545003414154052734e-01 1.317284703254699707e-01 7.879001088440418243e-03
-6.243188977241516113e-01 1.322616636753082275e-01 8.700525388121604919e-03
-5.632755756378173828e-01 6.208787113428115845e-02 -7.173541933298110962e-02
-8.725931048393249512e-01 9.339818358421325684e-02 -2.999507635831832886e-02
-4.025509953498840332e-01 9.541273117065429688e-02 -1.776746846735477448e-02
-4.397016167640686035e-01 2.936966717243194580e-02 1.607062667608261108e-02
-6.830713748931884766e-01 1.260527223348617554e-01 -2.196968346834182739e-02
-3.789521157741546631e-01 8.120234310626983643e-02 3.367191553115844727e-02
-7.698739767074584961e-01 3.733456879854202271e-02 -7.523417472839355469e-02
-9.223667383193969727e-01 5.339308828115463257e-02 3.194219619035720825e-02
-7.817918062210083008e-01 1.103131026029586792e-01 -3.710084781050682068e-02
-8.393046259880065918e-01 8.035150170326232910e-02 -5.956712365150451660e-02
-7.279175519943237305e-01 1.204325929284095764e-01 3.395564854145050049e-02
-7.415900230407714844e-01 5.886490643024444580e-02 8.015736192464828491e-02
-6.657302975654602051e-01 1.920679584145545959e-02 -6.375970691442489624e-02
-7.023118734359741211e-01 1.267949640750885010e-01 -1.238553132861852646e-02
-5.995823740959167480e-01 5.681820213794708252e-03 4.052934050559997559e-02
-4.514293074607849121e-01 6.628619134426116943e-02 6.714882701635360718e-02
-6.247256398200988770e-01 1.240482404828071594e-01 -3.305155783891677856e-02
-3.948749601840972900e-01 5.263917520642280579e-02 -7.334043271839618683e-03
-6.565513610839843750e-01 2.915584295988082886e-02 7.479250431060791016e-02
-5.608574151992797852e-01 3.757342696189880371e-03 1.750821620225906372e-02
-8.323320746421813965e-01 9.223088622093200684e-02 -5.018264800310134888e-02
-4.600898921489715576e-01 3.361528739333152771e-02 -2.858376875519752502e-02
-7.590571641921997070e-01 -4.604633897542953491e-03 -2.757655084133148193e-02
-6.060512065887451172e-01 1.163011714816093445e-01 -4.650923609733581543e-02
-8.849381208419799805e-01 2.950369194149971008e-02 4.240049794316291809e-02
-7.714623212814331055e-01 1.186185330152511597e-01 -1.568908616900444031e-02
-4.438716471195220947e-01 8.594004809856414795e-02 -4.244162887334823608e-02
-6.767926216125488281e-01 6.353167444467544556e-02 8.540841192007064819e-02
-7.051628828048706055e-01 8.650287240743637085e-02 7.787256687879562378e-02
-3.704609274864196777e-01 8.316422253847122192e-02 1.736774295568466187e-02
-6.616992354393005371e-01 1.231647655367851257e-01 4.316351190209388733e-02
-4.956593811511993408e-01 1.242578849196434021e-01 -1.222428306937217712e-02
-6.198393702507019043e-01 -3.686584532260894775e-04 -2.347153052687644958e-02
-5.651870965957641602e-01 1.212632656097412109e-02 4.608691856265068054e-02
-5.228978395462036133e-01 8.885338902473449707e-03 7.631088607013225555e-03
-8.896766304969787598e-01 8.062735199928283691e-03 7.293602451682090759e-03
-4.865457415580749512e-01 7.219654321670532227e-02 7.554496079683303833e-02
-7.958416938781738281e-01 -5.728621035814285278e-03 -1.359826140105724335e-02
-5.348414182662963867e-01 1.137378811836242676e-01 6.029138341546058655e-02
-6.025133728981018066e-01 1.050311550498008728e-01 7.187509536743164062e-02
-8.847445249557495117e-01 5.927743017673492432e-02 4.851007089018821716e-02
-7.514039874076843262e-01 1.198627501726150513e-01 -2.200119569897651672e-02
-8.597862720489501953e-01 9.636516869068145752e-02 -3.175040334463119507e-02
-7.005513906478881836e-01 1.113021522760391235e-01 -5.109034478664398193e-02
-6.334831714630126953e-01 5.161993205547332764e-02 -7.786300778388977051e-02
-6.437056660652160645e-01 2.482588961720466614e-02 -6.656327843666076660e-02
-5.855837464332580566e-01 1.074887439608573914e-02 -4.052063450217247009e-02
-9.402329325675964355e-01 3.653169423341751099e-02 -3.020055219531059265e-02
-9.138433933258056641e-01 7.594059407711029053e-02 -3.233001753687858582e-02
-5.653462409973144531e-01 3.415092825889587402e-02 7.273428887128829956e-02
-6.942040324211120605e-01 8.704289793968200684e-03 5.427440255880355835e-02
-4.891150593757629395e-01 8.952386677265167236e-02 7.280863821506500244e-02
-8.026530146598815918e-01 7.600460201501846313e-02 -6.950899958610534668e-02
-7.779836654663085938e-01 7.298932969570159912e-02 7.294993102550506592e-02
-9.242008924484252930e-01 2.034056559205055237e-02 -2.342581935226917267e-02
-7.355501651763916016e-01 1.244363859295845032e-01 1.108480803668498993e-02
-7.232665419578552246e-01 -6.874758750200271606e-03 1.636548712849617004e-02
-3.700605928897857666e-01 7.192417234182357788e-02 1.211667060852050781e-02
-6.462830901145935059e-01 -4.883598536252975464e-03 1.495551224797964096e-02
-4.533978104591369629e-01 2.905368804931640625e-02 -1.518039777874946594e-02
-9.058908224105834961e-01 7.864854484796524048e-02 2.498428523540496826e-02
-8.688479661941528320e-01 6.184040755033493042e-02 -6.147798895835876465e-02
-4.003609716892242432e-01 9.744232892990112305e-02 3.948511555790901184e-02
-8.325010538101196289e-01 4.097449034452438354e-02 6.266344338655471802e-02
-3.920628726482391357e-01 5.250057578086853027e-02 2.613308094441890717e-02
-5.899546146392822266e-01 9.844346344470977783e-02 -6.374798715114593506e-02
-6.785366535186767578e-01 3.102298825979232788e-02 -7.314580678939819336e-02
-5.090613365173339844e-01 9.022358804941177368e-02 -5.763345956802368164e-02
-7.125538587570190430e-01 3.324283659458160400e-02 7.583195716142654419e-02
-4.417507648468017578e-01 4.754393175244331360e-02 5.446990206837654114e-02
-6.920888423919677734e-01 8.785138279199600220e-02 7.850932329893112183e-02
-7.812131643295288086e-01 1.185544431209564209e-01 5.539054982364177704e-03
-5.925704836845397949e-01 7.196950167417526245e-02 8.587768673896789551e-02
-6.455969214439392090e-01 6.399641931056976318e-02 8.645631372928619385e-02
-6.908180117607116699e-01 2.804739028215408325e-02 7.365435361862182617e-02
-8.116201162338256836e-01 -3.085061907768249512e-04 2.405482716858386993e-02
-4.542138278484344482e-01 7.930606603622436523e-02 -4.766064137220382690e-02
-7.156273126602172852e-01 -1.155283302068710327e-03 -3.776805475354194641e-02
-5.162423253059387207e-01 1.116951927542686462e-02 -7.537710480391979218e-03
-8.170604109764099121e-01 1.040128096938133240e-01 3.543612733483314514e-02
-8.789162039756774902e-01 1.008838042616844177e-02 -3.322838991880416870e-02
-5.543121695518493652e-01 1.187535524368286133e-01 5.494503304362297058e-02
-8.218494653701782227e-01 7.639345526695251465e-02 6.215468421578407288e-02
-7.746855616569519043e-01 9.029362350702285767e-02 6.480225175619125366e-02
-8.310279846191406250e-01 6.585575640201568604e-03 3.374571725726127625e-02
-6.093873381614685059e-01 1.054162979125976562e-01 -5.932080745697021484e-02
-6.919420361518859863e-01 1.271029561758041382e-01 2.308693341910839081e-02
-5.341430306434631348e-01 7.178496569395065308e-03 -1.446429407224059105e-03
-6.354501247406005859e-01 5.705731362104415894e-02 8.600129932165145874e-02
-7.594258189201354980e-01 9.611340612173080444e-02 -6.169147044420242310e-02
-5.283663868904113770e-01 2.722527831792831421e-02 -4.765319451689720154e-02
-6.909918785095214844e-01 3.141929581761360168e-02 -7.385491579771041870e-02
-6.309006214141845703e-01 8.959340304136276245e-02 -7.160006463527679443e-02
-8.128355145454406738e-01 5.170790106058120728e-02 -7.364021241664886475e-02
-3.941900134086608887e-01 7.647401839494705200e-02 -2.136015146970748901e-02
-7.206334471702575684e-01 6.758254766464233398e-02 -7.957894355058670044e-02
-4.822839796543121338e-01 7.562407851219177246e-02 -5.606287717819213867e-02
-4.433203935623168945e-01 4.881007969379425049e-02 -3.668266162276268005e-02
7.738956212997436523e-01 4.418328404426574707e-03 7.095284759998321533e-03
9.570553898811340332e-01 -4.871902242302894592e-02 3.206952661275863647e-02
9.198743700981140137e-01 -2.873034682124853134e-03 -7.107581943273544312e-02
8.389594554901123047e-01 -7.302174717187881470e-02 -5.033934861421585083e-02
7.801847457885742188e-01 2.128938958048820496e-02 -6.929987110197544098e-03
9.294692873954772949e-01 -7.397536933422088623e-02 -2.336230501532554626e-02
7.841520309448242188e-01 -2.159100025892257690e-03 -4.339615255594253540e-02
9.584134817123413086e-01 -1.859128475189208984e-02 -4.400039091706275940e-02
9.345800876617431641e-01 -6.147936359047889709e-02 -3.960036858916282654e-02
8.051257133483886719e-01 -5.154578387737274170e-02 -5.208033695816993713e-02
8.173428773880004883e-01 4.033223539590835571e-02 4.309406504034996033e-02
8.736090064048767090e-01 -1.900688745081424713e-02 8.106222003698348999e-02
9.139587879180908203e-01 6.434173882007598877e-02 2.759781107306480408e-02
8.450389504432678223e-01 -5.489013344049453735e-02 6.229192763566970825e-02
8.349066972732543945e-01 -7.853522151708602905e-02 -4.018058255314826965e-02
9.601852297782897949e-01 3.412428498268127441e-02 -1.871287077665328979e-02
9.611916542053222656e-01 -3.610480949282646179e-02 -3.255188837647438049e-02
9.387887716293334961e-01 -3.193515539169311523e-02 -5.761780217289924622e-02
9.065496325492858887e-01 -8.711434155702590942e-02 4.544404800981283188e-03
9.107471704483032227e-01 6.716977059841156006e-02 -1.072998624294996262e-02
9.761686921119689941e-01 1.487564388662576675e-02 3.906110068783164024e-03
8.401120305061340332e-01 -1.860835403203964233e-02 7.488367706537246704e-02
9.181115627288818359e-01 4.068011045455932617e-02 -5.231929942965507507e-02
9.311303496360778809e-01 -7.733418792486190796e-02 2.578492742031812668e-03
8.025524020195007324e-01 -7.226363569498062134e-02 -4.043774679303169250e-03
9.530727863311767578e-01 -4.425083845853805542e-02 -3.718065470457077026e-02
8.456575274467468262e-01 -5.292165651917457581e-02 -6.956514716148376465e-02
9.566157460212707520e-01 4.253720119595527649e-02 -8.425943553447723389e-03
8.797053694725036621e-01 6.052350252866744995e-02 4.521102458238601685e-02
9.354236721992492676e-01 3.448737412691116333e-02 5.674934759736061096e-02
8.040403723716735840e-01 -5.203612614423036575e-03 -6.304349750280380249e-02
8.595378994941711426e-01 -8.057333528995513916e-02 3.826408088207244873e-02
8.784515261650085449e-01 -3.023738041520118713e-02 7.881144434213638306e-02
7.883092164993286133e-01 -1.444362848997116089e-02 4.156544432044029236e-02
8.079563379287719727e-01 -2.888847142457962036e-02 -6.470098346471786499e-02
7.765617370605468750e-01 -2.766137477010488510e-03 2.127674594521522522e-02
8.364079594612121582e-01 2.393413335084915161e-02 -6.807346642017364502e-02
8.218240141868591309e-01 -7.724366337060928345e-02 2.290158718824386597e-02
9.491213560104370117e-01 4.724507033824920654e-02 -1.440167892724275589e-02
9.586650133132934570e-01 2.996264770627021790e-02 -2.712540514767169952e-02
9.253638386726379395e-01 6.408295780420303345e-02 5.727821495383977890e-03
8.613914251327514648e-01 -8.814166486263275146e-02 -2.854714356362819672e-02
9.300945997238159180e-01 8.905322290956974030e-03 -6.395240873098373413e-02
8.101248741149902344e-01 4.748858511447906494e-02 2.296220511198043823e-02
9.738259315490722656e-01 -4.242746159434318542e-03 3.220584243535995483e-02
8.046889901161193848e-01 -4.246002994477748871e-03 5.688416212797164917e-02
8.851609230041503906e-01 -8.968977630138397217e-02 -1.956481486558914185e-02
8.543203473091125488e-01 -5.656552314758300781e-02 6.351365894079208374e-02
7.731813192367553711e-01 -3.174015134572982788e-02 -1.358964294195175171e-02
9.601516723632812500e-01 -2.250050753355026245e-02 4.890595003962516785e-02
8.525192737579345703e-01 -4.458773508667945862e-02 -7.480028271675109863e-02
8.412297964096069336e-01 -8.917342126369476318e-02 -6.691071903333067894e-04
9.117466211318969727e-01 3.449155017733573914e-02 -5.996059998869895935e-02
9.471672773361206055e-01 2.865966036915779114e-02 5.243128910660743713e-02
8.691262006759643555e-01 -5.554727464914321899e-02 6.637894362211227417e-02
8.815696835517883301e-01 7.136015594005584717e-02 -9.725918062031269073e-03
8.436126112937927246e-01 -3.006840869784355164e-02 -7.796426862478256226e-02
8.584356307983398438e-01 -2.311109751462936401e-02 -8.102093636989593506e-02
7.788718342781066895e-01 -4.624187201261520386e-02 -2.076988806948065758e-03
8.150336742401123047e-01 -5.278266500681638718e-03 6.401815265417098999e-02
8.231536746025085449e-01 -3.717926889657974243e-02 -7.002436369657516479e-02
9.007231593132019043e-01 -8.173660933971405029e-02 -3.383594378829002380e-02
9.005457162857055664e-01 5.245532467961311340e-02 -4.698433354496955872e-02
8.510151505470275879e-01 -6.320699304342269897e-02 5.741442739963531494e-02
8.891277313232421875e-01 -8.542089909315109253e-02 -3.145437315106391907e-02
9.264302253723144531e-01 -3.071591258049011230e-02 -6.561929732561111450e-02
8.472064137458801270e-01 6.539101898670196533e-02 2.267311699688434601e-02
9.680203795433044434e-01 -4.242430254817008972e-02 -7.778764236718416214e-03
7.703430652618408203e-01 -1.249846816062927246e-02 -9.202992543578147888e-03
9.386577606201171875e-01 4.652236774563789368e-02 4.176023975014686584e-02
7.993878126144409180e-01 -5.191305279731750488e-02 3.615331649780273438e-02
8.911815881729125977e-01 -3.749721497297286987e-02 -7.589246332645416260e-02
8.846286535263061523e-01 -2.575099468231201172e-02 -7.983404397964477539e-02
8.826053142547607422e-01 5.717616528272628784e-02 -4.444420337677001953e-02
9.507889151573181152e-01 -6.263108551502227783e-02 -9.828733280301094055e-03
9.638206958770751953e-01 -6.990251131355762482e-03 -3.858223557472229004e-02
9.781556725502014160e-01 -1.759544387459754944e-02 -2.855713712051510811e-03
8.252544999122619629e-01 -8.152201026678085327e-02 -2.501281350851058960e-02
9.433021545410156250e-01 -5.307243391871452332e-02 4.427326098084449768e-02
9.367772340774536133e-01 -6.856817752122879028e-02 -2.526082098484039307e-02
8.425919413566589355e-01 5.630656331777572632e-02 4.021304100751876831e-02
8.451962471008300781e-01 -8.854565024375915527e-02 1.134146284312009811e-02
9.059287905693054199e-01 -2.668128162622451782e-02 7.720795273780822754e-02
8.430968523025512695e-01 -8.277295529842376709e-02 -3.603879362344741821e-02
8.854880928993225098e-01 -3.469247743487358093e-02 7.727101445198059082e-02
8.189406394958496094e-01 3.677952289581298828e-02 -5.020854622125625610e-02
8.436459898948669434e-01 4.928561300039291382e-02 5.048239976167678833e-02
8.992786407470703125e-01 -8.914855122566223145e-02 -3.589529311284422874e-03
9.383197426795959473e-01 -6.468330323696136475e-02 3.340300917625427246e-02
9.376587867736816406e-01 8.021195419132709503e-03 -5.974134057760238647e-02
9.492449164390563965e-01 -4.338113591074943542e-03 -5.353271588683128357e-02
9.239378571510314941e-01 2.149049937725067139e-02 -6.234428286552429199e-02
9.639700055122375488e-01 -1.780122518539428711e-02 -3.731499612331390381e-02
8.494535684585571289e-01 -9.080129861831665039e-02 -6.972526200115680695e-03
9.158889055252075195e-01 2.304956316947937012e-02 -6.514107435941696167e-02
9.633355736732482910e-01 -4.764624312520027161e-02 1.956236921250820160e-02
8.314955234527587891e-01 -8.649371564388275146e-02 -8.713389746844768524e-03
8.087365031242370605e-01 -3.291503712534904480e-02 5.605184659361839294e-02
8.189892172813415527e-01 -7.981689274311065674e-02 1.104799006134271622e-02
8.047794699668884277e-01 -7.210516929626464844e-02 -1.994583755731582642e-02
