5.395793914794921875e-01 -1.371703445911407471e-01 -3.141785860061645508e-01
5.724346637725830078e-01 -1.752389520406723022e-01 5.278955698013305664e-01
7.172795534133911133e-01 -1.783374696969985962e-01 2.187956869602203369e-01
4.965791106224060059e-01 -1.463547199964523315e-01 5.650865435600280762e-01
3.666320741176605225e-01 -1.380877643823623657e-01 4.435960352420806885e-01
7.004611492156982422e-01 -1.830397844314575195e-01 -2.220263704657554626e-02
3.419451713562011719e-01 -1.323081851005554199e-01 -1.436033099889755249e-01
3.640111982822418213e-01 -1.373541206121444702e-01 -3.755640685558319092e-01
2.147361487150192261e-01 -1.544671058654785156e-01 4.917802214622497559e-01
3.970500230789184570e-01 -1.322865933179855347e-01 -1.853747963905334473e-01
5.709258317947387695e-01 -1.398455053567886353e-01 3.458624780178070068e-01
6.067600250244140625e-01 -1.369172185659408569e-01 -6.521312892436981201e-02
6.491603851318359375e-01 -1.446598917245864868e-01 3.096428215503692627e-01
4.059308171272277832e-01 -1.738572865724563599e-01 -5.104529857635498047e-01
3.304327726364135742e-01 -1.808285117149353027e-01 -2.336589246988296509e-01
2.095288485288619995e-01 -1.462364345788955688e-01 4.211951196193695068e-01
2.034551501274108887e-01 -1.391343474388122559e-01 -1.261323541402816772e-01
6.868683695793151855e-01 -1.834689974784851074e-01 9.683163464069366455e-02
5.973036885261535645e-01 -1.370520740747451782e-01 -1.560853123664855957e-01
5.166279077529907227e-01 -1.884509176015853882e-01 9.271249175071716309e-02
3.371734619140625000e-01 -1.828514784574508667e-01 2.339531928300857544e-01
6.542144417762756348e-01 -1.768384873867034912e-01 4.079946875572204590e-01
1.650977730751037598e-01 -1.646596193313598633e-01 2.693993449211120605e-01
3.772075772285461426e-01 -1.311080902814865112e-01 -5.944735184311866760e-02
3.569796681404113770e-01 -1.759600192308425903e-01 -4.239568412303924561e-01
3.318886160850524902e-01 -1.330546885728836060e-01 -1.802216470241546631e-01
1.720196604728698730e-01 -1.408172547817230225e-01 2.562647312879562378e-02
5.180848836898803711e-01 -1.462630927562713623e-01 -5.418538451194763184e-01
4.542839527130126953e-01 -1.313532292842864990e-01 4.925577715039253235e-02
4.657599627971649170e-01 -1.371766030788421631e-01 -3.809950351715087891e-01
3.029304146766662598e-01 -1.369843930006027222e-01 3.721066713333129883e-01
4.521213471889495850e-01 -1.829217076301574707e-01 3.974626362323760986e-01
6.825128197669982910e-01 -1.830873042345046997e-01 1.500594913959503174e-01
3.606520295143127441e-01 -1.401811540126800537e-01 4.896405637264251709e-01
5.429165363311767578e-01 -1.799529194831848145e-01 4.673803150653839111e-01
6.170263886451721191e-01 -1.464457362890243530e-01 4.254125356674194336e-01
3.516065478324890137e-01 -1.806648820638656616e-01 -2.882741391658782959e-01
4.774143993854522705e-01 -1.736064106225967407e-01 5.876764655113220215e-01
4.621013998985290527e-01 -1.421462744474411011e-01 -4.968264997005462646e-01
1.866646409034729004e-01 -1.688354164361953735e-01 -1.426368653774261475e-01
4.869396686553955078e-01 -1.320461332798004150e-01 -5.379028245806694031e-02
7.004586458206176758e-01 -1.820813715457916260e-01 1.255542039871215820e-01
2.854761481285095215e-01 -1.351632177829742432e-01 2.788656055927276611e-01
4.533613324165344238e-01 -1.315400004386901855e-01 9.534175693988800049e-02
5.055019855499267578e-01 -1.590900421142578125e-01 -6.306817531585693359e-01
3.873418271541595459e-01 -1.798775941133499146e-01 4.412443637847900391e-01
4.066668450832366943e-01 -1.723413914442062378e-01 5.918331146240234375e-01
7.775261402130126953e-01 -1.638716459274291992e-01 -1.985656917095184326e-01
4.785931706428527832e-01 -1.840585172176361084e-01 -3.213818073272705078e-01
6.774353981018066406e-01 -1.534469872713088989e-01 -4.484548866748809814e-01
6.116693019866943359e-01 -1.872921139001846313e-01 5.750738084316253662e-02
3.436721265316009521e-01 -1.370049715042114258e-01 4.051491916179656982e-01
6.352655887603759766e-01 -1.388742774724960327e-01 -8.906029164791107178e-02
5.618901252746582031e-01 -1.858795881271362305e-01 -2.488519996404647827e-01
7.708100080490112305e-01 -1.561047136783599854e-01 3.907704353332519531e-02
4.595500528812408447e-01 -1.812954396009445190e-01 -3.973486721515655518e-01
1.806156039237976074e-01 -1.706075966358184814e-01 2.898933552205562592e-02
2.442492544651031494e-01 -1.540899574756622314e-01 5.409424901008605957e-01
3.348288536071777344e-01 -1.823194324970245361e-01 -1.708436310291290283e-01
3.004823327064514160e-01 -1.803977489471435547e-01 -1.589617133140563965e-01
4.712633490562438965e-01 -1.828108280897140503e-01 -3.598086833953857422e-01
6.720387935638427734e-01 -1.823176443576812744e-01 -2.420007139444351196e-01
2.870815992355346680e-01 -1.340146213769912720e-01 2.192327827215194702e-01
2.059301733970642090e-01 -1.740076690912246704e-01 5.794716626405715942e-02
5.496360063552856445e-01 -1.882626116275787354e-01 -7.184474170207977295e-02
5.758277773857116699e-01 -1.647997945547103882e-01 6.024323701858520508e-01
4.246981441974639893e-01 -1.411480903625488281e-01 -4.800564944744110107e-01
3.926919698715209961e-01 -1.863258630037307739e-01 -3.340752050280570984e-02
6.362276673316955566e-01 -1.408157646656036377e-01 2.056463956832885742e-01
5.209542512893676758e-01 -1.869136989116668701e-01 2.380256801843643188e-01
4.027073085308074951e-01 -1.327869445085525513e-01 -2.174339443445205688e-01
4.865880906581878662e-01 -1.865029335021972656e-01 -2.150243371725082397e-01
1.734020709991455078e-01 -1.414541751146316528e-01 1.681399345397949219e-01
5.489240884780883789e-01 -1.367896199226379395e-01 2.725192606449127197e-01
2.358601242303848267e-01 -1.357475966215133667e-01 1.654030978679656982e-01
5.184494256973266602e-01 -1.866597533226013184e-01 -2.179680764675140381e-01
6.068146228790283203e-01 -1.467890888452529907e-01 -4.704316556453704834e-01
7.178503274917602539e-01 -1.527838855981826782e-01 2.840960919857025146e-01
6.039860844612121582e-01 -1.431345343589782715e-01 3.764168620109558105e-01
4.334496855735778809e-01 -1.312381625175476074e-01 -6.723582744598388672e-02
4.419391453266143799e-01 -1.502020061016082764e-01 6.281739473342895508e-01
3.944847881793975830e-01 -1.787054240703582764e-01 -4.084484577178955078e-01
6.026086807250976562e-01 -1.365911811590194702e-01 -3.509849682450294495e-02
3.234587311744689941e-01 -1.795218288898468018e-01 3.595321774482727051e-01
4.731796085834503174e-01 -1.574330031871795654e-01 6.590104699134826660e-01
3.775168061256408691e-01 -1.340011060237884521e-01 -2.697238922119140625e-01
5.121877789497375488e-01 -1.354085206985473633e-01 2.781690955162048340e-01
4.539614021778106689e-01 -1.573764383792877197e-01 -6.286561489105224609e-01
3.403626680374145508e-01 -1.420973092317581177e-01 5.173738598823547363e-01
1.938180625438690186e-01 -1.681085973978042603e-01 -2.001550346612930298e-01
3.831585645675659180e-01 -1.443800032138824463e-01 -5.190500020980834961e-01
4.229500889778137207e-01 -1.873863786458969116e-01 1.933668367564678192e-02
5.983501076698303223e-01 -1.872301846742630005e-01 1.231718659400939941e-01
4.402062296867370605e-01 -1.316223442554473877e-01 -1.131713539361953735e-01
3.297045230865478516e-01 -1.314724832773208618e-01 2.145809493958950043e-02
4.858322441577911377e-01 -1.858207285404205322e-01 -2.509285509586334229e-01
3.139416277408599854e-01 -1.800688803195953369e-01 3.156634569168090820e-01
3.574975728988647461e-01 -1.732830554246902466e-01 5.488104224205017090e-01
6.035964488983154297e-01 -1.848105490207672119e-01 -2.617604434490203857e-01
2.164092063903808594e-01 -1.363820880651473999e-01 3.624264150857925415e-02
3.644247651100158691e-01 -1.309814006090164185e-01 2.949507534503936768e-02
5.640600919723510742e-01 -1.347327828407287598e-01 -7.185563445091247559e-02
2.354947179555892944e-01 -1.355810314416885376e-01 -6.108032539486885071e-02
6.685299873352050781e-01 -1.821434199810028076e-01 2.438376843929290771e-01
2.559356391429901123e-01 -1.777628809213638306e-01 2.173352092504501343e-01
5.307869911193847656e-01 -1.769122928380966187e-01 -5.039819478988647461e-01
6.504089832305908203e-01 -1.780776977539062500e-01 -4.032571017742156982e-01
1.679800152778625488e-01 -1.470308005809783936e-01 -1.962944269180297852e-01
4.491595923900604248e-01 -1.335392147302627563e-01 -2.471844702959060669e-01
3.430454134941101074e-01 -1.764696389436721802e-01 -3.931176662445068359e-01
3.165963888168334961e-01 -1.807893812656402588e-01 -1.954058259725570679e-01
2.312261015176773071e-01 -1.362323164939880371e-01 -9.255209565162658691e-02
7.027251124382019043e-01 -1.459849923849105835e-01 1.359370052814483643e-01
6.665437817573547363e-01 -1.424183994531631470e-01 1.497488319873809814e-01
1.809665858745574951e-01 -1.703266650438308716e-01 -1.676546409726142883e-02
7.593944072723388672e-01 -1.686742454767227173e-01 2.262498736381530762e-01
5.339754223823547363e-01 -1.836446523666381836e-01 3.752450942993164062e-01
3.597902655601501465e-01 -1.689604073762893677e-01 6.033529639244079590e-01
6.619260311126708984e-01 -1.854395121335983276e-01 -1.748953759670257568e-02
4.110235571861267090e-01 -1.688934117555618286e-01 -5.721122026443481445e-01
4.767898023128509521e-01 -1.785912960767745972e-01 5.106585621833801270e-01
6.562146544456481934e-01 -1.808262169361114502e-01 -3.276097774505615234e-01
5.189562439918518066e-01 -1.340333521366119385e-01 1.831871420145034790e-01
6.446633338928222656e-01 -1.463683098554611206e-01 3.655147850513458252e-01
4.938819408416748047e-01 -1.879340708255767822e-01 1.557241529226303101e-01
5.463697910308837891e-01 -1.392653882503509521e-01 3.699500858783721924e-01
7.551497220993041992e-01 -1.639994233846664429e-01 2.584236860275268555e-01
7.618670463562011719e-01 -1.758663356304168701e-01 -6.243688985705375671e-02
3.128267526626586914e-01 -1.426875144243240356e-01 -4.425837993621826172e-01
5.680124759674072266e-01 -1.359038352966308594e-01 1.678666323423385620e-01
6.249415874481201172e-01 -1.383734643459320068e-01 -1.183782666921615601e-01
2.537553608417510986e-01 -1.429770886898040771e-01 4.508136212825775146e-01
2.738063037395477295e-01 -1.769588291645050049e-01 3.287854790687561035e-01
7.245137095451354980e-01 -1.474745720624923706e-01 -8.898052573204040527e-02
5.135912895202636719e-01 -1.366716474294662476e-01 3.298074007034301758e-01
3.512299358844757080e-01 -1.846783459186553955e-01 1.141086965799331665e-01
2.780085802078247070e-01 -1.803760677576065063e-01 -2.374489977955818176e-02
5.703741312026977539e-01 -1.876378953456878662e-01 1.434062570333480835e-01
6.081962585449218750e-01 -1.793827265501022339e-01 -4.226833581924438477e-01
3.269484043121337891e-01 -1.345448344945907593e-01 -2.492776066064834595e-01
7.241759896278381348e-01 -1.472359895706176758e-01 -4.568422213196754456e-02
5.804829597473144531e-01 -1.410903334617614746e-01 -3.826082050800323486e-01
4.933454394340515137e-01 -1.388136595487594604e-01 -4.128929972648620605e-01
4.134002923965454102e-01 -1.309943199157714844e-01 7.119910418987274170e-02
6.402717828750610352e-01 -1.454825848340988159e-01 -3.870874941349029541e-01
5.154403448104858398e-01 -1.383590549230575562e-01 3.850541412830352783e-01
6.128095388412475586e-01 -1.833921670913696289e-01 3.115297853946685791e-01
5.474286675453186035e-01 -1.459936648607254028e-01 5.170243382453918457e-01
6.106269359588623047e-01 -1.809916049242019653e-01 -3.826235830783843994e-01
6.017685532569885254e-01 -1.409309357404708862e-01 3.159740269184112549e-01
5.315679907798767090e-01 -1.422747373580932617e-01 4.661675095558166504e-01
3.318971991539001465e-01 -1.625029146671295166e-01 6.269550323486328125e-01
3.183330297470092773e-01 -1.391942501068115234e-01 -3.823774158954620361e-01
2.399337291717529297e-01 -1.699943989515304565e-01 -3.165650665760040283e-01
5.248529911041259766e-01 -1.873089075088500977e-01 -1.768686473369598389e-01
2.678697407245635986e-01 -1.336837559938430786e-01 1.217615753412246704e-01
4.437227249145507812e-01 -1.875918209552764893e-01 -6.013488397002220154e-02
2.836048603057861328e-01 -1.771600246429443359e-01 -2.476715594530105591e-01
4.496588408946990967e-01 -1.759958863258361816e-01 -5.042092800140380859e-01
1.570880115032196045e-01 -1.663068234920501709e-01 1.299321204423904419e-01
4.742649197578430176e-01 -1.509215384721755981e-01 6.248903274536132812e-01
2.442717552185058594e-01 -1.774846166372299194e-01 -4.096326604485511780e-02
1.337198317050933838e-01 -1.489613354206085205e-01 1.007703840732574463e-01
6.954329609870910645e-01 -1.798558384180068970e-01 -2.706065773963928223e-01
5.829281806945800781e-01 -1.444202959537506104e-01 4.431008100509643555e-01
4.963518381118774414e-01 -1.819826066493988037e-01 4.329107999801635742e-01
5.081403255462646484e-01 -1.794372498989105225e-01 -4.571986794471740723e-01
2.825163900852203369e-01 -1.795169264078140259e-01 -1.338951289653778076e-01
7.080075740814208984e-01 -1.738226264715194702e-01 -3.748054802417755127e-01
4.397620260715484619e-01 -1.409545689821243286e-01 5.039712786674499512e-01
3.833893835544586182e-01 -1.816867142915725708e-01 -3.077839612960815430e-01
3.701888620853424072e-01 -1.314519345760345459e-01 -1.002696603536605835e-01
4.218737483024597168e-01 -1.844241619110107422e-01 3.183184862136840820e-01
4.413917660713195801e-01 -1.316294521093368530e-01 1.322798430919647217e-01
3.854093253612518311e-01 -1.760339438915252686e-01 -4.557644724845886230e-01
3.069013357162475586e-01 -1.337621510028839111e-01 2.425900399684906006e-01
5.017654299736022949e-01 -1.330713778734207153e-01 -1.464363634586334229e-01
2.985058128833770752e-01 -1.501610279083251953e-01 -5.063986778259277344e-01
1.853492856025695801e-01 -1.711787283420562744e-01 1.202319711446762085e-01
4.408685863018035889e-01 -1.321392357349395752e-01 -1.625418066978454590e-01
6.747361421585083008e-01 -1.830489486455917358e-01 1.835577487945556641e-01
4.392724037170410156e-01 -1.836332678794860840e-01 -3.077564537525177002e-01
2.592469751834869385e-01 -1.791568547487258911e-01 3.056568652391433716e-02
4.607490003108978271e-01 -1.344699561595916748e-01 3.010236024856567383e-01
4.385590553283691406e-01 -1.864925473928451538e-01 -1.611134856939315796e-01
4.684393107891082764e-01 -1.881911158561706543e-01 7.845752686262130737e-02
3.618053197860717773e-01 -1.496200114488601685e-01 -5.598785877227783203e-01
6.922774910926818848e-01 -1.824885010719299316e-01 -1.635378748178482056e-01
5.562273263931274414e-01 -1.716397702693939209e-01 5.791019201278686523e-01
6.252282857894897461e-01 -1.869771480560302734e-01 -8.947458118200302124e-03
6.995168924331665039e-01 -1.463791280984878540e-01 1.756631135940551758e-01
4.615812301635742188e-01 -1.403534710407257080e-01 4.819592833518981934e-01
2.723733782768249512e-01 -1.801855564117431641e-01 7.300262153148651123e-02
2.535376548767089844e-01 -1.764406263828277588e-01 -1.688302904367446899e-01
6.245698928833007812e-01 -1.840082406997680664e-01 2.685743272304534912e-01
6.854521036148071289e-01 -1.710423827171325684e-01 4.243219196796417236e-01
6.552416086196899414e-01 -1.405653506517410278e-01 -1.163522899150848389e-01
4.375321269035339355e-01 -1.344075500965118408e-01 -2.929602563381195068e-01
2.063606381416320801e-01 -1.704857945442199707e-01 3.094286322593688965e-01
6.406413316726684570e-01 -1.863567233085632324e-01 3.537143766880035400e-02
3.148036003112792969e-01 -1.321380585432052612e-01 -6.469456851482391357e-02
6.111155748367309570e-01 -1.382082551717758179e-01 -1.841941177845001221e-01
3.907799422740936279e-01 -1.609064191579818726e-01 6.607298851013183594e-01
5.652394294738769531e-01 -1.686442196369171143e-01 -5.869970917701721191e-01
7.381996512413024902e-01 -1.788331568241119385e-01 -1.171270459890365601e-01
5.751700401306152344e-01 -1.441837996244430542e-01 -4.626431763172149658e-01
2.081881910562515259e-01 -1.741059571504592896e-01 5.001639015972614288e-03
2.733307480812072754e-01 -1.734389513731002808e-01 4.298084974288940430e-01
5.709518194198608398e-01 -1.462078392505645752e-01 4.928201138973236084e-01
6.259927153587341309e-01 -1.848282665014266968e-01 -2.273112535476684570e-01
6.441388726234436035e-01 -1.428153067827224731e-01 2.640682160854339600e-01
4.676992893218994141e-01 -1.848971247673034668e-01 3.315178155899047852e-01
4.168135821819305420e-01 -1.430285722017288208e-01 -5.108004212379455566e-01
1.617842316627502441e-01 -1.449411809444427490e-01 -1.211581826210021973e-01
6.239122152328491211e-01 -1.384231746196746826e-01 9.991192817687988281e-02
3.435302972793579102e-01 -1.822425723075866699e-01 2.882764935493469238e-01
7.597659826278686523e-01 -1.727620661258697510e-01 1.680267304182052612e-01
3.581497073173522949e-01 -1.310686320066452026e-01 -5.439579486846923828e-03
6.771467924118041992e-01 -1.506653875112533569e-01 3.705651462078094482e-01
6.598350405693054199e-01 -1.853588819503784180e-01 -7.159310579299926758e-02
3.876405060291290283e-01 -1.839056015014648438e-01 -2.215407192707061768e-01
3.894639015197753906e-01 -1.847977340221405029e-01 2.486139684915542603e-01
2.850973606109619141e-01 -1.333057731389999390e-01 1.573920547962188721e-01
5.360283851623535156e-01 -1.491737365722656250e-01 5.703398585319519043e-01
4.872961640357971191e-01 -1.334277391433715820e-01 -2.028769254684448242e-01
5.307562947273254395e-01 -1.854391396045684814e-01 3.099018931388854980e-01
1.708176732063293457e-01 -1.490029543638229370e-01 -2.332656532526016235e-01
2.207177281379699707e-01 -1.701641678810119629e-01 -2.540728449821472168e-01
3.905531466007232666e-01 -1.363800168037414551e-01 -3.604981601238250732e-01
3.670152723789215088e-01 -1.333710402250289917e-01 2.782365977764129639e-01
4.422027170658111572e-01 -1.328744739294052124e-01 2.338879257440567017e-01
6.075353622436523438e-01 -1.445080041885375977e-01 -4.252077043056488037e-01
5.906803011894226074e-01 -1.847788691520690918e-01 2.889226675033569336e-01
6.400224566459655762e-01 -1.750110238790512085e-01 -4.682658612728118896e-01
5.203157067298889160e-01 -1.357710063457489014e-01 -2.830245196819305420e-01
3.333706855773925781e-01 -1.470798850059509277e-01 -5.170262455940246582e-01
5.527274012565612793e-01 -1.341438293457031250e-01 3.175266087055206299e-02
3.589818477630615234e-01 -1.794240027666091919e-01 -3.418864905834197998e-01
3.341474533081054688e-01 -1.836356222629547119e-01 1.495511680841445923e-01
4.122721254825592041e-01 -1.869650483131408691e-01 9.834060072898864746e-02
4.274486899375915527e-01 -1.844193637371063232e-01 -2.620549798011779785e-01
7.261189818382263184e-01 -1.791360825300216675e-01 1.480602920055389404e-01
4.378938078880310059e-01 -1.876469552516937256e-01 -2.304927632212638855e-02
3.080417811870574951e-01 -1.692734509706497192e-01 5.529150962829589844e-01
6.784852147102355957e-01 -1.427144855260848999e-01 8.547294139862060547e-02
5.663642287254333496e-01 -1.883333921432495117e-01 2.447946555912494659e-02
4.320285320281982422e-01 -1.810376346111297607e-01 -3.848779201507568359e-01
6.223696470260620117e-01 -1.738721728324890137e-01 -5.012376904487609863e-01
1.770823299884796143e-01 -1.402772516012191772e-01 1.031115204095840454e-01
1.476695835590362549e-01 -1.460488587617874146e-01 -5.005087330937385559e-02
2.817287445068359375e-01 -1.787643581628799438e-01 2.766298353672027588e-01
4.184097349643707275e-01 -1.372323781251907349e-01 4.215583503246307373e-01
4.436720013618469238e-01 -1.445657759904861450e-01 5.645163655281066895e-01
2.993320226669311523e-01 -1.395395100116729736e-01 4.372534453868865967e-01
5.414500236511230469e-01 -1.757508069276809692e-01 5.409235954284667969e-01
7.184704542160034180e-01 -1.762321591377258301e-01 -3.036976158618927002e-01
3.628913164138793945e-01 -1.342497467994689941e-01 3.175611197948455811e-01
5.115475654602050781e-01 -1.568761467933654785e-01 6.419201493263244629e-01
7.491891384124755859e-01 -1.599268019199371338e-01 -3.178023695945739746e-01
4.074065089225769043e-01 -1.317958533763885498e-01 1.793355643749237061e-01
4.876020550727844238e-01 -1.836419105529785156e-01 3.832181394100189209e-01
6.680499911308288574e-01 -1.848693788051605225e-01 7.036288082599639893e-02
5.653169155120849609e-01 -1.351627558469772339e-01 1.118122637271881104e-01
5.284206271171569824e-01 -1.721793860197067261e-01 -5.674379467964172363e-01
2.106520235538482666e-01 -1.733908355236053467e-01 -8.795784413814544678e-02
5.116387605667114258e-01 -1.369010359048843384e-01 -3.393551409244537354e-01
3.951212167739868164e-01 -1.862106919288635254e-01 1.398882269859313965e-01
3.677225410938262939e-01 -1.848191916942596436e-01 1.857832670211791992e-01
7.393738031387329102e-01 -1.626684665679931641e-01 3.142934441566467285e-01
3.708223104476928711e-01 -1.361384242773056030e-01 3.892911076545715332e-01
6.849300861358642578e-01 -1.428327709436416626e-01 7.270016707479953766e-03
1.997681856155395508e-01 -1.725672334432601929e-01 1.749064326286315918e-01
4.703883230686187744e-01 -1.873545348644256592e-01 -1.411599665880203247e-01
4.010633528232574463e-01 -1.489247381687164307e-01 6.195667386054992676e-01
3.741794228553771973e-01 -1.858239024877548218e-01 2.966526709496974945e-02
3.686493933200836182e-01 -1.601365059614181519e-01 -5.910862088203430176e-01
2.917896509170532227e-01 -1.813472658395767212e-01 1.254363954067230225e-01
5.712380409240722656e-01 -1.422259211540222168e-01 4.122738242149353027e-01
7.039519548416137695e-01 -1.487598419189453125e-01 2.414351254701614380e-01
5.817499756813049316e-01 -1.878649294376373291e-01 8.826650679111480713e-02
6.025346517562866211e-01 -1.377409100532531738e-01 1.616761684417724609e-01
6.668658852577209473e-01 -1.433169990777969360e-01 1.972713470458984375e-01
3.503069281578063965e-01 -1.838087290525436401e-01 -1.235319674015045166e-01
6.692646145820617676e-01 -1.413518935441970825e-01 -3.486287593841552734e-02
4.871866106986999512e-01 -1.680840551853179932e-01 -6.041225194931030273e-01
4.093866944313049316e-01 -1.337397396564483643e-01 -2.669193148612976074e-01
3.545310199260711670e-01 -1.795161366462707520e-01 4.129988551139831543e-01
2.766472399234771729e-01 -1.330226957798004150e-01 3.332383930683135986e-02
2.960754036903381348e-01 -1.813105642795562744e-01 1.671131551265716553e-01
6.027364134788513184e-01 -1.365948021411895752e-01 5.946101620793342590e-03
2.075764834880828857e-01 -1.726401150226593018e-01 2.310007810592651367e-01
6.509394049644470215e-01 -1.417504698038101196e-01 -2.292287647724151611e-01
4.271396696567535400e-01 -1.855045109987258911e-01 2.695388197898864746e-01
7.804119586944580078e-01 -1.643097400665283203e-01 1.156636923551559448e-01
6.163122653961181641e-01 -1.398570984601974487e-01 2.319941073656082153e-01
2.433366626501083374e-01 -1.761419922113418579e-01 -1.344858556985855103e-01
2.720405757427215576e-01 -1.344760805368423462e-01 -1.364640891551971436e-01
2.688273787498474121e-01 -1.357754021883010864e-01 -1.982673406600952148e-01
4.750162065029144287e-01 -1.328170299530029297e-01 1.873025447130203247e-01
3.100005090236663818e-01 -1.809823065996170044e-01 2.579927146434783936e-01
5.764778852462768555e-01 -1.517107784748077393e-01 -5.645419359207153320e-01
1.901843249797821045e-01 -1.406349986791610718e-01 2.314519435167312622e-01
4.381792545318603516e-01 -1.818176507949829102e-01 4.246154129505157471e-01
6.772618293762207031e-01 -1.795503199100494385e-01 3.048497140407562256e-01
4.914080202579498291e-01 -1.321722716093063354e-01 6.319236755371093750e-02
5.612504482269287109e-01 -1.358643621206283569e-01 -2.032371163368225098e-01
3.145944476127624512e-01 -1.826305091381072998e-01 -4.741406813263893127e-02
4.097539186477661133e-01 -1.794914305210113525e-01 4.692482352256774902e-01
3.204789459705352783e-01 -1.770629286766052246e-01 -3.393204808235168457e-01
4.122576117515563965e-01 -1.394115239381790161e-01 -4.433881938457489014e-01
2.181835025548934937e-01 -1.394295096397399902e-01 -1.969601660966873169e-01
2.377125769853591919e-01 -1.409769952297210693e-01 -2.932124435901641846e-01
7.111459970474243164e-01 -1.818652451038360596e-01 6.403753161430358887e-02
7.027627825736999512e-01 -1.570633798837661743e-01 3.873911201953887939e-01
6.049956083297729492e-01 -1.872771084308624268e-01 -8.555297553539276123e-02
2.236539274454116821e-01 -1.718832701444625854e-01 3.344619870185852051e-01
1.762562692165374756e-01 -1.688896119594573975e-01 -6.574752926826477051e-02
3.955479264259338379e-01 -1.854846775531768799e-01 -1.412400603294372559e-01
1.915355324745178223e-01 -1.635861396789550781e-01 3.958429098129272461e-01
4.090267419815063477e-01 -1.308927237987518311e-01 -1.417529210448265076e-02
6.566270589828491211e-01 -1.818959563970565796e-01 2.821672558784484863e-01
4.632049798965454102e-01 -1.386179924011230469e-01 4.396598637104034424e-01
1.749272644519805908e-01 -1.644834876060485840e-01 3.218623995780944824e-01
5.485523939132690430e-01 -1.454238742589950562e-01 -5.101581811904907227e-01
7.820668220520019531e-01 -1.667648702859878540e-01 -1.572209000587463379e-01
3.875133991241455078e-01 -1.749263852834701538e-01 5.454846620559692383e-01
7.148442268371582031e-01 -1.795304715633392334e-01 1.865875720977783203e-01
1.387220919132232666e-01 -1.606463342905044556e-01 1.654515117406845093e-01
7.455860972404479980e-01 -1.785144805908203125e-01 -1.111857034265995026e-02
5.202116966247558594e-01 -1.721306741237640381e-01 5.934692025184631348e-01
5.954086780548095703e-01 -1.405379027128219604e-01 -3.390753269195556641e-01
5.821062922477722168e-01 -1.770834624767303467e-01 -4.842373430728912354e-01
6.014121174812316895e-01 -1.821473687887191772e-01 3.659928441047668457e-01
3.844643533229827881e-01 -1.697775423526763916e-01 -5.448915958404541016e-01
5.524857640266418457e-01 -1.378667205572128296e-01 3.109154403209686279e-01
7.225626707077026367e-01 -1.800457835197448730e-01 -1.537838578224182129e-01
7.169662714004516602e-01 -1.464876681566238403e-01 3.183047473430633545e-02
4.637078344821929932e-01 -1.787557601928710938e-01 -4.595171809196472168e-01
3.825189769268035889e-01 -1.830970197916030884e-01 3.254940509796142578e-01
1.530137062072753906e-01 -1.653647869825363159e-01 -1.428335905075073242e-03
5.272333025932312012e-01 -1.886338144540786743e-01 1.315754838287830353e-02
6.210625767707824707e-01 -1.816559135913848877e-01 -3.536567091941833496e-01
4.901186525821685791e-01 -1.348532140254974365e-01 -2.783302962779998779e-01
3.992218375205993652e-01 -1.858086585998535156e-01 1.968712806701660156e-01
7.327172160148620605e-01 -1.484273523092269897e-01 -6.678581237792968750e-03
4.636051356792449951e-01 -1.427944451570510864e-01 5.286900997161865234e-01
7.106833457946777344e-01 -1.459740251302719116e-01 6.416423618793487549e-02
4.932769536972045898e-01 -1.773442924022674561e-01 -4.955976903438568115e-01
5.971695780754089355e-01 -1.871820986270904541e-01 -1.200596988201141357e-01
2.262445986270904541e-01 -1.358742266893386841e-01 1.094643026590347290e-01
5.333243608474731445e-01 -1.862076073884963989e-01 2.730389535427093506e-01
2.843169569969177246e-01 -1.760090142488479614e-01 -2.872270643711090088e-01
2.077862322330474854e-01 -1.528918445110321045e-01 -3.658143877983093262e-01
2.344091832637786865e-01 -1.628095358610153198e-01 -3.992169499397277832e-01
3.145111203193664551e-01 -1.828534901142120361e-01 -7.412133738398551941e-03
3.381089270114898682e-01 -1.736895292997360229e-01 5.236591100692749023e-01
3.350815176963806152e-01 -1.384518146514892578e-01 4.392139613628387451e-01
2.955142855644226074e-01 -1.818027198314666748e-01 3.869434446096420288e-02
4.478758573532104492e-01 -1.401080489158630371e-01 -4.593196511268615723e-01
6.378405094146728516e-01 -1.427082121372222900e-01 -3.133240640163421631e-01
6.096559762954711914e-01 -1.865829527378082275e-01 1.541978269815444946e-01
5.665355920791625977e-01 -1.820105612277984619e-01 4.036549031734466553e-01
4.318831861019134521e-01 -1.366691142320632935e-01 -3.742921054363250732e-01
5.381796360015869141e-01 -1.874030977487564087e-01 1.980938315391540527e-01
2.776249647140502930e-01 -1.331108212471008301e-01 -2.026706933975219727e-02
4.107176661491394043e-01 -1.854100823402404785e-01 -1.825402677059173584e-01
6.878634095191955566e-01 -1.821223497390747070e-01 -2.023781687021255493e-01
4.481200277805328369e-01 -1.353922337293624878e-01 -3.285000324249267578e-01
2.326158732175827026e-01 -1.716381162405014038e-01 3.706662952899932861e-01
4.943692982196807861e-01 -1.329619139432907104e-01 1.581805199384689331e-01
3.039480149745941162e-01 -1.815309077501296997e-01 -9.518824517726898193e-02
4.471033811569213867e-01 -1.867686957120895386e-01 2.125442624092102051e-01
1.426661908626556396e-01 -1.632051020860671997e-01 7.271134853363037109e-02
5.404859781265258789e-01 -1.336036771535873413e-01 -1.488149538636207581e-02
6.833864450454711914e-01 -1.836364716291427612e-01 -1.213743388652801514e-01
5.272418260574340820e-01 -1.849916279315948486e-01 -2.979939877986907959e-01
3.554627597332000732e-01 -1.771215647459030151e-01 4.758611321449279785e-01
3.682576417922973633e-01 -1.852316260337829590e-01 -6.046485528349876404e-02
5.213468074798583984e-01 -1.382776945829391479e-01 -3.752836585044860840e-01
5.319118499755859375e-01 -1.885929107666015625e-01 4.549808055162429810e-02
3.863838315010070801e-01 -1.460201740264892578e-01 5.877467989921569824e-01
-2.154840081930160522e-01 -6.455229222774505615e-02 2.138481736183166504e-01
-2.628407776355743408e-01 1.318896561861038208e-02 -4.433665275573730469e-01
-2.154716849327087402e-01 -2.860352024435997009e-02 2.649838477373123169e-02
-2.151000797748565674e-01 -4.367284476757049561e-02 -3.940529227256774902e-01
-2.167932987213134766e-01 -1.816339790821075439e-02 -2.320244014263153076e-01
-2.429221868515014648e-01 -6.675041466951370239e-02 -2.963354289531707764e-01
-2.178488373756408691e-01 -1.661471650004386902e-02 -1.595725864171981812e-01
-2.124154418706893921e-01 -5.614476650953292847e-02 -2.117249369621276855e-01
-2.193792015314102173e-01 -7.544846832752227783e-02 5.019105970859527588e-03
-2.536733746528625488e-01 -7.513400912284851074e-02 1.418914794921875000e-01
-2.177565395832061768e-01 -6.160378828644752502e-02 2.975318729877471924e-01
-2.659305036067962646e-01 -6.162766367197036743e-02 6.429991871118545532e-02
-2.261160910129547119e-01 -7.708753645420074463e-02 -8.989386260509490967e-02
-2.201636582612991333e-01 -2.453976124525070190e-02 1.310021281242370605e-01
-2.555840015411376953e-01 -6.860333681106567383e-02 -8.558581024408340454e-02
-2.550744414329528809e-01 1.464454084634780884e-02 -4.674961566925048828e-01
-2.247883528470993042e-01 -7.391887903213500977e-02 -1.622746586799621582e-01
-2.427673190832138062e-01 -6.921071559190750122e-02 5.193099975585937500e-01
-2.421697229146957397e-01 -7.995902001857757568e-02 4.357907176017761230e-02
-2.405437529087066650e-01 7.592577487230300903e-03 -5.379846692085266113e-01
-2.449239194393157959e-01 3.931086510419845581e-03 -6.245468258857727051e-01
-2.224435806274414062e-01 -7.883009314537048340e-02 1.111819669604301453e-01
-2.183518558740615845e-01 -1.942818984389305115e-02 -2.913574315607547760e-02
-2.197438925504684448e-01 -4.245622828602790833e-02 2.989449799060821533e-01
-2.772162556648254395e-01 -1.337710209190845490e-02 1.985519528388977051e-01
-2.331632971763610840e-01 4.178486764430999756e-03 -1.483978331089019775e-01
-2.515241801738739014e-01 -3.434798121452331543e-02 -5.975648760795593262e-01
-2.351247966289520264e-01 -7.820454984903335571e-02 3.968126773834228516e-01
-2.186777144670486450e-01 -7.533272355794906616e-02 6.199948489665985107e-02
-2.111635804176330566e-01 -5.714394897222518921e-02 1.862814277410507202e-02
-2.371059209108352661e-01 6.199218332767486572e-03 -9.421980381011962891e-02
-2.475868612527847290e-01 1.345804333686828613e-02 -1.397811174392700195e-01
-2.747547924518585205e-01 -4.640766978263854980e-02 6.163544952869415283e-02
-2.150271534919738770e-01 -2.296509221196174622e-02 -1.709437519311904907e-01
-2.482820898294448853e-01 1.486841216683387756e-02 -4.187004268169403076e-01
-2.267923802137374878e-01 -3.401990979909896851e-02 3.657741844654083252e-01
-2.510853707790374756e-01 -6.551702320575714111e-02 -2.368020117282867432e-01
-2.774200737476348877e-01 -1.508831232786178589e-02 -2.947956919670104980e-01
-2.493339031934738159e-01 -5.028359591960906982e-02 -4.749382138252258301e-01
-2.641264498233795166e-01 -6.357201933860778809e-02 3.084343969821929932e-01
-2.806602120399475098e-01 -2.027807757258415222e-02 -7.716086506843566895e-02
-2.719223201274871826e-01 1.041587814688682556e-02 -1.600127816200256348e-01
-2.257626652717590332e-01 -8.075809478759765625e-02 1.582016646862030029e-01
-2.222533971071243286e-01 -2.518103457987308502e-02 -5.561589002609252930e-01
-2.664410471916198730e-01 -6.193316355347633362e-02 1.740455329418182373e-01
-2.486202567815780640e-01 -7.721487432718276978e-02 3.424933552742004395e-01
-2.286786139011383057e-01 -8.299348875880241394e-03 -5.768706798553466797e-01
-2.359869778156280518e-01 -7.107752561569213867e-02 -2.515065968036651611e-01
-2.292081415653228760e-01 -1.852732151746749878e-03 -7.269558310508728027e-02
-2.322018891572952271e-01 -4.915403574705123901e-02 -5.348199605941772461e-01
-2.301685661077499390e-01 -6.395814567804336548e-02 -3.675805926322937012e-01
-2.141618877649307251e-01 -2.608147449791431427e-02 -2.806575000286102295e-01
-2.436841428279876709e-01 -2.844754606485366821e-03 2.100570201873779297e-01
-2.327682077884674072e-01 -6.972908973693847656e-02 -2.801912128925323486e-01
-2.512914836406707764e-01 -8.828558027744293213e-03 -6.784906387329101562e-01
-2.121085226535797119e-01 -3.685831278562545776e-02 -2.506454288959503174e-02
-2.546253502368927002e-01 -7.453171908855438232e-02 1.594498753547668457e-01
-2.200107872486114502e-01 -7.296516001224517822e-02 -1.127773821353912354e-01
-2.343288809061050415e-01 -1.072834804654121399e-02 -6.569700837135314941e-01
-2.767642140388488770e-01 1.114699989557266235e-03 -2.604352831840515137e-01
-2.223413437604904175e-01 -7.586346939206123352e-03 -2.382268309593200684e-01
-2.473709881305694580e-01 -6.009583920240402222e-02 -3.670621514320373535e-01
-2.262793928384780884e-01 -1.686193048954010010e-03 -2.864477634429931641e-01
-2.627978324890136719e-01 -5.881170183420181274e-02 -1.507654935121536255e-01
-2.181560397148132324e-01 -7.465952634811401367e-02 4.660735279321670532e-02
-2.173611968755722046e-01 -4.100813716650009155e-02 2.324841320514678955e-01
-2.329162359237670898e-01 -3.002181462943553925e-02 4.135080277919769287e-01
-2.747418284416198730e-01 6.860792636871337891e-03 -1.319447159767150879e-01
-2.253336757421493530e-01 -7.054713368415832520e-02 -2.385626137256622314e-01
-2.485273927450180054e-01 8.331563323736190796e-03 3.697897493839263916e-02
-2.440271228551864624e-01 -6.056580692529678345e-02 -3.850853741168975830e-01
-2.269747257232666016e-01 -6.741817295551300049e-02 -3.036490082740783691e-01
-2.587516307830810547e-01 -1.755175739526748657e-02 4.301199615001678467e-01
-2.634894251823425293e-01 -5.723901093006134033e-02 -1.669318228960037231e-01
-2.363487184047698975e-01 -3.159398958086967468e-02 4.587088525295257568e-01
-2.132495641708374023e-01 -2.824386581778526306e-02 -2.183158397674560547e-01
-2.772278785705566406e-01 -3.935007750988006592e-02 1.879642903804779053e-02
-2.543335258960723877e-01 -3.942191973328590393e-02 -5.375344157218933105e-01
-2.197278141975402832e-01 -1.200727000832557678e-02 -2.597200572490692139e-01
-2.541352808475494385e-01 -7.493834197521209717e-02 2.456896901130676270e-01
-2.604291141033172607e-01 1.951418817043304443e-04 2.282152175903320312e-01
-2.449097633361816406e-01 -7.690601050853729248e-04 1.872029304504394531e-01
-2.801351249217987061e-01 -1.457481272518634796e-02 -1.607803702354431152e-01
-2.686646878719329834e-01 -3.919779881834983826e-02 -3.321015238761901855e-01
-2.164912670850753784e-01 -6.040707975625991821e-02 2.667521536350250244e-01
-2.374290078878402710e-01 -7.375289499759674072e-02 -1.913189888000488281e-01
-2.748187184333801270e-01 -4.630396142601966858e-02 1.729998588562011719e-01
-2.205506265163421631e-01 -6.344062089920043945e-02 3.546558916568756104e-01
-2.637590765953063965e-01 -3.972943499684333801e-02 5.069778561592102051e-01
-2.197992801666259766e-01 -6.164787709712982178e-02 -3.217495381832122803e-01
-2.744597792625427246e-01 -1.966123655438423157e-02 3.068653643131256104e-01
-2.703218460083007812e-01 -5.390824377536773682e-02 2.827207446098327637e-01
-2.771213352680206299e-01 -4.018773883581161499e-02 1.355797946453094482e-01
-2.784787118434906006e-01 -1.457013376057147980e-02 -2.540405690670013428e-01
-2.698929309844970703e-01 -8.041895925998687744e-04 1.836682558059692383e-01
-2.800089716911315918e-01 -2.210120856761932373e-02 -1.217922791838645935e-01
-2.273360192775726318e-01 -5.375023931264877319e-02 -4.759906232357025146e-01
-2.421647310256958008e-01 -6.424579024314880371e-02 -3.421438634395599365e-01
-2.187151759862899780e-01 -5.630933120846748352e-02 -3.694317340850830078e-01
-2.140808701515197754e-01 -4.421811550855636597e-02 1.541276574134826660e-01
-2.803546786308288574e-01 -2.483245730400085449e-02 8.440072089433670044e-02
-2.293846160173416138e-01 1.458071172237396240e-03 -3.949983716011047363e-01
-2.385049611330032349e-01 -3.945228457450866699e-02 5.201702117919921875e-01
-2.402058094739913940e-01 -4.044627025723457336e-02 -6.032649874687194824e-01
-2.611485123634338379e-01 -1.916999928653240204e-02 -5.928134322166442871e-01
-2.250305712223052979e-01 -4.514678567647933960e-02 4.076027274131774902e-01
-2.372646927833557129e-01 -1.195042952895164490e-02 -6.782099604606628418e-01
-2.609992325305938721e-01 -1.387773454189300537e-02 3.926141858100891113e-01
-2.755771279335021973e-01 -4.376618191599845886e-02 1.944926679134368896e-01
-2.782705128192901611e-01 -2.590248361229896545e-02 -1.852345764636993408e-01
-2.790939211845397949e-01 -2.213224768638610840e-02 1.819447576999664307e-01
-2.222125679254531860e-01 -1.919187977910041809e-02 1.057397648692131042e-01
-2.287559211254119873e-01 -6.801355630159378052e-02 4.572859108448028564e-01
-2.494344562292098999e-01 1.591596379876136780e-02 -3.586986958980560303e-01
-2.728473842144012451e-01 -4.997869208455085754e-02 3.502395004034042358e-02
-2.306358069181442261e-01 -8.105240762233734131e-02 2.847785949707031250e-01
-2.669092416763305664e-01 1.453638821840286255e-02 -2.579979300498962402e-01
-2.753708660602569580e-01 -5.273967981338500977e-04 -3.420399129390716553e-01
-2.693339586257934570e-01 1.077675446867942810e-02 -6.624520570039749146e-02
-2.646745741367340088e-01 -5.292259156703948975e-02 -2.216996252536773682e-01
-2.533501386642456055e-01 -2.972654625773429871e-02 -6.130835413932800293e-01
-2.771950066089630127e-01 -2.746989950537681580e-03 6.078987568616867065e-02
-2.738232612609863281e-01 -2.992038801312446594e-02 3.550831079483032227e-01
-2.550751268863677979e-01 1.417025178670883179e-02 -4.809529781341552734e-01
-2.139076590538024902e-01 -3.612548485398292542e-02 -3.690028190612792969e-01
-2.589080929756164551e-01 -6.403961777687072754e-02 -1.265142709016799927e-01
-2.718712985515594482e-01 -4.215949773788452148e-02 3.779862821102142334e-01
-2.227371633052825928e-01 -9.717471897602081299e-03 -9.115865081548690796e-02
-2.751536071300506592e-01 1.676112413406372070e-03 -3.285109698772430420e-01
-2.273230552673339844e-01 -7.203377783298492432e-02 4.122890830039978027e-01
-2.204910963773727417e-01 -2.535722032189369202e-02 1.516692638397216797e-01
-2.245895713567733765e-01 -4.392314702272415161e-03 -3.536807298660278320e-01
-2.562277317047119141e-01 -5.206928402185440063e-02 -3.832136690616607666e-01
-2.808452546596527100e-01 -1.971768587827682495e-02 -5.390617251396179199e-02
-2.397460341453552246e-01 -5.340971425175666809e-02 -4.916531443595886230e-01
-2.722660601139068604e-01 -4.316470772027969360e-02 -1.759126633405685425e-01
-2.675620913505554199e-01 -5.352065712213516235e-02 3.950582742691040039e-01
-2.259168475866317749e-01 -7.563300430774688721e-03 -2.243125811219215393e-02
-2.123523205518722534e-01 -4.754661396145820618e-02 -2.871301472187042236e-01
-2.178378850221633911e-01 -1.918670348823070526e-02 -6.304107606410980225e-02
-2.180019170045852661e-01 -3.025753796100616455e-02 -4.809173345565795898e-01
-2.666392922401428223e-01 8.387539535760879517e-03 -4.681641459465026855e-01
-2.579816877841949463e-01 9.274069219827651978e-03 6.228117644786834717e-02
-2.281845360994338989e-01 -2.579512074589729309e-02 -6.277539730072021484e-01
-2.140129059553146362e-01 -6.794920563697814941e-02 2.854365110397338867e-02
-2.212159782648086548e-01 -7.423543184995651245e-02 2.733815014362335205e-01
-2.626743912696838379e-01 -2.494365349411964417e-02 -5.492230653762817383e-01
-2.267555892467498779e-01 -2.367264777421951294e-02 -6.146104931831359863e-01
-2.743376195430755615e-01 -4.572976380586624146e-02 2.426403760910034180e-01
-2.267283350229263306e-01 -7.977537810802459717e-03 1.395566761493682861e-02
-2.624218463897705078e-01 6.772559136152267456e-03 1.091144308447837830e-01
-2.361951768398284912e-01 -8.023086190223693848e-02 -8.685655891895294189e-03
-2.226152718067169189e-01 -1.620104722678661346e-02 -5.230821371078491211e-01
-2.367954403162002563e-01 -7.824883610010147095e-02 -7.650200277566909790e-02
-2.127678990364074707e-01 -5.474793165922164917e-02 1.412250399589538574e-01
-2.514361739158630371e-01 1.577866822481155396e-02 -1.993582248687744141e-01
-2.259220331907272339e-01 -5.462649837136268616e-02 -4.593982696533203125e-01
-2.595037519931793213e-01 1.136065274477005005e-02 9.817980229854583740e-03
-2.797335088253021240e-01 -2.830253913998603821e-02 1.206585392355918884e-01
-2.753410339355468750e-01 -4.270448535680770874e-02 -3.896144777536392212e-02
-2.687010467052459717e-01 1.313263922929763794e-02 -2.849954962730407715e-01
-2.735615074634552002e-01 8.526001125574111938e-03 -1.466283500194549561e-01
-2.609210312366485596e-01 -4.220280423760414124e-02 -4.360481798648834229e-01
-2.391823381185531616e-01 1.381516456604003906e-03 7.791084796190261841e-02
-2.667219340801239014e-01 -3.657717630267143250e-02 -3.998402953147888184e-01
-2.261779606342315674e-01 -3.201210871338844299e-02 -5.996881723403930664e-01
-2.648084759712219238e-01 4.475437104701995850e-03 1.413532793521881104e-01
-2.506745755672454834e-01 -7.724990695714950562e-02 2.641658484935760498e-01
-2.632602453231811523e-01 -6.610618531703948975e-02 1.861478090286254883e-01
-2.505379617214202881e-01 -2.250875160098075867e-02 4.682562649250030518e-01
-2.657082080841064453e-01 -2.142785489559173584e-02 -5.264115929603576660e-01
-2.409730255603790283e-01 1.048039272427558899e-02 -4.650820195674896240e-01
-2.446956187486648560e-01 -5.996124818921089172e-03 2.659305036067962646e-01
-2.704873383045196533e-01 -4.064129292964935303e-02 -2.695136070251464844e-01
-2.678431272506713867e-01 -2.636142075061798096e-02 4.338863790035247803e-01
-2.589260935783386230e-01 -3.346662968397140503e-03 2.801783680915832520e-01
-2.200292050838470459e-01 -5.276549980044364929e-02 -4.219311773777008057e-01
-2.764661014080047607e-01 3.232486546039581299e-03 -2.275261282920837402e-01
-2.629142105579376221e-01 1.436911523342132568e-02 -1.055155098438262939e-01
-2.579203844070434570e-01 1.223346963524818420e-02 -1.446874439716339111e-02
-2.496860027313232422e-01 1.584291458129882812e-02 -3.760531544685363770e-01
-2.111181318759918213e-01 -3.967045247554779053e-02 -2.099666893482208252e-01
-2.407091110944747925e-01 -8.084593713283538818e-02 3.126086294651031494e-01
-2.553873062133789062e-01 -5.560322478413581848e-02 -3.453421294689178467e-01
-2.747550010681152344e-01 -3.720977157354354858e-02 3.206520676612854004e-01
-2.105138897895812988e-01 -5.356284976005554199e-02 -6.806551665067672729e-02
-2.457272857427597046e-01 -1.857436448335647583e-02 4.174523353576660156e-01
-2.305113375186920166e-01 -2.660048566758632660e-02 3.549268841743469238e-01
-2.699670493602752686e-01 7.237907499074935913e-03 -4.156512022018432617e-01
-2.224305123090744019e-01 -8.294390514492988586e-03 -3.763404190540313721e-01
-2.110224664211273193e-01 -3.898195177316665649e-02 -1.101253479719161987e-01
-2.149878144264221191e-01 -2.509078942239284515e-02 -8.188997209072113037e-02
-2.214377969503402710e-01 -4.678525030612945557e-02 3.553655743598937988e-01
-2.155160009860992432e-01 -2.685048431158065796e-02 -4.848826676607131958e-03
-2.418843656778335571e-01 -5.366922169923782349e-02 5.706009268760681152e-01
-2.238684296607971191e-01 -1.338681578636169434e-02 4.658482223749160767e-02
-2.626294195652008057e-01 -6.638301908969879150e-02 2.638439834117889404e-01
-2.587016820907592773e-01 -3.635026887059211731e-02 -5.185966491699218750e-01
-2.798750400543212891e-01 -2.318600006401538849e-02 1.381806135177612305e-01
-2.203722745180130005e-01 -7.689558714628219604e-02 1.451331973075866699e-01
-2.680639624595642090e-01 -5.922045931220054626e-02 1.080956682562828064e-01
-2.460974454879760742e-01 1.315729692578315735e-02 -1.556355059146881104e-01
-2.608876526355743408e-01 -2.317380532622337341e-02 -5.790935754776000977e-01
-2.617388069629669189e-01 -6.699359416961669922e-02 2.928850054740905762e-01
-2.747650444507598877e-01 -1.281091198325157166e-02 -3.833605051040649414e-01
-2.536513209342956543e-01 -5.980096012353897095e-02 5.426413416862487793e-01
-2.803962230682373047e-01 -8.690001443028450012e-03 -8.804685622453689575e-02
-2.111255377531051636e-01 -4.960831254720687866e-02 3.777173906564712524e-02
-2.525933980941772461e-01 1.015746966004371643e-02 2.290108054876327515e-02
-2.752148509025573730e-01 -4.085836559534072876e-02 -9.447681903839111328e-02
-2.667720019817352295e-01 -6.139295548200607300e-02 2.016766965389251709e-01
-2.267515361309051514e-01 -2.340292558073997498e-03 -1.686769127845764160e-01
-2.344411164522171021e-01 -7.114928960800170898e-02 4.828211367130279541e-01
-2.151083052158355713e-01 -3.079092130064964294e-02 4.665371775627136230e-02
-2.346839159727096558e-01 7.809661328792572021e-04 7.615745067596435547e-03
-2.175829857587814331e-01 -1.842070743441581726e-02 -3.653382062911987305e-01
-2.803458571434020996e-01 -2.647035941481590271e-02 4.619973152875900269e-02
-2.124195843935012817e-01 -6.083846092224121094e-02 9.284036606550216675e-02
-2.743775546550750732e-01 -2.520454302430152893e-02 -3.309924006462097168e-01
-2.640681564807891846e-01 -6.183325499296188354e-02 -2.786161750555038452e-02
-2.570958137512207031e-01 -5.927011370658874512e-03 -6.451054215431213379e-01
-2.151081264019012451e-01 -6.606423854827880859e-02 -1.446309983730316162e-01
-2.696866095066070557e-01 4.580114036798477173e-03 9.295818954706192017e-02
-2.773899734020233154e-01 -2.085276320576667786e-02 -2.666282653808593750e-01
-2.759740650653839111e-01 -3.613875061273574829e-02 2.832410335540771484e-01
-2.130334675312042236e-01 -3.002526052296161652e-02 -2.629495561122894287e-01
-2.588713467121124268e-01 -5.552146211266517639e-02 -2.943216264247894287e-01
-2.622596025466918945e-01 4.379592835903167725e-03 1.551431417465209961e-01
-2.112976014614105225e-01 -4.312446340918540955e-02 -2.437700331211090088e-01
-2.408248335123062134e-01 -7.362736389040946960e-03 2.505016028881072998e-01
-2.571914792060852051e-01 -7.246711105108261108e-02 2.214439809322357178e-01
-2.580752372741699219e-01 -5.747475475072860718e-02 -2.757019996643066406e-01
-2.629917263984680176e-01 -6.468743085861206055e-02 3.240860104560852051e-01
-2.289872169494628906e-01 1.562498509883880615e-04 -4.339604079723358154e-01
-2.112553864717483521e-01 -5.191341787576675415e-02 -1.973783671855926514e-01
-2.741697728633880615e-01 -1.335076056420803070e-02 -3.975190818309783936e-01
-2.747776806354522705e-01 -3.619284555315971375e-02 -1.981762647628784180e-01
-2.783615887165069580e-01 -2.354624681174755096e-02 -2.047697603702545166e-01
-2.525926232337951660e-01 -7.543719559907913208e-02 3.049006760120391846e-01
-2.360066175460815430e-01 -8.163723349571228027e-02 5.987486243247985840e-02
-2.370963394641876221e-01 -6.160892546176910400e-02 -4.001765847206115723e-01
-2.737579047679901123e-01 -4.907405376434326172e-02 1.473771929740905762e-01
-2.542523741722106934e-01 -7.168811559677124023e-02 3.955627083778381348e-01
