-3.974764794111251831e-02 -1.330066844820976257e-02 8.837494999170303345e-03
9.450811892747879028e-02 -1.658448949456214905e-02 2.550241351127624512e-01
-7.017502188682556152e-02 -2.788794599473476410e-02 9.353420138359069824e-02
-7.338143885135650635e-02 -6.900212168693542480e-02 -1.055953726172447205e-01
1.094589531421661377e-01 -8.108325302600860596e-03 -1.989368796348571777e-01
-4.235386848449707031e-02 -3.829794749617576599e-02 2.337981760501861572e-01
1.607311367988586426e-01 -1.644212193787097931e-02 -2.121847569942474365e-01
-3.843067586421966553e-02 -1.833961531519889832e-02 -1.686281859874725342e-01
2.186305224895477295e-01 -2.763593755662441254e-02 4.578006267547607422e-02
-1.853078603744506836e-03 -8.206991851329803467e-02 1.297249197959899902e-01
1.175906434655189514e-01 -1.391183212399482727e-02 2.214806973934173584e-01
5.353987216949462891e-04 -8.563179522752761841e-02 7.254216074943542480e-02
4.821322113275527954e-02 -5.705874413251876831e-03 1.419929563999176025e-01
-4.283634573221206665e-02 -2.711670845746994019e-02 1.912972331047058105e-01
-1.696747541427612305e-02 -7.849012315273284912e-02 1.446444392204284668e-01
-5.267085134983062744e-02 -2.096745371818542480e-02 1.044131144881248474e-01
1.043510138988494873e-01 -8.882743120193481445e-02 -9.337803721427917480e-02
1.633344590663909912e-01 -8.101251721382141113e-02 4.244565963745117188e-03
1.402399092912673950e-01 -5.342576652765274048e-03 6.145525723695755005e-02
-4.322571307420730591e-02 -1.405383273959159851e-02 -1.067970413714647293e-02
-7.219471037387847900e-03 -1.085050404071807861e-02 1.266447603702545166e-01
-7.781478762626647949e-02 -2.962882257997989655e-02 6.006340682506561279e-02
1.370849311351776123e-01 -4.085708409547805786e-03 1.969429478049278259e-02
7.827794551849365234e-02 -8.014368265867233276e-02 1.982575654983520508e-01
8.312320709228515625e-02 -1.523563265800476074e-02 -2.822500467300415039e-01
1.957089900970458984e-01 -1.653475314378738403e-02 4.019236564636230469e-02
-3.303307294845581055e-02 -4.677574709057807922e-02 -3.119900822639465332e-01
1.357898414134979248e-01 -3.981895744800567627e-03 -4.888886958360671997e-02
1.082669496536254883e-01 -5.656050145626068115e-02 3.109157979488372803e-01
-1.639003306627273560e-02 -3.463617712259292603e-02 2.711584568023681641e-01
3.653902560472488403e-02 -2.458615601062774658e-02 -3.294800221920013428e-01
1.880588755011558533e-02 -2.181682176887989044e-02 2.638100981712341309e-01
5.379617214202880859e-03 -7.510475814342498779e-02 -2.791904807090759277e-01
1.501230299472808838e-01 -1.060448214411735535e-02 -1.682835817337036133e-01
-8.994987607002258301e-02 -5.306199565529823303e-02 6.311251968145370483e-02
1.881244033575057983e-01 -1.664974726736545563e-02 9.492328763008117676e-02
1.494807898998260498e-01 -5.877841264009475708e-03 3.160063177347183228e-02
2.059567347168922424e-02 -8.974441140890121460e-02 -2.978296764194965363e-02
8.872970938682556152e-04 -6.383655220270156860e-02 -3.314633965492248535e-01
6.130890548229217529e-02 -8.085833489894866943e-02 1.938942670822143555e-01
2.119587063789367676e-01 -6.254725158214569092e-02 6.097906827926635742e-02
-4.110141843557357788e-02 -7.823102176189422607e-02 7.438373565673828125e-02
6.345774978399276733e-02 -9.081590175628662109e-02 -7.579810917377471924e-02
-4.039272665977478027e-02 -1.571139693260192871e-02 8.232705295085906982e-02
1.638976633548736572e-01 -7.238063961267471313e-02 1.594290137290954590e-01
1.416534185409545898e-01 -5.983024090528488159e-02 2.717066407203674316e-01
1.076254248619079590e-01 -2.119608595967292786e-02 -3.112265169620513916e-01
2.505933865904808044e-02 -8.905816078186035156e-02 3.618412092328071594e-02
1.092412546277046204e-01 -8.900120854377746582e-02 -4.211606085300445557e-02
1.396830379962921143e-01 -8.470454812049865723e-02 -9.942098706960678101e-02
1.715239584445953369e-01 -2.351429499685764313e-02 -2.433920502662658691e-01
1.774046719074249268e-01 -1.080612838268280029e-02 1.362793147563934326e-02
1.708609461784362793e-01 -4.265668243169784546e-02 -3.047146201133728027e-01
7.537218928337097168e-02 -5.615968629717826843e-02 3.234000802040100098e-01
-6.774216890335083008e-02 -7.289439439773559570e-02 -6.572139263153076172e-02
4.113709926605224609e-02 -1.172641292214393616e-02 -2.425510585308074951e-01
-7.690280675888061523e-02 -6.420250982046127319e-02 7.777501642704010010e-02
-6.680786609649658203e-03 -8.064284920692443848e-02 -2.109148800373077393e-01
4.839115962386131287e-02 -8.050862699747085571e-03 -2.055443227291107178e-01
2.988338097929954529e-02 -3.273118287324905396e-03 5.686538666486740112e-02
6.510815024375915527e-02 -1.619379967451095581e-03 6.051827967166900635e-02
2.229368388652801514e-01 -3.644414246082305908e-02 8.416105806827545166e-02
1.232087910175323486e-01 -8.606883883476257324e-02 -1.271824836730957031e-01
3.754605725407600403e-02 -8.440092206001281738e-02 1.456483304500579834e-01
4.588642716407775879e-02 -7.682850211858749390e-02 -2.949357032775878906e-01
2.851415425539016724e-02 -3.186931833624839783e-02 -3.531873524188995361e-01
7.378908246755599976e-02 -8.861098438501358032e-02 7.693225145339965820e-02
-6.442788243293762207e-02 -6.143488362431526184e-02 1.527772545814514160e-01
3.916174173355102539e-03 -1.079634949564933777e-02 1.522805392742156982e-01
1.210834830999374390e-01 -7.246866077184677124e-02 -2.948891520500183105e-01
2.080684900283813477e-01 -2.220935933291912079e-02 -9.144672006368637085e-02
1.871571540832519531e-01 -2.533908747136592865e-02 -2.161370515823364258e-01
-3.347540646791458130e-02 -6.664076447486877441e-02 2.062564790248870850e-01
-2.206712961196899414e-02 -1.127392053604125977e-02 8.139050006866455078e-02
1.118203774094581604e-01 -7.053155452013015747e-03 -1.818514764308929443e-01
-6.390252709388732910e-02 -2.819221653044223785e-02 -1.718512177467346191e-01
-3.881193697452545166e-03 -8.728782087564468384e-02 -6.776174157857894897e-02
1.689157783985137939e-01 -1.610910147428512573e-02 -1.890387535095214844e-01
8.509383350610733032e-02 -8.135811984539031982e-02 1.829432249069213867e-01
-9.408788383007049561e-02 -4.112352803349494934e-02 2.743210643529891968e-04
1.544967293739318848e-03 -8.512522280216217041e-02 -1.596605479717254639e-01
-9.038132429122924805e-02 -5.956746637821197510e-02 -8.417516946792602539e-04
-1.687566190958023071e-02 -1.135379821062088013e-02 1.045752987265586853e-01
-5.551074445247650146e-02 -2.140700258314609528e-02 -1.357484310865402222e-01
1.646288335323333740e-01 -9.058579802513122559e-03 5.703726410865783691e-02
1.844660043716430664e-01 -7.367596775293350220e-02 -1.291462182998657227e-01
8.052449673414230347e-02 -3.048222698271274567e-02 -3.603480160236358643e-01
1.804494559764862061e-01 -7.654052227735519409e-02 2.114712819457054138e-02
-1.479730010032653809e-03 -1.348605006933212280e-02 -2.082510590553283691e-01
2.735185995697975159e-02 -8.412785828113555908e-03 -1.901296079158782959e-01
7.514321058988571167e-02 -8.407682180404663086e-04 -5.208500474691390991e-02
1.014986261725425720e-01 -8.952794224023818970e-02 -1.527345739305019379e-02
6.386433541774749756e-02 -2.333042398095130920e-02 -3.323323130607604980e-01
4.410976171493530273e-02 -9.055524319410324097e-02 4.656258970499038696e-03
6.525236368179321289e-02 -8.704727888107299805e-02 -1.854629516601562500e-01
4.801994562149047852e-02 -7.308021187782287598e-02 2.537603378295898438e-01
5.926711857318878174e-02 -6.075990572571754456e-02 3.115961551666259766e-01
1.325262784957885742e-01 -8.427472412586212158e-02 7.224321365356445312e-02
1.129128038883209229e-01 -8.787763118743896484e-02 3.023216500878334045e-02
-6.349381804466247559e-02 -7.185643911361694336e-02 6.398078054189682007e-02
9.756346791982650757e-02 -6.811867654323577881e-02 -3.368536531925201416e-01
7.385860383510589600e-02 -8.883659541606903076e-02 -1.453239023685455322e-01
6.988535076379776001e-02 -1.059461385011672974e-03 3.831028193235397339e-02
-2.997274696826934814e-02 -8.206328749656677246e-02 -1.164436638355255127e-01
-7.877486944198608398e-02 -3.546146303415298462e-02 -1.537697017192840576e-01
2.114682495594024658e-01 -3.026426397264003754e-02 1.190471425652503967e-01
3.481047600507736206e-02 -9.054553508758544922e-02 -4.262381419539451599e-02
2.527841925621032715e-02 -6.193000078201293945e-02 -3.565496802330017090e-01
1.087349653244018555e-01 -8.640773594379425049e-02 8.383944630622863770e-02
6.302884966135025024e-02 -8.078297227621078491e-02 -2.645345628261566162e-01
4.476033151149749756e-02 -9.008779376745223999e-02 -1.051470339298248291e-01
1.698303222656250000e-01 -1.091607287526130676e-02 -1.070168390870094299e-01
-7.046292722225189209e-02 -6.930862367153167725e-02 -1.240407824516296387e-01
-1.353497803211212158e-02 -8.287899196147918701e-02 8.996904641389846802e-02
-2.130133658647537231e-02 -2.482118457555770874e-02 2.257380485534667969e-01
-6.067425012588500977e-02 -5.815526098012924194e-02 -2.388340830802917480e-01
1.150387376546859741e-01 -2.715758979320526123e-03 5.478304624557495117e-02
1.927348077297210693e-01 -1.732674613595008850e-02 -1.128345876932144165e-01
1.409803628921508789e-01 -8.099483698606491089e-02 1.114221587777137756e-01
2.234957516193389893e-01 -4.984341561794281006e-02 -1.302767693996429443e-01
-4.541361331939697266e-02 -7.265853136777877808e-02 1.324184536933898926e-01
1.396281272172927856e-01 -2.038412541151046753e-02 2.424573898315429688e-01
2.047244161367416382e-01 -6.339720636606216431e-02 9.777954220771789551e-02
7.955472916364669800e-03 -6.383821368217468262e-03 8.297786116600036621e-02
1.319718360900878906e-01 -6.787195801734924316e-03 -1.466759443283081055e-01
1.088584214448928833e-01 -2.886727452278137207e-03 7.466476410627365112e-02
1.896629035472869873e-01 -1.382004842162132263e-02 -6.826793774962425232e-03
2.245783507823944092e-01 -3.027111291885375977e-02 1.431219279766082764e-03
1.237088739871978760e-01 -6.857231259346008301e-03 1.352659165859222412e-01
1.418661773204803467e-01 -1.852024719119071960e-02 -2.618691623210906982e-01
-7.773222029209136963e-02 -2.701683714985847473e-02 -4.194574058055877686e-02
-2.381619065999984741e-02 -1.090974360704421997e-02 6.274628639221191406e-02
1.013747453689575195e-01 -7.488031685352325439e-02 -2.966585457324981689e-01
9.269385039806365967e-02 -1.888044178485870361e-03 6.531025469303131104e-02
1.747790575027465820e-01 -7.848510146141052246e-02 -6.408232450485229492e-02
7.374960929155349731e-02 -5.672106146812438965e-02 -3.787069022655487061e-01
1.345251351594924927e-01 -1.191701740026473999e-02 1.837579905986785889e-01
4.279170185327529907e-02 -7.113096117973327637e-02 -3.288296163082122803e-01
1.427824348211288452e-01 -8.366496860980987549e-02 4.855288565158843994e-02
1.265835389494895935e-02 -8.878105878829956055e-02 -8.230820298194885254e-02
7.263034582138061523e-02 -9.453598409891128540e-03 1.999137401580810547e-01
1.198565587401390076e-01 -7.982014119625091553e-02 -2.355303168296813965e-01
2.911945804953575134e-02 -2.607829868793487549e-03 1.748544350266456604e-02
4.454399645328521729e-02 -1.898884773254394531e-03 -6.642776727676391602e-02
1.569570899009704590e-01 -7.790268957614898682e-02 -1.794570684432983398e-01
6.697174906730651855e-02 -9.016157686710357666e-02 -1.082372218370437622e-01
-4.119926691055297852e-02 -1.497849635779857635e-02 -9.678634256124496460e-02
1.186570525169372559e-02 -2.732735313475131989e-02 2.821777760982513428e-01
1.335566937923431396e-01 -1.472747325897216797e-02 2.109953165054321289e-01
1.321770548820495605e-01 -7.564049959182739258e-02 -2.573754787445068359e-01
1.576925069093704224e-01 -8.245754241943359375e-02 -3.321714699268341064e-02
-4.548053443431854248e-02 -1.566832512617111206e-02 4.648472368717193604e-02
1.304666399955749512e-01 -1.924570836126804352e-02 -2.807403802871704102e-01
4.638665169477462769e-02 -8.834965527057647705e-02 -1.570585668087005615e-01
1.395449936389923096e-01 -4.543684795498847961e-02 -3.497257828712463379e-01
7.903317362070083618e-02 -8.974735438823699951e-02 3.907709568738937378e-02
-5.591670423746109009e-02 -7.249533385038375854e-02 -1.628555357456207275e-01
-5.413477867841720581e-02 -3.771338984370231628e-02 -2.536080181598663330e-01
4.831925034523010254e-03 -6.996873021125793457e-02 -3.097331523895263672e-01
7.857538759708404541e-02 -7.012005895376205444e-03 -2.001724243164062500e-01
1.036547720432281494e-01 -2.951549179852008820e-02 3.090804517269134521e-01
6.352868676185607910e-02 -9.104335308074951172e-02 -4.948446154594421387e-02
6.391556560993194580e-02 -6.994418799877166748e-04 -8.019076660275459290e-03
1.792842894792556763e-01 -4.707899317145347595e-02 2.406239807605743408e-01
-2.237381786108016968e-02 -8.416152000427246094e-02 1.962864771485328674e-02
1.201585680246353149e-02 -8.237090706825256348e-02 1.475589871406555176e-01
-1.681312918663024902e-03 -1.437505707144737244e-02 1.829215884208679199e-01
-8.391529321670532227e-03 -8.654416352510452271e-02 5.263891071081161499e-03
3.706730157136917114e-02 -5.763588845729827881e-02 -3.721229135990142822e-01
1.882484853267669678e-01 -1.511560566723346710e-02 -9.653680026531219482e-02
4.804283380508422852e-04 -5.779553204774856567e-02 -3.469938039779663086e-01
1.501471996307373047e-01 -9.173680096864700317e-03 -1.454467475414276123e-01
-4.863917827606201172e-02 -1.562040485441684723e-02 -3.564209863543510437e-02
-3.844594955444335938e-02 -8.173595368862152100e-02 -3.361118584871292114e-02
8.530440181493759155e-02 -9.038302302360534668e-02 -8.091252297163009644e-03
8.909130096435546875e-02 -8.868817985057830811e-02 -1.337622106075286865e-01
-9.146182239055633545e-02 -3.694570437073707581e-02 -2.525892294943332672e-02
1.732183694839477539e-01 -6.113967299461364746e-02 -2.713985145092010498e-01
-2.771824598312377930e-03 -5.984887480735778809e-03 -1.391619723290205002e-02
-2.597592025995254517e-02 -7.887588441371917725e-02 1.178485527634620667e-01
1.504755616188049316e-01 -2.359534054994583130e-02 -2.813343107700347900e-01
1.675746142864227295e-01 -8.953634649515151978e-03 3.026974946260452271e-02
3.173770010471343994e-02 -5.028832703828811646e-03 -1.381042450666427612e-01
-2.277064323425292969e-02 -8.475832641124725342e-02 -4.017390310764312744e-02
1.661941260099411011e-01 -5.647205933928489685e-02 2.463891804218292236e-01
1.981527060270309448e-01 -2.620272897183895111e-02 1.497222185134887695e-01
-1.417692750692367554e-02 -8.261337876319885254e-03 3.273157030344009399e-02
3.919899091124534607e-02 -2.135630510747432709e-02 2.764471471309661865e-01
2.002856284379959106e-01 -5.827738344669342041e-02 1.542310714721679688e-01
5.138465762138366699e-02 -1.204136759042739868e-03 -3.963980451226234436e-02
1.029448732733726501e-01 -8.387175202369689941e-02 1.373230218887329102e-01
2.313710153102874756e-01 -4.464431107044219971e-02 -5.982327088713645935e-02
1.295274198055267334e-01 -2.599766850471496582e-02 -3.179078400135040283e-01
-3.228699415922164917e-02 -7.694868743419647217e-02 -1.946223676204681396e-01
-8.314968645572662354e-02 -4.916269332170486450e-02 1.142649427056312561e-01
2.101166173815727234e-02 -3.187473863363265991e-03 1.056445762515068054e-03
1.045497059822082520e-01 -8.582708239555358887e-02 1.029066964983940125e-01
-3.527349233627319336e-02 -5.616233125329017639e-02 2.429683208465576172e-01
6.810030341148376465e-02 -2.985965460538864136e-03 1.018840149044990540e-01
1.021635085344314575e-01 -8.591282367706298828e-02 -1.766289472579956055e-01
-4.052878916263580322e-02 -2.263622358441352844e-02 1.666871607303619385e-01
-4.815562069416046143e-02 -6.239505857229232788e-02 1.950883865356445312e-01
-3.670629858970642090e-02 -1.643426716327667236e-02 1.120016947388648987e-01
1.711246967315673828e-01 -1.593160443007946014e-02 1.492175757884979248e-01
3.470645099878311157e-02 -8.879207819700241089e-02 6.119421124458312988e-02
9.126333892345428467e-02 -9.008663892745971680e-02 -6.735409796237945557e-02
5.388867855072021484e-02 -1.416642963886260986e-02 -2.713722884654998779e-01
1.449824571609497070e-01 -4.896357655525207520e-03 1.692717894911766052e-03
8.542610704898834229e-02 -3.340541943907737732e-02 3.244195580482482910e-01
-4.436199367046356201e-02 -7.632686197757720947e-02 9.169223904609680176e-02
-6.015896797180175781e-02 -7.522711902856826782e-02 -8.405206352472305298e-02
2.694088593125343323e-02 -1.536714471876621246e-02 -2.643949389457702637e-01
2.048006653785705566e-01 -2.282788045704364777e-02 8.973432332277297974e-02
5.397900938987731934e-03 -8.537556231021881104e-02 8.961264044046401978e-02
2.766439318656921387e-02 -7.026079297065734863e-02 2.614715695381164551e-01
2.055748254060745239e-01 -6.675789505243301392e-02 4.610802978277206421e-02
-4.818708449602127075e-02 -7.800077646970748901e-02 -1.104231178760528564e-01
5.580042675137519836e-02 -7.435745745897293091e-02 -3.134856820106506348e-01
2.168488502502441406e-01 -6.213623285293579102e-02 1.484443619847297668e-02
-2.709279209375381470e-02 -8.345626294612884521e-02 -8.743542432785034180e-02
-8.916220068931579590e-02 -3.542004153132438660e-02 -5.972329899668693542e-02
-9.302051365375518799e-02 -5.633390322327613831e-02 -6.134413182735443115e-02
1.783078014850616455e-01 -7.314242422580718994e-02 -1.678431332111358643e-01
1.533263176679611206e-02 -7.248212397098541260e-02 2.393867671489715576e-01
1.162416711449623108e-01 -6.827463209629058838e-02 2.610847949981689453e-01
-4.619975388050079346e-02 -6.391925364732742310e-02 -2.556379437446594238e-01
1.733360141515731812e-01 -1.891229301691055298e-02 1.715326011180877686e-01
1.751552522182464600e-01 -1.187070459127426147e-02 7.197855412960052490e-02
8.841970562934875488e-02 -8.208286762237548828e-02 -2.430161535739898682e-01
1.465122699737548828e-01 -8.968155831098556519e-03 1.232045069336891174e-01
-1.565033942461013794e-02 -6.242486089468002319e-02 2.549795806407928467e-01
7.948380708694458008e-02 -1.180075109004974365e-03 -7.138339430093765259e-02
-8.723214268684387207e-02 -4.167534783482551575e-02 -1.342386007308959961e-01
5.300731584429740906e-02 -5.552732944488525391e-02 -3.800726830959320068e-01
-3.004068136215209961e-02 -7.171507179737091064e-02 1.803478002548217773e-01
1.899227499961853027e-03 -2.107266522943973541e-02 2.406914830207824707e-01
1.752828955650329590e-01 -7.407009601593017578e-02 1.039929464459419250e-01
6.880468875169754028e-02 -4.204094409942626953e-03 1.274075806140899658e-01
1.187490671873092651e-01 -3.303826600313186646e-02 -3.511061966419219971e-01
1.180576980113983154e-01 -2.288386225700378418e-03 -4.499891027808189392e-02
1.148690879344940186e-01 -2.289287745952606201e-03 3.531631454825401306e-02
1.296172142028808594e-01 -6.144414842128753662e-02 -3.370254337787628174e-01
1.597610712051391602e-01 -4.522330313920974731e-02 2.757390141487121582e-01
2.319563180208206177e-02 -3.382813185453414917e-03 3.533038869500160217e-02
-3.780238330364227295e-03 -8.588129281997680664e-02 -1.273280978202819824e-01
-1.643172651529312134e-02 -8.332185447216033936e-03 -4.308950155973434448e-02
9.759727865457534790e-02 -4.556494951248168945e-02 3.307737112045288086e-01
-5.247158557176589966e-02 -7.772612571716308594e-02 9.517282247543334961e-03
1.288408339023590088e-01 -8.371364325284957886e-02 9.468510001897811890e-02
-5.978305637836456299e-02 -6.886993348598480225e-02 1.179226413369178772e-01
1.665754988789558411e-02 -4.533473402261734009e-03 -8.643092215061187744e-02
3.369690477848052979e-02 -3.519641980528831482e-02 3.196210563182830811e-01
1.207812502980232239e-01 -7.162735611200332642e-02 2.369006872177124023e-01
1.942263171076774597e-02 -8.953193575143814087e-02 -9.843716397881507874e-03
-1.618093252182006836e-02 -1.725091598927974701e-02 -2.182840108871459961e-01
1.296075284481048584e-01 -7.853162288665771484e-02 1.671353578567504883e-01
-1.791876554489135742e-02 -2.358755283057689667e-02 -2.650815546512603760e-01
4.638023674488067627e-02 -3.369535505771636963e-02 -3.665602803230285645e-01
1.040989309549331665e-01 -1.243080943822860718e-03 -1.322972401976585388e-02
4.424476251006126404e-02 -9.308706969022750854e-03 1.874483525753021240e-01
1.055585071444511414e-01 -7.784797251224517822e-02 2.032550871372222900e-01
2.251463532447814941e-01 -3.141652047634124756e-02 1.867096871137619019e-02
1.108371093869209290e-01 -1.149084791541099548e-02 -2.365010976791381836e-01
4.654577076435089111e-01 -7.494487613439559937e-02 7.178970426321029663e-02
2.774648368358612061e-01 8.801986277103424072e-02 7.090626657009124756e-02
7.555572390556335449e-01 7.021687924861907959e-02 5.605897679924964905e-02
1.990371644496917725e-01 -9.702140092849731445e-02 3.181370440870523453e-03
3.109826147556304932e-01 3.249373286962509155e-03 -1.023819893598556519e-01
1.779253482818603516e-01 -9.237983077764511108e-02 4.109163302928209305e-03
4.935195446014404297e-01 7.033112645149230957e-02 9.032353758811950684e-02
1.057689785957336426e-01 -2.159430459141731262e-02 5.114318057894706726e-02
7.111795544624328613e-01 1.135514825582504272e-01 -2.150124870240688324e-02
1.256472766399383545e-01 1.063280478119850159e-01 -1.887581311166286469e-05
5.617501735687255859e-01 -4.851656407117843628e-02 -8.218713104724884033e-02
6.615361571311950684e-01 -9.073735773563385010e-02 2.032164670526981354e-02
4.246339499950408936e-01 -1.167247295379638672e-01 4.653502721339464188e-03
2.863591909408569336e-01 -8.390618860721588135e-02 -6.420759111642837524e-02
7.741459012031555176e-01 -5.293428152799606323e-02 2.652386948466300964e-02
2.235368937253952026e-01 2.932932972908020020e-02 8.132100850343704224e-02
2.726871967315673828e-01 1.380382776260375977e-01 5.747787188738584518e-03
4.959462583065032959e-01 3.019224852323532104e-02 9.854158014059066772e-02
3.635503947734832764e-01 1.394044458866119385e-01 3.039386123418807983e-02
3.303789794445037842e-01 -3.982296213507652283e-03 -1.024900078773498535e-01
6.838899850845336914e-01 -4.789863526821136475e-02 -6.087862700223922729e-02
2.277039885520935059e-01 1.269937157630920410e-01 -3.347725048661231995e-02
7.420939207077026367e-01 -6.014285236597061157e-02 -2.877868525683879852e-02
1.817163228988647461e-01 -3.976519778370857239e-02 6.418316066265106201e-02
8.611276745796203613e-02 -3.900663927197456360e-02 -5.443185940384864807e-02
5.747880339622497559e-01 -9.169796854257583618e-02 4.733384773135185242e-02
1.355266571044921875e-01 -5.016274005174636841e-02 4.659363999962806702e-02
2.745947837829589844e-01 -5.380671471357345581e-03 8.767012506723403931e-02
7.801097631454467773e-01 8.456231653690338135e-02 3.302474319934844971e-02
1.864235401153564453e-01 3.752288222312927246e-02 7.380816340446472168e-02
1.709085702896118164e-02 -3.581138327717781067e-03 1.056322641670703888e-02
6.457374095916748047e-01 1.157019063830375671e-01 4.765178635716438293e-02
3.434419333934783936e-01 1.024462878704071045e-01 6.963608413934707642e-02
5.280119776725769043e-01 -1.079859063029289246e-01 2.557289227843284607e-02
4.832285940647125244e-01 -1.474028639495372772e-02 -9.945763647556304932e-02
4.434250593185424805e-01 -4.866405576467514038e-02 8.652233332395553589e-02
6.928797364234924316e-01 -5.422156304121017456e-02 6.012868508696556091e-02
4.858736693859100342e-01 1.329285651445388794e-01 -5.041712149977684021e-02
4.534800052642822266e-01 5.757953226566314697e-02 9.423834085464477539e-02
3.603377640247344971e-01 -7.524500787258148193e-02 6.875813752412796021e-02
5.310500860214233398e-01 1.415270119905471802e-01 2.682803198695182800e-02
5.510848760604858398e-02 2.377930097281932831e-03 3.729023039340972900e-02
4.250387251377105713e-01 1.015893071889877319e-01 -8.143873512744903564e-02
5.658427476882934570e-01 3.976298496127128601e-02 9.480773657560348511e-02
4.794820249080657959e-01 5.673721060156822205e-02 9.446004778146743774e-02
4.438942670822143555e-01 1.265803575515747070e-01 5.452500656247138977e-02
5.967537164688110352e-01 -4.811042919754981995e-03 9.266145527362823486e-02
5.339803099632263184e-01 8.295127749443054199e-02 8.408990502357482910e-02
7.536832094192504883e-01 -4.343657195568084717e-02 4.917940869927406311e-02
4.107427597045898438e-02 4.206418991088867188e-02 2.428354322910308838e-02
5.879293680191040039e-01 4.491311311721801758e-02 -9.165353327989578247e-02
5.183249711990356445e-01 -8.715811371803283691e-02 -6.012164428830146790e-02
5.285059213638305664e-01 1.302928179502487183e-01 4.740187898278236389e-02
5.551714897155761719e-01 -2.684758976101875305e-02 -9.101933985948562622e-02
6.130228638648986816e-01 -2.694658935070037842e-03 -8.920298516750335693e-02
5.719277262687683105e-01 -1.590381562709808350e-02 -9.198198467493057251e-02
5.391174554824829102e-01 1.118551343679428101e-01 6.596296280622482300e-02
5.909587740898132324e-01 1.307243406772613525e-01 3.806659579277038574e-02
8.140025138854980469e-01 6.125536188483238220e-02 -2.439564093947410583e-02
4.388312101364135742e-01 1.491879373788833618e-01 -1.342625916004180908e-02
9.587916731834411621e-02 9.521529823541641235e-02 -1.995535381138324738e-02
4.838866889476776123e-01 -4.021851345896720886e-02 8.962619304656982422e-02
6.794151663780212402e-01 -3.480363637208938599e-02 7.402735948562622070e-02
5.145514011383056641e-01 8.150477707386016846e-02 -8.798754960298538208e-02
1.890912204980850220e-01 4.123360663652420044e-02 -8.916509896516799927e-02
1.709484755992889404e-01 9.465935826301574707e-02 4.417045041918754578e-02
4.200915694236755371e-01 1.069550514221191406e-01 7.133096456527709961e-02
7.288265228271484375e-01 -7.313299179077148438e-02 1.985969580709934235e-02
2.711769938468933105e-01 -5.579622834920883179e-02 -8.316119760274887085e-02
3.808258771896362305e-01 1.012147292494773865e-01 7.332696765661239624e-02
5.153959989547729492e-01 9.867320954799652100e-02 -7.915248721837997437e-02
7.054870724678039551e-01 -2.982262521982192993e-03 -7.242934405803680420e-02
5.514418482780456543e-01 1.452151089906692505e-01 2.035585697740316391e-03
1.593459248542785645e-01 -2.673599123954772949e-02 6.412610411643981934e-02
1.755622923374176025e-01 9.954927861690521240e-02 -5.755075812339782715e-02
3.910545706748962402e-01 -9.465891867876052856e-02 -5.904639884829521179e-02
3.665030598640441895e-01 1.457517147064208984e-01 -2.228784002363681793e-02
2.326144874095916748e-01 -8.568105101585388184e-02 4.144449532032012939e-02
2.125556915998458862e-01 4.491804167628288269e-02 7.710739225149154663e-02
6.454834342002868652e-01 5.192046985030174255e-02 8.529152721166610718e-02
5.545716881752014160e-01 -1.086123585700988770e-01 1.435002498328685760e-02
5.761148333549499512e-01 -2.923791855573654175e-02 8.895799517631530762e-02
5.681004524230957031e-01 -7.218616455793380737e-02 -6.694760918617248535e-02
8.397380113601684570e-01 4.382850229740142822e-02 2.455122955143451691e-02
3.442622721195220947e-01 1.002123951911926270e-01 -8.084778487682342529e-02
3.743508458137512207e-01 7.906173914670944214e-02 8.453471213579177856e-02
7.911188602447509766e-01 -4.410591721534729004e-02 -1.689789630472660065e-02
2.451086044311523438e-02 -2.744646742939949036e-02 -1.626960188150405884e-02
5.571914315223693848e-01 -6.108944863080978394e-02 7.646822184324264526e-02
5.463803410530090332e-01 1.144251879304647446e-02 9.736912697553634644e-02
1.344431936740875244e-01 8.787900954484939575e-02 -5.581380054354667664e-02
8.518911600112915039e-01 3.326316177845001221e-02 8.704718202352523804e-03
1.206846833229064941e-01 4.253965616226196289e-02 -7.562012970447540283e-02
6.154425740242004395e-01 5.184369534254074097e-02 8.867396414279937744e-02
6.977510452270507812e-01 1.080910395830869675e-02 8.140087872743606567e-02
8.905926346778869629e-02 -5.960459262132644653e-02 1.565610058605670929e-02
4.099458158016204834e-01 -1.066644266247749329e-01 3.669965639710426331e-02
4.676026701927185059e-01 2.715092897415161133e-02 -1.029805019497871399e-01
1.639418303966522217e-01 2.490203455090522766e-02 -8.728393167257308960e-02
5.913032293319702148e-01 1.220025047659873962e-01 -5.018956214189529419e-02
4.206133484840393066e-01 -5.646646767854690552e-02 8.262450993061065674e-02
5.233137607574462891e-01 1.014282926917076111e-01 7.447908818721771240e-02
3.682438433170318604e-01 -6.520919501781463623e-02 -8.309603482484817505e-02
6.569066643714904785e-02 2.256537228822708130e-02 4.205114394426345825e-02
7.106822133064270020e-01 6.944362819194793701e-02 6.856919825077056885e-02
6.741498708724975586e-01 -5.387531965970993042e-02 6.468564271926879883e-02
1.406367719173431396e-01 -7.967858761548995972e-02 -3.053185902535915375e-02
6.576691865921020508e-01 -6.293494254350662231e-02 -5.689891055226325989e-02
5.796968936920166016e-01 2.132139168679714203e-02 -9.474262595176696777e-02
5.333836674690246582e-01 1.271381080150604248e-01 -5.317131057381629944e-02
5.102259516716003418e-01 6.013688072562217712e-02 -9.556557238101959229e-02
3.391702175140380859e-01 1.576319709420204163e-02 9.485075622797012329e-02
2.755694687366485596e-01 1.169458851218223572e-01 4.811383038759231567e-02
8.213575482368469238e-01 -3.003082796931266785e-02 -3.620748175308108330e-03
1.202972531318664551e-01 -7.775280624628067017e-02 -3.459915751591324806e-03
7.717674374580383301e-01 -4.024152085185050964e-02 -3.480643779039382935e-02
4.288449883460998535e-02 -3.248774260282516479e-02 -3.499611839652061462e-02
4.207537174224853516e-01 -8.187735825777053833e-02 6.633234024047851562e-02
6.968724727630615234e-01 -7.732278108596801758e-02 3.264490887522697449e-02
4.854500293731689453e-02 -3.533185273408889771e-02 1.599806733429431915e-02
2.435412704944610596e-01 1.328271031379699707e-01 -2.352334000170230865e-02
1.752432584762573242e-01 8.126902580261230469e-02 -7.176328450441360474e-02
5.052953362464904785e-01 -8.209731429815292358e-02 6.479257345199584961e-02
3.470359146595001221e-01 -9.155282378196716309e-02 -6.120375916361808777e-02
7.868807315826416016e-01 1.305377855896949768e-02 5.931242927908897400e-02
6.188567876815795898e-01 -4.916134476661682129e-02 7.664359360933303833e-02
7.610936164855957031e-01 5.790783464908599854e-02 -5.238826945424079895e-02
1.750657558441162109e-01 9.726354852318763733e-03 -8.940710127353668213e-02
5.923340320587158203e-01 -8.822088688611984253e-02 -4.666860401630401611e-02
4.916827380657196045e-01 7.254135608673095703e-02 -9.293985366821289062e-02
6.187506318092346191e-01 -4.806886613368988037e-02 -7.433772832155227661e-02
7.290629148483276367e-01 -3.115136548876762390e-02 -5.741035938262939453e-02
2.606580853462219238e-01 -9.896379709243774414e-02 2.870133146643638611e-02
3.139810562133789062e-01 -1.087200641632080078e-01 2.061644755303859711e-02
2.687476873397827148e-01 7.165630906820297241e-02 -8.997157216072082520e-02
3.836129307746887207e-01 1.602248661220073700e-02 9.748108685016632080e-02
6.515719294548034668e-01 -8.627381920814514160e-02 -3.154210746288299561e-02
3.282027244567871094e-01 -1.085955351591110229e-01 -3.273170813918113708e-02
3.291279077529907227e-01 -2.217036485671997070e-02 8.998399972915649414e-02
3.411165177822113037e-01 -9.582264721393585205e-02 4.773566126823425293e-02
4.300302863121032715e-01 -4.521411284804344177e-02 -9.266943484544754028e-02
6.358466744422912598e-01 -3.973577544093132019e-02 -7.534493505954742432e-02
7.108086347579956055e-01 6.309066712856292725e-02 -6.545685231685638428e-02
1.476587057113647461e-01 1.010915786027908325e-01 2.844629995524883270e-02
2.062142491340637207e-01 -4.150957241654396057e-02 6.832631677389144897e-02
1.575393974781036377e-01 1.159846410155296326e-01 4.502688534557819366e-05
3.989101946353912354e-01 -1.137902140617370605e-01 1.912052184343338013e-02
3.090524077415466309e-01 1.432374268770217896e-01 -9.405160322785377502e-03
5.267629027366638184e-01 -1.125506311655044556e-01 1.059682341292500496e-03
4.688016176223754883e-01 1.495844721794128418e-01 -1.098481239750981331e-03
6.989106535911560059e-02 -1.447164453566074371e-02 -6.009097397327423096e-02
8.347377777099609375e-01 5.105630680918693542e-02 -1.356164924800395966e-02
3.332447707653045654e-01 1.302615851163864136e-01 -5.179444700479507446e-02
3.677231669425964355e-01 1.300640851259231567e-01 -5.497335270047187805e-02
4.212222993373870850e-01 -1.110318750143051147e-01 -3.255421295762062073e-02
7.351617813110351562e-01 -6.191233545541763306e-02 3.798284754157066345e-02
1.503205597400665283e-01 8.119001239538192749e-02 4.842748120427131653e-02
1.410188972949981689e-01 2.604175172746181488e-02 -8.290306478738784790e-02
7.316212654113769531e-01 3.997949138283729553e-02 -6.626846641302108765e-02
6.081729531288146973e-01 -6.447400152683258057e-02 -6.620649993419647217e-02
7.405099868774414062e-01 2.199482731521129608e-02 -6.555007398128509521e-02
1.308369934558868408e-01 -3.300179913640022278e-02 5.445096269249916077e-02
3.026353120803833008e-01 -2.475099638104438782e-02 -9.734952449798583984e-02
5.479638576507568359e-01 -6.024298071861267090e-02 -7.760109007358551025e-02
5.115652084350585938e-01 -7.336259633302688599e-02 -7.273895293474197388e-02
7.138912081718444824e-01 1.176638975739479065e-01 8.687375113368034363e-03
6.648132801055908203e-01 2.822796627879142761e-02 8.638408780097961426e-02
2.413662821054458618e-01 4.774749651551246643e-02 -9.444521367549896240e-02
4.352445006370544434e-01 1.450537592172622681e-01 2.393434010446071625e-02
2.227153331041336060e-01 -1.006275042891502380e-01 -2.034274302423000336e-02
6.240615844726562500e-01 -2.363272756338119507e-02 -8.314665406942367554e-02
4.334851503372192383e-01 -9.424237906932830811e-02 5.460123345255851746e-02
3.168220520019531250e-01 1.427079290151596069e-01 8.775755763053894043e-03
7.102593183517456055e-01 -3.310981765389442444e-02 -6.190485879778862000e-02
3.588504195213317871e-01 -4.094168916344642639e-02 -9.445399791002273560e-02
4.410082101821899414e-01 1.099628508090972900e-01 6.967237591743469238e-02
7.792624831199645996e-02 8.782319724559783936e-02 -1.761764287948608398e-02
3.105300664901733398e-02 5.389843136072158813e-02 -2.820611186325550079e-02
6.153435707092285156e-01 -9.815547615289688110e-03 9.013827145099639893e-02
5.159200429916381836e-01 2.008283883333206177e-02 9.859502315521240234e-02
2.250917702913284302e-01 1.284077465534210205e-01 1.344072446227073669e-02
1.093122959136962891e-01 9.810016304254531860e-02 8.692981675267219543e-03
3.874471485614776611e-01 1.257812380790710449e-01 -6.103271991014480591e-02
2.881612181663513184e-01 -1.017610430717468262e-01 3.041067719459533691e-02
6.238435506820678711e-01 8.709009736776351929e-02 -7.259214669466018677e-02
2.065110653638839722e-01 6.509600579738616943e-02 7.007073611021041870e-02
3.915591835975646973e-01 -1.894008368253707886e-02 -1.010985076427459717e-01
5.207621455192565918e-01 -5.934672430157661438e-03 9.699688106775283813e-02
4.506190717220306396e-01 6.643382459878921509e-02 -9.672155231237411499e-02
6.120526790618896484e-01 7.533829659223556519e-02 8.153820782899856567e-02
1.410207152366638184e-02 3.721132874488830566e-02 2.493406645953655243e-04
4.373972713947296143e-01 1.225309967994689941e-01 -6.470192223787307739e-02
1.427854299545288086e-01 -3.400877118110656738e-02 -7.412467896938323975e-02
2.051871269941329956e-01 -9.484526515007019043e-02 -2.999427728354930878e-02
4.562631547451019287e-01 1.018041297793388367e-01 -8.057352900505065918e-02
4.526696205139160156e-01 1.709630712866783142e-02 -1.038165986537933350e-01
7.872920036315917969e-01 9.027365595102310181e-02 1.400691829621791840e-02
7.788257598876953125e-01 6.776752322912216187e-02 4.882509261369705200e-02
6.602459549903869629e-01 -9.176735579967498779e-02 -1.242664270102977753e-02
1.391420066356658936e-01 1.019695475697517395e-01 -4.092320799827575684e-02
3.625458180904388428e-01 -9.061823040246963501e-02 5.558287352323532104e-02
3.571588397026062012e-01 -2.324513345956802368e-02 -9.978253394365310669e-02
1.536194980144500732e-01 -6.076574325561523438e-02 4.442369192838668823e-02
5.447517037391662598e-01 1.029862239956855774e-01 -7.370727509260177612e-02
8.252364397048950195e-01 4.783903062343597412e-02 3.536555171012878418e-02
1.936079561710357666e-01 -2.353202179074287415e-02 7.221984863281250000e-02
5.988084077835083008e-01 -4.461622983217239380e-02 8.116494864225387573e-02
4.276061654090881348e-01 3.645996376872062683e-02 9.772530943155288696e-02
2.255976945161819458e-01 1.120444312691688538e-01 -5.686984583735466003e-02
5.262751579284667969e-01 -6.394535303115844727e-04 -9.874523431062698364e-02
1.901897042989730835e-01 1.120663359761238098e-01 3.095443546772003174e-02
1.706944108009338379e-01 -8.229016512632369995e-02 -4.109002649784088135e-02
4.253334999084472656e-01 -9.940505772829055786e-02 -5.284851789474487305e-02
3.237870633602142334e-01 1.417067497968673706e-01 -2.661470696330070496e-02
8.305728435516357422e-03 -5.817670375108718872e-03 -8.671363815665245056e-03
7.562633752822875977e-01 -6.251994520425796509e-02 -1.361227966845035553e-02
5.749931335449218750e-01 -9.415677934885025024e-02 -4.231245070695877075e-02
3.713362216949462891e-01 1.478645056486129761e-01 1.231921371072530746e-03
3.977435827255249023e-01 1.329355239868164062e-01 4.472030699253082275e-02
4.626523554325103760e-01 -1.082831844687461853e-01 3.313098847866058350e-02
6.671648025512695312e-01 5.387208983302116394e-02 8.184676617383956909e-02
3.677248358726501465e-01 -1.007826179265975952e-01 -5.062879621982574463e-02
5.864986777305603027e-01 -6.290254741907119751e-02 7.253883779048919678e-02
2.186710089445114136e-01 1.013110429048538208e-01 5.119795724749565125e-02
3.914840221405029297e-01 1.472026705741882324e-01 -2.052082680165767670e-02
5.792961120605468750e-01 7.420966774225234985e-02 -8.475439995527267456e-02
5.312295556068420410e-01 -8.022832870483398438e-02 6.472272425889968872e-02
8.104301691055297852e-01 1.979271695017814636e-02 5.000570788979530334e-02
5.552667975425720215e-01 1.186591684818267822e-01 -5.965259671211242676e-02
4.556137919425964355e-01 -4.217825084924697876e-02 -9.301950037479400635e-02
6.249799132347106934e-01 1.006463319063186646e-01 6.569884717464447021e-02
5.476691126823425293e-01 -7.565675675868988037e-02 -6.699334830045700073e-02
1.534594893455505371e-01 2.239932864904403687e-02 6.875255703926086426e-02
6.676390171051025391e-01 1.274656355381011963e-01 -1.206861436367034912e-02
1.050748527050018311e-01 5.289347469806671143e-02 -6.813293695449829102e-02
3.758774995803833008e-01 -1.080241128802299500e-01 3.208462148904800415e-02
4.571773707866668701e-01 3.032360598444938660e-02 9.875732660293579102e-02
7.359954118728637695e-01 -7.237353920936584473e-02 -5.158454179763793945e-03
4.920557141304016113e-01 2.653117291629314423e-03 -1.013871729373931885e-01
8.493946194648742676e-01 1.939625665545463562e-02 -9.202105924487113953e-03
6.092014312744140625e-01 1.188777834177017212e-01 5.128541588783264160e-02
1.844323575496673584e-01 -4.983153939247131348e-02 -7.480229437351226807e-02
1.143504083156585693e-01 1.273731887340545654e-02 5.918291211128234863e-02
1.591956317424774170e-01 -2.330005168914794922e-02 -8.135886490345001221e-02
2.734701335430145264e-01 -6.803800910711288452e-02 6.478273123502731323e-02
3.197723329067230225e-01 1.035725176334381104e-01 -7.709096372127532959e-02
3.536148071289062500e-01 1.188175976276397705e-01 -6.671844422817230225e-02
5.612014532089233398e-01 -1.019089892506599426e-01 3.283041715621948242e-02
6.080504655838012695e-01 1.353263109922409058e-01 -2.216334640979766846e-02
5.652327537536621094e-01 1.243413314223289490e-01 5.123877152800559998e-02
7.080574035644531250e-01 -7.909744977951049805e-02 -1.412323676049709320e-02
5.837140679359436035e-01 1.442031934857368469e-03 -9.342197328805923462e-02
5.576144456863403320e-01 9.019832313060760498e-02 7.918647676706314087e-02
5.959330201148986816e-01 -1.033191457390785217e-01 -1.332132518291473389e-02
3.200685679912567139e-01 1.015360355377197266e-01 6.787303090095520020e-02
5.407608747482299805e-01 -2.548741549253463745e-02 9.228366613388061523e-02
2.791305780410766602e-01 1.285327523946762085e-01 3.342573344707489014e-02
5.921342968940734863e-01 5.731514096260070801e-02 8.944415301084518433e-02
1.674406528472900391e-01 -8.983249962329864502e-02 -1.983116567134857178e-02
6.271541714668273926e-01 -8.403917402029037476e-02 4.678063094615936279e-02
3.171193599700927734e-01 2.289049513638019562e-02 -1.030235439538955688e-01
6.524043083190917969e-01 -7.044160366058349609e-02 5.609893426299095154e-02
4.206926822662353516e-01 -8.559393882751464844e-02 -6.807268410921096802e-02
7.501899003982543945e-01 9.378223866224288940e-02 3.837821260094642639e-02
1.949670016765594482e-01 1.248064935207366943e-01 -1.860277727246284485e-02
3.875191509723663330e-01 1.408638805150985718e-01 3.040648996829986572e-02
6.375854611396789551e-01 -7.772427797317504883e-02 -4.805708676576614380e-02
6.688352823257446289e-01 -8.005579560995101929e-02 4.005855321884155273e-02
6.551751494407653809e-02 6.081049516797065735e-02 2.778841927647590637e-02
6.358248591423034668e-01 -9.693741053342819214e-02 1.561630144715309143e-02
6.328151226043701172e-01 1.264834553003311157e-01 -3.302128240466117859e-02
2.074128836393356323e-01 1.152055934071540833e-01 -4.807416349649429321e-02
2.758301794528961182e-01 3.953204303979873657e-02 -9.900271892547607422e-02
3.085590600967407227e-01 4.399083182215690613e-02 8.975223451852798462e-02
3.132877349853515625e-01 1.242708563804626465e-01 4.627302661538124084e-02
6.392271518707275391e-01 2.529734000563621521e-02 -8.671105653047561646e-02
4.863783717155456543e-02 -1.709443703293800354e-02 -4.950620979070663452e-02
1.342693269252777100e-01 2.830028533935546875e-02 6.360030174255371094e-02
3.291993439197540283e-01 -6.029517203569412231e-02 -8.467298001050949097e-02
4.336923360824584961e-03 1.349795609712600708e-02 -7.859323173761367798e-03
4.751493930816650391e-01 -9.335809946060180664e-02 -5.761213228106498718e-02
7.796156406402587891e-01 -3.854502364993095398e-02 4.142365977168083191e-02
3.252097964286804199e-01 -1.137797981500625610e-01 -4.487079568207263947e-04
7.130352258682250977e-01 -8.089505136013031006e-04 7.735555619001388550e-02
3.587840199470520020e-01 -4.771749675273895264e-02 8.396339416503906250e-02
2.514934539794921875e-01 2.759951166808605194e-03 -9.827987104654312134e-02
6.704150438308715820e-01 1.212491095066070557e-02 -8.134774863719940186e-02
5.033695697784423828e-01 1.366410702466964722e-01 -4.318889975547790527e-02
6.149237751960754395e-01 -9.961988776922225952e-02 -1.624425314366817474e-02
4.320613443851470947e-01 1.384308636188507080e-01 -4.436047002673149109e-02
6.466820836067199707e-01 1.404043287038803101e-03 8.822622150182723999e-02
1.579522192478179932e-01 -5.424065142869949341e-02 -6.656232476234436035e-02
1.394505202770233154e-01 4.761293530464172363e-02 -7.866182923316955566e-02
5.609741210937500000e-01 4.355587810277938843e-02 -9.479033201932907104e-02
1.704892814159393311e-01 6.022211909294128418e-02 6.444806605577468872e-02
7.782815694808959961e-01 3.336131200194358826e-02 6.139376387000083923e-02
5.857887864112854004e-02 7.846602052450180054e-02 -1.184011436998844147e-02
6.463799476623535156e-01 8.462052047252655029e-02 7.278914749622344971e-02
2.324533015489578247e-01 -1.009663194417953491e-02 -9.484280645847320557e-02
3.088622689247131348e-01 1.834936812520027161e-02 9.233848005533218384e-02
7.260867953300476074e-01 -3.558114916086196899e-02 6.325189024209976196e-02
2.759867906570434570e-02 2.953102812170982361e-02 -4.189027845859527588e-02
7.926168441772460938e-01 -4.759924113750457764e-02 1.719449087977409363e-02
7.646242380142211914e-01 4.322417080402374268e-03 -5.715844780206680298e-02
2.564292550086975098e-01 1.283124834299087524e-01 -4.079870507121086121e-02
3.321804404258728027e-01 7.893963158130645752e-02 -9.143657237291336060e-02
9.990596771240234375e-02 -1.796379685401916504e-03 5.387233570218086243e-02
8.175339698791503906e-01 -1.251494884490966797e-02 -2.771270275115966797e-02
1.943095922470092773e-01 9.763324260711669922e-02 -6.406864523887634277e-02
2.069446891546249390e-01 -8.634039014577865601e-02 -4.706840962171554565e-02
6.281354427337646484e-01 -6.479071080684661865e-02 -6.214068084955215454e-02
8.066038489341735840e-01 4.859565943479537964e-02 -3.635209798812866211e-02
2.856137156486511230e-01 -5.120293796062469482e-02 7.591368257999420166e-02
6.490055322647094727e-01 9.368658810853958130e-02 -6.395683437585830688e-02
9.743267297744750977e-02 3.002672083675861359e-02 5.275308713316917419e-02
4.040245413780212402e-01 2.080105617642402649e-02 -1.047508344054222107e-01
1.111274063587188721e-01 -7.229822129011154175e-02 -2.527567557990550995e-02
2.042459994554519653e-01 8.476141095161437988e-02 6.000426039099693298e-02
7.253001928329467773e-01 2.925012260675430298e-03 -6.849570572376251221e-02
3.118248581886291504e-01 -1.115386635065078735e-01 -1.863061636686325073e-02
8.280515670776367188e-02 9.864127263426780701e-03 4.911112412810325623e-02
4.406186342239379883e-01 4.124872386455535889e-02 -1.025218144059181213e-01
3.780480921268463135e-01 -3.284491598606109619e-02 -9.745416045188903809e-02
1.174564063549041748e-01 5.013499781489372253e-02 5.405906215310096741e-02
2.100779563188552856e-01 1.116237975656986237e-02 7.993988692760467529e-02
3.951367437839508057e-01 -1.161791533231735229e-01 -1.323928683996200562e-02
1.743476092815399170e-01 -6.872173398733139038e-04 7.275200635194778442e-02
6.023848652839660645e-01 -9.433208405971527100e-02 3.731735050678253174e-02
4.664709568023681641e-01 1.252391561865806580e-02 9.933605045080184937e-02
2.509408891201019287e-01 1.353686749935150146e-01 2.207019831985235214e-03
6.795638203620910645e-01 -1.152480766177177429e-02 8.143240958452224731e-02
3.294106721878051758e-01 -9.627649933099746704e-02 -5.441997945308685303e-02
3.933031558990478516e-01 1.487811803817749023e-01 2.241228241473436356e-03
3.254630565643310547e-01 7.372871041297912598e-02 8.299945294857025146e-02
5.883238315582275391e-01 8.273857831954956055e-02 8.055017143487930298e-02
2.314042299985885620e-01 -7.611086219549179077e-02 -6.401879340410232544e-02
6.003947257995605469e-01 2.491687610745429993e-02 -9.219143539667129517e-02
4.042697250843048096e-01 -1.068262830376625061e-01 -4.163638874888420105e-02
5.380111932754516602e-01 -9.989083558320999146e-02 4.089789092540740967e-02
4.350469708442687988e-01 1.604528166353702545e-02 9.911074489355087280e-02
7.529760599136352539e-01 9.859969466924667358e-02 -2.254148013889789581e-02
7.620713710784912109e-01 2.465512230992317200e-02 -5.901359766721725464e-02
7.381898164749145508e-01 -4.469847306609153748e-02 -4.616059735417366028e-02
2.100749760866165161e-01 -7.068140059709548950e-02 -6.504581123590469360e-02
4.507602453231811523e-01 -1.159741282463073730e-01 -1.182778179645538330e-02
3.566524386405944824e-01 5.332663655281066895e-02 9.168808907270431519e-02
2.171283811330795288e-01 -7.072947919368743896e-02 5.285587534308433533e-02
2.609123587608337402e-01 1.370407938957214355e-01 -1.425285823643207550e-02
4.742935299873352051e-01 -6.827387213706970215e-02 -7.904423028230667114e-02
3.378412425518035889e-01 1.398563981056213379e-01 2.479546889662742615e-02
6.560829877853393555e-01 1.113745793700218201e-01 -4.719389975070953369e-02
3.397989869117736816e-01 2.629163675010204315e-02 -1.037274599075317383e-01
4.747892916202545166e-01 -1.053180098533630371e-01 -4.071971401572227478e-02
2.494388818740844727e-01 -5.607356131076812744e-02 6.857214123010635376e-02
3.491622209548950195e-01 -1.153033673763275146e-01 -5.899951793253421783e-03
5.346299409866333008e-01 -4.936530441045761108e-02 8.410914987325668335e-02
4.809137582778930664e-01 1.442949026823043823e-01 -2.968055568635463715e-02
7.089223861694335938e-01 -8.063851296901702881e-02 1.350808702409267426e-02
5.233055949211120605e-01 1.435603797435760498e-01 -2.508474886417388916e-02
6.837372779846191406e-01 -7.549635320901870728e-02 -3.554488345980644226e-02
4.063076674938201904e-01 -4.785268008708953857e-02 -9.199056774377822876e-02
3.021730780601501465e-01 -2.639647945761680603e-02 8.658099174499511719e-02
5.935515165328979492e-01 -1.032445505261421204e-01 1.757350191473960876e-02
3.806191682815551758e-02 7.657850161194801331e-03 2.893920242786407471e-02
3.027532696723937988e-01 -8.361488580703735352e-02 5.630936101078987122e-02
2.390998154878616333e-01 -3.742414340376853943e-02 -8.825530856847763062e-02
