-6.000010371208190918e-01 1.248125284910202026e-01 1.097439974546432495e-01
-5.478802919387817383e-01 1.617822796106338501e-02 -4.112042114138603210e-02
-4.775869250297546387e-01 1.495984792709350586e-01 7.671173661947250366e-04
-8.374205827713012695e-01 2.201091498136520386e-02 -6.603276729583740234e-02
-4.856169521808624268e-01 3.426536917686462402e-02 -1.803591474890708923e-02
-7.179449796676635742e-01 4.749572649598121643e-02 -1.015523001551628113e-01
-6.422034502029418945e-01 1.326734423637390137e-01 -9.414400160312652588e-02
-9.070192575454711914e-01 1.194783151149749756e-01 -2.010380476713180542e-02
-8.439892530441284180e-01 2.929136157035827637e-03 2.581806480884552002e-02
-4.729858040809631348e-01 1.332980841398239136e-01 6.085420399904251099e-02
-7.498676776885986328e-01 1.490973532199859619e-01 -8.399287611246109009e-02
-5.416008234024047852e-01 1.237109005451202393e-01 1.006424427032470703e-01
-6.326780319213867188e-01 1.699967533349990845e-01 -5.995510891079902649e-02
-7.375942468643188477e-01 1.767385900020599365e-01 4.304939135909080505e-02
-7.769903540611267090e-01 -1.648338139057159424e-02 -9.806108660995960236e-03
-5.115019083023071289e-01 1.248520612716674805e-01 9.040733426809310913e-02
-4.426420927047729492e-01 1.148785799741744995e-01 -8.470327593386173248e-04
-6.496393680572509766e-01 -1.973491907119750977e-02 -5.873277783393859863e-03
-8.591336011886596680e-01 1.491988897323608398e-01 -3.140676394104957581e-02
-7.960343956947326660e-01 1.288774609565734863e-01 8.276852220296859741e-02
-6.340698003768920898e-01 1.895786523818969727e-01 1.046119071543216705e-02
-7.627049088478088379e-01 -1.665355265140533447e-02 2.913146838545799255e-02
-5.661252140998840332e-01 -3.896735608577728271e-03 4.592274874448776245e-02
-6.568745374679565430e-01 4.682078957557678223e-03 8.626083284616470337e-02
-6.221618056297302246e-01 1.713916063308715820e-01 6.824393570423126221e-02
-9.188966751098632812e-01 1.056610569357872009e-01 -1.604278385639190674e-02
-6.122797727584838867e-01 3.705609217286109924e-02 -8.413027971982955933e-02
-7.150365710258483887e-01 1.873746812343597412e-01 1.227943506091833115e-02
-8.363124728202819824e-01 3.740019723773002625e-02 7.426550984382629395e-02
-5.705004930496215820e-01 9.252220392227172852e-02 1.157000064849853516e-01
-6.478609442710876465e-01 1.759352535009384155e-02 9.880380332469940186e-02
-9.035235643386840820e-01 4.493723064661026001e-02 -4.388516023755073547e-02
-9.021517038345336914e-01 5.684158951044082642e-02 -5.450688302516937256e-02
-6.962075233459472656e-01 1.558304131031036377e-01 -8.149587363004684448e-02
-4.912023544311523438e-01 5.315378308296203613e-02 8.380563557147979736e-02
-7.198405861854553223e-01 9.059665352106094360e-02 -1.095262840390205383e-01
-7.249616384506225586e-01 1.594594419002532959e-01 -7.643433660268783569e-02
-8.307816386222839355e-01 1.560848057270050049e-01 3.067292273044586182e-02
-7.702826857566833496e-01 1.773491054773330688e-01 -2.968093752861022949e-02
-5.416330099105834961e-01 5.661736801266670227e-02 1.056589037179946899e-01
-8.124178647994995117e-01 2.299588173627853394e-02 7.486587762832641602e-02
-8.353763222694396973e-01 1.578268557786941528e-01 -3.636007755994796753e-02
-7.149980068206787109e-01 1.506169587373733521e-01 8.733192086219787598e-02
-7.782734632492065430e-01 1.778201758861541748e-01 -1.790069043636322021e-02
-5.939405560493469238e-01 -9.802892804145812988e-03 -1.363371592015028000e-02
-4.437706768512725830e-01 7.353346794843673706e-02 -7.660896517336368561e-03
-8.687949180603027344e-01 1.379445642232894897e-01 2.818720787763595581e-02
-8.821716904640197754e-01 7.297638058662414551e-02 -7.369155436754226685e-02
-9.204434752464294434e-01 6.140714138746261597e-02 -3.352399542927742004e-02
-6.614681482315063477e-01 1.816568076610565186e-01 4.851140454411506653e-02
-8.586094379425048828e-01 6.628251075744628906e-02 -8.391390740871429443e-02
-6.092312335968017578e-01 1.854903995990753174e-01 -1.709624007344245911e-02
-6.902863979339599609e-01 1.896181255578994751e-01 -5.770402960479259491e-03
-6.361050009727478027e-01 1.414804458618164062e-01 1.014036759734153748e-01
-6.292816400527954102e-01 1.165395975112915039e-02 -6.672184914350509644e-02
-5.494486093521118164e-01 9.744746237993240356e-02 1.111720427870750427e-01
-6.355355381965637207e-01 1.271177977323532104e-01 1.102773025631904602e-01
-5.224415659904479980e-01 1.442233175039291382e-01 7.925304770469665527e-02
-8.826279640197753906e-01 1.050992086529731750e-01 5.058166384696960449e-02
-9.117434024810791016e-01 4.994729161262512207e-02 2.136184275150299072e-02
-9.170624017715454102e-01 1.016556918621063232e-01 1.050946861505508423e-02
-8.815906047821044922e-01 1.002704352140426636e-01 -7.084269076585769653e-02
-7.069938182830810547e-01 1.722394526004791260e-01 6.135635077953338623e-02
-4.403699934482574463e-01 1.188337355852127075e-01 2.468586713075637817e-02
-8.203900456428527832e-01 8.213881403207778931e-02 9.086591750383377075e-02
-7.402603626251220703e-01 1.173054724931716919e-01 1.047253087162971497e-01
-8.268668055534362793e-01 1.836541295051574707e-02 6.392662227153778076e-02
-5.263360738754272461e-01 1.552217602729797363e-01 -4.042284563183784485e-02
-5.504759550094604492e-01 -2.895280718803405762e-03 2.883505076169967651e-02
-9.012570977210998535e-01 4.919990152120590210e-02 3.508325293660163879e-02
-5.941097140312194824e-01 -1.365197449922561646e-02 1.192101929336786270e-02
-5.633260607719421387e-01 1.043676063418388367e-01 -8.610422164201736450e-02
-8.725413084030151367e-01 1.417253166437149048e-02 1.926946640014648438e-02
-6.768025159835815430e-01 4.652976989746093750e-02 1.150629818439483643e-01
-9.274092912673950195e-01 7.941444963216781616e-02 -2.128402888774871826e-02
-4.730244874954223633e-01 3.568410873413085938e-02 -2.712636254727840424e-03
-4.472121894359588623e-01 5.329718440771102905e-02 2.292782068252563477e-02
-6.948665380477905273e-01 1.892480552196502686e-01 9.160351008176803589e-03
-8.882699012756347656e-01 2.124672755599021912e-02 1.047780830413103104e-02
-5.305761694908142090e-01 3.818482160568237305e-03 7.154297083616256714e-03
-8.323658108711242676e-01 1.389952600002288818e-01 -7.031194865703582764e-02
-6.737760901451110840e-01 9.970358014106750488e-02 1.188749372959136963e-01
-7.340680360794067383e-01 2.232864871621131897e-02 9.641574323177337646e-02
-9.217110276222229004e-01 9.494977444410324097e-02 -2.886720374226570129e-02
-8.304842114448547363e-01 1.626551896333694458e-01 -2.368577569723129272e-02
-8.624324798583984375e-01 1.370305120944976807e-01 -5.404763296246528625e-02
-8.032555580139160156e-01 1.494540274143218994e-01 6.037461757659912109e-02
-8.735924363136291504e-01 1.208146065473556519e-01 4.618664085865020752e-02
-6.346585750579833984e-01 8.104470372200012207e-02 -1.030805185437202454e-01
-6.883876323699951172e-01 9.724268317222595215e-02 1.182571053504943848e-01
-8.504989743232727051e-01 1.103882864117622375e-01 -8.269460499286651611e-02
-4.480682909488677979e-01 1.231598407030105591e-01 4.180980473756790161e-02
-5.067960619926452637e-01 2.017275243997573853e-02 -1.525907684117555618e-02
-6.350924968719482422e-01 4.209399223327636719e-02 1.135876923799514771e-01
-8.045343756675720215e-01 1.016377955675125122e-01 -9.946719557046890259e-02
-8.651978969573974609e-01 6.621320545673370361e-02 6.934643536806106567e-02
-6.731632947921752930e-01 1.695259809494018555e-01 -6.511172652244567871e-02
-6.303094029426574707e-01 -6.902992725372314453e-03 6.623784452676773071e-02
-7.603037357330322266e-01 -9.617559611797332764e-03 -4.220371320843696594e-02
-7.903952598571777344e-01 1.241616606712341309e-01 -9.432414174079895020e-02
-8.453022241592407227e-01 1.306734681129455566e-01 -7.202950119972229004e-02
-8.911187052726745605e-01 7.507340610027313232e-02 5.230410397052764893e-02
-5.701256394386291504e-01 1.305005699396133423e-02 8.171909302473068237e-02
-4.916641712188720703e-01 8.333127945661544800e-02 -5.534848943352699280e-02
-7.653306126594543457e-01 9.053595364093780518e-03 7.798015326261520386e-02
-5.180792212486267090e-01 6.881369650363922119e-02 1.019820794463157654e-01
-9.065574407577514648e-01 9.645976871252059937e-02 -5.215742066502571106e-02
-7.720000147819519043e-01 1.645168662071228027e-01 5.313376709818840027e-02
-8.605465888977050781e-01 1.507930159568786621e-01 1.791806891560554504e-03
-6.123793721199035645e-01 1.679874807596206665e-01 -5.854887887835502625e-02
-7.945524454116821289e-01 -1.031652092933654785e-02 -2.679621055722236633e-02
-8.138360977172851562e-01 5.367981642484664917e-02 9.045686572790145874e-02
-4.669277071952819824e-01 5.275052413344383240e-02 6.522089987993240356e-02
-7.051940560340881348e-01 5.744051188230514526e-02 -1.049697697162628174e-01
-7.906502485275268555e-01 6.357721239328384399e-02 -1.014688014984130859e-01
-7.361844778060913086e-01 -2.041830867528915405e-02 -1.120099518448114395e-02
-7.213562130928039551e-01 -2.431757748126983643e-03 7.343731820583343506e-02
-5.776209235191345215e-01 1.496940851211547852e-01 8.952943235635757446e-02
-9.014843702316284180e-01 1.159762218594551086e-01 2.033574506640434265e-02
-5.696641802787780762e-01 1.799881458282470703e-01 -1.342652644962072372e-02
-6.258035898208618164e-01 1.848672032356262207e-01 -2.663015574216842651e-02
-7.285888195037841797e-01 5.806043744087219238e-03 8.261655271053314209e-02
-4.965154528617858887e-01 1.800852268934249878e-02 3.242478147149085999e-02
-4.939666986465454102e-01 1.411734968423843384e-01 -3.502675890922546387e-02
-6.782460212707519531e-01 1.888113021850585938e-01 -1.703667640686035156e-02
-8.439053893089294434e-01 7.293225824832916260e-02 -9.046791493892669678e-02
-7.959296107292175293e-01 4.531725868582725525e-02 9.377863258123397827e-02
-6.910098195075988770e-01 -1.945484429597854614e-02 -1.976479589939117432e-02
-7.758581638336181641e-01 9.359598159790039062e-02 -1.055724099278450012e-01
-7.169789075851440430e-01 1.451429277658462524e-01 -9.012141823768615723e-02
-5.609834790229797363e-01 1.090525463223457336e-01 1.107644811272621155e-01
-6.711055040359497070e-01 7.445326447486877441e-02 -1.067684516310691833e-01
-7.866734266281127930e-01 -1.549771428108215332e-02 1.019139867275953293e-02
-4.943392872810363770e-01 1.586045026779174805e-01 3.059336170554161072e-02
-5.844992399215698242e-01 1.203080043196678162e-01 1.101951375603675842e-01
-8.604077696800231934e-01 6.202638149261474609e-03 -1.706802845001220703e-02
-6.182945370674133301e-01 1.389451920986175537e-01 -8.687477558851242065e-02
-5.191180706024169922e-01 1.022713631391525269e-02 -3.016922622919082642e-03
-7.273944616317749023e-01 1.382155716419219971e-01 9.530764073133468628e-02
-6.101871728897094727e-01 1.577164530754089355e-01 -7.031533867120742798e-02
-4.704091548919677734e-01 1.471056044101715088e-01 2.005280181765556335e-02
-8.539062142372131348e-01 1.342389285564422607e-01 4.759927466511726379e-02
-5.690034031867980957e-01 1.650386303663253784e-01 6.885147094726562500e-02
-8.516356945037841797e-01 4.046699777245521545e-02 -7.574706524610519409e-02
-5.542601943016052246e-01 1.768234670162200928e-01 -1.205519679933786392e-02
-6.214013695716857910e-01 -3.187336027622222900e-03 -4.361616447567939758e-02
-5.120097994804382324e-01 5.709689855575561523e-02 9.592115879058837891e-02
-5.337420105934143066e-01 2.328089997172355652e-02 -4.225157573819160461e-02
-7.048757672309875488e-01 1.333500295877456665e-01 -9.789405763149261475e-02
-6.548088192939758301e-01 1.557230651378631592e-01 -7.950659841299057007e-02
-8.921198844909667969e-01 6.108986958861351013e-02 -6.451741605997085571e-02
-5.954391956329345703e-01 2.885257825255393982e-02 -7.393677532672882080e-02
-6.210601329803466797e-01 -1.060849428176879883e-02 5.561132356524467468e-02
-5.922721028327941895e-01 8.533608168363571167e-02 -9.499157965183258057e-02
-7.891315221786499023e-01 1.012942939996719360e-02 -6.796928495168685913e-02
-7.114762067794799805e-01 7.943581044673919678e-02 -1.093069612979888916e-01
-8.831158876419067383e-01 2.207655832171440125e-02 -3.331014886498451233e-02
-7.279554009437561035e-01 -1.729203760623931885e-02 -2.709564566612243652e-02
-7.527128458023071289e-01 1.738826185464859009e-01 -4.892363771796226501e-02
-6.445903778076171875e-01 1.945123076438903809e-02 -7.761730998754501343e-02
-5.622526407241821289e-01 2.195337414741516113e-02 8.922693133354187012e-02
-5.017907619476318359e-01 2.996762096881866455e-02 -2.775548771023750305e-02
-8.798587322235107422e-01 8.079174906015396118e-02 6.042970344424247742e-02
-5.724996924400329590e-01 1.645275056362152100e-01 -5.073516815900802612e-02
-6.852061748504638672e-01 -2.286110818386077881e-02 1.589325815439224243e-02
-7.379432916641235352e-01 3.098672628402709961e-02 -9.245536476373672485e-02
-8.534667491912841797e-01 9.653007984161376953e-02 -8.599241077899932861e-02
-6.533965468406677246e-01 6.249386444687843323e-02 1.200682669878005981e-01
-8.334735035896301270e-01 4.316897317767143250e-02 -8.398256450891494751e-02
-4.643860459327697754e-01 4.485613107681274414e-02 5.215534195303916931e-02
-6.570349335670471191e-01 -1.609263569116592407e-02 4.856953397393226624e-02
-5.755533576011657715e-01 5.806452035903930664e-02 1.134507134556770325e-01
-4.773368835449218750e-01 5.681822448968887329e-02 7.713983952999114990e-02
-6.989083886146545410e-01 1.227895170450210571e-01 1.088678538799285889e-01
-8.235813975334167480e-01 5.213163793087005615e-03 4.836296662688255310e-02
-6.379078030586242676e-01 6.469929963350296021e-02 -1.008304953575134277e-01
-6.757884025573730469e-01 1.599925756454467773e-01 8.294892311096191406e-02
-6.908900737762451172e-01 1.861808449029922485e-01 -2.852691709995269775e-02
-7.369260787963867188e-01 6.287658214569091797e-02 1.125124618411064148e-01
-7.416106462478637695e-01 -1.284433901309967041e-02 -3.805485367774963379e-02
-6.141421198844909668e-01 4.358556121587753296e-02 1.129589304327964783e-01
-7.809289693832397461e-01 4.117358475923538208e-02 9.654401987791061401e-02
-7.586125135421752930e-01 1.632204800844192505e-01 6.080691143870353699e-02
-4.934337437152862549e-01 7.639231532812118530e-02 9.348157048225402832e-02
-8.288486003875732422e-01 1.106186658143997192e-01 7.988362759351730347e-02
-8.870940208435058594e-01 2.533895894885063171e-02 2.382739633321762085e-02
-6.150896549224853516e-01 -1.213447749614715576e-02 -1.961241662502288818e-02
-7.815979719161987305e-01 6.001333147287368774e-02 1.021513640880584717e-01
-6.853839755058288574e-01 1.834908276796340942e-01 4.074603319168090820e-02
-4.888011813163757324e-01 2.149077877402305603e-02 1.658138632774353027e-02
-5.813655853271484375e-01 2.576580643653869629e-02 -6.682829558849334717e-02
-6.995149850845336914e-01 1.658733338117599487e-01 7.258003950119018555e-02
-7.971186637878417969e-01 1.741060763597488403e-01 -3.100143745541572571e-03
-6.340911984443664551e-01 1.807018816471099854e-01 5.065185204148292542e-02
-5.497221946716308594e-01 7.697668671607971191e-02 -8.143936097621917725e-02
-6.734549403190612793e-01 1.804025769233703613e-01 -4.592791199684143066e-02
-4.862316250801086426e-01 3.882236033678054810e-02 6.795786321163177490e-02
-4.647402763366699219e-01 9.362580627202987671e-02 7.744091749191284180e-02
-6.558279991149902344e-01 -6.360866129398345947e-03 7.049807161092758179e-02
-5.328040719032287598e-01 1.659654527902603149e-01 -2.604849264025688171e-02
-5.561733841896057129e-01 -3.048211336135864258e-03 -1.952888444066047668e-03
-7.089315652847290039e-01 -1.852730661630630493e-02 4.118867218494415283e-02
-7.838071584701538086e-01 -1.425985991954803467e-02 2.399600669741630554e-02
-4.500538706779479980e-01 1.115574687719345093e-01 -1.641141623258590698e-02
-5.663666725158691406e-01 1.976189762353897095e-02 -5.495688691735267639e-02
-6.653441190719604492e-01 -1.073139160871505737e-02 -4.046803712844848633e-02
-6.126622557640075684e-01 -1.653065532445907593e-02 2.390304580330848694e-02
-8.358895182609558105e-01 -1.671463251113891602e-03 -2.164335548877716064e-02
-8.388107419013977051e-01 1.320172846317291260e-02 5.079087987542152405e-02
-6.406683921813964844e-01 8.352288603782653809e-02 1.217066273093223572e-01
-8.952338695526123047e-01 8.510933816432952881e-02 -6.535315513610839844e-02
-8.158644437789916992e-01 4.216767102479934692e-02 -8.837665617465972900e-02
-5.915160179138183594e-01 4.239118844270706177e-02 -8.198465406894683838e-02
-8.869159817695617676e-01 3.478415682911872864e-02 3.775674849748611450e-02
-4.693599939346313477e-01 3.524454683065414429e-02 3.796532005071640015e-02
-6.073232889175415039e-01 9.900927543640136719e-04 7.518459111452102661e-02
-5.256018042564392090e-01 1.540843844413757324e-01 6.871826201677322388e-02
-5.330094695091247559e-01 1.088777631521224976e-01 1.045314744114875793e-01
-6.486015915870666504e-01 1.902446150779724121e-01 1.147587317973375320e-03
-6.342085003852844238e-01 3.453709930181503296e-02 -8.713261038064956665e-02
-7.279052734375000000e-01 1.851937174797058105e-01 1.778480038046836853e-02
-6.190387606620788574e-01 9.620912373065948486e-02 -1.005740463733673096e-01
-4.911139607429504395e-01 1.407075822353363037e-01 6.631986796855926514e-02
-6.989120841026306152e-01 1.595882326364517212e-02 9.608841687440872192e-02
-5.033041834831237793e-01 1.537480950355529785e-01 -2.515930309891700745e-02
-5.636759996414184570e-01 1.469863206148147583e-01 -6.670716404914855957e-02
-9.249122738838195801e-01 9.457927942276000977e-02 -1.007294189184904099e-02
-6.053246855735778809e-01 1.575513184070587158e-01 8.531716465950012207e-02
-7.823708057403564453e-01 2.068488299846649170e-02 8.378423750400543213e-02
-6.068273186683654785e-01 1.125198900699615479e-01 1.153275445103645325e-01
-6.912573575973510742e-01 1.689401865005493164e-01 -6.627247482538223267e-02
-4.320100545883178711e-01 9.783376753330230713e-02 2.063953131437301636e-02
-5.947992801666259766e-01 7.466004043817520142e-02 1.190376058220863342e-01
-6.265193223953247070e-01 -1.854625344276428223e-02 2.142081409692764282e-02
-5.266270637512207031e-01 6.237529218196868896e-03 3.860370814800262451e-02
-7.614726424217224121e-01 1.394599378108978271e-01 -9.008688479661941528e-02
-4.633215069770812988e-01 6.531209498643875122e-02 7.101101428270339966e-02
-6.811319589614868164e-01 1.060629114508628845e-01 -1.067918464541435242e-01
-5.832201242446899414e-01 -1.224808394908905029e-03 6.346879154443740845e-02
-6.346691250801086426e-01 1.596023440361022949e-01 -7.306678593158721924e-02
-4.527671337127685547e-01 1.320280134677886963e-01 7.281941361725330353e-03
-8.116313815116882324e-01 1.162986680865287781e-01 -9.311157464981079102e-02
-7.917225360870361328e-01 1.593495309352874756e-01 5.207604542374610901e-02
-8.038339018821716309e-01 1.539225876331329346e-02 -7.035324722528457642e-02
-8.566623926162719727e-01 1.376213878393173218e-02 3.770492970943450928e-02
-7.234392762184143066e-01 1.504223048686981201e-02 -8.027505129575729370e-02
-8.004302978515625000e-01 5.142625793814659119e-02 -9.600052982568740845e-02
-8.522188067436218262e-01 6.136638671159744263e-02 7.563035190105438232e-02
-8.775453567504882812e-01 1.410793662071228027e-01 4.248492419719696045e-03
-5.922251939773559570e-01 3.005291521549224854e-02 1.027701944112777710e-01
-7.240275144577026367e-01 1.688660830259323120e-01 -6.424028426408767700e-02
-5.382931232452392578e-01 9.764820337295532227e-03 -2.332985028624534607e-02
-5.689566135406494141e-01 6.010556966066360474e-02 -8.346029371023178101e-02
-7.012550830841064453e-01 -2.288360893726348877e-02 1.648965850472450256e-02
-6.740906238555908203e-01 1.869927942752838135e-01 3.041213005781173706e-02
-6.531919240951538086e-01 2.980494126677513123e-02 1.076469570398330688e-01
-4.828692376613616943e-01 2.717928960919380188e-02 2.867890056222677231e-03
-6.482889652252197266e-01 3.528351336717605591e-02 -8.996879309415817261e-02
-8.899939656257629395e-01 1.253528743982315063e-01 2.298581972718238831e-02
-6.450276970863342285e-01 -8.618481457233428955e-03 -4.025308042764663696e-02
-5.254947543144226074e-01 8.508984744548797607e-02 -7.291327416896820068e-02
-7.875928282737731934e-01 1.438110023736953735e-01 7.357988506555557251e-02
-6.996020674705505371e-01 8.459651470184326172e-02 1.187033504247665405e-01
-5.939490199089050293e-01 1.634812653064727783e-01 7.657314836978912354e-02
-8.869981169700622559e-01 1.267733722925186157e-01 -4.481691122055053711e-02
-5.037976503372192383e-01 3.711044043302536011e-02 7.859325408935546875e-02
-8.264422416687011719e-01 6.880077719688415527e-02 -9.506110101938247681e-02
-7.958394885063171387e-01 1.707926839590072632e-01 2.234064415097236633e-02
-6.923698186874389648e-01 -8.050628006458282471e-03 6.777054816484451294e-02
-7.644468545913696289e-01 8.286967128515243530e-02 -1.072481572628021240e-01
-5.804084539413452148e-01 1.326920241117477417e-01 -8.161240816116333008e-02
-6.774747371673583984e-01 3.937261924147605896e-02 -9.580726176500320435e-02
-5.759728550910949707e-01 8.301375061273574829e-02 -9.056010842323303223e-02
-5.561777949333190918e-01 1.557656824588775635e-01 7.805479317903518677e-02
-7.538947463035583496e-01 1.815260499715805054e-01 1.634949445724487305e-02
-8.078183531761169434e-01 -4.239708185195922852e-03 3.945981338620185852e-02
-6.813580989837646484e-01 1.271096169948577881e-01 1.085087433457374573e-01
-7.728520035743713379e-01 3.312728554010391235e-02 -9.097672253847122192e-02
-5.416072607040405273e-01 1.065674275159835815e-01 -7.826691865921020508e-02
-5.772554874420166016e-01 1.162307113409042358e-01 -8.750379830598831177e-02
-7.446695566177368164e-01 -3.471657633781433105e-03 6.727751344442367554e-02
-7.464222908020019531e-01 1.661596447229385376e-02 8.967841416597366333e-02
-5.997124314308166504e-01 1.302577555179595947e-03 -4.344538226723670959e-02
-6.527143716812133789e-01 7.824696600437164307e-03 -6.718102097511291504e-02
-8.092706799507141113e-01 1.273672878742218018e-01 7.860919833183288574e-02
-6.007332205772399902e-01 1.869830489158630371e-01 7.114559412002563477e-03
-8.100415468215942383e-01 1.685952842235565186e-01 1.375061087310314178e-02
-5.354800224304199219e-01 1.306833922863006592e-01 -6.701811403036117554e-02
-6.415777206420898438e-01 1.605443060398101807e-01 8.383461833000183105e-02
-4.777997136116027832e-01 1.435146480798721313e-01 5.022985115647315979e-02
-6.042406558990478516e-01 9.383757412433624268e-02 -9.777403622865676880e-02
-7.145272493362426758e-01 -1.662887632846832275e-03 -6.067937240004539490e-02
-6.617028713226318359e-01 1.891575455665588379e-01 2.044486254453659058e-02
-5.414075851440429688e-01 8.904936164617538452e-02 -7.958565652370452881e-02
-5.780071616172790527e-01 7.415339350700378418e-04 -3.189490735530853271e-02
-8.579961657524108887e-01 8.270788937807083130e-02 7.361941039562225342e-02
-7.933043241500854492e-01 3.378498181700706482e-02 -8.825058490037918091e-02
-4.536362886428833008e-01 8.772076666355133057e-02 6.854761391878128052e-02
-5.584176778793334961e-01 4.132544621825218201e-02 -7.043938338756561279e-02
-7.574384212493896484e-01 5.268299952149391174e-02 1.063477545976638794e-01
-7.084282636642456055e-01 1.392077505588531494e-01 9.786852449178695679e-02
-4.927476346492767334e-01 1.058483198285102844e-01 9.101013839244842529e-02
-7.467266321182250977e-01 3.558859229087829590e-03 -6.646387279033660889e-02
-5.258439779281616211e-01 1.702191084623336792e-01 3.029273077845573425e-02
-5.963084101676940918e-01 1.080683320760726929e-01 -9.434261173009872437e-02
-8.472328186035156250e-01 1.563010662794113159e-01 -2.328334376215934753e-02
-8.459715247154235840e-01 1.454854458570480347e-01 3.796897828578948975e-02
-5.556016564369201660e-01 1.437872499227523804e-01 9.031708538532257080e-02
-8.185092210769653320e-01 -7.587559521198272705e-03 -1.584180071949958801e-02
-6.079023480415344238e-01 1.827443242073059082e-01 4.060063511133193970e-02
-6.786271929740905762e-01 2.165758982300758362e-02 -8.410604298114776611e-02
-5.844291448593139648e-01 1.446713060140609741e-01 -7.515522092580795288e-02
-4.741051197052001953e-01 7.442645728588104248e-02 -4.129585996270179749e-02
-5.986084938049316406e-01 1.685428321361541748e-01 -5.400439724326133728e-02
-6.230446696281433105e-01 2.389309182763099670e-02 1.022362560033798218e-01
-5.839774608612060547e-01 1.565306782722473145e-01 -6.452546268701553345e-02
-6.212535500526428223e-01 1.224155426025390625e-01 -9.537377953529357910e-02
-7.309020757675170898e-01 -2.205508202314376831e-02 1.096403785049915314e-02
-8.617458939552307129e-01 6.326876580715179443e-03 8.125747554004192352e-03
-9.100333452224731445e-01 1.090269684791564941e-01 -3.694963455200195312e-02
-6.687490940093994141e-01 -1.883968710899353027e-02 -1.804979890584945679e-02
-7.393558025360107422e-01 1.819342076778411865e-01 2.601382136344909668e-02
-4.583536088466644287e-01 1.117373406887054443e-01 6.637118011713027954e-02
-7.257903814315795898e-01 1.688308715820312500e-01 6.253510713577270508e-02
-7.746413350105285645e-01 7.206293195486068726e-02 -1.052602380514144897e-01
-5.428954362869262695e-01 2.998227253556251526e-02 9.028751403093338013e-02
-4.857123494148254395e-01 1.104207932949066162e-01 -4.943841695785522461e-02
-9.085564017295837402e-01 7.128686457872390747e-02 3.551566600799560547e-02
-8.772095441818237305e-01 3.990078344941139221e-02 5.096041411161422729e-02
-9.145755767822265625e-01 4.562167450785636902e-02 -2.625787258148193359e-02
-7.908189296722412109e-01 1.102446690201759338e-01 -9.991420060396194458e-02
-8.428341746330261230e-01 2.391998469829559326e-02 6.070583686232566833e-02
-6.572250127792358398e-01 1.885015666484832764e-01 -1.847277581691741943e-02
-6.646747589111328125e-01 1.226991564035415649e-01 1.118120253086090088e-01
-6.629520058631896973e-01 1.563863158226013184e-01 8.780298382043838501e-02
-4.834888577461242676e-01 1.263897567987442017e-01 7.544659823179244995e-02
-6.515800356864929199e-01 1.274923384189605713e-01 1.099544018507003784e-01
-7.738361358642578125e-01 1.222295612096786499e-01 9.412641823291778564e-02
-6.914828419685363770e-01 1.396528929471969604e-01 -9.408390522003173828e-02
-7.127519845962524414e-01 1.060850098729133606e-01 1.134216412901878357e-01
-7.044938802719116211e-01 4.173935949802398682e-02 1.110930070281028748e-01
-5.948911905288696289e-01 5.534003674983978271e-02 1.153666526079177856e-01
-5.391617417335510254e-01 1.695430725812911987e-01 4.646739736199378967e-02
-7.514278292655944824e-01 -2.015997469425201416e-02 -3.135322593152523041e-03
-5.542120933532714844e-01 5.947089940309524536e-02 -7.821890711784362793e-02
-6.024566888809204102e-01 1.955197751522064209e-02 9.616298973560333252e-02
-7.755867838859558105e-01 1.668635010719299316e-01 -5.521656200289726257e-02
-6.827686429023742676e-01 -1.987596601247787476e-02 3.757755085825920105e-02
-7.007326483726501465e-01 1.877337098121643066e-01 -1.876099035143852234e-02
-7.185251712799072266e-01 5.990300327539443970e-02 1.148243695497512817e-01
-4.593800008296966553e-01 1.270501017570495605e-01 5.410712584853172302e-02
-5.633524656295776367e-01 3.878629952669143677e-02 1.026516780257225037e-01
-6.007529497146606445e-01 1.280614286661148071e-01 -8.898376673460006714e-02
-5.241129398345947266e-01 2.582713961601257324e-02 7.787706702947616577e-02
-5.751222968101501465e-01 9.744283556938171387e-02 -9.039261192083358765e-02
-6.764951348304748535e-01 -2.244597673416137695e-02 2.439885633066296577e-03
-4.353831410408020020e-01 7.390218228101730347e-02 1.471711043268442154e-02
-6.415513753890991211e-01 1.184001788496971130e-01 -9.989006072282791138e-02
-5.592631101608276367e-01 6.820417940616607666e-03 6.802929192781448364e-02
-7.472698688507080078e-01 9.110146015882492065e-02 -1.085105687379837036e-01
-7.216842770576477051e-01 1.305954009294509888e-01 -9.902457147836685181e-02
-7.690900564193725586e-01 8.121145516633987427e-02 1.068562045693397522e-01
-6.425570249557495117e-01 1.834788918495178223e-01 -3.511842712759971619e-02
-7.976724505424499512e-01 1.131762415170669556e-01 9.103734046220779419e-02
-7.990877628326416016e-01 1.440833956003189087e-01 -7.795777916908264160e-02
-8.391901850700378418e-01 9.193576127290725708e-02 8.153314888477325439e-02
-8.721597790718078613e-01 8.635803312063217163e-02 -7.922043651342391968e-02
-6.041543483734130859e-01 -5.814529955387115479e-03 6.163985282182693481e-02
-7.330632209777832031e-01 1.198319271206855774e-01 -1.032741814851760864e-01
-8.314308524131774902e-01 1.483911871910095215e-01 -5.910538509488105774e-02
-4.761779010295867920e-01 1.345247626304626465e-01 -2.654062584042549133e-02
-5.095012187957763672e-01 1.015119478106498718e-01 -6.508647650480270386e-02
-5.293394327163696289e-01 1.360933184623718262e-01 8.912463486194610596e-02
-5.090992450714111328e-01 1.425949335098266602e-01 -4.437746480107307434e-02
-7.659083604812622070e-01 1.809210479259490967e-01 -9.921201504766941071e-03
-4.997992813587188721e-01 1.599053740501403809e-01 -5.194201134145259857e-03
-6.063781976699829102e-01 6.529422104358673096e-02 1.189106330275535583e-01
-5.926309227943420410e-01 1.841979324817657471e-01 -1.250045280903577805e-02
-7.574213743209838867e-01 -1.873955130577087402e-03 -5.737480893731117249e-02
-8.101866245269775391e-01 1.690464466810226440e-01 -2.417042106389999390e-02
-6.657183766365051270e-01 1.117596253752708435e-01 -1.044258549809455872e-01
-6.722825765609741211e-01 7.880032062530517578e-04 8.166352659463882446e-02
-5.211867690086364746e-01 3.950005769729614258e-02 -5.170820280909538269e-02
-4.579703211784362793e-01 4.281731694936752319e-02 2.968081831932067871e-02
-5.592191219329833984e-01 2.685904502868652344e-03 -2.389131486415863037e-02
-6.196222901344299316e-01 1.868802607059478760e-01 2.698108181357383728e-02
-7.946547865867614746e-01 -8.757010102272033691e-03 3.636276349425315857e-02
-5.613986253738403320e-01 1.790506243705749512e-01 2.943085134029388428e-02
-7.447432279586791992e-01 1.325611919164657593e-01 9.552019834518432617e-02
-7.521148920059204102e-01 5.604666098952293396e-02 -1.036632582545280457e-01
-9.092434048652648926e-01 3.761044144630432129e-02 5.838291719555854797e-03
-7.746593952178955078e-01 1.778195500373840332e-01 1.405458711087703705e-02
-7.277658581733703613e-01 -1.720000803470611572e-02 4.179225116968154907e-02
-7.523342967033386230e-01 1.535383164882659912e-01 7.550195604562759399e-02
-5.710965991020202637e-01 -8.430629968643188477e-03 2.701494470238685608e-02
-5.229961872100830078e-01 1.451110243797302246e-01 -5.021046102046966553e-02
-8.834479451179504395e-01 3.624999895691871643e-02 -5.426876246929168701e-02
-5.897926092147827148e-01 1.331192255020141602e-01 1.041171029210090637e-01
-8.876363039016723633e-01 1.359639018774032593e-01 -1.396153774112462997e-02
-6.956443786621093750e-01 6.821688264608383179e-02 1.186876595020294189e-01
-8.926163911819458008e-01 2.319294959306716919e-02 -1.736732572317123413e-02
-5.207759141921997070e-01 1.691316068172454834e-01 -8.226502686738967896e-04
-6.803027391433715820e-01 1.786380410194396973e-01 5.371106043457984924e-02
-7.549319863319396973e-01 1.202215924859046936e-01 -1.014516130089759827e-01
-5.111624002456665039e-01 1.667765080928802490e-01 1.023046672344207764e-02
-6.381320953369140625e-01 1.888971924781799316e-01 -1.126131135970354080e-02
-6.990762948989868164e-01 -1.000493019819259644e-02 -4.604078084230422974e-02
-6.457096934318542480e-01 1.744825541973114014e-01 6.395187973976135254e-02
-7.443285584449768066e-01 8.703835308551788330e-02 1.118569001555442810e-01
-8.226318955421447754e-01 1.304434537887573242e-01 -8.173222839832305908e-02
-5.724259614944458008e-01 -8.069209754467010498e-03 1.990461256355047226e-03
-5.856646895408630371e-01 4.236089810729026794e-02 1.089611575007438660e-01
-5.610061287879943848e-01 5.428566038608551025e-02 1.094965040683746338e-01
-7.835012674331665039e-01 1.728883683681488037e-01 -3.640237823128700256e-02
-4.459465742111206055e-01 9.406808018684387207e-02 -1.660972088575363159e-02
-6.337383985519409180e-01 1.043817400932312012e-01 -1.020980626344680786e-01
-7.505463957786560059e-01 3.067903593182563782e-02 9.863846749067306519e-02
-6.338651180267333984e-01 3.489129245281219482e-03 8.317401260137557983e-02
-4.969516992568969727e-01 2.278007566928863525e-02 5.146091431379318237e-02
-5.540735125541687012e-01 2.679902315139770508e-02 -5.689103528857231140e-02
-5.621552467346191406e-01 1.809567213058471680e-01 1.036923751235008240e-02
-8.522284030914306641e-01 2.763131260871887207e-02 -6.506877392530441284e-02
-7.297743558883666992e-01 1.056478917598724365e-01 -1.074923276901245117e-01
6.833796501159667969e-01 -1.560685634613037109e-01 -7.944130338728427887e-03
6.893739700317382812e-01 -1.388606429100036621e-01 8.545021526515483856e-03
7.009438872337341309e-01 -1.466934978961944580e-01 1.688754302449524403e-03
6.992796063423156738e-01 -1.416813731193542480e-01 1.325445808470249176e-02
6.718246936798095703e-01 -1.865819841623306274e-01 -1.844029175117611885e-03
6.756098270416259766e-01 -2.163038998842239380e-01 -1.280719321221113205e-02
6.735807061195373535e-01 -2.017917782068252563e-01 -4.501387011259794235e-04
6.906148791313171387e-01 -1.619031131267547607e-01 2.003273554146289825e-02
7.000069022178649902e-01 -2.273544818162918091e-01 -4.135429626330733299e-04
6.891225576400756836e-01 -2.353536337614059448e-01 -1.111910585314035416e-02
6.761754155158996582e-01 -1.937816143035888672e-01 6.850036326795816422e-03
6.807209253311157227e-01 -1.484962999820709229e-01 8.019182831048965454e-03
6.781132817268371582e-01 -1.668827980756759644e-01 1.160925813019275665e-02
6.985588669776916504e-01 -1.956597417593002319e-01 1.639175228774547577e-02
6.736163496971130371e-01 -2.076913714408874512e-01 -4.122924525290727615e-03
6.733477115631103516e-01 -2.018518298864364624e-01 -1.262480951845645905e-02
6.820426583290100098e-01 -1.725228130817413330e-01 -1.477708294987678528e-02
6.841982603073120117e-01 -2.065647542476654053e-01 1.002972386777400970e-02
6.786527633666992188e-01 -1.985375285148620605e-01 -1.881082542240619659e-02
6.844917535781860352e-01 -1.639952659606933594e-01 1.730517297983169556e-02
6.973730921745300293e-01 -1.437632441520690918e-01 1.645999960601329803e-02
7.061294317245483398e-01 -2.033902406692504883e-01 1.035608164966106415e-02
7.081944346427917480e-01 -1.703042089939117432e-01 1.533934194594621658e-02
7.083011865615844727e-01 -1.567016690969467163e-01 9.519712999463081360e-03
6.903923749923706055e-01 -1.645110249519348145e-01 2.003317140042781830e-02
6.894321441650390625e-01 -1.405986845493316650e-01 1.289443857967853546e-02
7.099860906600952148e-01 -1.988797932863235474e-01 -5.320478696376085281e-03
6.773678660392761230e-01 -1.877682209014892578e-01 9.612312540411949158e-03
6.836124658584594727e-01 -1.624157428741455078e-01 -1.132361590862274170e-02
6.936889886856079102e-01 -1.657945811748504639e-01 -1.281541120260953903e-02
6.998276710510253906e-01 -2.050743699073791504e-01 1.311386097222566605e-02
7.032206058502197266e-01 -1.842979788780212402e-01 -1.313291490077972412e-02
7.011896371841430664e-01 -1.988401710987091064e-01 -1.664275676012039185e-02
6.871692538261413574e-01 -1.624604016542434692e-01 -1.209287531673908234e-02
6.814599037170410156e-01 -1.525366157293319702e-01 1.247503887861967087e-02
7.019182443618774414e-01 -2.155495584011077881e-01 -1.532602310180664062e-02
6.964443922042846680e-01 -1.416270732879638672e-01 1.516847312450408936e-02
6.774006485939025879e-01 -1.728911697864532471e-01 -1.213505677878856659e-02
6.939842700958251953e-01 -1.397215873003005981e-01 4.362888634204864502e-03
6.928738951683044434e-01 -1.452977955341339111e-01 -2.036184305325150490e-03
6.829568743705749512e-01 -2.222044914960861206e-01 1.519785495474934578e-03
6.725602149963378906e-01 -2.018098682165145874e-01 -9.899166412651538849e-03
6.947607994079589844e-01 -2.331646829843521118e-01 -4.155611153692007065e-03
6.743352413177490234e-01 -1.984153240919113159e-01 2.584178233519196510e-03
6.769680976867675781e-01 -2.006482183933258057e-01 5.833679810166358948e-03
7.070204019546508789e-01 -1.671885550022125244e-01 1.652115769684314728e-02
7.044560313224792480e-01 -2.135113328695297241e-01 6.695705000311136246e-03
6.742816567420959473e-01 -2.081183493137359619e-01 -1.353822834789752960e-02
6.823971867561340332e-01 -1.943356245756149292e-01 1.262798253446817398e-02
6.724888682365417480e-01 -1.782996058464050293e-01 8.544229203835129738e-04
7.092713713645935059e-01 -1.734250634908676147e-01 1.390672661364078522e-02
6.983746886253356934e-01 -1.713574677705764771e-01 -1.292534079402685165e-02
6.956955790519714355e-01 -1.752713024616241455e-01 -1.527075562626123428e-02
7.101801633834838867e-01 -1.641949266195297241e-01 8.045882917940616608e-03
6.986932158470153809e-01 -1.472404003143310547e-01 -8.728196844458580017e-04
6.967216134071350098e-01 -1.634690761566162109e-01 2.083277888596057892e-02
6.946119666099548340e-01 -2.292613089084625244e-01 -1.650843769311904907e-02
7.047597765922546387e-01 -1.679948568344116211e-01 -7.045052014291286469e-03
6.775645017623901367e-01 -1.936623454093933105e-01 -1.755467429757118225e-02
6.929251551628112793e-01 -1.982670426368713379e-01 -2.047793194651603699e-02
6.864733099937438965e-01 -2.234509736299514771e-01 3.114703809842467308e-03
6.898099780082702637e-01 -1.392151266336441040e-01 5.526304244995117188e-03
6.755514144897460938e-01 -1.612049043178558350e-01 -1.798064098693430424e-03
6.883656978607177734e-01 -1.979914754629135132e-01 -2.112899906933307648e-02
6.788801550865173340e-01 -1.511059552431106567e-01 3.722253488376736641e-03
7.050052285194396973e-01 -1.762491762638092041e-01 -9.572194889187812805e-03
7.081300616264343262e-01 -1.762908548116683960e-01 -5.790445487946271896e-03
7.104417681694030762e-01 -1.665621846914291382e-01 9.428407065570354462e-03
6.741879582405090332e-01 -1.671013236045837402e-01 3.383963834494352341e-03
6.815773844718933105e-01 -1.937622129917144775e-01 -1.965358853340148926e-02
6.991862058639526367e-01 -1.889529824256896973e-01 -1.673319190740585327e-02
7.111546993255615234e-01 -1.710599511861801147e-01 8.273700252175331116e-03
6.961346268653869629e-01 -1.560791730880737305e-01 -7.783462759107351303e-03
7.037592530250549316e-01 -2.221903949975967407e-01 -1.012067869305610657e-02
7.024174332618713379e-01 -1.730740815401077271e-01 -1.089853979647159576e-02
6.912880539894104004e-01 -2.057183235883712769e-01 1.306229643523693085e-02
7.050541043281555176e-01 -1.552884578704833984e-01 -6.059414590708911419e-05
6.760942935943603516e-01 -1.588685810565948486e-01 -4.342477186582982540e-04
6.909852027893066406e-01 -1.829592436552047729e-01 1.871999353170394897e-02
6.910530328750610352e-01 -1.762702614068984985e-01 -1.673689112067222595e-02
6.905807256698608398e-01 -1.642288714647293091e-01 -1.279081869870424271e-02
6.938994526863098145e-01 -1.536894440650939941e-01 1.990603469312191010e-02
6.848756074905395508e-01 -1.582740098237991333e-01 -9.711104445159435272e-03
6.858392953872680664e-01 -1.967279762029647827e-01 -2.093216590583324432e-02
6.827980279922485352e-01 -2.129183113574981689e-01 6.518842186778783798e-03
6.789122819900512695e-01 -1.810317337512969971e-01 -1.587377488613128662e-02
7.037931680679321289e-01 -1.894195526838302612e-01 -1.355121750384569168e-02
7.089715003967285156e-01 -1.818623095750808716e-01 1.367998309433460236e-02
6.837559938430786133e-01 -2.017645686864852905e-01 -2.107652649283409119e-02
6.809923648834228516e-01 -1.697978675365447998e-01 -1.334408577531576157e-02
6.999704837799072266e-01 -1.880600154399871826e-01 1.797135919332504272e-02
7.073288559913635254e-01 -1.831510365009307861e-01 1.524292025715112686e-02
6.785223484039306641e-01 -2.096376568078994751e-01 -1.881065592169761658e-02
6.793343424797058105e-01 -1.530434191226959229e-01 9.180867113173007965e-03
6.896731257438659668e-01 -1.689288616180419922e-01 1.975417882204055786e-02
6.778954267501831055e-01 -2.235508561134338379e-01 -8.465850725769996643e-03
6.815675497055053711e-01 -1.571331769227981567e-01 1.406752131879329681e-02
6.937168836593627930e-01 -1.851927638053894043e-01 -1.830225251615047455e-02
6.870588660240173340e-01 -2.313349097967147827e-01 -3.094347426667809486e-03
7.080788016319274902e-01 -1.769955307245254517e-01 1.528961677104234695e-02
7.095205783843994141e-01 -2.015970051288604736e-01 6.473418325185775757e-03
6.940705776214599609e-01 -1.875004172325134277e-01 1.841401308774948120e-02
6.771157979965209961e-01 -1.774740815162658691e-01 1.054616365581750870e-02
6.748137474060058594e-01 -1.687857508659362793e-01 -6.710372865200042725e-03
7.043491005897521973e-01 -2.085050344467163086e-01 -1.376648806035518646e-02
7.120377421379089355e-01 -1.858398467302322388e-01 3.998348489403724670e-03
7.044911980628967285e-01 -1.987290233373641968e-01 1.336064003407955170e-02
6.941344141960144043e-01 -1.708099246025085449e-01 -1.443431805819272995e-02
6.971894502639770508e-01 -2.245547175407409668e-01 -1.693344116210937500e-02
6.943586468696594238e-01 -1.848169714212417603e-01 1.894185878336429596e-02
7.013249993324279785e-01 -2.116098552942276001e-01 -1.643605343997478485e-02
6.956219077110290527e-01 -2.094041407108306885e-01 -2.004623226821422577e-02
6.834378838539123535e-01 -1.612185537815093994e-01 1.637209951877593994e-02
7.061272859573364258e-01 -1.506706625223159790e-01 9.505681693553924561e-03
7.004995346069335938e-01 -1.570794135332107544e-01 1.969781145453453064e-02
7.031330466270446777e-01 -1.877259463071823120e-01 1.703745871782302856e-02
6.899200677871704102e-01 -2.353834360837936401e-01 -8.584241382777690887e-03
7.019387483596801758e-01 -1.705099046230316162e-01 1.973183266818523407e-02
7.041839957237243652e-01 -2.236349582672119141e-01 -3.481505205854773521e-03
6.989192962646484375e-01 -2.166804820299148560e-01 -1.764848269522190094e-02
6.722811460494995117e-01 -1.896814256906509399e-01 -9.474691934883594513e-03
6.795467734336853027e-01 -2.264856994152069092e-01 -7.931011728942394257e-03
7.017595767974853516e-01 -1.638250350952148438e-01 -8.042762055993080139e-03
6.754806637763977051e-01 -1.857739090919494629e-01 -1.428345311433076859e-02
6.814029812812805176e-01 -2.291242182254791260e-01 -1.343103498220443726e-02
7.015891671180725098e-01 -2.055536210536956787e-01 -1.654327660799026489e-02
6.919451951980590820e-01 -1.615780591964721680e-01 -1.152108237147331238e-02
6.718854904174804688e-01 -1.892299652099609375e-01 -1.750083756633102894e-03
6.962906122207641602e-01 -2.053106874227523804e-01 -1.974887400865554810e-02
6.864481568336486816e-01 -1.742058247327804565e-01 1.817564666271209717e-02
7.108051776885986328e-01 -1.754009276628494263e-01 1.954671461135149002e-05
6.811873912811279297e-01 -2.031568288803100586e-01 -2.037312276661396027e-02
7.015329599380493164e-01 -1.429507434368133545e-01 9.909089654684066772e-03
6.766512989997863770e-01 -2.130824029445648193e-01 -1.640054956078529358e-02
6.942709088325500488e-01 -1.540516018867492676e-01 -7.393297739326953888e-03
7.033853530883789062e-01 -1.560047268867492676e-01 1.805030740797519684e-02
6.822955012321472168e-01 -1.732053756713867188e-01 1.575417257845401764e-02
6.769415140151977539e-01 -2.209269255399703979e-01 -1.234492566436529160e-02
6.823310852050781250e-01 -2.309049069881439209e-01 -9.705696254968643188e-03
6.828497648239135742e-01 -2.166858315467834473e-01 4.706973209977149963e-03
6.758273243904113770e-01 -1.905314624309539795e-01 -1.559733413159847260e-02
7.057198882102966309e-01 -2.070382833480834961e-01 9.057052433490753174e-03
6.794762015342712402e-01 -2.193252444267272949e-01 -2.328597474843263626e-04
7.033314704895019531e-01 -1.525171697139739990e-01 1.708495058119297028e-02
7.052462697029113770e-01 -1.788255125284194946e-01 -1.003204844892024994e-02
6.832644343376159668e-01 -1.439075022935867310e-01 5.182273220270872116e-03
6.920673251152038574e-01 -1.475704461336135864e-01 1.813297346234321594e-02
6.876333951950073242e-01 -2.000745981931686401e-01 1.381613407284021378e-02
6.944120526313781738e-01 -1.428201496601104736e-01 1.631703041493892670e-02
7.011538743972778320e-01 -2.195715457201004028e-01 -1.512435358017683029e-02
7.047548890113830566e-01 -1.920626163482666016e-01 1.518847234547138214e-02
6.999089717864990234e-01 -1.437315940856933594e-01 1.500291004776954651e-02
7.084358930587768555e-01 -1.853824704885482788e-01 1.371225249022245407e-02
6.869717836380004883e-01 -1.412819921970367432e-01 1.114025618880987167e-02
6.824425458908081055e-01 -1.868345290422439575e-01 -1.874826662242412567e-02
6.717991828918457031e-01 -1.918928921222686768e-01 -3.016699803993105888e-03
6.808190345764160156e-01 -2.035178542137145996e-01 8.752762340009212494e-03
6.854311227798461914e-01 -1.951356977224349976e-01 1.420470979064702988e-02
7.044512629508972168e-01 -2.165349125862121582e-01 4.662383813410997391e-03
6.919889450073242188e-01 -1.692448556423187256e-01 -1.442314963787794113e-02
6.721057891845703125e-01 -1.803608536720275879e-01 -8.450305322185158730e-04
6.728278994560241699e-01 -1.927035748958587646e-01 9.725767886266112328e-04
6.775996685028076172e-01 -1.541229337453842163e-01 2.320691943168640137e-03
7.103010416030883789e-01 -1.950237303972244263e-01 8.039032109081745148e-03
7.075051665306091309e-01 -2.137019038200378418e-01 1.623801072128117085e-03
6.793331503868103027e-01 -1.832500994205474854e-01 1.235597860068082809e-02
7.119621038436889648e-01 -1.888833194971084595e-01 3.208220470696687698e-03
7.054614424705505371e-01 -1.741827428340911865e-01 1.774947531521320343e-02
6.737266778945922852e-01 -1.847941130399703979e-01 -1.166205015033483505e-02
6.971668004989624023e-01 -2.250294089317321777e-01 3.429392119869589806e-03
6.859447956085205078e-01 -2.089295238256454468e-01 -2.163025364279747009e-02
6.905615329742431641e-01 -2.128410190343856812e-01 1.013012230396270752e-02
6.763877272605895996e-01 -1.844154447317123413e-01 8.953728713095188141e-03
6.814407706260681152e-01 -1.493372321128845215e-01 1.060436386615037918e-02
7.093316316604614258e-01 -1.654552221298217773e-01 1.278887875378131866e-02
6.809397935867309570e-01 -1.488507091999053955e-01 3.163837536703795195e-04
6.837637424468994141e-01 -1.787634789943695068e-01 1.628963463008403778e-02
6.967163681983947754e-01 -2.289104014635086060e-01 2.584233589004725218e-04
6.794974803924560547e-01 -1.798488497734069824e-01 1.292187534272670746e-02
6.916586160659790039e-01 -2.350979596376419067e-01 -1.216249540448188782e-02
6.862047910690307617e-01 -1.750091463327407837e-01 -1.651022769510746002e-02
7.061896324157714844e-01 -1.657247245311737061e-01 -4.448533058166503906e-03
6.892455220222473145e-01 -2.209748476743698120e-01 -2.063684910535812378e-02
6.840348839759826660e-01 -2.326800227165222168e-01 -1.134289149194955826e-02
7.104421257972717285e-01 -1.889013200998306274e-01 9.886329993605613708e-03
6.737678647041320801e-01 -1.734708547592163086e-01 4.460297990590333939e-03
6.867425441741943359e-01 -1.442540585994720459e-01 1.387230772525072098e-02
7.091831564903259277e-01 -1.994468569755554199e-01 8.263909257948398590e-03
7.102549672126770020e-01 -1.793494075536727905e-01 1.199460588395595551e-02
6.985409259796142578e-01 -2.123757153749465942e-01 -1.839810982346534729e-02
7.114903926849365234e-01 -1.951207667589187622e-01 3.280387027189135551e-03
6.918018460273742676e-01 -2.319588810205459595e-01 -1.603913493454456329e-02
6.900389194488525391e-01 -1.784759610891342163e-01 1.910286210477352142e-02
7.021025419235229492e-01 -2.274122834205627441e-01 -5.125102121382951736e-03
6.850457191467285156e-01 -1.788451820611953735e-01 -1.744762808084487915e-02
6.780325770378112793e-01 -2.109954059123992920e-01 2.860882552340626717e-03
6.893427371978759766e-01 -1.460464596748352051e-01 1.658250764012336731e-02
6.994112730026245117e-01 -1.547201126813888550e-01 1.966385915875434875e-02
7.105760574340820312e-01 -2.013424783945083618e-01 -2.268766984343528748e-03
6.718187332153320312e-01 -1.883006393909454346e-01 -7.143551018089056015e-03
7.117778062820434570e-01 -1.790482699871063232e-01 2.665291074663400650e-03
6.791905760765075684e-01 -1.594238430261611938e-01 1.174569781869649887e-02
6.766702532768249512e-01 -1.804365217685699463e-01 9.769018739461898804e-03
6.924775242805480957e-01 -2.317072749137878418e-01 -1.721252105198800564e-03
