-4.271548688411712646e-01 7.050025463104248047e-02 6.397017091512680054e-02
-4.732688069343566895e-01 3.693647310137748718e-02 9.150532633066177368e-02
-3.882073163986206055e-01 -7.085664570331573486e-02 9.997695684432983398e-02
-2.802934050559997559e-01 3.286416456103324890e-02 6.408905982971191406e-02
-2.724445462226867676e-01 4.102960228919982910e-03 6.301786750555038452e-02
-3.165429830551147461e-01 7.765232026576995850e-02 -3.517223149538040161e-02
-5.247304439544677734e-01 3.743203356862068176e-02 -4.689109325408935547e-02
-4.299688935279846191e-01 -5.702437460422515869e-02 1.143725663423538208e-01
-6.610101461410522461e-01 -1.986953616142272949e-02 1.451679784804582596e-02
-3.505622744560241699e-01 -8.478182554244995117e-02 -4.787003993988037109e-02
-4.645819664001464844e-01 -3.446356579661369324e-02 -8.859827369451522827e-02
-6.190003156661987305e-01 6.795771420001983643e-03 -1.106516830623149872e-02
-6.420433521270751953e-01 -1.679006069898605347e-01 2.799033001065254211e-02
-5.176762938499450684e-01 -9.884208440780639648e-03 1.111026257276535034e-01
-2.908168733119964600e-01 -4.375713318586349487e-02 -4.250492900609970093e-02
-4.018199443817138672e-01 -7.359486818313598633e-02 1.032308116555213928e-01
-3.598959147930145264e-01 -9.784348309040069580e-02 -3.919479250907897949e-02
-5.550764203071594238e-01 4.503231495618820190e-03 9.479126334190368652e-02
-2.754809260368347168e-01 4.060479626059532166e-02 -4.754951596260070801e-02
-3.733403980731964111e-01 4.066322371363639832e-02 9.040659666061401367e-02
-6.129806041717529297e-01 -1.592814177274703979e-01 6.887254118919372559e-02
-4.124802052974700928e-01 -1.409273594617843628e-01 2.106204070150852203e-02
-6.677120923995971680e-01 -1.551336050033569336e-01 9.325146675109863281e-03
-3.056780993938446045e-01 8.760848641395568848e-02 1.494195964187383652e-02
-4.808807373046875000e-01 -1.441471427679061890e-01 -3.541135042905807495e-02
-2.859663367271423340e-01 4.554824158549308777e-02 6.168618798255920410e-02
-4.566740691661834717e-01 -8.215588331222534180e-02 1.126710772514343262e-01
-4.365722239017486572e-01 -7.447274029254913330e-02 -8.018405735492706299e-02
-5.064709782600402832e-01 -1.600222587585449219e-01 5.851054936647415161e-02
-4.241878986358642578e-01 -1.446498781442642212e-01 6.116311997175216675e-03
-5.172939300537109375e-01 -9.461309760808944702e-02 -7.569467276334762573e-02
-3.739351034164428711e-01 9.369370341300964355e-02 1.873388886451721191e-03
-5.072078108787536621e-01 -7.962808012962341309e-04 1.089044809341430664e-01
-3.015983998775482178e-01 8.695158362388610840e-02 -3.429530188441276550e-03
-5.476367473602294922e-01 -1.566675603389739990e-01 7.476009428501129150e-02
-3.331032991409301758e-01 -4.777409881353378296e-02 -6.501150876283645630e-02
-3.837690651416778564e-01 7.508173584938049316e-02 -4.504799842834472656e-02
-4.766356050968170166e-01 -1.488000750541687012e-01 6.650426983833312988e-02
-2.755062282085418701e-01 5.632830783724784851e-02 -3.879358619451522827e-02
-4.097294807434082031e-01 2.959162369370460510e-02 9.946860373020172119e-02
-4.121026992797851562e-01 7.067875564098358154e-02 6.576205790042877197e-02
-2.914085984230041504e-01 -5.096197128295898438e-03 -5.962704122066497803e-02
-6.840266585350036621e-01 -1.483145207166671753e-01 2.992194518446922302e-02
-6.274055838584899902e-01 -3.500104695558547974e-02 8.799652010202407837e-02
-3.834303915500640869e-01 -1.268803477287292480e-01 3.280313313007354736e-02
-7.016071677207946777e-01 -1.194877624511718750e-01 4.416141286492347717e-02
-2.838190197944641113e-01 1.470021903514862061e-02 -5.711556226015090942e-02
-6.508014202117919922e-01 -1.033231057226657867e-02 2.560230530798435211e-02
-5.608400702476501465e-01 -7.834549248218536377e-02 1.158451810479164124e-01
-3.549416065216064453e-01 -1.070643067359924316e-01 -1.957480423152446747e-02
-4.574004411697387695e-01 3.222354874014854431e-02 -7.198905944824218750e-02
-4.980405271053314209e-01 -1.500541567802429199e-01 -3.136957436800003052e-02
-2.850790619850158691e-01 -5.565324798226356506e-02 -2.376682125031948090e-02
-5.330935120582580566e-01 3.852855414152145386e-03 1.016140580177307129e-01
-5.872836709022521973e-01 -3.205970674753189087e-02 1.036664843559265137e-01
-6.875956058502197266e-01 -6.886593997478485107e-02 -8.602747693657875061e-03
-2.697278857231140137e-01 -2.100352756679058075e-02 5.415544658899307251e-02
-4.155454933643341064e-01 -7.732099294662475586e-02 1.056609675288200378e-01
-4.974142014980316162e-01 -7.365405559539794922e-02 -8.280226588249206543e-02
-4.768024981021881104e-01 2.756167575716972351e-02 -7.097110152244567871e-02
-4.046200215816497803e-01 -3.322616219520568848e-03 -8.650846034288406372e-02
-5.320198535919189453e-01 -7.940220832824707031e-02 1.178803741931915283e-01
-3.289870619773864746e-01 4.439722374081611633e-02 -6.503145396709442139e-02
-3.333793878555297852e-01 -9.955514967441558838e-02 -5.514625459909439087e-03
-3.746261000633239746e-01 -6.557396054267883301e-02 9.730918705463409424e-02
-4.834009706974029541e-01 -3.998023644089698792e-02 1.198860779404640198e-01
-5.958204269409179688e-01 1.562469825148582458e-02 -2.399170212447643280e-02
-6.284122467041015625e-01 -1.709769368171691895e-01 2.590868994593620300e-02
-3.698532879352569580e-01 -8.495654165744781494e-02 8.449442684650421143e-02
-4.457543194293975830e-01 -1.512727886438369751e-01 3.503070399165153503e-02
-3.820696473121643066e-01 5.264440551400184631e-02 8.360267430543899536e-02
-4.247904419898986816e-01 -9.001190960407257080e-02 -7.099103927612304688e-02
-3.037479519844055176e-01 -5.161851644515991211e-02 -4.642935097217559814e-02
-5.359309315681457520e-01 -9.956137835979461670e-02 -7.264876365661621094e-02
-6.501182913780212402e-01 -1.592507362365722656e-01 2.259388566017150879e-04
-5.197288990020751953e-01 -6.792762875556945801e-02 -8.232118934392929077e-02
-2.413408756256103516e-01 -5.712274461984634399e-03 1.944804377853870392e-02
-6.434636712074279785e-01 -4.457914084196090698e-02 8.379349112510681152e-02
-2.833784818649291992e-01 -1.706117950379848480e-02 -5.188462138175964355e-02
-4.984950423240661621e-01 7.002751529216766357e-02 1.016363501548767090e-03
-3.984178304672241211e-01 5.114885047078132629e-02 -6.656873226165771484e-02
-4.957593679428100586e-01 -1.047467291355133057e-01 1.093847453594207764e-01
-6.817629337310791016e-01 -6.499993056058883667e-02 6.341362744569778442e-02
-5.515628457069396973e-01 -9.530855715274810791e-02 1.140199750661849976e-01
-2.534477412700653076e-01 6.280317902565002441e-02 1.302641909569501877e-02
-2.478907555341720581e-01 -2.049172110855579376e-02 1.784325018525123596e-02
-6.422386765480041504e-01 -2.206058241426944733e-02 -2.416746504604816437e-02
-4.996510148048400879e-01 -6.808181852102279663e-02 1.194987148046493530e-01
-4.974660873413085938e-01 6.387962400913238525e-02 -2.267374284565448761e-02
-3.837306499481201172e-01 7.714448869228363037e-02 5.831235647201538086e-02
-7.074279785156250000e-01 -1.046165227890014648e-01 3.030093759298324585e-02
-3.191105127334594727e-01 -4.991675540804862976e-02 -5.718036741018295288e-02
-4.075927734375000000e-01 -4.142213612794876099e-02 1.123469248414039612e-01
-6.015250682830810547e-01 -1.710316836833953857e-01 3.230106085538864136e-03
-3.242380619049072266e-01 9.165313839912414551e-02 1.610290259122848511e-03
-3.081135153770446777e-01 8.462619781494140625e-02 -1.873795874416828156e-02
-5.128921866416931152e-01 -1.574665009975433350e-01 -2.272024936974048615e-02
-3.510219454765319824e-01 -7.154144346714019775e-02 -5.909755080938339233e-02
-5.138497948646545410e-01 2.679475024342536926e-02 9.072911739349365234e-02
-6.044725179672241211e-01 -8.207657188177108765e-02 1.079134047031402588e-01
-4.289788007736206055e-01 2.984238788485527039e-02 -7.678900659084320068e-02
-4.320743083953857422e-01 -6.100803613662719727e-02 -8.404311537742614746e-02
-3.699392676353454590e-01 1.425768807530403137e-02 -8.095013350248336792e-02
-3.875779509544372559e-01 -2.695592865347862244e-02 1.090892851352691650e-01
-6.863961815834045410e-01 -5.127996206283569336e-02 8.293356746435165405e-03
-3.962814211845397949e-01 5.387692525982856750e-02 8.343942463397979736e-02
-2.991546094417572021e-01 2.462447807192802429e-02 7.624205946922302246e-02
-4.435421824455261230e-01 6.208175048232078552e-02 7.212064415216445923e-02
-3.783431053161621094e-01 -1.262737065553665161e-01 1.533277984708547592e-02
-5.311129093170166016e-01 -3.903163969516754150e-02 -8.142782002687454224e-02
-4.828996062278747559e-01 7.455910742282867432e-02 -1.394532620906829834e-03
-3.949716091156005859e-01 -1.345966383814811707e-02 -8.648081868886947632e-02
-6.726645827293395996e-01 -9.552039206027984619e-02 7.969816029071807861e-02
-3.155497312545776367e-01 6.456547975540161133e-02 -4.913587123155593872e-02
-5.482696294784545898e-01 3.414842113852500916e-02 6.883806735277175903e-02
-5.446542501449584961e-01 -1.718002855777740479e-01 3.971832990646362305e-02
-5.366981625556945801e-01 -5.627508461475372314e-02 -8.102566003799438477e-02
-6.142875552177429199e-01 7.287226617336273193e-04 -2.639092318713665009e-02
-2.500849366188049316e-01 6.015088036656379700e-02 -3.106459975242614746e-03
-5.157763361930847168e-01 -1.167527139186859131e-01 1.054951772093772888e-01
-4.412238597869873047e-01 7.912640273571014404e-02 4.399095475673675537e-02
-4.022113084793090820e-01 1.824194192886352539e-02 -8.204396069049835205e-02
-5.355516672134399414e-01 -1.213802844285964966e-01 -6.193291395902633667e-02
-3.489264249801635742e-01 9.227646887302398682e-02 2.165895327925682068e-02
-5.873356461524963379e-01 -7.208424806594848633e-02 1.117594465613365173e-01
-2.544213533401489258e-01 -3.248964250087738037e-02 5.450341850519180298e-03
-3.965650200843811035e-01 -6.076925992965698242e-02 1.060984805226325989e-01
-4.804926514625549316e-01 -1.554697901010513306e-01 -1.456065848469734192e-02
-5.302256345748901367e-01 -1.572780758142471313e-01 -2.639778144657611847e-02
-5.476237535476684570e-01 3.678726032376289368e-02 -3.390455245971679688e-02
-4.626641869544982910e-01 -5.963268131017684937e-02 1.183173209428787231e-01
-2.826457023620605469e-01 -5.428891628980636597e-03 6.921562552452087402e-02
-4.995911121368408203e-01 3.458788618445396423e-02 8.791042864322662354e-02
-6.008707284927368164e-01 2.289758250117301941e-02 8.982233703136444092e-05
-4.624492824077606201e-01 -1.034352034330368042e-01 1.047870293259620667e-01
-4.972026944160461426e-01 1.888818293809890747e-02 1.001167595386505127e-01
-4.333435297012329102e-01 5.127625539898872375e-02 8.461779356002807617e-02
-2.791520655155181885e-01 -5.954080820083618164e-02 1.946854591369628906e-02
-6.435104608535766602e-01 -1.371460407972335815e-01 8.116257935762405396e-02
-5.383639335632324219e-01 -1.781897060573101044e-02 -7.575669884681701660e-02
-4.346098005771636963e-01 -1.189081966876983643e-01 8.582971990108489990e-02
-3.709400296211242676e-01 -3.523660823702812195e-02 1.042035594582557678e-01
-3.417132198810577393e-01 -1.000628396868705750e-01 -1.858009956777095795e-02
-6.239408254623413086e-01 -9.804363548755645752e-02 1.014642715454101562e-01
-4.414173066616058350e-01 8.559927344322204590e-02 1.317220274358987808e-02
-3.329586982727050781e-01 -8.688421547412872314e-02 -3.251740336418151855e-02
-3.097610473632812500e-01 -6.551958620548248291e-02 -3.845366090536117554e-02
-4.553090035915374756e-01 -1.474499702453613281e-01 -1.873913966119289398e-02
-3.417081832885742188e-01 -3.707449883222579956e-03 -7.772450149059295654e-02
-4.687566459178924561e-01 6.129999086260795593e-02 6.684911251068115234e-02
-5.828037261962890625e-01 -5.859449878334999084e-02 -7.040140777826309204e-02
-6.226235628128051758e-01 8.293423801660537720e-03 3.978373110294342041e-02
-3.776692748069763184e-01 8.886913955211639404e-02 -2.068926580250263214e-02
-4.566315114498138428e-01 6.157618388533592224e-02 -4.719288647174835205e-02
-6.621854901313781738e-01 -1.409367620944976807e-01 6.953408569097518921e-02
-5.426085591316223145e-01 4.682893678545951843e-02 5.070860683917999268e-02
-5.373824238777160645e-01 5.406195297837257385e-02 -6.078608334064483643e-03
-6.750025153160095215e-01 -4.621614515781402588e-02 -8.420133963227272034e-03
-5.026549696922302246e-01 1.922481134533882141e-02 -6.951835006475448608e-02
-4.269453287124633789e-01 -3.170495480298995972e-02 -8.842560648918151855e-02
-5.466373562812805176e-01 1.684604585170745850e-02 8.833869546651840210e-02
-3.815113604068756104e-01 2.242304012179374695e-02 -7.996612787246704102e-02
-4.585590064525604248e-01 -1.226098537445068359e-01 -5.429317057132720947e-02
-4.641652703285217285e-01 1.333554089069366455e-02 -8.002072572708129883e-02
-5.078837275505065918e-01 -1.457024067640304565e-01 8.132852613925933838e-02
-5.648309588432312012e-01 -4.738903045654296875e-02 1.136347129940986633e-01
-4.023970961570739746e-01 8.708503842353820801e-02 -1.974530331790447235e-02
-4.247219562530517578e-01 -1.607073098421096802e-02 1.144215092062950134e-01
-4.832660555839538574e-01 4.506896808743476868e-02 8.217953145503997803e-02
-4.285775423049926758e-01 7.756958901882171631e-02 5.190250277519226074e-02
-3.552990853786468506e-01 -5.019828677177429199e-05 -8.053930103778839111e-02
-2.358163744211196899e-01 1.247167214751243591e-02 1.602175273001194000e-02
-4.837286472320556641e-01 1.204037293791770935e-02 1.058648750185966492e-01
-5.509748458862304688e-01 -1.593694686889648438e-01 -2.497608773410320282e-02
-6.227215528488159180e-01 -1.825365051627159119e-02 7.920255511999130249e-02
-5.904130935668945312e-01 -1.494368016719818115e-01 -3.479485213756561279e-02
-6.957954168319702148e-01 -1.350769251585006714e-01 1.819622516632080078e-02
-5.165679454803466797e-01 -7.095262408256530762e-04 -7.548774778842926025e-02
-3.091092109680175781e-01 2.221350744366645813e-02 -6.669612228870391846e-02
-4.777210652828216553e-01 -1.270283609628677368e-01 9.240619093179702759e-02
-3.849804103374481201e-01 1.770369708538055420e-03 -8.449012786149978638e-02
-6.254137754440307617e-01 -1.138893663883209229e-01 -4.904352128505706787e-02
-6.809491515159606934e-01 -1.155498772859573364e-01 7.111145555973052979e-02
-3.641518354415893555e-01 -7.261082530021667480e-02 -6.390497833490371704e-02
-5.678215026855468750e-01 6.487842649221420288e-03 -5.312392860651016235e-02
-4.681882858276367188e-01 -1.018496751785278320e-01 -7.095947116613388062e-02
-4.953486919403076172e-01 -1.570380479097366333e-01 -1.791756786406040192e-02
-6.173365116119384766e-01 -1.385838091373443604e-01 -3.810632973909378052e-02
-2.959914803504943848e-01 -3.322095796465873718e-02 -5.290163308382034302e-02
-6.572732329368591309e-01 -2.585303783416748047e-02 5.444995313882827759e-02
-3.343068957328796387e-01 3.985396400094032288e-02 8.310839533805847168e-02
-4.947929680347442627e-01 -1.655380874872207642e-01 1.698301360011100769e-02
-6.137691736221313477e-01 -1.027492731809616089e-01 -5.655144155025482178e-02
-3.244059681892395020e-01 -6.804087758064270020e-02 -4.712178558111190796e-02
-4.937525093555450439e-01 -1.612740308046340942e-01 4.813351482152938843e-02
-5.223429799079895020e-01 -9.751792997121810913e-02 1.138946786522865295e-01
-5.187362432479858398e-01 -1.700106114149093628e-01 1.950062438845634460e-02
-5.723244547843933105e-01 -6.827545166015625000e-02 1.144677326083183289e-01
-5.400075912475585938e-01 -2.673059701919555664e-03 -6.968387961387634277e-02
-5.927410721778869629e-01 -4.633154720067977905e-02 -6.556433439254760742e-02
-6.344252824783325195e-01 -1.283441632986068726e-01 -3.897034376859664917e-02
-2.884264290332794189e-01 4.817462339997291565e-02 -5.057633668184280396e-02
-4.363678097724914551e-01 -3.561985120177268982e-02 1.169802546501159668e-01
-2.654263973236083984e-01 -7.274467498064041138e-03 -4.204209148883819580e-02
-4.706928431987762451e-01 -7.959172129631042480e-02 1.153581887483596802e-01
-3.450492024421691895e-01 -7.322375476360321045e-02 7.919809967279434204e-02
-2.663368284702301025e-01 1.563711836934089661e-02 5.834641307592391968e-02
-3.662370443344116211e-01 -9.864874184131622314e-02 7.010813057422637939e-02
-2.663080692291259766e-01 -3.388169780373573303e-02 4.069061204791069031e-02
-3.160728216171264648e-01 -9.016476571559906006e-02 5.451975390315055847e-03
-5.584014058113098145e-01 -1.428292132914066315e-02 1.045703738927841187e-01
-3.612310886383056641e-01 1.389326527714729309e-02 9.892141073942184448e-02
-6.355724930763244629e-01 -8.623116463422775269e-02 9.825712442398071289e-02
-3.804533481597900391e-01 -7.069278508424758911e-02 -7.052579522132873535e-02
-5.595995783805847168e-01 -1.723641306161880493e-01 4.290510714054107666e-02
-4.504945278167724609e-01 -1.344917565584182739e-01 7.550594210624694824e-02
-3.981844484806060791e-01 6.611201167106628418e-02 7.201896607875823975e-02
-4.398745000362396240e-01 -9.907934814691543579e-03 1.145509481430053711e-01
-6.197443604469299316e-01 1.320849731564521790e-02 1.960825175046920776e-02
-3.412411212921142578e-01 1.408438384532928467e-02 -7.643129676580429077e-02
-3.702166676521301270e-01 -8.059561252593994141e-03 1.046351119875907898e-01
-6.074556708335876465e-01 -5.010312423110008240e-02 1.029731258749961853e-01
-5.817168354988098145e-01 -3.741998597979545593e-02 -6.763023138046264648e-02
-4.828231334686279297e-01 4.897968843579292297e-02 -5.250061303377151489e-02
-2.898506224155426025e-01 -5.860196799039840698e-02 4.492868483066558838e-02
-4.899860620498657227e-01 -1.180324703454971313e-01 -6.288410723209381104e-02
-5.777401924133300781e-01 -1.596795022487640381e-01 7.226853072643280029e-02
-5.440805554389953613e-01 -3.970345109701156616e-02 1.157202422618865967e-01
-5.456115603446960449e-01 -1.111198067665100098e-01 1.092290505766868591e-01
-5.323685407638549805e-01 5.844189599156379700e-02 1.971160061657428741e-02
-3.857713341712951660e-01 -9.610536694526672363e-02 8.397218585014343262e-02
-5.551838278770446777e-01 -3.707219660282135010e-02 -7.573319971561431885e-02
-3.321638703346252441e-01 -5.864030867815017700e-02 8.082694560289382935e-02
-4.442550241947174072e-01 1.724430546164512634e-02 -8.079499751329421997e-02
-4.021815061569213867e-01 -3.781679272651672363e-02 -8.562202751636505127e-02
-6.626618504524230957e-01 -7.463149726390838623e-02 -3.497377783060073853e-02
-6.436876058578491211e-01 -1.235980540513992310e-01 8.831774443387985229e-02
-5.553479194641113281e-01 4.764791950583457947e-02 1.642428338527679443e-03
-5.775100588798522949e-01 -1.425005868077278137e-02 -6.106166541576385498e-02
-3.483111858367919922e-01 9.194388985633850098e-02 -1.084971427917480469e-02
-4.720968306064605713e-01 -1.829385384917259216e-02 -8.714073151350021362e-02
-6.962653994560241699e-01 -1.186679154634475708e-01 8.890032768249511719e-05
-6.180186271667480469e-01 -6.311333924531936646e-02 1.023178473114967346e-01
-6.506508588790893555e-01 -1.790064573287963867e-02 -7.908606901764869690e-03
-5.036634206771850586e-01 -5.917798727750778198e-02 -8.491902798414230347e-02
-4.677593708038330078e-01 -1.578256487846374512e-01 3.543440997600555420e-02
-3.872861564159393311e-01 -1.261281818151473999e-01 -1.100290007889270782e-02
-6.774657368659973145e-01 -7.504375278949737549e-02 -2.288761176168918610e-02
-2.470127344131469727e-01 1.165791228413581848e-02 -2.850662730634212494e-02
-4.976791143417358398e-01 7.089672982692718506e-02 1.771695166826248169e-02
-3.886454105377197266e-01 2.405174449086189270e-02 1.001837030053138733e-01
-5.383285880088806152e-01 2.887492999434471130e-02 8.026936650276184082e-02
-5.866331458091735840e-01 -8.321041613817214966e-02 -6.831748038530349731e-02
-6.318151354789733887e-01 -6.751924753189086914e-02 9.784829616546630859e-02
-3.647443354129791260e-01 6.013304367661476135e-02 -6.004602462053298950e-02
-5.582864880561828613e-01 -3.053754568099975586e-03 -6.335674226284027100e-02
-2.851358056068420410e-01 8.006076514720916748e-02 -1.183799467980861664e-02
-3.649349510669708252e-01 -1.193213760852813721e-01 7.368351332843303680e-03
-6.654490232467651367e-01 -1.265198290348052979e-01 7.705345749855041504e-02
-3.543508648872375488e-01 -1.115352958440780640e-01 3.363400697708129883e-02
-5.976121425628662109e-01 -9.425755590200424194e-02 1.084496155381202698e-01
-5.619712471961975098e-01 -1.211401671171188354e-01 1.044069156050682068e-01
-6.227006316184997559e-01 -4.727229103446006775e-02 9.604807943105697632e-02
-4.962176084518432617e-01 -5.266198888421058655e-02 1.203352361917495728e-01
-5.865833759307861328e-01 -1.723428368568420410e-01 4.417833872139453888e-03
-4.960680007934570312e-01 -2.985567972064018250e-02 1.184929236769676208e-01
-3.977244794368743896e-01 7.165421545505523682e-02 -4.800187051296234131e-02
-4.393411278724670410e-01 8.455382287502288818e-02 -6.578976288437843323e-03
-5.981507301330566406e-01 -7.367574423551559448e-02 -6.583843380212783813e-02
-5.237820744514465332e-01 -1.572582572698593140e-01 6.950587034225463867e-02
-6.916120648384094238e-01 -1.100855469703674316e-01 6.279621273279190063e-02
-4.911662936210632324e-01 -1.244002729654312134e-01 9.738513827323913574e-02
-6.042650341987609863e-01 -1.740593761205673218e-01 2.980203554034233093e-02
-6.319699883460998535e-01 -2.532090246677398682e-02 -3.611194342374801636e-02
-5.478459596633911133e-01 -6.676945090293884277e-02 1.177304461598396301e-01
-5.609043240547180176e-01 -1.507742255926132202e-01 8.284504711627960205e-02
-6.006664037704467773e-01 6.628792732954025269e-03 6.940025836229324341e-02
-2.347554862499237061e-01 2.135562896728515625e-02 -4.865150898694992065e-03
-3.163644075393676758e-01 -2.729665115475654602e-02 8.452925831079483032e-02
-4.271594285964965820e-01 -1.438273489475250244e-01 3.950691223144531250e-02
-6.157950162887573242e-01 -1.360160112380981445e-01 8.994763344526290894e-02
-3.593221604824066162e-01 -1.876727864146232605e-02 1.021487191319465637e-01
-4.726422131061553955e-01 -5.661264061927795410e-02 -8.668372780084609985e-02
-6.248533725738525391e-01 1.592561602592468262e-04 5.532176792621612549e-02
-3.937513828277587891e-01 -1.155840754508972168e-01 -3.728853166103363037e-02
-4.685294032096862793e-01 -8.541987091302871704e-02 -7.882931828498840332e-02
-2.392705678939819336e-01 3.008164092898368835e-02 -1.617950387299060822e-02
-6.357418894767761230e-01 -1.592677086591720581e-01 6.165422499179840088e-02
-5.630925297737121582e-01 -1.727465391159057617e-01 6.113769486546516418e-03
-3.470795750617980957e-01 -8.705286681652069092e-02 6.874955445528030396e-02
-6.589757204055786133e-01 -1.612398922443389893e-01 3.838491439819335938e-02
-4.850608110427856445e-01 -8.253802359104156494e-02 1.160568594932556152e-01
-6.827356219291687012e-01 -8.644904196262359619e-02 7.102571427822113037e-02
-5.624591112136840820e-01 -1.263197511434555054e-01 -5.697029083967208862e-02
-3.301765918731689453e-01 -8.224561810493469238e-02 6.011229753494262695e-02
-4.926152825355529785e-01 -1.357862800359725952e-01 8.818157762289047241e-02
-3.576489090919494629e-01 -1.422672718763351440e-02 -8.088028430938720703e-02
-4.766079783439636230e-01 -1.151107102632522583e-01 1.008749529719352722e-01
-4.528049230575561523e-01 -4.583325982093811035e-02 1.184808164834976196e-01
-3.452589511871337891e-01 -5.430682376027107239e-02 -6.682234257459640503e-02
-4.049252569675445557e-01 -1.356926709413528442e-01 3.664096444845199585e-02
-4.985784888267517090e-01 -1.639263033866882324e-01 2.741934731602668762e-04
-4.691170752048492432e-01 -1.874860562384128571e-02 1.170800030231475830e-01
-6.476786732673645020e-01 -6.722915172576904297e-02 -4.350563138723373413e-02
-5.478808283805847168e-01 -1.264665722846984863e-01 1.017290651798248291e-01
-3.697220981121063232e-01 -1.171062886714935303e-01 4.286693781614303589e-02
-5.292754173278808594e-01 1.852811127901077271e-02 -6.139740347862243652e-02
-5.210734605789184570e-01 -2.649529278278350830e-02 -8.166866004467010498e-02
-4.619382023811340332e-01 7.539701461791992188e-02 -2.070727385580539703e-02
-6.539183855056762695e-01 -5.000179260969161987e-02 -3.367116302251815796e-02
-4.200105667114257812e-01 5.883040651679039001e-02 7.861148566007614136e-02
-5.707759857177734375e-01 -1.372904479503631592e-01 -4.836938530206680298e-02
-4.391534328460693359e-01 -1.421733200550079346e-01 -1.991965807974338531e-02
-3.908540904521942139e-01 -8.224797248840332031e-02 -6.704562157392501831e-02
-4.687918722629547119e-01 7.870478928089141846e-02 4.983507096767425537e-05
-3.374561965465545654e-01 6.831306219100952148e-02 6.357653439044952393e-02
-4.948166906833648682e-01 -9.117722511291503906e-03 -8.260308951139450073e-02
-5.938160419464111328e-01 2.918046340346336365e-02 2.003398165106773376e-02
-5.233122706413269043e-01 -1.098699271678924561e-01 -6.879534572362899780e-02
-2.441959679126739502e-01 3.192237392067909241e-02 3.262297809123992920e-02
-4.306103885173797607e-01 8.239100873470306396e-02 -2.078346349298954010e-02
-4.086863696575164795e-01 1.685065776109695435e-02 1.049140319228172302e-01
-2.930456399917602539e-01 7.253828644752502441e-02 4.187820851802825928e-02
-5.670070052146911621e-01 4.245190694928169250e-02 2.826058492064476013e-02
-6.171910166740417480e-01 -1.632972061634063721e-01 -9.953642264008522034e-03
-5.519485473632812500e-01 -1.737727671861648560e-01 1.750033162534236908e-02
-3.387051820755004883e-01 -8.930396288633346558e-03 9.576308727264404297e-02
-6.226395368576049805e-01 -7.914654910564422607e-02 1.026362180709838867e-01
-6.280189156532287598e-01 4.919674247503280640e-03 1.437528058886528015e-03
-4.025319218635559082e-01 8.392101526260375977e-02 4.460515081882476807e-02
-6.364820003509521484e-01 -9.057816118001937866e-03 -1.463062688708305359e-02
-3.162156641483306885e-01 3.532732650637626648e-02 7.953993231058120728e-02
-5.864692926406860352e-01 3.245252743363380432e-02 5.821408703923225403e-03
-5.375868082046508789e-01 -8.312852680683135986e-02 -7.747334986925125122e-02
-5.900515317916870117e-01 -1.706918627023696899e-01 5.065748840570449829e-02
-3.376995027065277100e-01 2.335636690258979797e-02 9.048021584749221802e-02
-4.173409640789031982e-01 8.978602290153503418e-02 6.369696930050849915e-03
-4.537009596824645996e-01 -4.675432667136192322e-02 -8.797653764486312866e-02
-7.868066430091857910e-01 9.572619199752807617e-02 2.390260249376296997e-02
-8.873050808906555176e-01 -3.131823614239692688e-02 8.836673200130462646e-02
-8.954654932022094727e-01 5.645178258419036865e-02 4.190561920404434204e-02
-7.673768401145935059e-01 -3.481842577457427979e-03 1.123477071523666382e-01
-8.203338384628295898e-01 -9.909838438034057617e-03 2.122148498892784119e-02
-7.769076824188232422e-01 9.252838790416717529e-04 1.537499949336051941e-02
-7.347347140312194824e-01 -2.647964283823966980e-02 7.983284443616867065e-02
-8.382770419120788574e-01 -3.973368182778358459e-02 6.170266866683959961e-02
-8.380274176597595215e-01 -2.377802506089210510e-02 1.038702651858329773e-01
-6.528689861297607422e-01 7.930412888526916504e-02 8.906958997249603271e-02
-7.711963057518005371e-01 -2.388630062341690063e-02 4.023555666208267212e-02
-6.697465181350708008e-01 1.048475205898284912e-01 2.127954363822937012e-02
-7.511868476867675781e-01 7.673034071922302246e-02 1.873932778835296631e-03
-7.106413245201110840e-01 1.098016351461410522e-01 5.300698056817054749e-02
-6.562175750732421875e-01 6.972253322601318359e-02 9.470295906066894531e-02
-7.042018175125122070e-01 -1.909397542476654053e-03 3.213033452630043030e-02
-8.797198534011840820e-01 3.002998977899551392e-02 1.520549878478050232e-02
-6.105734705924987793e-01 4.164376482367515564e-02 3.820277005434036255e-02
-7.797055840492248535e-01 9.918670356273651123e-02 2.801594510674476624e-02
-6.360072493553161621e-01 1.072272211313247681e-01 4.546967893838882446e-02
-9.233272075653076172e-01 9.122032672166824341e-03 3.481716662645339966e-02
-8.254731297492980957e-01 8.858460187911987305e-02 3.872035071253776550e-02
-6.677855849266052246e-01 9.015634655952453613e-02 8.325788378715515137e-02
-7.791933417320251465e-01 1.020342111587524414e-03 1.140029132366180420e-01
-6.846978664398193359e-01 -4.188872873783111572e-03 9.157465398311614990e-02
-8.261951208114624023e-01 3.111550025641918182e-02 1.085142940282821655e-01
-8.687668442726135254e-01 5.568622797727584839e-02 8.144612610340118408e-02
-5.964675545692443848e-01 4.432887583971023560e-02 5.836769938468933105e-02
-6.565349698066711426e-01 4.582040011882781982e-03 5.029042065143585205e-02
-8.619631528854370117e-01 4.316988214850425720e-02 9.445080161094665527e-02
-5.960899591445922852e-01 5.675882846117019653e-02 4.040142148733139038e-02
-6.493473649024963379e-01 4.953054711222648621e-03 5.999426543712615967e-02
-5.971777439117431641e-01 6.946101039648056030e-02 7.208098471164703369e-02
-7.978976368904113770e-01 6.936186552047729492e-02 4.285190254449844360e-03
-8.406089544296264648e-01 6.329081952571868896e-02 1.166046783328056335e-02
-6.434649825096130371e-01 7.037980854511260986e-02 9.172320365905761719e-02
-8.046702146530151367e-01 -2.372120693325996399e-02 3.474286943674087524e-02
-7.929609417915344238e-01 9.782944619655609131e-02 3.571298718452453613e-02
-8.166834712028503418e-01 -3.773296251893043518e-02 5.765151605010032654e-02
-7.469202280044555664e-01 5.899274349212646484e-02 -1.046270132064819336e-03
-7.104504108428955078e-01 1.065353602170944214e-01 2.196408808231353760e-02
-7.258429527282714844e-01 5.311376601457595825e-02 1.078297495841979980e-01
-7.269163727760314941e-01 7.379774004220962524e-02 7.867291569709777832e-04
-8.946151733398437500e-01 4.081823304295539856e-02 8.178060501813888550e-02
-7.741450667381286621e-01 9.592670202255249023e-02 6.690889596939086914e-02
-6.677745580673217773e-01 7.543331384658813477e-02 9.368318319320678711e-02
-6.366251111030578613e-01 8.014749735593795776e-02 1.491622254252433777e-02
-8.712832331657409668e-01 -1.389234513044357300e-02 1.033827364444732666e-01
-7.227481007575988770e-01 2.567987889051437378e-03 2.234281226992607117e-02
-7.988829016685485840e-01 -3.790624067187309265e-02 8.182906359434127808e-02
-9.191607236862182617e-01 2.746805548667907715e-02 7.615692913532257080e-02
-7.457000613212585449e-01 -2.091083303093910217e-02 9.775766730308532715e-02
-7.777456045150756836e-01 1.016698926687240601e-01 3.753153234720230103e-02
-9.405028820037841797e-01 -6.316266953945159912e-04 6.581111997365951538e-02
-8.740351200103759766e-01 4.618072509765625000e-02 1.611747965216636658e-02
-8.164212703704833984e-01 9.041529893875122070e-02 3.257738798856735229e-02
-6.465113759040832520e-01 8.543381839990615845e-02 8.368043601512908936e-02
-7.816976904869079590e-01 -7.064804434776306152e-03 2.072810381650924683e-02
-6.542738676071166992e-01 2.947656624019145966e-02 9.935417771339416504e-02
-6.333185434341430664e-01 1.048638671636581421e-01 3.398574888706207275e-02
-8.231717348098754883e-01 -1.710958033800125122e-02 2.707863599061965942e-02
-9.100016951560974121e-01 3.200132772326469421e-02 2.907647192478179932e-02
-7.910608649253845215e-01 9.216832369565963745e-02 6.705495715141296387e-02
-6.899290084838867188e-01 -1.274506375193595886e-02 7.729429006576538086e-02
-8.291556835174560547e-01 1.958351582288742065e-03 1.121415346860885620e-01
-6.325525641441345215e-01 3.076172433793544769e-02 3.234352171421051025e-02
-7.513816356658935547e-01 8.839115500450134277e-02 7.322162389755249023e-03
-8.033559322357177734e-01 9.171041846275329590e-02 2.510050311684608459e-02
-8.584249019622802734e-01 6.044683605432510376e-02 8.142686635255813599e-02
-9.077773094177246094e-01 -2.731479704380035400e-03 3.089115582406520844e-02
-8.052047491073608398e-01 1.615065522491931915e-02 6.957586854696273804e-03
-7.842271327972412109e-01 7.768450677394866943e-02 8.811891078948974609e-02
-8.881713151931762695e-01 5.209488794207572937e-02 7.376205921173095703e-02
-8.628322482109069824e-01 -1.506999135017395020e-02 2.775011211633682251e-02
-9.274650216102600098e-01 -2.111810445785522461e-02 6.085050478577613831e-02
-9.088338613510131836e-01 -2.746680751442909241e-02 5.381843075156211853e-02
-8.091228008270263672e-01 -3.553949669003486633e-02 5.327257513999938965e-02
-8.313032388687133789e-01 -4.101059213280677795e-02 7.450344413518905640e-02
-6.086331009864807129e-01 6.666796654462814331e-02 2.687641233205795288e-02
-8.888508677482604980e-01 -4.259042441844940186e-03 2.570458874106407166e-02
-7.303546667098999023e-01 -1.038341224193572998e-02 1.034284532070159912e-01
-7.633430957794189453e-01 -3.248837217688560486e-02 8.208891004323959351e-02
-7.205277681350708008e-01 -2.234027162194252014e-02 8.075409382581710815e-02
-7.805240750312805176e-01 -2.835566177964210510e-02 4.517130181193351746e-02
-7.998539209365844727e-01 -5.676455795764923096e-03 1.851876080036163330e-02
-8.728885054588317871e-01 5.194870755076408386e-03 1.046819835901260376e-01
-6.739832162857055664e-01 5.309799686074256897e-03 3.667978942394256592e-02
-8.637509942054748535e-01 7.394450157880783081e-02 4.768559709191322327e-02
-7.109936475753784180e-01 3.389907628297805786e-02 6.228838115930557251e-03
-7.870287299156188965e-01 3.261171281337738037e-03 1.328978687524795532e-02
-6.551089882850646973e-01 1.096228361129760742e-01 5.024642869830131531e-02
-6.055420637130737305e-01 8.890232443809509277e-02 3.261313587427139282e-02
-8.147593736648559570e-01 5.185187608003616333e-02 2.774167805910110474e-03
-8.183542490005493164e-01 3.557422757148742676e-02 3.171496093273162842e-03
-8.829166889190673828e-01 -1.368776336312294006e-02 1.006706580519676208e-01
-6.056878566741943359e-01 3.607570379972457886e-02 5.190130323171615601e-02
-8.497438430786132812e-01 -4.086138680577278137e-02 6.860743463039398193e-02
-7.163370847702026367e-01 5.287241935729980469e-02 1.075941100716590881e-01
-6.262011528015136719e-01 9.921717643737792969e-02 2.863869629800319672e-02
-7.937892675399780273e-01 -2.063273265957832336e-02 3.226476162672042847e-02
-9.111318588256835938e-01 4.594505205750465393e-02 4.550192877650260925e-02
-9.025452733039855957e-01 -2.369385585188865662e-02 4.501070082187652588e-02
-7.378803491592407227e-01 -1.097552850842475891e-02 3.188239783048629761e-02
-6.231902837753295898e-01 2.066434733569622040e-02 7.035351544618606567e-02
-7.932756543159484863e-01 8.965879678726196289e-02 1.721452549099922180e-02
-6.529729962348937988e-01 9.278489649295806885e-02 7.866167277097702026e-02
-7.294878363609313965e-01 -1.903539896011352539e-02 4.648716002702713013e-02
-8.020382523536682129e-01 5.458629131317138672e-02 1.454394310712814331e-03
-7.223601341247558594e-01 3.399977833032608032e-02 4.636220633983612061e-03
-6.805959939956665039e-01 1.150751486420631409e-02 1.020496562123298645e-01
-7.857356667518615723e-01 5.773592367768287659e-02 1.026242971420288086e-01
-8.224476575851440430e-01 -2.804413065314292908e-02 1.013771295547485352e-01
-7.763351202011108398e-01 3.329290077090263367e-02 1.523215323686599731e-03
-7.596930265426635742e-01 9.492459148168563843e-02 7.311485707759857178e-02
-9.217823147773742676e-01 3.739239647984504700e-02 5.516421049833297729e-02
-7.136681079864501953e-01 -1.646708697080612183e-03 2.868876047432422638e-02
-8.639625906944274902e-01 5.112883448600769043e-02 8.789157122373580933e-02
-6.964791417121887207e-01 9.441885352134704590e-02 8.081633597612380981e-02
-8.806027173995971680e-01 6.247550994157791138e-02 3.328652679920196533e-02
-7.579553723335266113e-01 6.904442608356475830e-02 2.036914229393005371e-04
-8.141155242919921875e-01 1.816464401781558990e-02 1.129881292581558228e-01
-7.874647974967956543e-01 8.345562219619750977e-02 8.121597766876220703e-02
-7.366085052490234375e-01 1.078959852457046509e-01 3.159264475107192993e-02
-9.051225781440734863e-01 1.490866765379905701e-02 2.480681613087654114e-02
-9.087173342704772949e-01 -1.083920896053314209e-02 3.583158552646636963e-02
-6.891757845878601074e-01 7.885083556175231934e-03 2.736096270382404327e-02
-6.346405744552612305e-01 6.773914396762847900e-02 9.044933319091796875e-02
-7.590315341949462891e-01 1.055043786764144897e-01 3.957169502973556519e-02
-6.973628997802734375e-01 -1.103086024522781372e-02 4.922952875494956970e-02
-7.970165014266967773e-01 7.030458748340606689e-02 9.203362464904785156e-02
-6.043769121170043945e-01 6.763923168182373047e-02 7.779229432344436646e-02
-9.342873096466064453e-01 1.927644573152065277e-02 6.573613733053207397e-02
-9.347970485687255859e-01 9.533151984214782715e-03 7.305022329092025757e-02
-7.646143436431884766e-01 1.944696716964244843e-02 6.355069577693939209e-03
-7.165621519088745117e-01 1.638696156442165375e-02 1.114118695259094238e-01
-9.354970455169677734e-01 1.414310932159423828e-02 4.647374898195266724e-02
-8.564516901969909668e-01 7.707354426383972168e-02 4.221918433904647827e-02
-5.985689163208007812e-01 6.498523056507110596e-02 3.432397544384002686e-02
-6.431432962417602539e-01 8.046170696616172791e-03 7.182645797729492188e-02
-8.243195414543151855e-01 8.270551264286041260e-02 6.767989695072174072e-02
-6.389872431755065918e-01 5.212975293397903442e-02 9.550343453884124756e-02
-7.238577008247375488e-01 1.080810576677322388e-01 2.741257660090923309e-02
-8.749688267707824707e-01 -5.878850817680358887e-03 1.040758565068244934e-01
-6.468889117240905762e-01 2.961284853518009186e-02 2.586998417973518372e-02
-6.002326011657714844e-01 7.423365116119384766e-02 3.183476999402046204e-02
-7.435809373855590820e-01 -2.820249274373054504e-02 8.212770521640777588e-02
-6.952685117721557617e-01 -1.214640215039253235e-02 8.571248501539230347e-02
-7.945459485054016113e-01 4.036206007003784180e-02 8.237622678279876709e-04
-7.037245035171508789e-01 5.997464805841445923e-02 1.043457239866256714e-01
-8.085070848464965820e-01 -3.153546527028083801e-02 4.538186639547348022e-02
-7.563134431838989258e-01 -2.191189676523208618e-03 1.989128440618515015e-02
-7.357582449913024902e-01 1.076877117156982422e-01 5.207900330424308777e-02
-7.499007582664489746e-01 3.363252431154251099e-02 1.133783310651779175e-01
-7.688394784927368164e-01 8.632347732782363892e-02 8.230884373188018799e-02
-8.270652294158935547e-01 8.555378764867782593e-02 2.894527837634086609e-02
-8.112546205520629883e-01 4.530693218111991882e-02 1.053343266248703003e-01
-7.009504437446594238e-01 2.362811751663684845e-02 1.273943111300468445e-02
-6.730462312698364258e-01 1.016989648342132568e-01 7.092521339654922485e-02
-8.622916936874389648e-01 -2.617328241467475891e-02 9.940408170223236084e-02
-7.330260872840881348e-01 8.032044023275375366e-02 2.470422536134719849e-03
-6.831083297729492188e-01 1.085151284933090210e-01 5.911998450756072998e-02
-8.293248414993286133e-01 8.434842526912689209e-02 6.043434515595436096e-02
-7.054485082626342773e-01 4.041314870119094849e-02 1.098423898220062256e-01
-6.645662188529968262e-01 5.716104060411453247e-03 4.165294766426086426e-02
-6.164029836654663086e-01 9.441023319959640503e-02 2.933948114514350891e-02
-6.651683449745178223e-01 8.212929964065551758e-02 8.365236222743988037e-03
-8.489663600921630859e-01 7.405640929937362671e-02 6.776711344718933105e-02
-6.630086898803710938e-01 2.972345799207687378e-03 8.642003685235977173e-02
-7.989062666893005371e-01 -2.975061163306236267e-02 4.380610585212707520e-02
-8.746355175971984863e-01 -7.761914283037185669e-03 2.457971498370170593e-02
-5.880245566368103027e-01 7.164653390645980835e-02 5.920759215950965881e-02
-7.755342721939086914e-01 2.233071252703666687e-02 1.148052513599395752e-01
-6.730751991271972656e-01 1.349994540214538574e-02 2.819987200200557709e-02
-6.995396018028259277e-01 1.094584017992019653e-01 2.732331305742263794e-02
-7.548014521598815918e-01 -3.002272918820381165e-02 5.972796678543090820e-02
-7.902268171310424805e-01 -8.769333362579345703e-05 1.139233112335205078e-01
-7.672533392906188965e-01 6.474258005619049072e-02 1.006403118371963501e-01
-8.559514880180358887e-01 -4.014386609196662903e-02 7.927046716213226318e-02
-7.277681231498718262e-01 1.098593026399612427e-01 4.369401186704635620e-02
-8.536159396171569824e-01 -2.418864890933036804e-02 3.505348414182662964e-02
-8.867308497428894043e-01 -1.633530110120773315e-02 3.302939236164093018e-02
-7.472683787345886230e-01 1.066605150699615479e-01 3.274897113442420959e-02
-8.814588189125061035e-01 1.433528959751129150e-04 1.027059927582740784e-01
-7.467910051345825195e-01 -1.176182925701141357e-02 3.053651191294193268e-02
-8.825609087944030762e-01 -2.369018644094467163e-02 9.654106199741363525e-02
-8.040837049484252930e-01 7.388964295387268066e-02 8.709636330604553223e-02
-6.458061933517456055e-01 4.736649617552757263e-02 1.642994582653045654e-02
-8.395197391510009766e-01 7.182355970144271851e-02 7.675158977508544922e-02
-7.768662571907043457e-01 1.770156621932983398e-02 6.501913070678710938e-03
-8.122149705886840820e-01 -9.945701807737350464e-03 1.112559884786605835e-01
-7.098211646080017090e-01 7.682015001773834229e-02 2.064336091279983521e-03
-6.880596280097961426e-01 9.618707001209259033e-02 7.871873676776885986e-02
-9.146574735641479492e-01 1.802776195108890533e-02 2.919425070285797119e-02
-8.749992847442626953e-01 -3.749353811144828796e-02 8.185808360576629639e-02
-8.892765045166015625e-01 2.943029254674911499e-02 9.233743697404861450e-02
-8.472267389297485352e-01 7.990698516368865967e-02 3.566367924213409424e-02
-7.580637335777282715e-01 2.215041406452655792e-02 1.148366630077362061e-01
-9.093861579895019531e-01 -2.771158888936042786e-02 8.125793188810348511e-02
-8.662778139114379883e-01 -3.305270895361900330e-02 9.233394265174865723e-02
-8.029628992080688477e-01 -3.595620393753051758e-03 1.130998060107231140e-01
-8.363365530967712402e-01 -3.741635754704475403e-02 8.924618363380432129e-02
-7.373319268226623535e-01 5.604697018861770630e-02 -7.843337953090667725e-04
-8.317603468894958496e-01 7.722927629947662354e-02 7.288483530282974243e-02
-8.246435523033142090e-01 4.414494335651397705e-02 3.632042557001113892e-03
-8.438924551010131836e-01 -3.166368976235389709e-02 4.389910399913787842e-02
-8.352081775665283203e-01 2.240954712033271790e-02 1.094643175601959229e-01
-6.539406180381774902e-01 7.551541924476623535e-02 9.692575782537460327e-03
-9.137778282165527344e-01 3.733737394213676453e-02 3.528919443488121033e-02
-8.794525861740112305e-01 2.727698534727096558e-02 9.710892289876937866e-02
-7.008440494537353516e-01 7.962341606616973877e-02 3.284450620412826538e-03
-7.238495945930480957e-01 -2.316733822226524353e-02 6.155836954712867737e-02
-8.977181911468505859e-01 -6.249941885471343994e-03 2.922581508755683899e-02
-9.293707609176635742e-01 5.675107240676879883e-04 8.092059195041656494e-02
-6.643367409706115723e-01 9.748189151287078857e-02 7.541053742170333862e-02
-6.773052811622619629e-01 7.663643360137939453e-02 9.410654008388519287e-02
-7.889082431793212891e-01 1.541559398174285889e-02 7.153421640396118164e-03
-7.893247008323669434e-01 3.439589217305183411e-02 1.118891164660453796e-01
-8.449518084526062012e-01 -3.400823101401329041e-02 9.422916918992996216e-02
-6.502732634544372559e-01 5.893669277429580688e-02 1.165126264095306396e-02
-8.786510229110717773e-01 -2.171008288860321045e-02 3.602189198136329651e-02
-7.142733335494995117e-01 1.099136918783187866e-01 3.088259696960449219e-02
-7.721646428108215332e-01 7.971822470426559448e-02 4.911258816719055176e-03
-8.240627050399780273e-01 1.534268632531166077e-02 1.122581362724304199e-01
-7.452161908149719238e-01 1.673221960663795471e-02 1.143431514501571655e-01
-9.044263958930969238e-01 -3.275497630238533020e-02 6.563670933246612549e-02
-7.877891063690185547e-01 9.675629436969757080e-02 5.808707699179649353e-02
-6.647351384162902832e-01 1.113396883010864258e-01 4.137454181909561157e-02
-9.094187021255493164e-01 4.616212844848632812e-02 6.030301749706268311e-02
-5.993896722793579102e-01 9.101903438568115234e-02 4.283744096755981445e-02
-7.997807264328002930e-01 8.714520931243896484e-02 7.210691273212432861e-02
-7.027108669281005859e-01 4.745192453265190125e-02 3.396384418010711670e-03
-6.942542195320129395e-01 8.577591180801391602e-02 5.610268563032150269e-03
-6.211330294609069824e-01 4.605416208505630493e-02 2.776669524610042572e-02
-6.382375955581665039e-01 1.030677258968353271e-01 6.147720664739608765e-02
-6.250269412994384766e-01 9.430783241987228394e-02 6.932224333286285400e-02
-6.272161602973937988e-01 2.575825527310371399e-02 4.152097180485725403e-02
-6.091426610946655273e-01 4.980755969882011414e-02 3.311430662870407104e-02
-7.049618959426879883e-01 1.851058006286621094e-02 1.099173128604888916e-01
-8.520146608352661133e-01 7.009300589561462402e-02 2.148192748427391052e-02
-6.775122880935668945e-01 1.003408581018447876e-01 1.546787843108177185e-02
-6.799449324607849121e-01 6.790520250797271729e-02 4.381205886602401733e-03
-7.450783848762512207e-01 6.880622357130050659e-02 -1.864992082118988037e-04
-8.742976784706115723e-01 6.416549906134605408e-03 1.780089735984802246e-02
-7.406808733940124512e-01 2.577978000044822693e-02 1.140289902687072754e-01
-7.718828320503234863e-01 5.389803647994995117e-02 -8.094795048236846924e-04
-6.289967894554138184e-01 7.779210805892944336e-02 8.413217216730117798e-02
-6.587788462638854980e-01 4.160004481673240662e-02 1.463893800973892212e-02
-7.361735701560974121e-01 9.234169125556945801e-02 8.079377561807632446e-02
-7.573490142822265625e-01 1.018076241016387939e-01 2.325787767767906189e-02
-6.460739374160766602e-01 1.091592013835906982e-01 4.416817799210548401e-02
-7.792457342147827148e-01 -2.259897440671920776e-02 3.676663339138031006e-02
-7.191845774650573730e-01 8.436708152294158936e-02 3.923550248146057129e-03
-6.097742319107055664e-01 3.052137792110443115e-02 6.493521481752395630e-02
-6.912419199943542480e-01 2.282949164509773254e-02 1.080110669136047363e-01
-6.782130002975463867e-01 -2.947933971881866455e-04 4.220026731491088867e-02
-6.915614008903503418e-01 4.021732881665229797e-02 7.262177765369415283e-03
-8.510150909423828125e-01 5.969561636447906494e-03 1.419759169220924377e-02
-7.687408924102783203e-01 4.457991942763328552e-02 -4.088021814823150635e-04
-8.144195675849914551e-01 -2.561908215284347534e-03 1.623132452368736267e-02
-7.932934761047363281e-01 -3.321018442511558533e-02 9.264956414699554443e-02
-9.058468937873840332e-01 5.032204091548919678e-02 5.279465764760971069e-02
-6.462385058403015137e-01 8.871924877166748047e-02 1.444419473409652710e-02
-6.192172765731811523e-01 8.726076781749725342e-02 7.404566556215286255e-02
-6.449294090270996094e-01 2.058471739292144775e-02 9.178405255079269409e-02
-7.735511660575866699e-01 4.290844127535820007e-02 1.103963702917098999e-01
-7.184290289878845215e-01 1.009140908718109131e-01 1.487015932798385620e-02
-7.845637202262878418e-01 1.996995322406291962e-02 1.147731542587280273e-01
-7.595429420471191406e-01 -1.539139822125434875e-02 3.179743140935897827e-02
-6.685534715652465820e-01 -2.527147531509399414e-03 8.127526193857192993e-02
-8.816415667533874512e-01 -2.810316160321235657e-02 4.388635605573654175e-02
-6.600665450096130371e-01 4.987092316150665283e-02 1.123801618814468384e-02
-6.598899960517883301e-01 6.679108738899230957e-02 8.234970271587371826e-03
-7.484174370765686035e-01 7.744480669498443604e-02 9.366010129451751709e-02
-6.429382562637329102e-01 1.068365126848220825e-01 3.283018991351127625e-02
-9.078743457794189453e-01 -5.379095673561096191e-03 9.354327619075775146e-02
-6.134976148605346680e-01 7.701416313648223877e-02 7.867462933063507080e-02
-7.601661682128906250e-01 -2.802829816937446594e-02 5.114673450589179993e-02
-8.217158913612365723e-01 5.930700153112411499e-02 5.365550518035888672e-03
-8.955761194229125977e-01 -3.522856906056404114e-02 7.381217181682586670e-02
-6.880622506141662598e-01 5.854344367980957031e-02 3.659076988697052002e-03
-9.119973182678222656e-01 -1.945433393120765686e-02 4.452254995703697205e-02
-6.061121225357055664e-01 8.126254379749298096e-02 7.216156274080276489e-02
-7.291651368141174316e-01 1.006477177143096924e-01 1.548775285482406616e-02
-8.956307768821716309e-01 2.174941450357437134e-02 9.336600452661514282e-02
-8.151628971099853516e-01 9.151925146579742432e-02 5.013396218419075012e-02
-7.406746745109558105e-01 2.260779961943626404e-02 6.983853876590728760e-03
-8.492969870567321777e-01 7.790540158748626709e-02 5.844474583864212036e-02
