-1.796121299266815186e-01 9.321705996990203857e-02 2.960429787635803223e-01
-9.478159248828887939e-02 4.058058261871337891e-01 -1.338021457195281982e-02
-9.377571195363998413e-02 1.779320091009140015e-01 1.834138929843902588e-01
-2.528640627861022949e-01 3.851758837699890137e-01 1.183042898774147034e-01
-1.873227506875991821e-01 3.946216702461242676e-01 -3.448399901390075684e-02
-9.589625149965286255e-02 1.998315155506134033e-01 2.429902851581573486e-01
-3.237736821174621582e-01 2.545028924942016602e-03 8.210214972496032715e-02
-7.579754292964935303e-02 2.867369353771209717e-01 -1.802706718444824219e-02
-2.122132182121276855e-01 7.241696119308471680e-03 2.029163837432861328e-01
-1.847660690546035767e-01 5.153579711914062500e-01 3.583377599716186523e-01
-1.479771137237548828e-01 3.144544363021850586e-02 -7.078260183334350586e-02
-5.201604962348937988e-02 4.423788785934448242e-01 1.580303013324737549e-01
-1.724998801946640015e-01 1.171663627028465271e-01 3.180096745491027832e-01
-3.174520730972290039e-01 -4.073467850685119629e-02 5.435816943645477295e-03
-2.865118086338043213e-01 -7.427141070365905762e-02 3.813473135232925415e-02
-3.002218008041381836e-01 -1.735472679138183594e-02 1.433558762073516846e-01
-1.680644303560256958e-01 7.070478796958923340e-02 2.419984042644500732e-01
-9.671875834465026855e-02 5.589150786399841309e-01 2.547037601470947266e-01
-9.029830992221832275e-02 2.428894937038421631e-01 2.892459034919738770e-01
-9.025045484304428101e-02 2.041761279106140137e-01 -4.549549520015716553e-02
-1.363863348960876465e-01 1.168787628412246704e-01 -1.513482928276062012e-01
-2.851101756095886230e-01 -4.073500633239746094e-03 1.887243539094924927e-01
-6.021830439567565918e-02 3.294276595115661621e-01 2.576853632926940918e-01
-2.308826446533203125e-01 3.957408070564270020e-01 5.146455764770507812e-02
-1.398464888334274292e-01 4.229225218296051025e-02 4.040581732988357544e-02
-1.261059939861297607e-01 7.786367833614349365e-02 9.430816024541854858e-02
-9.589184075593948364e-02 1.748421490192413330e-01 -4.523684084415435791e-02
-1.764131635427474976e-01 4.812204539775848389e-01 4.496170282363891602e-01
-8.048122376203536987e-02 2.061461508274078369e-01 1.512990593910217285e-01
-6.647333502769470215e-02 3.055899441242218018e-01 2.648618221282958984e-01
-5.419109761714935303e-02 3.254546523094177246e-01 1.679746061563491821e-01
-2.257046252489089966e-01 4.483209252357482910e-01 1.733474731445312500e-01
-1.527450084686279297e-01 1.546300500631332397e-01 3.348760008811950684e-01
-2.262564748525619507e-01 4.586879611015319824e-01 2.990897595882415771e-01
-5.390861630439758301e-02 4.661497175693511963e-01 1.768161654472351074e-01
-1.062822341918945312e-01 1.174306124448776245e-01 5.043780058622360229e-02
-1.885666400194168091e-01 -1.800704002380371094e-02 -1.410802602767944336e-01
-6.418506801128387451e-02 4.264354407787322998e-01 7.623325288295745850e-02
-2.213109433650970459e-01 3.189455270767211914e-01 -8.525095880031585693e-02
-2.829596996307373047e-01 -5.715611577033996582e-02 9.397453814744949341e-02
-2.567905187606811523e-01 1.447398960590362549e-02 2.345282733440399170e-01
-2.265781015157699585e-01 3.423246145248413086e-01 4.483123421669006348e-01
-3.049514889717102051e-01 1.369789540767669678e-01 -7.973271608352661133e-02
-9.638354927301406860e-02 2.691168487071990967e-01 3.427536785602569580e-01
-8.295677602291107178e-02 1.899334937334060669e-01 1.080368310213088989e-01
-2.655897736549377441e-01 3.478896617889404297e-01 3.386325836181640625e-01
-1.234217584133148193e-01 1.085614413022994995e-01 -1.005567461252212524e-01
-2.185648530721664429e-01 3.470672369003295898e-01 -5.482904613018035889e-02
-2.413144409656524658e-01 4.254832267761230469e-01 3.152228593826293945e-01
-1.386777758598327637e-01 1.699966490268707275e-01 -1.714533865451812744e-01
-2.888016700744628906e-01 3.784604370594024658e-02 2.355706244707107544e-01
-2.421899437904357910e-01 1.647343635559082031e-01 -1.909796297550201416e-01
-2.054816633462905884e-01 2.848404645919799805e-01 -1.377110481262207031e-01
-2.256166934967041016e-01 2.496125400066375732e-01 -1.487605869770050049e-01
-1.941081583499908447e-01 3.226454555988311768e-02 2.225852608680725098e-01
-1.241113319993019104e-01 1.335546076297760010e-01 -1.271006166934967041e-01
-1.575512737035751343e-01 8.590102195739746094e-03 -4.268732666969299316e-02
-1.343935430049896240e-01 5.013170242309570312e-01 4.620065391063690186e-01
-3.201014697551727295e-01 1.781746149063110352e-01 8.734709024429321289e-02
-3.022589981555938721e-01 2.443502545356750488e-01 6.709024310111999512e-02
-1.033299490809440613e-01 1.595645546913146973e-01 -6.757718324661254883e-02
-2.768663167953491211e-01 8.687317371368408203e-03 -1.936431229114532471e-01
-3.107038736343383789e-01 -8.298560976982116699e-03 -1.136028617620468140e-01
-4.901997745037078857e-02 3.770458698272705078e-01 1.862008273601531982e-01
-9.582912176847457886e-02 3.370943665504455566e-01 -6.243307888507843018e-02
-1.320590525865554810e-01 6.286032497882843018e-02 -5.321983993053436279e-02
-1.132260486483573914e-01 1.350247859954833984e-01 -8.709388971328735352e-02
-2.534791827201843262e-01 3.936907052993774414e-01 1.525453925132751465e-01
-2.000133544206619263e-01 2.656676173210144043e-01 -1.573483049869537354e-01
-1.008721366524696350e-01 2.214407920837402344e-01 2.973396182060241699e-01
-7.670131325721740723e-02 2.113249301910400391e-01 7.555859535932540894e-02
-2.794885933399200439e-01 3.152902722358703613e-01 8.412341028451919556e-02
-7.681719213724136353e-02 2.461126148700714111e-01 -5.037829279899597168e-03
-3.071134984493255615e-01 2.435756474733352661e-01 1.287346482276916504e-01
-3.186651468276977539e-01 6.756815314292907715e-02 1.827264279127120972e-01
-6.798184663057327271e-02 5.318509340286254883e-01 2.941943705081939697e-01
-2.064338475465774536e-01 4.288989901542663574e-01 4.449593722820281982e-01
-2.936075627803802490e-01 -3.643518686294555664e-02 1.228717491030693054e-01
-3.050365447998046875e-01 9.634362161159515381e-02 -1.105115413665771484e-01
-4.182642102241516113e-01 7.477239966392517090e-01 4.084201902151107788e-02
-4.190306663513183594e-01 7.218632698059082031e-01 1.034331917762756348e-01
-3.307871818542480469e-01 5.446827411651611328e-01 -2.016881853342056274e-01
-4.064406752586364746e-01 7.752361297607421875e-01 -3.516127169132232666e-02
-3.953211307525634766e-01 5.315594077110290527e-01 3.711245954036712646e-02
-8.396676182746887207e-02 9.821736812591552734e-01 1.683583110570907593e-01
-9.220686554908752441e-02 5.615634918212890625e-01 8.284780383110046387e-02
-2.230668216943740845e-01 9.936801195144653320e-01 -3.103624843060970306e-02
-1.825848370790481567e-01 8.910356760025024414e-01 3.077401220798492432e-01
-6.952658295631408691e-02 1.012625217437744141e+00 6.811515428125858307e-03
-1.446775346994400024e-01 5.176793336868286133e-01 7.743933051824569702e-02
-5.980896949768066406e-02 8.898956179618835449e-01 -2.589406669139862061e-01
-2.421267330646514893e-02 9.719604849815368652e-01 9.140642732381820679e-02
-1.550487279891967773e-01 5.167450904846191406e-01 1.026015058159828186e-01
-1.093724444508552551e-01 6.943538188934326172e-01 3.008278906345367432e-01
8.702069520950317383e-03 7.279911637306213379e-01 9.045322984457015991e-02
-2.255365848541259766e-01 8.345456719398498535e-01 -3.132114708423614502e-01
-3.663651943206787109e-01 5.120085477828979492e-01 9.791225194931030273e-02
-3.066558539867401123e-01 6.742694377899169922e-01 3.217115998268127441e-01
-3.433023393154144287e-02 9.344800114631652832e-01 1.824646145105361938e-01
-2.522711157798767090e-01 5.206268429756164551e-01 2.061433941125869751e-01
-3.408900499343872070e-01 4.857142269611358643e-01 4.661098122596740723e-02
-4.265448451042175293e-02 9.402239918708801270e-01 -1.912686675786972046e-01
-2.348586320877075195e-01 9.761043787002563477e-01 -9.421838074922561646e-02
-5.076709389686584473e-02 5.979066491127014160e-01 2.308990247547626495e-02
-4.199463725090026855e-01 6.723452806472778320e-01 -8.600486069917678833e-02
2.671733498573303223e-03 7.931639552116394043e-01 -1.917079389095306396e-01
-2.181631177663803101e-01 5.124942064285278320e-01 -1.858766376972198486e-01
-1.763323247432708740e-01 9.180752635002136230e-01 2.835226953029632568e-01
1.731805503368377686e-02 7.226243019104003906e-01 -2.626656368374824524e-02
-4.175846278667449951e-01 7.189759612083435059e-01 -6.771422922611236572e-02
-4.134174585342407227e-01 6.394849419593811035e-01 1.518452018499374390e-01
-2.104709744453430176e-01 9.278156757354736328e-01 2.607097923755645752e-01
-2.769799232482910156e-01 9.338011741638183594e-01 -1.334843933582305908e-01
-9.682434052228927612e-02 9.909492731094360352e-01 -1.460748612880706787e-01
-3.761907219886779785e-01 8.376905918121337891e-01 -4.916767030954360962e-02
-1.402122080326080322e-01 5.315377116203308105e-01 -1.441258788108825684e-01
2.126231789588928223e-02 7.590548396110534668e-01 -1.000791788101196289e-01
-2.176630347967147827e-01 9.985961914062500000e-01 3.566994518041610718e-02
-1.875790059566497803e-01 7.062363028526306152e-01 -3.476501405239105225e-01
-2.602964341640472412e-01 8.852689862251281738e-01 2.764948308467864990e-01
-9.232119470834732056e-02 8.391399979591369629e-01 3.056649565696716309e-01
-1.044260114431381226e-01 6.731964945793151855e-01 -2.993556559085845947e-01
-2.814208567142486572e-01 5.162186622619628906e-01 1.976494789123535156e-01
-3.820981979370117188e-01 6.282016634941101074e-01 2.240674495697021484e-01
-2.858515381813049316e-01 9.347283840179443359e-01 -1.086012870073318481e-01
3.467521071434020996e-02 8.148068189620971680e-01 1.651075668632984161e-02
-3.315922617912292480e-01 6.022130250930786133e-01 -2.518058419227600098e-01
-3.041751682758331299e-01 8.574144840240478516e-01 -2.186416387557983398e-01
-2.207832038402557373e-01 6.541847586631774902e-01 3.363565802574157715e-01
-2.393688857555389404e-01 9.641612768173217773e-01 -1.258752793073654175e-01
-3.288354277610778809e-01 6.628108024597167969e-01 3.023571968078613281e-01
-1.929977983236312866e-01 4.954264760017395020e-01 -1.117027476429939270e-01
-1.386847794055938721e-01 1.020438313484191895e+00 3.623876720666885376e-02
-2.503132522106170654e-01 4.701237678527832031e-01 -3.420066833496093750e-02
-1.255988478660583496e-01 8.657970428466796875e-01 -3.090016245841979980e-01
-2.108381837606430054e-01 7.773267030715942383e-01 -3.427327275276184082e-01
-2.162450551986694336e-02 9.758497476577758789e-01 -7.155632227659225464e-02
-1.762561947107315063e-01 6.174636483192443848e-01 -3.056204319000244141e-01
-3.556373715400695801e-01 8.485477566719055176e-01 -1.157887130975723267e-01
-3.134159743785858154e-02 6.287466883659362793e-01 -8.043879270553588867e-02
-7.771909236907958984e-03 6.758356094360351562e-01 6.514693796634674072e-02
-4.308012127876281738e-01 6.749370098114013672e-01 2.109141647815704346e-02
-1.948353350162506104e-01 7.879489660263061523e-01 3.551885485649108887e-01
-1.297701597213745117e-01 9.281853437423706055e-01 2.698641419410705566e-01
-9.461886435747146606e-02 5.729292631149291992e-01 -1.569027453660964966e-01
-1.017934158444404602e-01 6.472666859626770020e-01 -2.778123915195465088e-01
-5.768357217311859131e-02 9.201208353042602539e-01 -2.312083691358566284e-01
-3.983827829360961914e-01 8.029063940048217773e-01 4.700864851474761963e-02
-1.650214195251464844e-02 9.744799137115478516e-01 4.893140494823455811e-02
-1.277655065059661865e-01 6.499022841453552246e-01 -3.028525412082672119e-01
-3.936113715171813965e-01 7.167460918426513672e-01 2.044361680746078491e-01
-4.084247946739196777e-01 7.370811104774475098e-01 1.427151262760162354e-01
-2.033823728561401367e-01 9.054113030433654785e-01 2.899735867977142334e-01
-1.060754507780075073e-01 7.068970203399658203e-01 -3.172688186168670654e-01
-1.616776436567306519e-01 8.606365323066711426e-01 3.275510668754577637e-01
-3.958382010459899902e-01 6.863508820533752441e-01 2.067056298255920410e-01
-3.815323710441589355e-01 8.076588511466979980e-01 -1.017612889409065247e-01
-5.877058207988739014e-02 7.503567337989807129e-01 2.685777544975280762e-01
-3.487301766872406006e-01 5.489367246627807617e-01 2.036129534244537354e-01
-9.846144914627075195e-02 7.337616682052612305e-01 -3.197999894618988037e-01
-5.624897778034210205e-02 9.692096710205078125e-01 1.630044281482696533e-01
-3.457932472229003906e-01 7.442067861557006836e-01 2.818118631839752197e-01
-3.076946735382080078e-02 6.259893178939819336e-01 2.183528058230876923e-02
-2.862239480018615723e-01 5.036354064941406250e-01 1.706764549016952515e-01
-4.028172492980957031e-01 5.948109626770019531e-01 1.547983884811401367e-01
1.748284697532653809e-02 8.741830587387084961e-01 1.115862354636192322e-01
1.223669946193695068e-02 9.374263882637023926e-01 -3.514652699232101440e-02
-2.721740603446960449e-01 4.856758713722229004e-01 1.233400627970695496e-01
-1.613124310970306396e-01 5.019813179969787598e-01 4.145205020904541016e-02
-1.485404372215270996e-02 6.997959017753601074e-01 -1.744340509176254272e-01
-2.414404600858688354e-01 5.869387388229370117e-01 2.914543151855468750e-01
-2.031217515468597412e-02 6.793145537376403809e-01 1.302589923143386841e-01
-4.273205995559692383e-04 6.925318837165832520e-01 -1.016498133540153503e-01
-1.397402733564376831e-01 8.852222561836242676e-01 -2.980173826217651367e-01
-3.545680046081542969e-01 7.355697751045227051e-01 -2.346558123826980591e-01
-3.766146302223205566e-01 7.862560153007507324e-01 1.975062042474746704e-01
-8.302807062864303589e-02 1.010239839553833008e+00 7.900417596101760864e-02
2.568066120147705078e-02 8.232793807983398438e-01 -1.180160045623779297e-01
3.590595722198486328e-02 8.245643377304077148e-01 -2.499021962285041809e-02
-2.767965197563171387e-02 7.325023412704467773e-01 -2.331421375274658203e-01
3.186212480068206787e-02 7.812550067901611328e-01 -1.354988105595111847e-02
-3.776652812957763672e-01 5.269646644592285156e-01 -8.887810260057449341e-02
-1.346887201070785522e-01 5.503629446029663086e-01 -1.839305609464645386e-01
-1.416602432727813721e-01 5.880308151245117188e-01 -2.551332116127014160e-01
-3.533888459205627441e-01 6.780805587768554688e-01 -2.476440370082855225e-01
-3.186416625976562500e-01 8.870259523391723633e-01 1.889966279268264771e-01
-3.986547887325286865e-02 9.971833229064941406e-01 2.337781526148319244e-02
-4.097787141799926758e-01 5.873589515686035156e-01 1.223142668604850769e-01
-2.065062522888183594e-03 6.757745146751403809e-01 -4.406785964965820312e-02
-3.735735416412353516e-01 8.491917848587036133e-01 6.415441632270812988e-02
-3.883689939975738525e-01 7.564703822135925293e-01 1.939782351255416870e-01
-1.777943521738052368e-01 1.012079358100891113e+00 5.689322203397750854e-02
-3.198441267013549805e-01 5.699846148490905762e-01 2.541192770004272461e-01
-2.897484004497528076e-01 9.449636936187744141e-01 9.794135391712188721e-02
-3.748146593570709229e-01 7.512467503547668457e-01 2.302591800689697266e-01
-3.159698843955993652e-02 8.205926418304443359e-01 -2.567518353462219238e-01
-3.610013723373413086e-01 5.425446033477783203e-01 1.775358170270919800e-01
-3.586242496967315674e-01 8.710097670555114746e-01 7.559622824192047119e-02
-1.657371371984481812e-01 9.627816677093505859e-01 2.256624996662139893e-01
-3.734729886054992676e-01 7.838947772979736328e-01 -1.620332896709442139e-01
-1.512455195188522339e-01 6.268873214721679688e-01 -3.010933697223663330e-01
-2.277399450540542603e-01 4.776447117328643799e-01 -7.144331932067871094e-02
-2.095945179462432861e-02 7.138178944587707520e-01 1.764665991067886353e-01
-3.681366145610809326e-01 5.989561676979064941e-01 2.290613651275634766e-01
-4.642680287361145020e-03 8.797526955604553223e-01 1.730414032936096191e-01
-3.018883168697357178e-01 7.204748392105102539e-01 -3.030597567558288574e-01
2.126352488994598389e-02 9.119774103164672852e-01 -5.725369602441787720e-02
-3.042086958885192871e-03 6.739209890365600586e-01 9.633848443627357483e-03
-2.808482646942138672e-01 4.912315905094146729e-01 -1.401866227388381958e-01
-4.404361546039581299e-02 6.354587078094482422e-01 -1.591220945119857788e-01
-2.107502520084381104e-01 4.885824322700500488e-01 9.387100487947463989e-02
-3.815820217132568359e-01 5.154582262039184570e-01 -2.164629101753234863e-02
-3.792881965637207031e-02 7.540530562400817871e-01 2.382764071226119995e-01
-1.112681105732917786e-01 8.962364196777343750e-01 -2.840717732906341553e-01
-8.449766784906387329e-02 7.849172949790954590e-01 3.047468066215515137e-01
-2.124168276786804199e-01 6.949871182441711426e-01 -3.449690639972686768e-01
-7.279551774263381958e-02 7.623752951622009277e-01 2.894335687160491943e-01
-4.239648282527923584e-01 6.058119535446166992e-01 6.936753541231155396e-02
-2.991757988929748535e-01 6.232855319976806641e-01 -2.902213335037231445e-01
-8.597204834222793579e-02 9.203993082046508789e-01 -2.516836225986480713e-01
-1.608747243881225586e-02 6.701132059097290039e-01 -1.292777061462402344e-01
-2.315044701099395752e-01 5.774593353271484375e-01 -2.821089029312133789e-01
-6.456874310970306396e-02 1.002229809761047363e+00 -7.724678516387939453e-02
-2.409616857767105103e-01 7.983888983726501465e-01 -3.238678872585296631e-01
-1.307875216007232666e-01 6.735209822654724121e-01 -3.190390765666961670e-01
-3.842061161994934082e-01 8.293455243110656738e-01 -1.811075210571289062e-02
-1.781748235225677490e-01 5.177956819534301758e-01 1.483095437288284302e-01
-3.052876889705657959e-01 6.081336140632629395e-01 2.940193414688110352e-01
-4.143640398979187012e-01 5.659276247024536133e-01 3.408245369791984558e-02
-1.242730543017387390e-01 9.514225721359252930e-01 -2.268893569707870483e-01
-2.997730076313018799e-01 8.282988071441650391e-01 2.906359136104583740e-01
-1.410182267427444458e-01 6.963064074516296387e-01 -3.339381515979766846e-01
-2.390550673007965088e-01 9.035703539848327637e-01 -2.413282096385955811e-01
1.720878481864929199e-02 7.333474159240722656e-01 -8.045107126235961914e-02
2.680794894695281982e-02 7.980845570564270020e-01 -1.045943647623062134e-01
-1.548974514007568359e-01 9.254356622695922852e-01 -2.594023942947387695e-01
-3.332582116127014160e-01 5.106039047241210938e-01 1.545991152524948120e-01
-9.753857553005218506e-02 8.113467693328857422e-01 3.150434792041778564e-01
-8.679854124784469604e-02 5.576956868171691895e-01 2.954319119453430176e-02
-3.672577738761901855e-01 8.130334615707397461e-01 1.899868100881576538e-01
-2.462473511695861816e-01 9.810488224029541016e-01 -2.639884315431118011e-02
-1.004263907670974731e-01 5.499098300933837891e-01 -9.418212622404098511e-02
8.794099092483520508e-03 7.108994722366333008e-01 5.310606956481933594e-02
-2.996800243854522705e-01 4.741508364677429199e-01 5.900979787111282349e-02
-3.822450041770935059e-01 5.884164571762084961e-01 -1.682027131319046021e-01
-3.227303922176361084e-01 7.526004910469055176e-01 3.062115013599395752e-01
-2.999062836170196533e-01 9.043669700622558594e-01 -1.516304612159729004e-01
-7.813753187656402588e-02 9.591451883316040039e-01 2.038490772247314453e-01
-2.155039608478546143e-01 7.439166903495788574e-01 3.585395514965057373e-01
8.734479546546936035e-03 7.029231786727905273e-01 2.342734672129154205e-02
-7.968291640281677246e-03 7.893863916397094727e-01 1.915849894285202026e-01
-1.316966861486434937e-01 9.757536053657531738e-01 2.040323317050933838e-01
-1.735753268003463745e-01 1.003226995468139648e+00 1.190100312232971191e-01
3.045320510864257812e-03 7.124251723289489746e-01 -1.255970448255538940e-01
-3.122531175613403320e-01 7.877781391143798828e-01 3.030120432376861572e-01
-8.231103420257568359e-03 6.938026547431945801e-01 -1.427591890096664429e-01
-2.267974764108657837e-01 5.261467695236206055e-01 2.083907723426818848e-01
-2.051169276237487793e-01 9.969036579132080078e-01 1.012685596942901611e-01
-2.545948922634124756e-01 5.544624924659729004e-01 -2.564238011837005615e-01
-1.298437118530273438e-01 5.286583900451660156e-01 -1.060831621289253235e-01
-1.194420531392097473e-01 6.344774365425109863e-01 2.664806842803955078e-01
-4.139462113380432129e-02 7.073444128036499023e-01 -2.419161796569824219e-01
-3.772138059139251709e-01 8.160681724548339844e-01 1.526366025209426880e-01
-1.475155204534530640e-01 8.545435070991516113e-01 -3.186747729778289795e-01
-1.066477596759796143e-02 9.397836923599243164e-01 -1.345068514347076416e-01
-3.913490176200866699e-01 6.716398596763610840e-01 -1.786502748727798462e-01
-2.522892653942108154e-01 7.693160176277160645e-01 3.492304384708404541e-01
-5.964420735836029053e-02 6.356537342071533203e-01 1.712503880262374878e-01
-2.675767838954925537e-01 9.659015536308288574e-01 -3.203305602073669434e-02
6.208956241607666016e-03 6.986472606658935547e-01 -6.902100145816802979e-02
-9.758634120225906372e-02 1.004809498786926270e+00 -1.047623381018638611e-01
-2.165732234716415405e-01 8.597543239593505859e-01 3.234830200672149658e-01
-4.064909815788269043e-01 5.583200454711914062e-01 7.897085696458816528e-02
-4.014265537261962891e-01 7.322717905044555664e-01 -1.269430518150329590e-01
8.998319506645202637e-03 9.382852315902709961e-01 -6.154264509677886963e-02
-3.139423131942749023e-01 9.279410243034362793e-01 5.155507475137710571e-02
-2.547437846660614014e-01 5.217654109001159668e-01 -2.108374238014221191e-01
-3.341779112815856934e-01 8.836106061935424805e-01 1.537231653928756714e-01
-4.125022888183593750e-01 6.552160978317260742e-01 -1.181221380829811096e-01
-7.649823278188705444e-02 7.078117132186889648e-01 -2.908923029899597168e-01
-1.242216750979423523e-01 6.552217602729797363e-01 2.892368435859680176e-01
-1.856578886508941650e-02 8.933211565017700195e-01 -2.054815441370010376e-01
-1.893334090709686279e-01 8.236186504364013672e-01 -3.315249979496002197e-01
-1.881999820470809937e-01 9.031286835670471191e-01 -2.746958732604980469e-01
-4.771549999713897705e-02 6.527705788612365723e-01 -1.985194236040115356e-01
-2.175971567630767822e-01 8.053144216537475586e-01 3.494124114513397217e-01
-2.976069450378417969e-01 9.224025011062622070e-01 1.573436111211776733e-01
-3.871879577636718750e-01 8.219131827354431152e-01 7.972068339586257935e-02
-2.695470154285430908e-01 9.639537334442138672e-01 7.917443662881851196e-02
-3.539162278175354004e-01 7.776580452919006348e-01 -2.115399241447448730e-01
-1.238319277763366699e-01 7.227345108985900879e-01 3.249008059501647949e-01
-3.376007080078125000e-01 4.825820326805114746e-01 -1.821292005479335785e-02
3.360563516616821289e-02 8.339351415634155273e-01 -6.560847908258438110e-02
-5.582395195960998535e-02 7.156900167465209961e-01 -2.694955766201019287e-01
1.589643955230712891e-02 9.008148908615112305e-01 -1.105900928378105164e-01
-8.626193553209304810e-02 8.890304565429687500e-01 -2.786091566085815430e-01
-8.844309300184249878e-02 5.572755932807922363e-01 -7.061905413866043091e-02
-1.399612575769424438e-01 9.962384700775146484e-01 -1.368488073348999023e-01
-1.942959725856781006e-01 6.651631593704223633e-01 -3.366993963718414307e-01
-3.021728992462158203e-01 4.843829572200775146e-01 -1.050740405917167664e-01
-2.289912104606628418e-01 5.595136284828186035e-01 -2.631756365299224854e-01
-6.891222298145294189e-02 7.330790162086486816e-01 -2.929917871952056885e-01
-1.574483364820480347e-01 5.414686203002929688e-01 -1.963810026645660400e-01
-1.890361756086349487e-01 7.593562602996826172e-01 3.572815060615539551e-01
-1.979040503501892090e-01 5.598722696304321289e-01 2.465979903936386108e-01
-3.985218107700347900e-01 5.987522006034851074e-01 -1.373621076345443726e-01
-2.165652811527252197e-02 8.653321862220764160e-01 -2.282180786132812500e-01
2.566863596439361572e-02 8.880628347396850586e-01 -7.810018956661224365e-02
-9.538037329912185669e-02 1.010743379592895508e+00 -7.834494858980178833e-02
-1.544385254383087158e-01 5.306062698364257812e-01 1.462256312370300293e-01
-2.295734733343124390e-01 9.833807945251464844e-01 1.128487810492515564e-01
-2.106274366378784180e-01 9.859331250190734863e-01 -1.052280962467193604e-01
-1.129835844039916992e-02 6.654554605484008789e-01 -8.933953940868377686e-02
-1.537026464939117432e-01 6.388192176818847656e-01 3.006145656108856201e-01
-1.673692911863327026e-01 1.016528964042663574e+00 7.120250724256038666e-03
-3.470819294452667236e-01 5.866001248359680176e-01 2.457053363323211670e-01
-5.479443073272705078e-02 8.142395019531250000e-01 -2.856942415237426758e-01
-3.390038609504699707e-01 7.866997718811035156e-01 -2.311919480562210083e-01
-7.574602216482162476e-02 6.710735559463500977e-01 -2.666546702384948730e-01
-3.212500810623168945e-01 8.320426940917968750e-01 2.605236768722534180e-01
-6.928867101669311523e-02 5.795028209686279297e-01 5.205450952053070068e-02
-1.447722464799880981e-01 5.495332479476928711e-01 1.760622262954711914e-01
-2.191110700368881226e-01 6.267488598823547363e-01 3.201825022697448730e-01
2.680705487728118896e-02 8.053227663040161133e-01 7.880394160747528076e-02
-2.891726493835449219e-01 4.940191209316253662e-01 1.457933634519577026e-01
-3.514621257781982422e-01 5.117369294166564941e-01 1.310925781726837158e-01
-3.698885738849639893e-01 8.420306444168090820e-01 1.231620609760284424e-01
-1.147733330726623535e-01 8.593711256980895996e-01 3.128391504287719727e-01
-3.383452892303466797e-01 8.529095053672790527e-01 -1.580464541912078857e-01
-3.534560501575469971e-01 8.626405596733093262e-01 -8.931492269039154053e-02
-8.703673630952835083e-02 9.952217340469360352e-01 1.396610885858535767e-01
-1.238475590944290161e-01 8.141687512397766113e-01 3.313813805580139160e-01
-2.769105434417724609e-01 4.696125388145446777e-01 -3.997743129730224609e-02
-3.146802783012390137e-01 4.781401753425598145e-01 -5.903989821672439575e-02
-1.816367805004119873e-01 9.737555980682373047e-01 -1.718512624502182007e-01
-4.256709218025207520e-01 7.147213220596313477e-01 5.222385283559560776e-03
2.338378131389617920e-02 8.280420303344726562e-01 1.019325256347656250e-01
-1.772381365299224854e-01 9.957872629165649414e-01 -1.152719780802726746e-01
-3.075088858604431152e-01 5.166202187538146973e-01 1.884791404008865356e-01
-6.959754228591918945e-02 9.970606565475463867e-01 -1.056744679808616638e-01
-3.863508701324462891e-01 7.386520504951477051e-01 -1.675320118665695190e-01
-6.466957926750183105e-02 6.035899519920349121e-01 -1.509745717048645020e-01
-1.398274898529052734e-01 6.188351511955261230e-01 2.716473340988159180e-01
-3.769601881504058838e-01 8.023499250411987305e-01 -1.278787106275558472e-01
-2.838276922702789307e-01 6.978198289871215820e-01 -3.181634545326232910e-01
-1.493241786956787109e-01 1.015978455543518066e+00 7.284561544656753540e-02
-1.217180266976356506e-01 8.306881189346313477e-01 -3.247596025466918945e-01
-4.174667894840240479e-01 5.733853578567504883e-01 6.097118370234966278e-03
-2.839912176132202148e-01 8.809756040573120117e-01 2.566898167133331299e-01
-4.255020022392272949e-01 6.952580213546752930e-01 -3.797370940446853638e-02
-1.639582365751266479e-01 5.133637189865112305e-01 -1.304903775453567505e-01
-1.650574654340744019e-01 9.671419262886047363e-01 -1.948407441377639771e-01
-3.514902293682098389e-01 8.040077686309814453e-01 -1.927993595600128174e-01
-3.705142140388488770e-01 5.726433992385864258e-01 2.018615454435348511e-01
-2.775485515594482422e-01 5.933558940887451172e-01 2.940448522567749023e-01
-2.121767699718475342e-01 5.370381474494934082e-01 -2.290935516357421875e-01
-2.521803379058837891e-01 4.732161462306976318e-01 5.900698155164718628e-02
-9.484300017356872559e-02 7.596027255058288574e-01 -3.213367760181427002e-01
-2.725759148597717285e-01 9.453857541084289551e-01 1.526462435722351074e-01
-3.992796242237091064e-01 7.969112396240234375e-01 -2.169521711766719818e-02
-1.559677124023437500e-01 1.014158725738525391e+00 -5.315986275672912598e-02
-1.341512799263000488e-01 6.842000484466552734e-01 3.160349726676940918e-01
-9.565964341163635254e-03 9.219993948936462402e-01 1.479948610067367554e-01
-2.361921221017837524e-01 9.446455240249633789e-01 -1.784688383340835571e-01
-3.799455463886260986e-01 5.552479624748229980e-01 1.623659729957580566e-01
-1.142262294888496399e-01 5.541194081306457520e-01 -1.537656038999557495e-01
-3.639271259307861328e-01 6.335823535919189453e-01 2.546519935131072998e-01
-1.428074538707733154e-01 1.011272072792053223e+00 1.042980849742889404e-01
-3.535308539867401123e-01 4.963699579238891602e-01 -5.664971470832824707e-02
-4.025245010852813721e-01 6.410524249076843262e-01 -1.474583297967910767e-01
-3.460193276405334473e-01 6.807646155357360840e-01 2.885337769985198975e-01
-3.109298944473266602e-01 9.243385195732116699e-01 -5.498183518648147583e-02
-1.696878820657730103e-01 5.635499954223632812e-01 -2.454096972942352295e-01
-9.220074862241744995e-02 8.393538594245910645e-01 -3.085913658142089844e-01
-2.868593931198120117e-01 5.020642280578613281e-01 -1.648405939340591431e-01
-4.213400483131408691e-01 6.151818633079528809e-01 1.015205234289169312e-01
-9.692277759313583374e-02 7.335908412933349609e-01 3.062493801116943359e-01
1.654914021492004395e-02 8.075686693191528320e-01 -1.532971411943435669e-01
-7.871545851230621338e-02 6.117220520973205566e-01 1.743944585323333740e-01
2.118824422359466553e-02 7.391068339347839355e-01 2.053105458617210388e-02
-9.339244663715362549e-02 6.642548441886901855e-01 2.627014517784118652e-01
-2.338494360446929932e-01 5.515381693840026855e-01 2.505052685737609863e-01
-4.602052271366119385e-02 6.414654254913330078e-01 1.452833563089370728e-01
-6.132543087005615234e-03 7.519426345825195312e-01 1.690615862607955933e-01
-1.688347607851028442e-01 4.951668977737426758e-01 -2.279303036630153656e-02
-2.450741231441497803e-01 9.275161027908325195e-01 2.343752533197402954e-01
-3.707801699638366699e-01 6.830645203590393066e-01 2.555088400840759277e-01
-3.750905990600585938e-01 7.227125763893127441e-01 -2.020740807056427002e-01
-3.968450725078582764e-01 7.793386578559875488e-01 1.368140876293182373e-01
-4.075152575969696045e-01 6.197543144226074219e-01 -1.243370696902275085e-01
-1.015316992998123169e-01 5.479483008384704590e-01 5.947693437337875366e-02
-2.972222566604614258e-01 9.330772757530212402e-01 -7.702866196632385254e-02
3.101345896720886230e-02 8.844891786575317383e-01 1.609031343832612038e-03
-1.090125665068626404e-01 9.643551111221313477e-01 -2.042459994554519653e-01
-2.187829762697219849e-01 9.659477472305297852e-01 -1.531693339347839355e-01
-2.445247471332550049e-01 7.036133408546447754e-01 -3.385704159736633301e-01
-1.381353735923767090e-01 9.942125082015991211e-01 1.637298315763473511e-01
-1.482020616531372070e-01 8.014602065086364746e-01 3.441048562526702881e-01
-3.704207241535186768e-01 6.380828022956848145e-01 -2.158664464950561523e-01
-3.773423433303833008e-01 5.118692517280578613e-01 4.931019246578216553e-02
-4.197703599929809570e-01 6.843205690383911133e-01 1.281784772872924805e-01
-4.817509651184082031e-02 6.111155152320861816e-01 7.576701790094375610e-02
-3.521642088890075684e-01 8.166341781616210938e-01 2.220676392316818237e-01
-1.526355892419815063e-01 9.849840402603149414e-01 -1.620903462171554565e-01
-2.853587269783020020e-03 8.345386981964111328e-01 -2.047932595014572144e-01
-8.166253566741943359e-02 6.002036333084106445e-01 -1.875797510147094727e-01
-6.535203754901885986e-02 5.913857221603393555e-01 8.485019952058792114e-02
-3.437093198299407959e-01 8.890360593795776367e-01 9.062281250953674316e-02
-3.722544312477111816e-01 5.046426653861999512e-01 5.117955151945352554e-03
-4.733692109584808350e-02 8.132558465003967285e-01 2.634194195270538330e-01
-5.713313817977905273e-03 6.906112432479858398e-01 9.166221320629119873e-02
-7.114715874195098877e-02 6.051722764968872070e-01 1.430614441633224487e-01
-2.862246334552764893e-01 7.089189291000366211e-01 3.383837938308715820e-01
-2.300893962383270264e-01 4.966750741004943848e-01 -1.521894484758377075e-01
-1.251841485500335693e-01 5.378491878509521484e-01 1.037871539592742920e-01
-1.837846189737319946e-01 8.552032113075256348e-01 -3.154807686805725098e-01
-7.691400498151779175e-02 6.468615531921386719e-01 -2.458287179470062256e-01
-3.251766562461853027e-01 8.787635564804077148e-01 -1.439356058835983276e-01
-7.324962317943572998e-02 7.915418744087219238e-01 -3.053044974803924561e-01
-9.402000904083251953e-02 6.350150108337402344e-01 2.346550226211547852e-01
-6.548482179641723633e-02 5.780462026596069336e-01 -2.883894927799701691e-02
-1.602903008460998535e-02 9.038943648338317871e-01 1.803971379995346069e-01
2.540479600429534912e-02 8.530493974685668945e-01 8.840876072645187378e-02
-2.112601697444915771e-01 9.950789213180541992e-01 -6.222615391016006470e-02
-2.544091641902923584e-02 9.862996339797973633e-01 -2.418244443833827972e-02
-4.245229959487915039e-01 6.562960147857666016e-01 -6.296974420547485352e-02
-3.122482001781463623e-01 7.532042860984802246e-01 -2.848875820636749268e-01
-1.318656504154205322e-01 5.482853651046752930e-01 1.508559286594390869e-01
-2.819118499755859375e-01 4.681955873966217041e-01 -5.206233821809291840e-03
-1.471729725599288940e-01 5.768769979476928711e-01 2.276966869831085205e-01
-1.277188211679458618e-01 6.079293489456176758e-01 2.470379173755645752e-01
-2.353055775165557861e-01 4.877221882343292236e-01 -1.264188885688781738e-01
-2.382718026638031006e-02 9.169844388961791992e-01 -1.922105252742767334e-01
-1.576046645641326904e-01 7.344816923141479492e-01 -3.472456336021423340e-01
-2.535225450992584229e-01 4.770373106002807617e-01 -9.004911035299301147e-02
-2.526075839996337891e-01 9.793273806571960449e-01 1.432650350034236908e-02
-2.452285289764404297e-01 5.098503828048706055e-01 -1.883274614810943604e-01
-1.948246359825134277e-01 9.791741371154785156e-01 1.775049418210983276e-01
-1.694791316986083984e-01 1.014306306838989258e+00 -2.662441320717334747e-02
-4.256595969200134277e-01 6.494215726852416992e-01 9.803087264299392700e-02
-2.680583000183105469e-01 8.566456437110900879e-01 -2.649552822113037109e-01
1.587581634521484375e-02 8.999455571174621582e-01 9.373688697814941406e-02
1.390279829502105713e-02 9.357864856719970703e-01 3.549574408680200577e-03
-4.300396740436553955e-01 6.744071245193481445e-01 5.267424136400222778e-02
-2.982844710350036621e-01 8.445533514022827148e-01 -2.413848042488098145e-01
-2.131249010562896729e-02 9.627261757850646973e-01 -1.130182370543479919e-01
-1.285388618707656860e-01 5.199018120765686035e-01 -1.097256038337945938e-02
-4.291329383850097656e-01 6.678095459938049316e-01 -2.384114637970924377e-02
-7.117472589015960693e-02 9.982459545135498047e-01 1.117937490344047546e-01
-4.156860709190368652e-01 6.157877445220947266e-01 1.294248849153518677e-01
-3.130206167697906494e-01 5.864121913909912109e-01 2.734828889369964600e-01
-1.634593307971954346e-01 9.770842790603637695e-01 1.994045227766036987e-01
-2.722668051719665527e-01 8.077512383460998535e-01 -2.977519333362579346e-01
-6.076218187808990479e-02 6.249872446060180664e-01 -1.853121668100357056e-01
-1.060242876410484314e-01 1.020024299621582031e+00 3.544664382934570312e-02
-3.372128307819366455e-01 9.025645256042480469e-01 4.236865788698196411e-02
-3.935277163982391357e-01 8.143079280853271484e-01 2.089646458625793457e-02
-4.295689463615417480e-01 6.302872896194458008e-01 4.424437880516052246e-02
-7.475494593381881714e-02 6.930795907974243164e-01 2.603028416633605957e-01
-3.320049047470092773e-01 5.009396672248840332e-01 -1.209594383835792542e-01
-3.617031574249267578e-01 5.500272512435913086e-01 -1.664668023586273193e-01
-1.656253933906555176e-01 8.956313133239746094e-01 -2.882018983364105225e-01
-3.633196949958801270e-01 7.462710738182067871e-01 2.545169591903686523e-01
-3.066677451133728027e-01 5.792125463485717773e-01 -2.574963271617889404e-01
-1.342436671257019043e-01 1.005024194717407227e+00 -1.101144701242446899e-01
-3.848440051078796387e-01 5.757900476455688477e-01 1.790105849504470825e-01
-3.603197634220123291e-01 8.375096321105957031e-01 1.711151301860809326e-01
-4.183712601661682129e-02 6.809098720550537109e-01 1.917810142040252686e-01
9.699091315269470215e-03 7.627627849578857422e-01 -1.571268737316131592e-01
-5.001318454742431641e-02 6.207785010337829590e-01 1.133218929171562195e-01
-1.581955254077911377e-01 6.610354781150817871e-01 -3.262746036052703857e-01
3.720656037330627441e-03 7.315180301666259766e-01 -1.499252766370773315e-01
-2.981700897216796875e-01 7.539718747138977051e-01 3.273918628692626953e-01
-1.253793090581893921e-01 6.145384311676025391e-01 -2.704549729824066162e-01
-1.062446832656860352e-02 7.750594615936279297e-01 -2.178756892681121826e-01
-1.796919852495193481e-01 5.455597639083862305e-01 -2.250738590955734253e-01
-2.699237763881683350e-01 6.278327703475952148e-01 -3.085620999336242676e-01
-9.065161645412445068e-02 9.383655786514282227e-01 2.403760701417922974e-01
-2.257986366748809814e-02 8.695281744003295898e-01 2.138541489839553833e-01
-2.691321372985839844e-01 8.368738889694213867e-01 3.117897808551788330e-01
-4.146279096603393555e-01 5.805144309997558594e-01 -5.248221755027770996e-02
-3.113915920257568359e-01 4.857354164123535156e-01 1.055778339505195618e-01
-2.130441814661026001e-01 9.039605259895324707e-01 -2.610912621021270752e-01
-1.075896918773651123e-01 9.365231990814208984e-01 -2.431428581476211548e-01
1.975449919700622559e-02 7.863563895225524902e-01 1.033402979373931885e-01
1.606099307537078857e-02 9.141598343849182129e-01 7.020226866006851196e-02
-6.702251732349395752e-02 8.164845705032348633e-01 2.868290543556213379e-01
-3.942157626152038574e-01 6.240431666374206543e-01 1.979601234197616577e-01
-4.559853672981262207e-02 9.806970953941345215e-01 1.201305761933326721e-01
-1.757076531648635864e-01 6.621074676513671875e-01 3.283126056194305420e-01
-2.322247326374053955e-01 4.725224375724792480e-01 1.478584576398134232e-02
-1.233654767274856567e-01 7.568255662918090820e-01 3.323580026626586914e-01
-3.369324803352355957e-01 6.193341612815856934e-01 2.780480086803436279e-01
-4.190895259380340576e-01 6.089741587638854980e-01 -6.916816532611846924e-02
-2.039644271135330200e-01 4.985677003860473633e-01 -1.381676495075225830e-01
-2.985543012619018555e-01 8.103160262107849121e-01 -2.700908184051513672e-01
-2.954370379447937012e-01 9.444452524185180664e-01 -1.924987696111202240e-02
-3.084768652915954590e-01 5.206288099288940430e-01 -1.872456371784210205e-01
-1.785217225551605225e-02 9.494712352752685547e-01 1.270923465490341187e-01
-4.264923930168151855e-01 6.069297790527343750e-01 3.258973592892289162e-03
-1.156364008784294128e-01 1.002229094505310059e+00 1.373718827962875366e-01
-1.661976277828216553e-01 8.252691626548767090e-01 3.431864976882934570e-01
-3.916149735450744629e-01 5.560667514801025391e-01 1.346066594123840332e-01
-2.107146084308624268e-01 9.819115400314331055e-01 1.527047753334045410e-01
-3.048543930053710938e-01 9.342194199562072754e-01 7.869435846805572510e-02
-1.570885181427001953e-01 5.525923967361450195e-01 1.990338563919067383e-01
-4.446372389793395996e-02 7.544098496437072754e-01 -2.696462869644165039e-01
2.856729924678802490e-02 8.573803305625915527e-01 -9.347738325595855713e-02
-4.110440015792846680e-01 7.564320564270019531e-01 9.935785830020904541e-02
-2.426053732633590698e-01 7.381423115730285645e-01 3.551160991191864014e-01
-1.284413039684295654e-01 5.822550058364868164e-01 -2.333732247352600098e-01
-3.100990056991577148e-01 9.327121973037719727e-01 2.605299465358257294e-02
-1.674584299325942993e-01 6.094157099723815918e-01 2.845638096332550049e-01
-1.773913204669952393e-02 7.452437281608581543e-01 1.937491297721862793e-01
-3.512322902679443359e-01 5.892365574836730957e-01 -2.204051166772842407e-01
2.973392605781555176e-03 7.387406826019287109e-01 1.291063129901885986e-01
-1.670388132333755493e-01 5.034893751144409180e-01 7.333185523748397827e-02
-4.101954996585845947e-01 7.728606462478637695e-01 4.759788513183593750e-02
-2.472964227199554443e-01 9.179512262344360352e-01 -2.124254256486892700e-01
-2.804414629936218262e-01 4.782525002956390381e-01 9.343046694993972778e-02
-2.130579054355621338e-01 9.573525190353393555e-01 -1.793649941682815552e-01
-1.621364951133728027e-01 5.014724731445312500e-01 -6.318311393260955811e-02
-3.768517971038818359e-01 6.734941601753234863e-01 -2.090607881546020508e-01
-6.014838814735412598e-02 8.608279228210449219e-01 -2.763587832450866699e-01
-3.313426077365875244e-01 9.011278152465820312e-01 -5.745536834001541138e-02
-3.210407495498657227e-01 9.018681645393371582e-01 -9.940602630376815796e-02
-2.573144733905792236e-01 9.366275668144226074e-01 -1.644300520420074463e-01
-9.276638180017471313e-02 5.495214462280273438e-01 -1.411307789385318756e-02
-3.262008130550384521e-01 9.150341749191284180e-01 7.088629063218832016e-04
-2.105209976434707642e-01 5.052524209022521973e-01 1.513390094041824341e-01
-3.965579271316528320e-01 7.628118395805358887e-01 1.615626662969589233e-01
-2.884778678417205811e-01 5.581080317497253418e-01 -2.492051422595977783e-01
-1.265892386436462402e-02 8.424674272537231445e-01 2.039315402507781982e-01
-3.015939891338348389e-01 9.139664173126220703e-01 -1.249673143029212952e-01
-9.869232773780822754e-02 5.815606117248535156e-01 1.594098061323165894e-01
3.347249329090118408e-02 8.507228493690490723e-01 3.330537304282188416e-02
-3.721278905868530273e-01 7.576411366462707520e-01 -1.887329071760177612e-01
-1.073433235287666321e-01 6.151280403137207031e-01 -2.515971660614013672e-01
-8.503691852092742920e-02 6.105533838272094727e-01 -2.121675610542297363e-01
-6.879344582557678223e-03 7.290304899215698242e-01 -1.822600066661834717e-01
-1.701411306858062744e-01 9.934846162796020508e-01 1.560669690370559692e-01
-2.918289303779602051e-01 9.495797753334045410e-01 1.211772393435239792e-02
-2.404482662677764893e-01 9.852331876754760742e-01 5.893547832965850830e-02
-3.550662994384765625e-01 8.167862296104431152e-01 -1.699468344449996948e-01
-4.158069789409637451e-01 7.001223564147949219e-01 -9.340097755193710327e-02
-3.174933791160583496e-01 8.743236064910888672e-01 2.141426652669906616e-01
2.863249182701110840e-02 8.855579495429992676e-01 3.652504086494445801e-02
-1.941166818141937256e-02 6.619420051574707031e-01 9.080027043819427490e-02
-2.692434191703796387e-02 8.106504082679748535e-01 2.324979156255722046e-01
-3.283151984214782715e-01 4.976573884487152100e-01 1.267798244953155518e-01
-3.448368608951568604e-02 9.517102241516113281e-01 -1.621623188257217407e-01
-2.739466428756713867e-01 7.755621075630187988e-01 -3.117683529853820801e-01
1.887500286102294922e-03 9.383995532989501953e-01 8.609776198863983154e-02
-3.045080006122589111e-01 5.454153418540954590e-01 2.350660115480422974e-01
-2.373535633087158203e-01 9.646298885345458984e-01 1.652901619672775269e-01
-3.127977550029754639e-01 5.069315433502197266e-01 -1.577056795358657837e-01
-2.801861763000488281e-01 5.750938057899475098e-01 -2.693826556205749512e-01
-3.334121406078338623e-02 6.581919193267822266e-01 -1.689225882291793823e-01
-3.571599423885345459e-01 6.632966399192810059e-01 2.725797295570373535e-01
-3.250347077846527100e-01 4.833147823810577393e-01 7.574086636304855347e-02
-2.723145484924316406e-01 9.042109251022338867e-01 -2.014529258012771606e-01
-6.469786167144775391e-02 6.579713821411132812e-01 2.123152017593383789e-01
-3.848862051963806152e-01 5.588949918746948242e-01 -1.303111165761947632e-01
-1.865680068731307983e-01 5.265129208564758301e-01 -1.948464214801788330e-01
-1.211281716823577881e-01 5.276019573211669922e-01 -5.812954157590866089e-02
-8.158072829246520996e-03 9.191784858703613281e-01 -1.595455110073089600e-01
-2.024452686309814453e-01 4.804398417472839355e-01 -1.045142393559217453e-02
-7.311709225177764893e-02 9.467094540596008301e-01 -2.127285599708557129e-01
-2.089673280715942383e-01 8.608923554420471191e-01 -3.032580018043518066e-01
-2.644897401332855225e-01 6.543732285499572754e-01 3.336763978004455566e-01
-2.094637304544448853e-01 1.002542853355407715e+00 8.713223040103912354e-03
-1.588848978281021118e-01 5.299307107925415039e-01 -1.718904078006744385e-01
-3.188025951385498047e-01 9.103720188140869141e-01 1.268791556358337402e-01
-4.084238111972808838e-01 5.918422937393188477e-01 -9.903357177972793579e-02
-9.952180087566375732e-02 6.038075685501098633e-01 2.016204893589019775e-01
-1.825162917375564575e-01 1.007941007614135742e+00 -5.058805644512176514e-02
-2.333829700946807861e-01 6.036293506622314453e-01 -3.036723434925079346e-01
-2.858298718929290771e-01 8.002341389656066895e-01 3.204958438873291016e-01
-3.870781064033508301e-01 6.232446432113647461e-01 -1.792455017566680908e-01
7.406848669052124023e-02 -7.011354714632034302e-02 -1.729405671358108521e-01
2.192632108926773071e-01 2.198666334152221680e-05 -1.450861245393753052e-01
2.697087824344635010e-01 -2.086929418146610260e-02 3.261035978794097900e-01
3.548209071159362793e-01 -3.779065236449241638e-02 3.072697520256042480e-01
2.075700610876083374e-01 -1.880690269172191620e-02 -3.023783862590789795e-01
4.135260581970214844e-01 -1.353182271122932434e-02 9.393525868654251099e-02
7.254023849964141846e-02 -4.831328988075256348e-05 -1.570011302828788757e-02
4.361793398857116699e-01 -1.938073523342609406e-02 -7.211506366729736328e-02
2.605047523975372314e-01 -6.110642105340957642e-03 2.426495999097824097e-01
3.035320341587066650e-02 -5.240272730588912964e-03 7.485429942607879639e-02
3.939036130905151367e-01 -2.393004298210144043e-02 2.345848679542541504e-01
1.445515006780624390e-01 2.917144447565078735e-03 -7.055718451738357544e-02
2.747774422168731689e-01 -7.283951342105865479e-02 2.199975848197937012e-01
2.095746397972106934e-01 -7.843172550201416016e-02 1.643363535404205322e-01
4.508193135261535645e-01 -4.040737077593803406e-02 1.677361577749252319e-01
3.356019556522369385e-01 -7.294636964797973633e-02 -1.870765984058380127e-01
4.355140924453735352e-01 -5.688510090112686157e-02 -1.548525542020797729e-01
3.216356039047241211e-01 -7.978783547878265381e-02 -8.930048346519470215e-02
-4.247489571571350098e-02 -2.545304968953132629e-02 -6.664597988128662109e-02
6.412543356418609619e-02 -7.535914331674575806e-02 1.210636924952268600e-03
4.340280294418334961e-01 -2.702306769788265228e-02 -1.535925120115280151e-01
1.758548915386199951e-01 -7.789837568998336792e-02 1.615128070116043091e-01
1.589659750461578369e-01 -8.141035586595535278e-02 -8.989449590444564819e-02
3.206999599933624268e-01 -1.948828250169754028e-02 -2.661821842193603516e-01
2.434860467910766602e-01 -8.302667737007141113e-02 -8.042214810848236084e-02
1.635347753763198853e-01 -8.035169541835784912e-02 1.080146804451942444e-01
2.024430334568023682e-01 -7.907319813966751099e-02 -1.679675579071044922e-01
8.832551538944244385e-02 -1.596324518322944641e-02 -2.473360747098922729e-01
2.067201882600784302e-01 -7.058131694793701172e-02 2.497324049472808838e-01
3.915444016456604004e-02 -5.745794624090194702e-02 -2.238507270812988281e-01
3.285197615623474121e-01 -6.887402385473251343e-03 -1.579859256744384766e-01
-2.400657534599304199e-02 -4.654563218355178833e-02 -1.524264514446258545e-01
9.216246008872985840e-02 -7.786826789379119873e-02 -5.144651979207992554e-02
2.619110941886901855e-01 3.525931388139724731e-03 -2.770212851464748383e-02
4.065101742744445801e-01 -6.392735987901687622e-02 -1.681322753429412842e-01
2.336307615041732788e-01 -8.400379866361618042e-02 -1.489194296300411224e-02
3.165442943572998047e-01 -7.649472355842590332e-02 -1.625115275382995605e-01
-3.603205084800720215e-02 -1.972043327987194061e-02 5.172421783208847046e-02
7.331210374832153320e-02 -9.447801858186721802e-03 -1.860150396823883057e-01
3.808875083923339844e-01 -7.469939440488815308e-02 5.545425415039062500e-02
4.635667204856872559e-01 -2.788543514907360077e-02 6.685556471347808838e-02
1.718206703662872314e-01 -7.333347201347351074e-02 2.161733210086822510e-01
4.491086304187774658e-02 -2.956036478281021118e-03 -1.705844327807426453e-02
5.811300873756408691e-02 -2.540256828069686890e-03 -5.895863473415374756e-02
7.191914319992065430e-02 1.572445034980773926e-04 1.066884212195873260e-02
1.207251995801925659e-01 -2.397283911705017090e-03 -1.515511870384216309e-01
3.530461788177490234e-01 -7.235626876354217529e-02 1.607864946126937866e-01
4.020213484764099121e-01 -9.689068421721458435e-03 1.255448255687952042e-02
4.045458436012268066e-01 -7.204195111989974976e-02 -3.304697573184967041e-02
