7.663806676864624023e-01 -1.494333148002624512e-01 -3.248214023187756538e-03
7.730620503425598145e-01 -1.490559577941894531e-01 -3.813926596194505692e-03
7.710415124893188477e-01 -1.547585129737854004e-01 -8.083148859441280365e-03
7.675561904907226562e-01 -1.338468044996261597e-01 -4.926492460072040558e-03
7.698045969009399414e-01 -1.415132880210876465e-01 -7.244634907692670822e-03
7.677041292190551758e-01 -1.323164552450180054e-01 -2.248402219265699387e-03
7.691915631294250488e-01 -1.589379608631134033e-01 -4.170934204012155533e-03
7.718724012374877930e-01 -1.597575098276138306e-01 -5.309153813868761063e-03
7.667289972305297852e-01 -1.461062431335449219e-01 -8.054979145526885986e-03
7.728787064552307129e-01 -1.539407670497894287e-01 -2.805921481922268867e-03
7.674975395202636719e-01 -1.378168463706970215e-01 -6.812223698943853378e-03
7.724471688270568848e-01 -1.485932767391204834e-01 -1.111447345465421677e-03
7.655866146087646484e-01 -1.467197984457015991e-01 -5.247584544122219086e-03
7.728322148323059082e-01 -1.504412442445755005e-01 -1.955614658072590828e-03
7.703875899314880371e-01 -1.546424776315689087e-01 -8.467316627502441406e-03
7.653624415397644043e-01 -1.400180608034133911e-01 -4.716705996543169022e-03
7.713040709495544434e-01 -1.522177010774612427e-01 -7.887922227382659912e-03
7.678919434547424316e-01 -1.406267136335372925e-01 1.123049296438694000e-04
7.714175581932067871e-01 -1.382144689559936523e-01 -2.770625986158847809e-03
7.705613970756530762e-01 -1.599582582712173462e-01 -4.030222073197364807e-03
7.711688876152038574e-01 -1.570390760898590088e-01 -7.731254212558269501e-03
7.663516998291015625e-01 -1.474903821945190430e-01 -2.559958957135677338e-03
7.671910524368286133e-01 -1.408214867115020752e-01 -3.985406365245580673e-04
7.656823992729187012e-01 -1.428410708904266357e-01 -2.877231221646070480e-03
7.674149274826049805e-01 -1.421139091253280640e-01 -7.912984117865562439e-03
7.723644375801086426e-01 -1.433815360069274902e-01 -4.061050713062286377e-03
7.668238878250122070e-01 -1.331618130207061768e-01 -3.865597303956747055e-03
7.667778730392456055e-01 -1.516439020633697510e-01 -3.432598896324634552e-03
7.692877054214477539e-01 -1.340202391147613525e-01 -4.037317354232072830e-03
7.669138312339782715e-01 -1.490677446126937866e-01 -2.114933915436267853e-03
7.703543305397033691e-01 -1.502196192741394043e-01 -8.449884131550788879e-03
7.667497396469116211e-01 -1.420890539884567261e-01 -9.283246472477912903e-04
7.695223093032836914e-01 -1.594764590263366699e-01 -4.281911533325910568e-03
7.725898623466491699e-01 -1.573988199234008789e-01 -4.022093489766120911e-03
7.661883831024169922e-01 -1.430211067199707031e-01 -7.308714091777801514e-03
7.712090015411376953e-01 -1.378653645515441895e-01 -1.461832784116268158e-03
7.688810825347900391e-01 -1.395248621702194214e-01 -7.142399437725543976e-03
7.722924947738647461e-01 -1.432611346244812012e-01 -1.452328404411673546e-03
7.726631760597229004e-01 -1.570369750261306763e-01 -5.152466706931591034e-03
7.718821763992309570e-01 -1.529187113046646118e-01 -1.176949124783277512e-03
7.688656449317932129e-01 -1.572807431221008301e-01 -8.037252351641654968e-03
7.728556990623474121e-01 -1.559169292449951172e-01 -3.865249920636415482e-03
7.698415517807006836e-01 -1.512524485588073730e-01 -8.731165900826454163e-03
7.655484676361083984e-01 -1.375203132629394531e-01 -3.653858555480837822e-03
7.655102610588073730e-01 -1.382232606410980225e-01 -3.485981840640306473e-03
7.687102556228637695e-01 -1.327916830778121948e-01 -1.694222446531057358e-03
7.653762698173522949e-01 -1.395231336355209351e-01 -4.171909298747777939e-03
7.682172656059265137e-01 -1.388440430164337158e-01 2.386365085840225220e-04
7.719295024871826172e-01 -1.411057710647583008e-01 -3.989238757640123367e-03
7.710492610931396484e-01 -1.370892822742462158e-01 -3.003770951181650162e-03
7.661567926406860352e-01 -1.501701623201370239e-01 -4.404901061207056046e-03
7.674823999404907227e-01 -1.539790481328964233e-01 -7.947558537125587463e-03
7.722831368446350098e-01 -1.420945674180984497e-01 -2.322229091078042984e-03
7.687559127807617188e-01 -1.552620083093643188e-01 -8.535481989383697510e-03
7.715055942535400391e-01 -1.428196877241134644e-01 -1.846440136432647705e-04
7.730841636657714844e-01 -1.528899222612380981e-01 -4.446532111614942551e-03
7.681596875190734863e-01 -1.413542926311492920e-01 2.377666532993316650e-04
7.723736763000488281e-01 -1.425428390502929688e-01 -2.885382156819105148e-03
7.666668891906738281e-01 -1.454382240772247314e-01 -7.971899583935737610e-03
7.704837322235107422e-01 -1.521281898021697998e-01 -8.470378816127777100e-03
7.728372216224670410e-01 -1.535534709692001343e-01 -5.537352524697780609e-03
7.714880704879760742e-01 -1.597615182399749756e-01 -4.093416035175323486e-03
7.658569812774658203e-01 -1.361709088087081909e-01 -2.788263605907559395e-03
7.669905424118041992e-01 -1.470487564802169800e-01 -8.278308436274528503e-03
-8.558396100997924805e-01 6.087799370288848877e-02 2.126217484474182129e-01
-9.449309110641479492e-01 2.150251269340515137e-01 -5.484474450349807739e-02
-7.767077088356018066e-01 2.699809968471527100e-01 -1.387850940227508545e-01
-9.095892906188964844e-01 1.873530298471450806e-01 2.115859538316726685e-01
-8.291829228401184082e-01 1.975879073143005371e-01 -2.612640559673309326e-01
-8.634109497070312500e-01 5.274157971143722534e-02 -2.042555809020996094e-01
-8.729202747344970703e-01 4.825052618980407715e-02 -1.878594905138015747e-01
-7.249066233634948730e-01 4.971057176589965820e-02 -8.873020857572555542e-02
-7.055593132972717285e-01 2.367209941148757935e-01 7.131381332874298096e-02
-7.363656759262084961e-01 5.324830114841461182e-02 1.296652853488922119e-01
-8.532267808914184570e-01 2.595224231481552124e-02 -1.544334441423416138e-01
-8.004027605056762695e-01 2.992238402366638184e-01 7.902084849774837494e-03
-6.909898519515991211e-01 9.149818122386932373e-02 -4.035525396466255188e-02
-9.169805049896240234e-01 3.621501475572586060e-02 -1.091661397367715836e-02
-6.984947919845581055e-01 8.212805539369583130e-02 -6.872444599866867065e-02
-9.353838562965393066e-01 8.001613616943359375e-02 -1.172145232558250427e-01
-8.520642518997192383e-01 2.797273397445678711e-01 1.351218968629837036e-01
-8.754488825798034668e-01 3.255324810743331909e-02 -1.492004394531250000e-01
-7.205431461334228516e-01 4.450986534357070923e-02 -1.460057566873729229e-03
-7.596171498298645020e-01 1.474678367376327515e-01 -2.525189220905303955e-01
-8.349766731262207031e-01 1.405616700649261475e-01 2.806128859519958496e-01
-8.707656264305114746e-01 3.705250471830368042e-02 -1.666333675384521484e-01
-9.611355066299438477e-01 1.152308806777000427e-01 -2.530592028051614761e-03
-8.779507875442504883e-01 2.271563708782196045e-01 -2.053481340408325195e-01
-6.876173019409179688e-01 1.035836786031723022e-01 -5.349792912602424622e-02
-9.189266562461853027e-01 1.370260268449783325e-01 2.042636722326278687e-01
-9.251204729080200195e-01 4.667470604181289673e-02 3.496645018458366394e-02
-8.222205042839050293e-01 2.951454520225524902e-01 8.368329703807830811e-02
-7.431421279907226562e-01 1.698192059993743896e-01 2.388327270746231079e-01
-7.995555996894836426e-01 2.094271779060363770e-02 1.298823505640029907e-01
-9.446887969970703125e-01 2.192949801683425903e-01 -3.605401143431663513e-02
-9.345160722732543945e-01 9.200833737850189209e-02 1.337577104568481445e-01
-8.008147478103637695e-01 2.941979765892028809e-01 8.403830230236053467e-02
-9.399475455284118652e-01 1.282551735639572144e-01 -1.534024924039840698e-01
-9.559168815612792969e-01 1.131362169981002808e-01 -7.272287458181381226e-02
-9.550592303276062012e-01 1.606231182813644409e-01 9.690484404563903809e-02
-7.227634191513061523e-01 2.490586787462234497e-01 -8.968987315893173218e-02
-8.603507280349731445e-01 2.849008142948150635e-01 -8.053924888372421265e-02
-6.968143582344055176e-01 1.543444395065307617e-01 1.468866169452667236e-01
-7.646974325180053711e-01 2.476575374603271484e-01 -1.774200052022933960e-01
-8.326090574264526367e-01 2.705603837966918945e-01 -1.555839329957962036e-01
-6.958577036857604980e-01 1.554723083972930908e-01 -1.367274820804595947e-01
-8.684425950050354004e-01 2.894520759582519531e-01 -2.017357759177684784e-02
-7.293800115585327148e-01 7.589662820100784302e-02 -1.662508547306060791e-01
-7.311642765998840332e-01 2.191205024719238281e-01 -1.740366518497467041e-01
-8.915194272994995117e-01 3.923411667346954346e-02 1.286992877721786499e-01
-8.956106305122375488e-01 7.246996462345123291e-02 1.896483302116394043e-01
-9.174455404281616211e-01 5.398183315992355347e-02 -1.171102225780487061e-01
-7.743055224418640137e-01 1.325409114360809326e-02 -7.238388806581497192e-02
-8.890632987022399902e-01 2.001583129167556763e-01 -2.229058295488357544e-01
-8.288908004760742188e-01 2.670288383960723877e-01 1.848099827766418457e-01
-8.060376644134521484e-01 2.965852618217468262e-03 3.879929333925247192e-02
-7.362024188041687012e-01 5.540367960929870605e-02 -1.420466005802154541e-01
-7.624448537826538086e-01 1.975907385349273682e-01 -2.368701845407485962e-01
-7.987207770347595215e-01 8.466336131095886230e-02 2.470667958259582520e-01
-6.799398660659790039e-01 1.838780641555786133e-01 -1.082218717783689499e-02
-8.649976253509521484e-01 1.806766241788864136e-01 2.644100785255432129e-01
-7.293072342872619629e-01 1.622439175844192505e-01 2.203958779573440552e-01
-7.622294425964355469e-01 6.737471371889114380e-02 2.003991305828094482e-01
-8.091101646423339844e-01 2.497421205043792725e-02 1.473067551851272583e-01
-7.723072171211242676e-01 2.726985514163970947e-01 1.465550065040588379e-01
-7.903707027435302734e-01 8.027360588312149048e-02 -2.439258247613906860e-01
-7.934098243713378906e-01 1.028279960155487061e-01 2.604743540287017822e-01
-9.201367497444152832e-01 1.763450652360916138e-01 -1.928984224796295166e-01
-8.502548336982727051e-01 3.065606206655502319e-02 1.562850773334503174e-01
-8.862392902374267578e-01 2.514904737472534180e-02 8.976514637470245361e-02
-8.435687422752380371e-01 2.087100446224212646e-01 -2.490150928497314453e-01
-9.412977695465087891e-01 1.506933569908142090e-01 1.532223224639892578e-01
-7.399936318397521973e-01 2.698923349380493164e-01 -6.407680362462997437e-02
-7.136152386665344238e-01 2.201301455497741699e-01 -1.318448781967163086e-01
-7.835724949836730957e-01 2.148771136999130249e-01 -2.375745475292205811e-01
-7.433893084526062012e-01 9.661722183227539062e-02 -2.146706134080886841e-01
-7.382913827896118164e-01 2.725324034690856934e-01 -3.766101971268653870e-02
-8.502975106239318848e-01 1.153954863548278809e-02 8.854897320270538330e-02
-8.918211460113525391e-01 2.619286775588989258e-01 -1.110109314322471619e-01
-8.787294626235961914e-01 2.407489866018295288e-01 -1.833159327507019043e-01
-9.575378894805908203e-01 1.501887738704681396e-01 -8.433942496776580811e-02
-8.695169687271118164e-01 7.985348254442214966e-02 -2.342245280742645264e-01
-7.824148535728454590e-01 2.149733901023864746e-02 1.155213937163352966e-01
-9.327888488769531250e-01 7.190150767564773560e-02 1.004819497466087341e-01
-7.025362849235534668e-01 9.027428925037384033e-02 -1.109759509563446045e-01
-7.706542015075683594e-01 2.207842469215393066e-01 -2.224626541137695312e-01
-7.730617523193359375e-01 2.915607094764709473e-01 4.940575733780860901e-02
-9.210237860679626465e-01 1.933639943599700928e-01 -1.781258434057235718e-01
-8.697863221168518066e-01 2.071657329797744751e-01 2.459063529968261719e-01
-8.856517076492309570e-01 2.625402063131332397e-02 -1.100574135780334473e-01
-7.591520547866821289e-01 2.738857865333557129e-01 1.213940232992172241e-01
-9.364630579948425293e-01 2.273213267326354980e-01 -6.541901826858520508e-02
-9.479196667671203613e-01 8.954493701457977295e-02 7.071350514888763428e-02
-7.528369426727294922e-01 2.835125923156738281e-01 -1.429520361125469208e-02
-9.316754937171936035e-01 2.396971285343170166e-01 4.952836781740188599e-02
-7.285776138305664062e-01 2.270888388156890869e-01 1.728579699993133545e-01
-9.246087074279785156e-01 1.181067526340484619e-01 1.849338710308074951e-01
-9.598640799522399902e-01 1.213305220007896423e-01 -5.205243080854415894e-02
-8.400697708129882812e-01 2.484177052974700928e-01 -2.000338882207870483e-01
-7.861177325248718262e-01 1.169791147112846375e-01 -2.657764852046966553e-01
-7.255295515060424805e-01 4.457911849021911621e-02 -6.649088859558105469e-02
-8.224407434463500977e-01 2.733480930328369141e-02 -1.689195930957794189e-01
-7.080284953117370605e-01 9.534959495067596436e-02 -1.390526294708251953e-01
-7.824735045433044434e-01 2.199043333530426025e-01 2.456337660551071167e-01
-8.260203003883361816e-01 2.992931008338928223e-01 3.838628530502319336e-02
-8.770781159400939941e-01 2.451064884662628174e-01 1.927235126495361328e-01
-7.712607979774475098e-01 2.246610075235366821e-01 2.331742793321609497e-01
-7.427821159362792969e-01 1.882144361734390259e-01 -2.215916961431503296e-01
-7.649073600769042969e-01 2.864233255386352539e-01 6.949950009584426880e-02
-9.402394890785217285e-01 2.301506102085113525e-01 7.579703815281391144e-03
-7.271966934204101562e-01 6.758669018745422363e-02 1.410228312015533447e-01
-7.152688503265380859e-01 2.515363395214080811e-01 5.907307565212249756e-02
-9.355757236480712891e-01 1.914030164480209351e-01 1.504372358322143555e-01
-7.167797088623046875e-01 1.459389179944992065e-01 -1.918579488992691040e-01
-8.730795979499816895e-01 6.600074470043182373e-02 2.070116102695465088e-01
-7.481375336647033691e-01 2.811536788940429688e-01 3.172105550765991211e-02
-6.797240972518920898e-01 1.651345789432525635e-01 5.721113458275794983e-02
-7.645855545997619629e-01 1.304800808429718018e-02 1.316242502070963383e-03
-7.628520727157592773e-01 2.304345369338989258e-02 8.685425668954849243e-02
-9.299820661544799805e-01 2.031402885913848877e-01 -1.450227797031402588e-01
-9.285954833030700684e-01 1.744893938302993774e-01 1.809008866548538208e-01
-7.216278314590454102e-01 4.450260847806930542e-02 -3.331383690237998962e-02
-9.041750431060791016e-01 5.599857121706008911e-02 -1.560190021991729736e-01
-9.233449697494506836e-01 2.515628337860107422e-01 3.241307660937309265e-02
-7.525424361228942871e-01 2.326225936412811279e-01 -1.881739497184753418e-01
-6.792101860046386719e-01 1.328507810831069946e-01 -3.278396278619766235e-02
-8.835440874099731445e-01 2.113300263881683350e-01 2.291672676801681519e-01
-7.106294035911560059e-01 2.388764470815658569e-01 -7.420136779546737671e-02
-7.462774515151977539e-01 3.886955976486206055e-02 1.105531156063079834e-01
-7.003450989723205566e-01 7.910255342721939087e-02 6.712022423744201660e-02
-7.668831944465637207e-01 1.653800010681152344e-01 -2.563512027263641357e-01
-7.658785581588745117e-01 2.736131846904754639e-02 1.117924451828002930e-01
-7.169114351272583008e-01 5.155023187398910522e-02 -5.133603513240814209e-02
-7.238807082176208496e-01 1.197427660226821899e-01 -1.984092295169830322e-01
-8.469176292419433594e-01 4.403889179229736328e-03 -6.121914461255073547e-02
-9.379184246063232422e-01 1.298719495534896851e-01 1.585927605628967285e-01
-8.131577968597412109e-01 2.978103458881378174e-01 6.182146817445755005e-02
-9.126826524734497070e-01 2.406371533870697021e-01 1.348027139902114868e-01
-7.438684701919555664e-01 2.519489079713821411e-02 -2.468260750174522400e-02
-8.035271167755126953e-01 2.928697466850280762e-01 -7.130067795515060425e-02
-6.771063804626464844e-01 1.554925590753555298e-01 2.395996451377868652e-02
-8.009968400001525879e-01 3.219040483236312866e-02 1.634628325700759888e-01
-6.936299800872802734e-01 9.666523337364196777e-02 7.917113602161407471e-02
-9.429478645324707031e-01 8.794377744197845459e-02 -1.011841967701911926e-01
-6.812031269073486328e-01 1.835659742355346680e-01 4.653005674481391907e-02
-7.748357057571411133e-01 2.934216260910034180e-01 -4.966378910467028618e-04
-8.470568656921386719e-01 1.814556121826171875e-01 2.737002670764923096e-01
-8.570780158042907715e-01 2.892793416976928711e-01 8.216776698827743530e-02
-9.438474774360656738e-01 2.214242815971374512e-01 4.314979910850524902e-02
-7.345689535140991211e-01 3.429933637380599976e-02 -5.171159282326698303e-02
-7.647377252578735352e-01 2.570954561233520508e-01 -1.579320728778839111e-01
-7.808848023414611816e-01 1.443801224231719971e-01 2.721720039844512939e-01
-6.927767395973205566e-01 8.689916878938674927e-02 3.478151187300682068e-02
-8.176850676536560059e-01 6.713471561670303345e-02 -2.382309734821319580e-01
-7.041438817977905273e-01 1.528635323047637939e-01 -1.620898097753524780e-01
-7.529532313346862793e-01 2.384701371192932129e-02 -7.203810662031173706e-02
-8.946446180343627930e-01 2.572271227836608887e-01 1.362883448600769043e-01
-7.073236703872680664e-01 2.227708101272583008e-01 1.216930449008941650e-01
-7.119604349136352539e-01 2.450979650020599365e-01 -5.473794788122177124e-02
-9.289328455924987793e-01 9.575343132019042969e-02 1.548061221837997437e-01
-7.574133276939392090e-01 2.055224776268005371e-01 2.380470335483551025e-01
-8.321830034255981445e-01 2.905136942863464355e-01 -8.414670825004577637e-02
-8.091681599617004395e-01 2.009606808423995972e-01 2.694150209426879883e-01
-7.182015776634216309e-01 1.021198704838752747e-01 1.734485030174255371e-01
-9.408977627754211426e-01 1.002504676580429077e-01 -1.291255056858062744e-01
-9.408004879951477051e-01 1.798572689294815063e-01 -1.385841667652130127e-01
-7.029372453689575195e-01 2.282481193542480469e-01 8.790531009435653687e-02
-8.052679300308227539e-01 2.604429721832275391e-01 -1.797563135623931885e-01
-8.941948413848876953e-01 8.358765393495559692e-02 -2.124885022640228271e-01
-7.756577730178833008e-01 9.501695632934570312e-03 -4.061821475625038147e-02
-9.140701293945312500e-01 2.172687947750091553e-01 -1.637889593839645386e-01
-7.758859992027282715e-01 9.987105429172515869e-02 -2.507532835006713867e-01
-8.313229680061340332e-01 2.791418433189392090e-01 1.517272144556045532e-01
-7.579396963119506836e-01 2.779597043991088867e-02 -1.079340502619743347e-01
-7.427641153335571289e-01 2.641763538122177124e-02 2.206647768616676331e-02
-8.400036692619323730e-01 2.378267198801040649e-01 -2.168506234884262085e-01
-7.925621867179870605e-01 2.457156628370285034e-01 2.195698767900466919e-01
-6.934028863906860352e-01 2.039337754249572754e-01 9.767967462539672852e-02
-6.938729286193847656e-01 1.930616796016693115e-01 -1.043382808566093445e-01
-8.767330646514892578e-01 1.452378928661346436e-02 -7.110589742660522461e-02
-8.266587853431701660e-01 2.536745965480804443e-01 2.117829620838165283e-01
-9.382206201553344727e-01 6.714899837970733643e-02 5.607355013489723206e-02
-7.532172203063964844e-01 2.022394537925720215e-02 -4.109623283147811890e-02
-8.404519557952880859e-01 1.648051291704177856e-01 2.799209654331207275e-01
-6.830283403396606445e-01 1.811645030975341797e-01 6.933663785457611084e-02
-8.626997470855712891e-01 1.980253458023071289e-01 -2.481421828269958496e-01
-7.399585843086242676e-01 7.289882004261016846e-02 -1.824429482221603394e-01
-6.809913516044616699e-01 1.800816655158996582e-01 -4.108757525682449341e-02
-8.166546821594238281e-01 2.434770911931991577e-01 -2.121258527040481567e-01
-8.850770592689514160e-01 1.559448242187500000e-02 2.906515821814537048e-02
-6.797710657119750977e-01 1.233047246932983398e-01 1.265480834990739822e-02
-6.973830461502075195e-01 2.306458503007888794e-01 1.065280567854642868e-02
-6.783702373504638672e-01 1.467466801404953003e-01 4.364090785384178162e-02
-9.159114360809326172e-01 1.626999825239181519e-01 -2.068283706903457642e-01
-8.935817480087280273e-01 1.276327669620513916e-01 2.389772832393646240e-01
-7.857258915901184082e-01 2.621710300445556641e-01 -1.665682196617126465e-01
-7.731722593307495117e-01 1.389957517385482788e-01 -2.631444036960601807e-01
-8.018051981925964355e-01 1.324047148227691650e-01 2.778953015804290771e-01
-7.669795751571655273e-01 2.344083935022354126e-01 -2.017031461000442505e-01
-8.089671730995178223e-01 1.061367988586425781e-02 9.388738125562667847e-02
-6.979117393493652344e-01 1.834519803524017334e-01 1.409282982349395752e-01
-7.131000161170959473e-01 9.759388864040374756e-02 -1.566397994756698608e-01
-8.854116201400756836e-01 2.576746046543121338e-01 1.538010090589523315e-01
-7.804074287414550781e-01 2.898854315280914307e-01 -6.141475215554237366e-02
-9.578575491905212402e-01 1.721756756305694580e-01 6.994038075208663940e-02
-7.404304146766662598e-01 2.414076924324035645e-01 1.718290150165557861e-01
-9.561591148376464844e-01 9.689477831125259399e-02 1.958886859938502312e-03
-7.676238417625427246e-01 8.991174399852752686e-02 -2.366836965084075928e-01
-8.445495367050170898e-01 1.541048288345336914e-03 8.380151353776454926e-03
-8.112124800682067871e-01 2.454116344451904297e-01 2.253281027078628540e-01
-8.481215834617614746e-01 2.580947279930114746e-01 1.952331066131591797e-01
-9.471785426139831543e-01 2.006880193948745728e-01 -8.277833461761474609e-02
-8.115172386169433594e-01 1.326903700828552246e-02 -1.215294376015663147e-01
-8.527511358261108398e-01 1.767630279064178467e-01 -2.659860253334045410e-01
-7.785470485687255859e-01 4.269056767225265503e-02 -1.816840022802352905e-01
-9.285815954208374023e-01 2.342515289783477783e-01 9.536461532115936279e-02
-9.155181050300598145e-01 6.241568922996520996e-02 -1.432464867830276489e-01
-7.030012607574462891e-01 1.319254040718078613e-01 -1.555104404687881470e-01
-7.591188549995422363e-01 2.811447679996490479e-01 8.742590993642807007e-02
-8.512910008430480957e-01 2.921451330184936523e-01 -5.116485804319381714e-02
-8.536407351493835449e-01 2.622109949588775635e-01 -1.645408868789672852e-01
-8.532658219337463379e-01 1.677899062633514404e-02 1.092014610767364502e-01
-7.331871986389160156e-01 2.713041901588439941e-01 2.440253458917140961e-02
-8.373537063598632812e-01 7.832530885934829712e-02 2.425109148025512695e-01
-8.297168016433715820e-01 5.991136282682418823e-02 2.206171900033950806e-01
-8.637568354606628418e-01 1.159971207380294800e-01 -2.620260715484619141e-01
-7.333759665489196777e-01 2.416336089372634888e-01 -1.395375579595565796e-01
-7.919891476631164551e-01 2.299812436103820801e-02 -1.436409503221511841e-01
-8.787533044815063477e-01 1.145215332508087158e-02 -2.397460862994194031e-02
-7.921215891838073730e-01 1.779537200927734375e-01 -2.670877873897552490e-01
-7.237719297409057617e-01 2.445708811283111572e-01 -1.072039753198623657e-01
-7.788258790969848633e-01 2.906519174575805664e-02 1.368636637926101685e-01
-7.029634714126586914e-01 6.770423799753189087e-02 2.560178190469741821e-02
-8.601683974266052246e-01 9.454093128442764282e-02 2.483364194631576538e-01
-7.740534543991088867e-01 3.433593362569808960e-02 -1.572089940309524536e-01
-9.448566436767578125e-01 1.219961270689964294e-01 -1.345508098602294922e-01
-7.526516318321228027e-01 2.540872097015380859e-01 1.668889522552490234e-01
-8.030456900596618652e-01 2.185315191745758057e-01 -2.418618351221084595e-01
-9.264343976974487305e-01 5.054070055484771729e-02 5.185740813612937927e-02
-9.246701598167419434e-01 1.433145850896835327e-01 -1.934129595756530762e-01
-9.303132295608520508e-01 1.544870138168334961e-01 1.822695583105087280e-01
-8.936786651611328125e-01 2.435549348592758179e-01 1.709753870964050293e-01
-8.252772688865661621e-01 2.142018079757690430e-02 -1.524025797843933105e-01
-6.955935359001159668e-01 1.064117103815078735e-01 -1.083019897341728210e-01
-9.047658443450927734e-01 1.016647815704345703e-01 -2.131279557943344116e-01
-8.412098884582519531e-01 3.330782055854797363e-02 -1.799110770225524902e-01
-9.091570377349853516e-01 2.592402100563049316e-01 -6.570944935083389282e-02
-7.561931610107421875e-01 1.877607703208923340e-01 2.474828660488128662e-01
-7.240453362464904785e-01 2.268108725547790527e-01 -1.473398208618164062e-01
-8.945351243019104004e-01 1.918257772922515869e-01 2.309101372957229614e-01
-6.875462532043457031e-01 1.155845522880554199e-01 -7.961229979991912842e-02
-9.404588937759399414e-01 6.445705145597457886e-02 7.850823923945426941e-03
-7.032197713851928711e-01 2.055009454488754272e-01 1.363847851753234863e-01
-9.369761347770690918e-01 2.193175107240676880e-01 -8.900576084852218628e-02
-7.273069024085998535e-01 4.417784512042999268e-02 6.566438078880310059e-02
-7.279840707778930664e-01 1.574331372976303101e-01 -2.119127810001373291e-01
-8.030935525894165039e-01 1.667183041572570801e-01 2.808786630630493164e-01
-8.723041415214538574e-01 5.399684607982635498e-02 1.884928643703460693e-01
-9.519030451774597168e-01 2.071648538112640381e-01 -1.035173796117305756e-02
-8.019664883613586426e-01 9.228095412254333496e-03 -9.619271755218505859e-02
-9.069694280624389648e-01 5.654721707105636597e-02 1.407987177371978760e-01
-9.281939864158630371e-01 4.837209731340408325e-02 1.464726496487855911e-02
-7.585656642913818359e-01 6.898029148578643799e-02 -2.043808996677398682e-01
-7.041564583778381348e-01 2.063402682542800903e-01 -1.247882768511772156e-01
-9.612591266632080078e-01 1.182175353169441223e-01 2.054938301444053650e-02
-9.229775667190551758e-01 1.212084591388702393e-01 -1.922409087419509888e-01
-8.578854799270629883e-01 2.434454858303070068e-01 2.141223996877670288e-01
-7.893992066383361816e-01 1.549479365348815918e-02 -1.130084395408630371e-01
-6.824599504470825195e-01 1.343604624271392822e-01 7.235666364431381226e-02
-8.218410611152648926e-01 6.926047056913375854e-02 2.338606864213943481e-01
-7.291581630706787109e-01 2.495024502277374268e-01 1.280155628919601440e-01
-7.863553762435913086e-01 2.399637103080749512e-01 -2.082275897264480591e-01
-9.079334735870361328e-01 1.110206916928291321e-01 2.109546363353729248e-01
-8.567577600479125977e-01 1.434409469366073608e-01 2.732349932193756104e-01
-7.213486433029174805e-01 2.468082606792449951e-01 1.108384057879447937e-01
-9.003984332084655762e-01 5.970274657011032104e-02 1.605723798274993896e-01
-8.281295895576477051e-01 2.912941575050354004e-01 1.046127304434776306e-01
-7.829546928405761719e-01 4.044321924448013306e-02 1.709140241146087646e-01
-6.782329678535461426e-01 1.354885101318359375e-01 2.499022893607616425e-02
-7.110037207603454590e-01 2.482919991016387939e-01 -2.528795227408409119e-02
-6.816117167472839355e-01 1.626605093479156494e-01 7.482381165027618408e-02
-8.879937529563903809e-01 6.295304745435714722e-02 -1.948233544826507568e-01
-8.991870880126953125e-01 2.728018760681152344e-01 3.822982311248779297e-02
-7.338466048240661621e-01 1.152014881372451782e-01 -2.132210582494735718e-01
-6.914234161376953125e-01 1.289261132478713989e-01 1.170908212661743164e-01
-9.397307634353637695e-01 1.695594489574432373e-01 1.535273939371109009e-01
-8.627302646636962891e-01 2.300287485122680664e-01 2.288443893194198608e-01
-9.008413553237915039e-01 1.443829238414764404e-01 -2.325752526521682739e-01
-7.760181427001953125e-01 8.871868252754211426e-03 1.802647672593593597e-02
-7.958868145942687988e-01 2.762213647365570068e-01 -1.360552161931991577e-01
-8.055210709571838379e-01 2.837530672550201416e-01 -1.150977984070777893e-01
-6.778920888900756836e-01 1.611301749944686890e-01 -2.887018769979476929e-02
-9.004397392272949219e-01 2.653936445713043213e-01 8.847273886203765869e-02
-9.051176905632019043e-01 2.781828492879867554e-02 -4.159044846892356873e-02
-9.502736330032348633e-01 1.639320850372314453e-01 1.183459088206291199e-01
-8.603266477584838867e-01 1.554777622222900391e-01 -2.682819962501525879e-01
-6.842712163925170898e-01 1.993474811315536499e-01 -1.968964748084545135e-02
-6.857060194015502930e-01 1.010827049612998962e-01 7.451483979821205139e-04
-8.815284967422485352e-01 2.298184931278228760e-01 2.108486443758010864e-01
-8.429653644561767578e-01 4.907933622598648071e-02 -2.098506689071655273e-01
-9.371189475059509277e-01 2.345187664031982422e-01 -9.712511673569679260e-03
-7.644484639167785645e-01 1.691260337829589844e-01 2.607582509517669678e-01
-9.196031689643859863e-01 1.878338158130645752e-01 1.928365081548690796e-01
-7.447770833969116211e-01 2.762964367866516113e-01 6.501490622758865356e-02
-8.069810867309570312e-01 9.185709059238433838e-02 -2.597514986991882324e-01
-8.620851635932922363e-01 7.378315925598144531e-02 2.260686159133911133e-01
-8.129649162292480469e-01 3.655657172203063965e-03 -6.818612664937973022e-02
-9.621484279632568359e-01 1.628346592187881470e-01 3.860347718000411987e-02
-7.356997132301330566e-01 2.728118598461151123e-01 -1.181618310511112213e-02
-9.374720454216003418e-01 2.032559514045715332e-01 -1.209966689348220825e-01
-8.363698720932006836e-01 3.131926059722900391e-04 -1.415862888097763062e-02
-7.871211171150207520e-01 2.797305881977081299e-01 1.397970169782638550e-01
-7.073437571525573730e-01 7.510227710008621216e-02 -9.660598635673522949e-02
-6.941202878952026367e-01 8.163895457983016968e-02 -9.507191367447376251e-03
-7.496520876884460449e-01 2.402989864349365234e-01 1.887992769479751587e-01
-8.624529242515563965e-01 5.500063300132751465e-03 7.768851704895496368e-03
-9.013674855232238770e-01 2.678394317626953125e-01 6.993974000215530396e-02
-8.231996297836303711e-01 1.728803664445877075e-01 2.814782857894897461e-01
-8.312878012657165527e-01 1.186095178127288818e-01 2.742165029048919678e-01
-7.799257040023803711e-01 5.435406416654586792e-02 -2.043907791376113892e-01
-7.090352177619934082e-01 6.364244967699050903e-02 -6.378152966499328613e-02
-7.526546716690063477e-01 2.046839594841003418e-01 -2.211775928735733032e-01
-7.820993065834045410e-01 2.486845552921295166e-01 -1.911996155977249146e-01
-7.698701620101928711e-01 3.739495575428009033e-02 1.494252979755401611e-01
-8.250030279159545898e-01 2.998819947242736816e-01 -4.752060631290078163e-04
-8.361542224884033203e-01 2.968953549861907959e-01 -3.444611653685569763e-02
-8.408988118171691895e-01 1.343603879213333130e-01 -2.764979600906372070e-01
-8.433403372764587402e-01 2.737859487533569336e-01 -1.414463073015213013e-01
-7.454547286033630371e-01 8.253333717584609985e-02 -2.037635147571563721e-01
-9.050489664077758789e-01 6.779071688652038574e-02 -1.756347566843032837e-01
-7.181418538093566895e-01 1.661203503608703613e-01 -1.920160651206970215e-01
-7.539400458335876465e-01 9.564197063446044922e-02 2.252434343099594116e-01
-6.927377581596374512e-01 1.647485494613647461e-01 1.314014941453933716e-01
-7.560698986053466797e-01 1.261295974254608154e-01 -2.460958212614059448e-01
-9.051083922386169434e-01 1.872225403785705566e-01 -2.117266058921813965e-01
-8.284514546394348145e-01 1.696504354476928711e-01 -2.753997743129730225e-01
-8.447477221488952637e-01 6.549432873725891113e-03 6.524245440959930420e-02
-8.855751752853393555e-01 2.775180935859680176e-01 7.635963708162307739e-02
-9.515864849090576172e-01 1.978932321071624756e-01 6.839990615844726562e-02
-8.087451457977294922e-01 2.900359034538269043e-01 -8.925908058881759644e-02
-7.270108461380004883e-01 1.028396189212799072e-01 -1.930116862058639526e-01
-8.535077571868896484e-01 4.221722483634948730e-03 -4.427991434931755066e-02
-7.274585962295532227e-01 1.988101154565811157e-01 2.021652907133102417e-01
-8.752577900886535645e-01 1.581554859876632690e-01 -2.577123343944549561e-01
-9.017967581748962402e-01 1.207691431045532227e-01 -2.273340225219726562e-01
-9.146883487701416016e-01 2.187977731227874756e-01 1.712171882390975952e-01
-9.515558481216430664e-01 1.452174484729766846e-01 1.159976273775100708e-01
-9.214627742767333984e-01 2.488960474729537964e-01 -5.605025961995124817e-02
-8.680513501167297363e-01 9.421674162149429321e-02 -2.474311292171478271e-01
-8.960335254669189453e-01 2.646832168102264404e-02 -8.076778054237365723e-02
-7.050797343254089355e-01 9.159135818481445312e-02 1.215420439839363098e-01
-9.562924504280090332e-01 1.056993007659912109e-01 4.942245036363601685e-02
-9.143664240837097168e-01 2.065930366516113281e-01 1.870976388454437256e-01
-7.014955878257751465e-01 1.427017748355865479e-01 1.593484431505203247e-01
-8.183154463768005371e-01 1.502321958541870117e-01 -2.794707715511322021e-01
-7.156363129615783691e-01 1.995950043201446533e-01 -1.649976968765258789e-01
-9.257120490074157715e-01 2.486228942871093750e-01 -2.086976729333400726e-02
-8.443472385406494141e-01 2.692794501781463623e-01 1.726737767457962036e-01
-7.134355902671813965e-01 5.540044605731964111e-02 4.230362549424171448e-02
-9.597320556640625000e-01 1.105656176805496216e-01 -2.204689942300319672e-02
-9.544976353645324707e-01 1.979503780603408813e-01 -3.041568025946617126e-02
-6.818245649337768555e-01 1.239400133490562439e-01 -4.814202710986137390e-02
-7.212917208671569824e-01 1.411085873842239380e-01 2.048723846673965454e-01
-9.473312497138977051e-01 1.851253658533096313e-01 -1.084600463509559631e-01
-9.033084511756896973e-01 1.395287513732910156e-01 2.299122214317321777e-01
-8.121520876884460449e-01 4.985341429710388184e-02 -2.135310769081115723e-01
-8.016505837440490723e-01 1.592761576175689697e-01 -2.758155763149261475e-01
-8.984962701797485352e-01 1.667535006999969482e-01 2.360581308603286743e-01
-9.436064362525939941e-01 7.478833198547363281e-02 -5.805457010865211487e-02
-7.566958665847778320e-01 1.207927390933036804e-01 2.460967898368835449e-01
-7.354600429534912109e-01 2.618810236454010010e-01 -8.574622869491577148e-02
-9.102689027786254883e-01 2.328549325466156006e-01 -1.447980403900146484e-01
-8.802029490470886230e-01 2.831485271453857422e-01 5.394024401903152466e-02
-9.617463350296020508e-01 1.295549571514129639e-01 4.112792387604713440e-02
-9.564030170440673828e-01 9.982554614543914795e-02 2.485822141170501709e-02
-9.226012229919433594e-01 4.891383647918701172e-02 -7.797514647245407104e-02
-7.088248729705810547e-01 1.776366829872131348e-01 -1.661903411149978638e-01
-9.200108051300048828e-01 8.050651103258132935e-02 1.559983044862747192e-01
-7.227259874343872070e-01 8.462791889905929565e-02 1.611072421073913574e-01
-9.391725063323974609e-01 6.439320743083953857e-02 -4.085993021726608276e-02
-7.368413805961608887e-01 1.943524926900863647e-01 2.204392403364181519e-01
-8.166346549987792969e-01 9.544391185045242310e-02 2.603390216827392578e-01
-8.851240873336791992e-01 1.252785623073577881e-01 -2.480515390634536743e-01
-8.753467202186584473e-01 4.446795582771301270e-02 1.663818061351776123e-01
-7.108055949211120605e-01 2.489076554775238037e-01 3.481711447238922119e-02
-7.090663909912109375e-01 2.218444347381591797e-01 -1.142002046108245850e-01
-9.357313513755798340e-01 1.762675195932388306e-01 -1.566907167434692383e-01
-7.913874387741088867e-01 3.600910305976867676e-03 -5.952377337962388992e-03
-6.940783262252807617e-01 2.151811420917510986e-01 7.431051135063171387e-02
-7.814435362815856934e-01 4.855146259069442749e-02 1.866865903139114380e-01
-7.421084642410278320e-01 1.447963714599609375e-01 2.378678023815155029e-01
-9.151638150215148926e-01 2.578416168689727783e-01 5.542831867933273315e-02
-7.483938932418823242e-01 2.816992402076721191e-01 4.107398912310600281e-03
-8.625688552856445312e-01 6.815522909164428711e-03 3.112770803272724152e-02
-8.273665308952331543e-01 1.679496467113494873e-02 1.230197921395301819e-01
-9.477671384811401367e-01 9.752096235752105713e-02 8.999188244342803955e-02
-9.509604573249816895e-01 8.469282090663909912e-02 1.836338266730308533e-02
-9.361153841018676758e-01 1.430824249982833862e-01 -1.668449938297271729e-01
-9.271227121353149414e-01 2.480497062206268311e-01 1.359720434993505478e-02
-8.356179594993591309e-01 9.150990098714828491e-02 2.556813061237335205e-01
-9.088642001152038574e-01 8.918920159339904785e-02 1.899393200874328613e-01
-8.234822750091552734e-01 6.070390343666076660e-03 -8.873136341571807861e-02
-9.265047907829284668e-01 4.944448173046112061e-02 -5.606883391737937927e-02
-8.986639976501464844e-01 9.095132350921630859e-02 2.077991217374801636e-01
-6.904304623603820801e-01 1.778554022312164307e-01 1.157581061124801636e-01
-6.870475411415100098e-01 1.800453364849090576e-01 9.721624106168746948e-02
-9.518865346908569336e-01 9.017266333103179932e-02 3.961164131760597229e-02
-9.430320858955383301e-01 1.910132914781570435e-01 1.253184676170349121e-01
-9.350957274436950684e-01 2.073595523834228516e-01 1.317028403282165527e-01
-8.215446472167968750e-01 3.566741943359375000e-04 1.742194220423698425e-02
-8.639804124832153320e-01 2.913257479667663574e-01 3.863368183374404907e-02
-7.102108001708984375e-01 1.198461055755615234e-01 -1.687459349632263184e-01
-7.608562111854553223e-01 2.854928672313690186e-01 -3.887212648987770081e-02
-9.499570727348327637e-01 1.201955899596214294e-01 -1.132640466094017029e-01
-8.936936259269714355e-01 2.683797776699066162e-01 -8.008953928947448730e-02
-9.375761747360229492e-01 6.021267920732498169e-02 -2.001215331256389618e-02
-7.785656452178955078e-01 1.151829957962036133e-02 5.750767886638641357e-02
-9.331985712051391602e-01 6.079757213592529297e-02 -7.121624797582626343e-02
-9.414212107658386230e-01 2.132484316825866699e-01 9.303339570760726929e-02
-8.955981135368347168e-01 2.633599191904067993e-02 6.741410493850708008e-02
-8.933382034301757812e-01 1.111681014299392700e-01 2.311199605464935303e-01
-8.705875873565673828e-01 9.318530559539794922e-03 -4.512813687324523926e-02
-9.377909302711486816e-01 2.120356261730194092e-01 1.129410341382026672e-01
-6.924045681953430176e-01 2.205415666103363037e-01 -1.251488458365201950e-02
-8.707591891288757324e-01 1.631955653429031372e-01 2.645672559738159180e-01
-9.040905833244323730e-01 8.218371123075485229e-02 -1.965417414903640747e-01
-7.906991839408874512e-01 6.185756623744964600e-02 -2.229813784360885620e-01
-8.015418052673339844e-01 1.203716099262237549e-01 -2.731232941150665283e-01
-8.357004523277282715e-01 3.936877101659774780e-02 1.832164824008941650e-01
-7.961560487747192383e-01 2.943078875541687012e-01 -5.491528660058975220e-02
-7.399208545684814453e-01 9.455990791320800781e-02 2.057432830333709717e-01
-9.458239078521728516e-01 1.602880358695983887e-01 -1.342828571796417236e-01
-9.153891205787658691e-01 1.401136219501495361e-01 -2.106772810220718384e-01
-6.947953701019287109e-01 1.739015579223632812e-01 -1.262145340442657471e-01
-9.636050462722778320e-01 1.353313028812408447e-01 -1.811381243169307709e-02
-8.770424127578735352e-01 1.379209756851196289e-01 -2.574601471424102783e-01
-7.618327140808105469e-01 5.098214000463485718e-02 1.707597523927688599e-01
-6.869393587112426758e-01 1.349436640739440918e-01 1.005588546395301819e-01
-8.656064271926879883e-01 1.238418892025947571e-01 2.627878487110137939e-01
-8.454731106758117676e-01 6.789181381464004517e-02 -2.351891994476318359e-01
-8.379670381546020508e-01 9.795342385768890381e-02 -2.638525664806365967e-01
-9.382032155990600586e-01 1.079658716917037964e-01 -1.461782604455947876e-01
-9.199264645576477051e-01 5.259179323911666870e-02 9.296933561563491821e-02
-8.339338898658752441e-01 3.205905109643936157e-02 1.670383512973785400e-01
-7.844080328941345215e-01 2.880445718765258789e-01 1.019926965236663818e-01
-9.315689802169799805e-01 1.602485030889511108e-01 -1.755561381578445435e-01
-8.675803542137145996e-01 3.412245959043502808e-02 1.503709703683853149e-01
-9.575702548027038574e-01 1.477839648723602295e-01 8.532914519309997559e-02
-6.798480749130249023e-01 1.819247901439666748e-01 2.935080230236053467e-02
-9.246831536293029785e-01 2.340169399976730347e-01 1.126759424805641174e-01
-7.163719534873962402e-01 2.557054758071899414e-01 -8.565763011574745178e-03
-8.250835537910461426e-01 5.142360925674438477e-03 6.707230210304260254e-02
-8.615632653236389160e-01 1.698733866214752197e-02 -1.151962950825691223e-01
-6.982081532478332520e-01 2.256847769021987915e-01 -5.001854896545410156e-02
-7.861710190773010254e-01 2.883794903755187988e-01 -7.963050156831741333e-02
-9.498714804649353027e-01 9.182854741811752319e-02 -7.028966397047042847e-02
-7.787714004516601562e-01 1.864079833030700684e-01 -2.562975883483886719e-01
-7.979329228401184082e-01 2.859905958175659180e-01 1.246729865670204163e-01
-9.012284874916076660e-01 2.106458246707916260e-01 -1.959650367498397827e-01
-8.956965804100036621e-01 2.330298125743865967e-01 -1.728213280439376831e-01
-9.111855626106262207e-01 2.493361830711364746e-01 1.146745458245277405e-01
-9.610225558280944824e-01 1.431563645601272583e-01 5.928526446223258972e-02
-7.916368246078491211e-01 2.335803508758544922e-01 2.356079071760177612e-01
-8.243233561515808105e-01 3.952001780271530151e-02 -1.963093429803848267e-01
-6.910055875778198242e-01 1.178362891077995300e-01 1.037967652082443237e-01
-7.236209511756896973e-01 1.175735443830490112e-01 1.981364190578460693e-01
-7.809552550315856934e-01 2.943650484085083008e-01 -2.051372267305850983e-02
-6.967667937278747559e-01 1.342540085315704346e-01 1.410003304481506348e-01
-7.182322740554809570e-01 1.866224706172943115e-01 1.925916075706481934e-01
-7.377359867095947266e-01 2.632614970207214355e-01 1.080478727817535400e-01
-7.762985229492187500e-01 2.396209537982940674e-01 2.185943275690078735e-01
-9.506996870040893555e-01 1.799029856920242310e-01 1.045563966035842896e-01
-6.783335804939270020e-01 1.329451650381088257e-01 -1.452792808413505554e-02
-8.892288208007812500e-01 5.347055941820144653e-02 -1.771908104419708252e-01
-8.188890218734741211e-01 8.047752827405929565e-02 -2.521765828132629395e-01
-8.458396792411804199e-01 2.023898959159851074e-01 2.637480199337005615e-01
-9.067412018775939941e-01 4.192453622817993164e-02 1.003313213586807251e-01
-9.015067815780639648e-01 2.625460177659988403e-02 3.839701041579246521e-02
-8.802978396415710449e-01 1.767814308404922485e-01 -2.472977340221405029e-01
-8.280095458030700684e-01 2.299670726060867310e-01 2.447261810302734375e-01
-7.168182134628295898e-01 6.637882441282272339e-02 -1.119451895356178284e-01
-8.757390379905700684e-01 2.777619063854217529e-01 1.045978590846061707e-01
-8.763200044631958008e-01 2.843576967716217041e-01 -4.042317718267440796e-02
-7.093071341514587402e-01 1.322498768568038940e-01 1.760409176349639893e-01
-9.153102040290832520e-01 9.940183162689208984e-02 -1.937522441148757935e-01
-7.097487449645996094e-01 1.844954788684844971e-01 1.746300756931304932e-01
-7.817373871803283691e-01 1.162374913692474365e-01 2.631170749664306641e-01
-8.023391962051391602e-01 2.675651907920837402e-01 1.825514435768127441e-01
-9.027729034423828125e-01 2.212765663862228394e-01 1.912955641746520996e-01
-9.307797551155090332e-01 6.196834146976470947e-02 7.915758341550827026e-02
-9.115414023399353027e-01 4.129028320312500000e-02 8.148495107889175415e-02
-8.466506600379943848e-01 2.261975407600402832e-01 2.430589348077774048e-01
-7.402915954589843750e-01 4.594808816909790039e-02 -1.271134614944458008e-01
-7.235193848609924316e-01 4.290039837360382080e-02 2.857785299420356750e-02
-7.502767443656921387e-01 2.595060765743255615e-01 -1.299228817224502563e-01
-8.013298511505126953e-01 2.800946682691574097e-02 -1.647213995456695557e-01
-7.310928702354431152e-01 4.878172278404235840e-02 -1.089980751276016235e-01
-8.476913571357727051e-01 2.173662185668945312e-02 1.318224221467971802e-01
-9.366093873977661133e-01 2.309615463018417358e-01 -4.732088372111320496e-02
-9.341873526573181152e-01 2.168965637683868408e-01 -1.070452108979225159e-01
-7.912862300872802734e-01 2.967464625835418701e-01 4.506543651223182678e-02
-8.334417343139648438e-01 2.582262456417083740e-01 -1.838677674531936646e-01
-7.421457171440124512e-01 3.529019653797149658e-02 8.401343226432800293e-02
-7.518277764320373535e-01 2.429752051830291748e-02 5.873702466487884521e-02
2.938932180404663086e-01 9.904315322637557983e-02 -1.092756167054176331e-03
4.115910232067108154e-01 9.489560127258300781e-02 6.235622987151145935e-02
2.459612786769866943e-01 5.583130568265914917e-02 -5.003240704536437988e-02
5.109542012214660645e-01 9.757751226425170898e-02 1.947076059877872467e-02
2.471657991409301758e-01 4.830953106284141541e-02 9.177879244089126587e-02
2.954344451427459717e-01 -2.683995664119720459e-02 -6.358052790164947510e-02
2.809656262397766113e-01 -5.249363929033279419e-02 7.337912917137145996e-02
7.248373627662658691e-01 2.396750822663307190e-02 4.659863561391830444e-02
1.637897342443466187e-01 -3.209710121154785156e-02 6.423196196556091309e-02
2.620785534381866455e-01 -7.744085788726806641e-02 7.850182242691516876e-03
6.753488779067993164e-01 1.684540137648582458e-02 7.402978837490081787e-02
3.899140655994415283e-01 1.020159125328063965e-01 7.157642394304275513e-04
4.533237218856811523e-01 6.622772663831710815e-02 -4.799838364124298096e-02
1.174318194389343262e-01 -4.246412590146064758e-02 5.488672293722629547e-03
6.359425187110900879e-01 7.381312549114227295e-02 3.451130539178848267e-02
3.742036819458007812e-01 8.469730615615844727e-02 7.727351039648056030e-02
6.951669454574584961e-01 -1.729965209960937500e-03 -2.739324048161506653e-02
1.272435486316680908e-01 -4.271141812205314636e-02 3.202563524246215820e-02
7.213793992996215820e-01 3.767026588320732117e-02 3.226814046502113342e-02
6.296739578247070312e-01 -2.981121465563774109e-02 -4.191699624061584473e-02
2.333035767078399658e-01 -6.680707633495330811e-02 4.149738699197769165e-02
3.492953181266784668e-01 1.045672595500946045e-01 3.105216287076473236e-02
7.865074276924133301e-02 9.573458693921566010e-03 4.990861564874649048e-02
3.059953749179840088e-01 9.924153238534927368e-02 4.753411188721656799e-02
5.326532125473022461e-01 2.611373737454414368e-02 1.006739810109138489e-01
5.209451913833618164e-01 5.582576617598533630e-02 -4.846715182065963745e-02
3.691159784793853760e-01 -7.680170238018035889e-02 5.232927948236465454e-02
5.289500355720520020e-01 6.210974417626857758e-03 -6.440849602222442627e-02
5.205308198928833008e-01 8.807056583464145660e-04 1.022729650139808655e-01
6.216282248497009277e-01 -5.407043173909187317e-02 5.883657187223434448e-02
3.912304043769836426e-01 2.792523056268692017e-02 -6.898271292448043823e-02
2.240789234638214111e-01 9.307374805212020874e-02 3.921280056238174438e-02
7.401044368743896484e-01 1.390882674604654312e-02 3.651605546474456787e-02
4.923081398010253906e-01 -6.599389016628265381e-02 -3.972334414720535278e-02
5.798103809356689453e-01 1.674812287092208862e-02 9.578533470630645752e-02
4.350063502788543701e-01 -7.005032896995544434e-02 6.540073454380035400e-02
6.000731587409973145e-01 5.686643719673156738e-02 7.736988365650177002e-02
6.772949695587158203e-01 -5.404448881745338440e-02 2.676520869135856628e-02
3.123656213283538818e-01 -5.589925870299339294e-02 -4.830639809370040894e-02
2.483695745468139648e-01 2.503254637122154236e-02 -6.251052021980285645e-02
2.869800925254821777e-01 7.104117423295974731e-02 8.417146652936935425e-02
4.420927166938781738e-01 -3.710165247321128845e-02 9.398455917835235596e-02
5.934138894081115723e-01 5.475709214806556702e-02 -3.585097938776016235e-02
3.673507273197174072e-01 1.048874333500862122e-01 1.612190902233123779e-02
2.199705243110656738e-01 7.885834574699401855e-02 -2.502501383423805237e-02
6.737291216850280762e-01 -4.235831648111343384e-02 5.276608094573020935e-02
3.496749699115753174e-01 6.837084889411926270e-02 9.071737527847290039e-02
3.278834223747253418e-01 -6.543980538845062256e-02 6.549339741468429565e-02
1.895534396171569824e-01 3.551367297768592834e-02 8.583131432533264160e-02
2.755005955696105957e-01 -2.217900380492210388e-02 -6.323371082544326782e-02
4.663167297840118408e-01 -5.697768554091453552e-02 7.903262972831726074e-02
4.291442930698394775e-01 9.752154350280761719e-02 5.568741634488105774e-02
4.270743429660797119e-01 2.431301027536392212e-02 -6.910907477140426636e-02
1.855477541685104370e-01 -9.742395021021366119e-03 8.239053934812545776e-02
5.335137844085693359e-01 9.381510317325592041e-02 1.110079139471054077e-02
2.623144686222076416e-01 3.741192817687988281e-02 -6.056229025125503540e-02
3.462001383304595947e-01 -1.485422346740961075e-02 1.014696955680847168e-01
3.803292214870452881e-01 -7.068494707345962524e-02 -3.765350580215454102e-02
4.485574066638946533e-01 -8.720339089632034302e-02 1.537755131721496582e-03
7.345819473266601562e-01 -1.703178510069847107e-02 2.171569503843784332e-03
2.147775143384933472e-01 6.079373136162757874e-02 -4.200804978609085083e-02
4.953228533267974854e-01 -8.208073675632476807e-02 3.814013302326202393e-02
5.156987905502319336e-01 2.804731950163841248e-02 1.019970029592514038e-01
