7.048292756080627441e-01 8.977420628070831299e-03 -5.350641161203384399e-02
8.703705072402954102e-01 -5.549894273281097412e-02 8.752739429473876953e-02
9.053807258605957031e-01 -1.547089219093322754e-01 -4.484259057790040970e-03
9.619237780570983887e-01 -3.305713832378387451e-02 -2.039482817053794861e-02
7.890759110450744629e-01 -1.319960057735443115e-01 -6.827089935541152954e-02
8.153116703033447266e-01 -1.589260846376419067e-01 -4.144400730729103088e-02
8.043462634086608887e-01 -1.140337586402893066e-01 -7.880971580743789673e-02
7.162110805511474609e-01 -2.899270132184028625e-02 -7.458356022834777832e-02
9.567696452140808105e-01 -1.214778572320938110e-01 -2.998649142682552338e-04
8.380337357521057129e-01 4.209171980619430542e-02 3.976255282759666443e-02
9.024080634117126465e-01 -2.571579068899154663e-03 6.232586130499839783e-02
7.362840175628662109e-01 4.244691878557205200e-02 3.895721212029457092e-02
8.193860054016113281e-01 -1.429497301578521729e-01 -6.050733476877212524e-02
9.229650497436523438e-01 -2.339864149689674377e-02 6.281271576881408691e-02
9.268121719360351562e-01 -7.957023382186889648e-02 6.674697995185852051e-02
6.613944768905639648e-01 -1.162473112344741821e-01 6.493687629699707031e-03
7.612224817276000977e-01 -2.378204464912414551e-02 8.880671113729476929e-02
8.299538493156433105e-01 1.476614922285079956e-02 -5.983296781778335571e-02
7.473310232162475586e-01 4.932241886854171753e-02 -1.219580788165330887e-02
9.268934726715087891e-01 -1.437451541423797607e-01 9.852432645857334137e-03
9.637192487716674805e-01 -3.249654918909072876e-02 2.866720594465732574e-02
9.733871221542358398e-01 -9.080752730369567871e-02 -9.866553358733654022e-03
9.167501926422119141e-01 -1.496851295232772827e-01 -5.443480797111988068e-03
8.957172036170959473e-01 2.895251661539077759e-02 2.368441782891750336e-02
9.456059932708740234e-01 -1.214299947023391724e-01 3.040921501815319061e-02
6.491751074790954590e-01 -5.197435989975929260e-02 4.735325649380683899e-02
7.589503526687622070e-01 -1.258273422718048096e-01 6.573678553104400635e-02
6.896817088127136230e-01 -1.340415179729461670e-01 1.620360650122165680e-02
9.344502091407775879e-01 -1.259640157222747803e-01 3.652120381593704224e-02
8.617658019065856934e-01 -7.627017796039581299e-02 -8.231998980045318604e-02
7.042140960693359375e-01 -2.538459375500679016e-02 -7.009136676788330078e-02
7.227734327316284180e-01 -6.917371600866317749e-02 -7.941462099552154541e-02
8.543274998664855957e-01 1.393278688192367554e-02 6.872240453958511353e-02
6.667518615722656250e-01 -8.032416552305221558e-02 5.318120494484901428e-02
6.379524469375610352e-01 -7.411395013332366943e-02 2.699463628232479095e-02
8.318923115730285645e-01 -3.624394536018371582e-02 9.189023822546005249e-02
7.654645442962646484e-01 -2.099563926458358765e-02 -8.066736161708831787e-02
7.017858624458312988e-01 -1.314632892608642578e-01 3.509866818785667419e-02
6.631422042846679688e-01 -1.007160171866416931e-02 5.046315491199493408e-02
6.344563961029052734e-01 -3.995731472969055176e-02 3.109225630760192871e-02
9.074798226356506348e-01 -7.788447290658950806e-02 7.534430921077728271e-02
6.351392269134521484e-01 -1.021120324730873108e-02 -5.490133538842201233e-03
7.625668644905090332e-01 5.292488634586334229e-02 -2.796434331685304642e-03
9.309970140457153320e-01 -5.037802830338478088e-02 -5.621718987822532654e-02
9.704147577285766602e-01 -9.512276947498321533e-02 2.023131772875785828e-02
8.463352322578430176e-01 1.361581683158874512e-02 -5.732982233166694641e-02
7.522666454315185547e-01 4.428953677415847778e-02 -2.684797346591949463e-02
8.156067728996276855e-01 5.267200618982315063e-02 6.872745230793952942e-03
9.383264780044555664e-01 -4.768742620944976807e-02 6.089504435658454895e-02
8.071506619453430176e-01 -9.858363866806030273e-02 -8.412875980138778687e-02
7.555990815162658691e-01 4.544962942600250244e-02 3.958974778652191162e-02
7.878785133361816406e-01 -2.334624528884887695e-02 9.086133539676666260e-02
7.444411516189575195e-01 -1.570295691490173340e-01 -2.236866019666194916e-02
7.087081074714660645e-01 -1.456753015518188477e-01 -1.508428901433944702e-02
7.694512009620666504e-01 4.342032223939895630e-02 4.584619030356407166e-02
8.845126032829284668e-01 -1.610702872276306152e-01 7.568392436951398849e-03
6.796188354492187500e-01 -1.069890707731246948e-01 4.559635370969772339e-02
7.895101904869079590e-01 -6.592120230197906494e-02 -8.850713074207305908e-02
6.502792835235595703e-01 -1.050342172384262085e-01 -1.090356055647134781e-02
7.429242134094238281e-01 -1.670922711491584778e-02 8.438343554735183716e-02
8.942360877990722656e-01 -1.570734679698944092e-01 -1.569558307528495789e-02
6.747538447380065918e-01 2.350093424320220947e-02 -1.702791079878807068e-02
7.287369966506958008e-01 4.747226089239120483e-02 -5.954116582870483398e-03
9.745758175849914551e-01 -4.923100769519805908e-02 1.711481809616088867e-02
7.515946030616760254e-01 -7.078345865011215210e-02 -8.503169566392898560e-02
6.972542405128479004e-01 -1.355003416538238525e-01 -2.846794202923774719e-02
8.345274925231933594e-01 4.878594726324081421e-02 -4.286490380764007568e-03
8.851112723350524902e-01 -7.445190846920013428e-02 -7.688866555690765381e-02
8.450821042060852051e-01 -6.995602697134017944e-02 9.067805856466293335e-02
9.061045050621032715e-01 -4.863609373569488525e-02 7.698038965463638306e-02
7.042394876480102539e-01 2.165554463863372803e-02 -4.192354902625083923e-02
8.334910869598388672e-01 -7.249150425195693970e-03 8.433709293603897095e-02
8.536209464073181152e-01 -8.902776241302490234e-02 -8.224686235189437866e-02
8.179327249526977539e-01 -1.200359612703323364e-01 7.556577026844024658e-02
7.307643294334411621e-01 -8.405054360628128052e-02 8.013107627630233765e-02
7.974674701690673828e-01 -1.294260025024414062e-01 6.875699013471603394e-02
7.678094506263732910e-01 -1.647960245609283447e-01 -1.024237927049398422e-02
9.331386685371398926e-01 -1.093097031116485596e-01 5.173124745488166809e-02
6.968245506286621094e-01 -6.521706283092498779e-02 7.354259490966796875e-02
8.220639228820800781e-01 -4.912499338388442993e-03 8.458166569471359253e-02
8.699475526809692383e-01 -1.641160249710083008e-01 9.821465238928794861e-03
7.376375794410705566e-01 -9.130143374204635620e-02 -7.903791218996047974e-02
-7.285251617431640625e-01 2.589157223701477051e-01 1.758051216602325439e-01
-6.860994696617126465e-01 2.976804375648498535e-01 1.342768073081970215e-01
-5.147101283073425293e-01 7.445558160543441772e-02 4.988322965800762177e-03
-7.623552083969116211e-01 2.779763936996459961e-01 9.448164701461791992e-02
-6.703404188156127930e-01 9.383682906627655029e-02 -7.644791156053543091e-02
-7.017225623130798340e-01 3.204596042633056641e-01 -4.255542159080505371e-02
-7.236114144325256348e-01 1.440534293651580811e-01 6.389665603637695312e-02
-7.328724861145019531e-01 1.759632825851440430e-01 -8.371141552925109863e-02
-5.839758515357971191e-01 9.168049693107604980e-02 -1.866022944450378418e-01
-7.518924474716186523e-01 2.426129281520843506e-01 1.395517140626907349e-01
-6.500922441482543945e-01 2.950474619865417480e-01 9.427043795585632324e-02
-7.394710183143615723e-01 3.084551692008972168e-01 9.393583983182907104e-02
-6.181141734123229980e-01 2.849349677562713623e-01 -5.061974376440048218e-02
-7.401293516159057617e-01 2.547623813152313232e-01 -1.197165697813034058e-01
-6.530198454856872559e-01 7.367309182882308960e-02 4.279520362615585327e-02
-5.975839495658874512e-01 4.402269423007965088e-02 -1.388906314969062805e-02
-5.271589159965515137e-01 1.605800688266754150e-01 4.733336344361305237e-02
-7.173768877983093262e-01 3.246919214725494385e-01 1.772577688097953796e-02
-7.631663680076599121e-01 2.929862737655639648e-01 -5.730121396481990814e-03
-5.877944827079772949e-01 1.050744131207466125e-01 1.707178503274917603e-01
-6.458739042282104492e-01 6.874534487724304199e-02 -3.700758889317512512e-02
-7.022293806076049805e-01 1.161305904388427734e-01 4.312252625823020935e-02
-5.390691757202148438e-01 1.933089196681976318e-01 2.560731023550033569e-02
-6.417701244354248047e-01 6.557838618755340576e-02 3.179819509387016296e-02
-6.916626095771789551e-01 1.129669696092605591e-01 -6.844259053468704224e-02
-6.817384958267211914e-01 3.063822984695434570e-01 1.056548431515693665e-01
-6.567883491516113281e-01 8.017975836992263794e-02 -6.415780633687973022e-02
-7.684994935989379883e-01 2.635839283466339111e-01 -1.439418364316225052e-02
-5.570703148841857910e-01 5.227079987525939941e-02 6.567212939262390137e-02
-5.088108181953430176e-01 9.634549170732498169e-02 -6.269294023513793945e-02
-7.655230760574340820e-01 2.253612130880355835e-01 7.388334721326828003e-03
-5.135143399238586426e-01 1.227084845304489136e-01 2.417922206223011017e-02
-7.444179654121398926e-01 2.667756080627441406e-01 1.499189585447311401e-01
-7.220957279205322266e-01 1.725516915321350098e-01 -1.144871339201927185e-01
-6.357291936874389648e-01 9.190028905868530273e-02 -1.516264379024505615e-01
-6.213703751564025879e-01 1.867911666631698608e-01 2.101230472326278687e-01
-6.374640464782714844e-01 7.665298879146575928e-02 -1.085721552371978760e-01
-6.763827800750732422e-01 1.060674339532852173e-01 -1.009179279208183289e-01
-6.154443621635437012e-01 1.298484206199645996e-01 -2.149226367473602295e-01
-7.123027443885803223e-01 1.271334290504455566e-01 3.723219409584999084e-02
-7.209425568580627441e-01 1.401366144418716431e-01 -2.269478887319564819e-02
-6.085156202316284180e-01 2.764816880226135254e-01 -6.131463125348091125e-02
-5.906668305397033691e-01 5.699190497398376465e-02 9.036657214164733887e-02
-5.445019602775573730e-01 1.662213355302810669e-01 1.062769442796707153e-01
-6.811779737472534180e-01 3.133046030998229980e-01 -6.692000478506088257e-02
-7.024677395820617676e-01 1.219802945852279663e-01 8.343891799449920654e-02
-5.137773752212524414e-01 8.511070907115936279e-02 -8.780846744775772095e-02
-5.262767672538757324e-01 5.374442040920257568e-02 -1.259131357073783875e-02
-5.171561241149902344e-01 6.705985218286514282e-02 -6.199472025036811829e-02
-5.754643678665161133e-01 2.328104674816131592e-01 7.962439209222793579e-02
-7.364476919174194336e-01 1.783844530582427979e-01 1.184978112578392029e-01
-5.550629496574401855e-01 1.894538253545761108e-01 -1.577233821153640747e-01
-6.177700161933898926e-01 5.315607786178588867e-02 -4.150527715682983398e-02
-5.871739983558654785e-01 1.866803914308547974e-01 1.757046729326248169e-01
-6.001555323600769043e-01 2.351319938898086548e-01 1.420036107301712036e-01
-5.081322789192199707e-01 1.134816035628318787e-01 -2.668997086584568024e-02
-7.615101337432861328e-01 2.378497719764709473e-01 -4.909734055399894714e-02
-7.191356420516967773e-01 2.369477599859237671e-01 -1.598564535379409790e-01
-6.203962564468383789e-01 2.842953503131866455e-01 -6.904330849647521973e-02
-7.229011058807373047e-01 2.869901657104492188e-01 -1.216846182942390442e-01
-6.401129961013793945e-01 2.855181097984313965e-01 1.058603823184967041e-01
-6.267879605293273926e-01 2.398121953010559082e-01 -1.924284845590591431e-01
-5.340715646743774414e-01 5.064664781093597412e-02 1.301897224038839340e-02
-6.179623007774353027e-01 1.610753238201141357e-01 2.103879898786544800e-01
-7.707790136337280273e-01 2.554564476013183594e-01 1.810412667691707611e-02
-7.231414914131164551e-01 2.166315764188766479e-01 1.868244707584381104e-01
-6.161600947380065918e-01 5.306892096996307373e-02 3.610698878765106201e-02
-6.774316430091857910e-01 3.188167214393615723e-01 7.929272949695587158e-03
-6.121095418930053711e-01 6.123104691505432129e-02 8.899433165788650513e-02
-6.382099986076354980e-01 1.059196516871452332e-01 1.703040748834609985e-01
-5.540394186973571777e-01 1.775992959737777710e-01 1.197911649942398071e-01
-5.101387500762939453e-01 9.298169612884521484e-02 3.258069744333624840e-03
-7.242703437805175781e-01 2.083417326211929321e-01 -1.450865268707275391e-01
-7.334832549095153809e-01 2.154194712638854980e-01 1.700035184621810913e-01
-6.738824844360351562e-01 2.157815396785736084e-01 -2.079224437475204468e-01
-6.762152314186096191e-01 3.083617389202117920e-01 9.091899544000625610e-02
-7.171414494514465332e-01 2.743303179740905762e-01 -1.427332162857055664e-01
-5.293738245964050293e-01 1.056583300232887268e-01 9.074062108993530273e-02
-7.285544276237487793e-01 1.879851967096328735e-01 -1.173340827226638794e-01
-5.847601890563964844e-01 2.372331321239471436e-01 9.945078194141387939e-02
-5.905315279960632324e-01 1.983991563320159912e-01 -2.043610662221908569e-01
-7.493618130683898926e-01 2.091952860355377197e-01 1.235125437378883362e-01
-7.491158246994018555e-01 2.269185781478881836e-01 1.409541666507720947e-01
-7.338175773620605469e-01 2.865254282951354980e-01 1.454099565744400024e-01
-5.716734528541564941e-01 2.049106508493423462e-01 1.279778033494949341e-01
-5.337660908699035645e-01 1.635960042476654053e-01 -1.337981522083282471e-01
-6.633397340774536133e-01 9.751136600971221924e-02 1.222126111388206482e-01
-6.918915510177612305e-01 1.565083265304565430e-01 1.849637180566787720e-01
-7.390476465225219727e-01 1.944874376058578491e-01 1.379925161600112915e-01
-6.518802046775817871e-01 1.114320531487464905e-01 -1.645714193582534790e-01
-5.206533670425415039e-01 5.924808979034423828e-02 -3.844639286398887634e-02
-7.211126089096069336e-01 3.223504424095153809e-01 -2.127137593924999237e-02
-5.654731392860412598e-01 2.165475487709045410e-01 8.729059994220733643e-02
-6.345441341400146484e-01 1.364356428384780884e-01 -2.105473875999450684e-01
-6.582959294319152832e-01 7.883226871490478516e-02 -4.762566462159156799e-02
-6.547798514366149902e-01 2.893957793712615967e-01 -1.249097287654876709e-01
-5.306128263473510742e-01 1.766213923692703247e-01 2.626664191484451294e-02
-5.337245464324951172e-01 1.145225614309310913e-01 1.034333333373069763e-01
-5.705229043960571289e-01 5.366934835910797119e-02 -1.155843436717987061e-01
-5.964902043342590332e-01 4.843865334987640381e-02 -7.150971144437789917e-02
-7.518938779830932617e-01 2.252599298954010010e-01 -8.100946247577667236e-02
-5.886548161506652832e-01 2.068807035684585571e-01 1.602152734994888306e-01
-5.247539281845092773e-01 1.721156239509582520e-01 -2.694795280694961548e-02
-5.919969081878662109e-01 1.466446816921234131e-01 1.921692788600921631e-01
-5.097234249114990234e-01 1.205629706382751465e-01 -6.217925995588302612e-02
-5.639991760253906250e-01 1.515060663223266602e-01 1.580229550600051880e-01
-6.013264656066894531e-01 2.719492018222808838e-01 1.705252565443515778e-02
-6.712127327919006348e-01 9.921775758266448975e-02 1.089060753583908081e-01
-6.676867008209228516e-01 1.344196796417236328e-01 1.858261078596115112e-01
-7.323367595672607422e-01 2.753026783466339111e-01 1.597491800785064697e-01
-5.326502323150634766e-01 1.877305507659912109e-01 -4.310588166117668152e-02
-5.358850955963134766e-01 1.451309323310852051e-01 1.000155955553054810e-01
-6.147508621215820312e-01 2.660323977470397949e-01 -1.287552714347839355e-01
-6.713964939117431641e-01 3.030152022838592529e-01 -9.958212822675704956e-02
-6.953346133232116699e-01 1.853405684232711792e-01 -1.815980076789855957e-01
-5.237177610397338867e-01 1.194208413362503052e-01 -1.378547847270965576e-01
-5.732785463333129883e-01 4.710982739925384521e-02 5.594813451170921326e-02
-6.936154365539550781e-01 3.172701001167297363e-01 -5.742638558149337769e-02
-6.864022016525268555e-01 1.926895231008529663e-01 -1.959954500198364258e-01
-7.508102655410766602e-01 2.057321518659591675e-01 -6.153984740376472473e-02
-6.513775587081909180e-01 3.028073310852050781e-01 -6.664447486400604248e-02
-5.906228423118591309e-01 4.369574785232543945e-02 -4.707538336515426636e-02
-7.107583284378051758e-01 1.350931227207183838e-01 -6.609980762004852295e-02
-7.025823593139648438e-01 1.615101099014282227e-01 -1.477035880088806152e-01
-6.907186508178710938e-01 2.521439790725708008e-01 1.994642615318298340e-01
-5.115156173706054688e-01 1.331938654184341431e-01 -5.118375644087791443e-02
-7.035357356071472168e-01 1.499104499816894531e-01 -1.280847787857055664e-01
-5.837011337280273438e-01 2.096715569496154785e-01 -1.846130639314651489e-01
-7.597113251686096191e-01 2.998190522193908691e-01 5.523445457220077515e-02
-7.103235125541687012e-01 1.839072555303573608e-01 -1.557262390851974487e-01
-6.939325332641601562e-01 1.296225190162658691e-01 1.376210302114486694e-01
-7.041820287704467773e-01 3.039468824863433838e-01 1.264480203390121460e-01
-6.452343463897705078e-01 6.655991822481155396e-02 4.175211302936077118e-03
-5.240737199783325195e-01 9.689481556415557861e-02 7.215212285518646240e-02
-6.498981118202209473e-01 2.076665014028549194e-01 -2.195086926221847534e-01
-6.867488026618957520e-01 3.203886747360229492e-01 -2.379448153078556061e-02
-7.164596319198608398e-01 2.552554607391357422e-01 -1.576443612575531006e-01
-5.724601149559020996e-01 6.722224503755569458e-02 -1.491627544164657593e-01
-6.063826084136962891e-01 2.690925002098083496e-01 -9.497475624084472656e-02
-7.441511750221252441e-01 1.955519020557403564e-01 -7.440184056758880615e-02
-5.463427305221557617e-01 1.566199064254760742e-01 -1.738393753767013550e-01
-5.735828876495361328e-01 1.485807299613952637e-01 1.725894063711166382e-01
-7.402296662330627441e-01 1.781393438577651978e-01 1.009011641144752502e-01
-5.649681091308593750e-01 9.262293577194213867e-02 1.427407413721084595e-01
-5.649781823158264160e-01 3.991636633872985840e-02 -4.268699139356613159e-02
-7.513826489448547363e-01 1.989780366420745850e-01 -4.425156861543655396e-02
-7.339733839035034180e-01 1.596878468990325928e-01 -2.435537055134773254e-02
-5.855678915977478027e-01 2.233674228191375732e-01 -1.676377654075622559e-01
-7.148514986038208008e-01 1.318944990634918213e-01 5.660530924797058105e-02
-5.362205505371093750e-01 1.915755271911621094e-01 7.381309755146503448e-03
-7.616723775863647461e-01 2.926398813724517822e-01 7.027132064104080200e-02
-6.482990980148315430e-01 8.863322436809539795e-02 1.247395351529121399e-01
-7.065392732620239258e-01 2.960857152938842773e-01 1.440910547971725464e-01
-5.637034773826599121e-01 1.494731307029724121e-01 -2.025716602802276611e-01
-6.642575860023498535e-01 8.464284986257553101e-02 6.669271737337112427e-02
-6.781641244888305664e-01 2.725829482078552246e-01 -1.663790345191955566e-01
-5.419366955757141113e-01 1.992680728435516357e-01 -7.920028269290924072e-02
-5.727469921112060547e-01 1.952594816684722900e-01 -1.850512176752090454e-01
-5.922682285308837891e-01 1.538658589124679565e-01 -2.223304957151412964e-01
-5.211305022239685059e-01 1.558780074119567871e-01 1.844388805329799652e-02
-7.113550901412963867e-01 1.995496004819869995e-01 -1.645070910453796387e-01
-5.370000004768371582e-01 1.284703612327575684e-01 1.105204448103904724e-01
-5.898248553276062012e-01 4.980775713920593262e-02 -8.921677619218826294e-02
-5.858371257781982422e-01 2.165341675281524658e-01 1.425512135028839111e-01
-6.363068222999572754e-01 2.990730702877044678e-01 -1.943011768162250519e-02
-6.192859411239624023e-01 2.744680047035217285e-01 -1.118844449520111084e-01
-5.519943237304687500e-01 2.181627750396728516e-01 -5.999799817800521851e-03
-5.984867215156555176e-01 6.713344156742095947e-02 -1.383112818002700806e-01
-7.144081592559814453e-01 1.466629952192306519e-01 -8.696092665195465088e-02
-5.353981852531433105e-01 1.739698797464370728e-01 6.153975799679756165e-02
-6.126546859741210938e-01 2.794271409511566162e-01 3.830451518297195435e-02
-5.449751615524291992e-01 2.086229324340820312e-01 -2.939811535179615021e-02
-7.083389759063720703e-01 2.699563801288604736e-01 -1.553235352039337158e-01
-6.726288199424743652e-01 1.241738647222518921e-01 1.655292063951492310e-01
-5.585050582885742188e-01 2.237261235713958740e-01 2.477763034403324127e-02
-5.776717066764831543e-01 4.085527360439300537e-02 1.200692076236009598e-02
-6.955612301826477051e-01 1.435631066560745239e-01 1.616710722446441650e-01
-5.649992823600769043e-01 2.358035296201705933e-01 -2.763637155294418335e-02
-7.618055343627929688e-01 2.595296502113342285e-01 1.085097640752792358e-01
-6.151253581047058105e-01 6.309581547975540161e-02 -1.054735332727432251e-01
-6.301820874214172363e-01 2.916983962059020996e-01 4.616317898035049438e-02
-5.275116562843322754e-01 7.628185302019119263e-02 6.285002082586288452e-02
-7.408488988876342773e-01 1.674979329109191895e-01 6.133317947387695312e-03
-6.964853405952453613e-01 1.215782612562179565e-01 -8.100001513957977295e-02
-7.015401124954223633e-01 1.192803308367729187e-01 -4.505666717886924744e-02
-5.918354392051696777e-01 2.638184726238250732e-01 -4.295454546809196472e-02
-7.397827506065368652e-01 2.087128907442092896e-01 -1.069832295179367065e-01
-5.123261213302612305e-01 1.258552372455596924e-01 -8.127418160438537598e-02
-5.399898886680603027e-01 4.458695650100708008e-02 -4.015609622001647949e-02
-6.455629467964172363e-01 2.264673262834548950e-01 -2.111184746026992798e-01
-6.314322352409362793e-01 1.228691786527633667e-01 1.933441758155822754e-01
-7.139076590538024902e-01 1.525639742612838745e-01 -1.030275076627731323e-01
-6.450150012969970703e-01 2.719886898994445801e-01 1.483304947614669800e-01
-6.290251016616821289e-01 2.486869394779205322e-01 1.673361957073211670e-01
-7.309159636497497559e-01 1.589326709508895874e-01 8.747029304504394531e-02
-5.865502953529357910e-01 1.676044762134552002e-01 -2.176674455404281616e-01
-7.334080934524536133e-01 2.145078480243682861e-01 -1.283368617296218872e-01
-6.607810854911804199e-01 2.835907936096191406e-01 1.436218917369842529e-01
-6.509073972702026367e-01 2.859477400779724121e-01 1.246820464730262756e-01
-5.890668630599975586e-01 2.615354657173156738e-01 3.816166426986455917e-04
-6.643380522727966309e-01 1.016807258129119873e-01 -1.210632771253585815e-01
-6.509791016578674316e-01 1.748752593994140625e-01 -2.196568995714187622e-01
-6.969623565673828125e-01 2.765857875347137451e-01 1.749827861785888672e-01
-5.398305654525756836e-01 4.462805390357971191e-02 -1.220028940588235855e-02
-6.245952248573303223e-01 6.926871091127395630e-02 1.014276221394538879e-01
-7.347541451454162598e-01 1.586207300424575806e-01 -7.439597509801387787e-03
-5.505722761154174805e-01 2.104098796844482422e-01 3.457836434245109558e-02
-5.618520379066467285e-01 1.354074180126190186e-01 1.573347300291061401e-01
-6.881700158119201660e-01 1.029075756669044495e-01 -2.999412082135677338e-02
-5.233464837074279785e-01 6.712457537651062012e-02 -9.371387213468551636e-02
-6.403968930244445801e-01 9.403003007173538208e-02 1.476636081933975220e-01
-5.343552827835083008e-01 1.854359358549118042e-01 -8.306993544101715088e-02
-5.451163649559020996e-01 1.481690853834152222e-01 1.224321350455284119e-01
-6.239188909530639648e-01 2.192024588584899902e-01 -2.110426127910614014e-01
-7.542735338211059570e-01 2.957221865653991699e-01 -4.503953829407691956e-02
-5.441567301750183105e-01 9.325028210878372192e-02 -1.677727848291397095e-01
-5.288822054862976074e-01 1.791245639324188232e-01 -5.946138873696327209e-02
-5.196990966796875000e-01 1.564454734325408936e-01 -6.975514441728591919e-02
-7.587618827819824219e-01 2.056596577167510986e-01 -1.055249944329261780e-03
-5.301687121391296387e-01 1.258767396211624146e-01 9.281431883573532104e-02
-6.296542882919311523e-01 2.838224768638610840e-01 8.555316925048828125e-02
-7.007874250411987305e-01 1.255279332399368286e-01 1.055689305067062378e-01
-5.149394869804382324e-01 1.468043774366378784e-01 -3.628766164183616638e-02
-6.119830608367919922e-01 2.571142911911010742e-01 -1.467342227697372437e-01
-5.683016777038574219e-01 2.286913841962814331e-01 -1.084384173154830933e-01
-5.502520203590393066e-01 5.489405989646911621e-02 -1.122641488909721375e-01
-7.280181050300598145e-01 2.503861188888549805e-01 -1.434022635221481323e-01
-6.302255988121032715e-01 1.995269060134887695e-01 2.114077210426330566e-01
-6.034502983093261719e-01 2.027154266834259033e-01 -2.118224650621414185e-01
-6.920824050903320312e-01 1.044896319508552551e-01 8.200067095458507538e-03
-5.637172460556030273e-01 1.887480169534683228e-01 1.307027488946914673e-01
-6.337948441505432129e-01 8.434742689132690430e-02 1.330328732728958130e-01
-7.022714614868164062e-01 1.377004384994506836e-01 -1.068041473627090454e-01
-5.785813927650451660e-01 2.448729276657104492e-01 4.706308990716934204e-02
-6.136776208877563477e-01 9.905757755041122437e-02 1.698557436466217041e-01
-6.105861663818359375e-01 2.352698743343353271e-01 -1.844058632850646973e-01
-7.577081918716430664e-01 2.488927245140075684e-01 -7.102319598197937012e-02
-6.063570380210876465e-01 2.165289670228958130e-01 1.770724952220916748e-01
-7.663577198982238770e-01 2.897120118141174316e-01 2.711940184235572815e-02
-6.033000349998474121e-01 4.664562642574310303e-02 1.597707159817218781e-02
-5.461390614509582520e-01 1.970059871673583984e-01 -1.129334717988967896e-01
-7.691123485565185547e-01 2.392477244138717651e-01 3.048726543784141541e-02
-5.082170963287353516e-01 1.135962232947349548e-01 -4.786660522222518921e-02
-6.373472213745117188e-01 1.047963201999664307e-01 -1.728063076734542847e-01
-6.812004446983337402e-01 1.030904054641723633e-01 -7.239802926778793335e-02
-6.189084053039550781e-01 1.150797381997108459e-01 1.874037981033325195e-01
-7.202078104019165039e-01 1.907429695129394531e-01 -1.411476731300354004e-01
-6.596512794494628906e-01 2.399701178073883057e-01 -2.014543414115905762e-01
-6.478676795959472656e-01 1.159698367118835449e-01 1.782228648662567139e-01
-7.496765851974487305e-01 1.851851642131805420e-01 -5.283914040774106979e-03
-6.654151082038879395e-01 2.461326122283935547e-01 2.001211047172546387e-01
-7.585232853889465332e-01 2.448051869869232178e-01 1.197777912020683289e-01
-5.934333205223083496e-01 2.493793964385986328e-01 9.290558844804763794e-02
-5.627836585044860840e-01 8.257140964269638062e-02 1.299017518758773804e-01
-6.922609210014343262e-01 3.083320260047912598e-01 -9.358469396829605103e-02
-6.139445304870605469e-01 2.392559647560119629e-01 1.597748100757598877e-01
-7.547405362129211426e-01 2.012114226818084717e-01 -2.640254050493240356e-02
-6.654946208000183105e-01 3.118296265602111816e-01 -4.501470550894737244e-02
-6.421537399291992188e-01 2.997443079948425293e-01 -5.508261173963546753e-02
-6.945525407791137695e-01 2.090547680854797363e-01 -1.907395571470260620e-01
-5.799876451492309570e-01 2.271655052900314331e-01 -1.489922404289245605e-01
-5.279725790023803711e-01 1.088062003254890442e-01 -1.487699747085571289e-01
-5.454307198524475098e-01 1.836922019720077515e-01 8.446715772151947021e-02
-7.502557039260864258e-01 2.531806826591491699e-01 -9.539271146059036255e-02
-5.765445232391357422e-01 2.490994930267333984e-01 -1.886003464460372925e-02
-6.472280025482177734e-01 1.566008180379867554e-01 2.139870375394821167e-01
-7.555458545684814453e-01 3.072522878646850586e-01 3.790732473134994507e-02
-6.365395188331604004e-01 2.352507561445236206e-01 1.918208301067352295e-01
-5.996916294097900391e-01 2.411268353462219238e-01 -1.599120795726776123e-01
-7.675656080245971680e-01 2.410158514976501465e-01 6.762851774692535400e-02
-7.387114763259887695e-01 3.167719841003417969e-01 5.931353196501731873e-02
-7.641548514366149902e-01 2.664617896080017090e-01 -4.129102453589439392e-02
-7.346961498260498047e-01 2.977712154388427734e-01 1.263444125652313232e-01
-6.498245596885681152e-01 3.069677054882049561e-01 2.733587054535746574e-03
-7.048282027244567871e-01 2.150972187519073486e-01 -1.792266219854354858e-01
-7.185211181640625000e-01 1.871126890182495117e-01 1.764307469129562378e-01
-5.221994519233703613e-01 8.665813505649566650e-02 -1.219052448868751526e-01
-5.365611314773559570e-01 1.777008771896362305e-01 -1.190656945109367371e-01
-6.227322220802307129e-01 1.185408979654312134e-01 -2.024629712104797363e-01
-5.945266485214233398e-01 1.877480745315551758e-01 -2.149440497159957886e-01
-5.111047625541687012e-01 1.298883408308029175e-01 -1.303780917078256607e-02
-7.331758737564086914e-01 1.838561296463012695e-01 -9.706958383321762085e-02
-6.619913578033447266e-01 8.958923071622848511e-02 9.886793792247772217e-02
-6.577676534652709961e-01 1.027511656284332275e-01 -1.379079371690750122e-01
-6.913003921508789062e-01 1.886390447616577148e-01 2.091956138610839844e-01
-5.311499834060668945e-01 1.487666666507720947e-01 8.163133263587951660e-02
-6.080917119979858398e-01 2.544148862361907959e-01 1.198390498757362366e-01
-7.630311250686645508e-01 2.536145448684692383e-01 -4.883889108896255493e-02
-6.393108963966369629e-01 2.621715068817138672e-01 -1.694146990776062012e-01
-6.308764815330505371e-01 1.892928034067153931e-01 -2.260612994432449341e-01
-5.822336673736572266e-01 6.283639371395111084e-02 -1.376424133777618408e-01
-6.959583759307861328e-01 1.467700451612472534e-01 -1.410807967185974121e-01
-7.527776956558227539e-01 2.855598628520965576e-01 1.153863668441772461e-01
-5.832414627075195312e-01 9.190010279417037964e-02 1.555002927780151367e-01
-6.931717991828918457e-01 3.228682875633239746e-01 1.586170494556427002e-02
-6.544687151908874512e-01 3.013413250446319580e-01 -8.212036639451980591e-02
-5.525668263435363770e-01 9.936347603797912598e-02 -1.810411214828491211e-01
-6.071464419364929199e-01 1.836533099412918091e-01 2.001722604036331177e-01
-6.587558984756469727e-01 1.942609399557113647e-01 -2.180993854999542236e-01
-5.944851636886596680e-01 1.162553504109382629e-01 1.825546324253082275e-01
-6.688278317451477051e-01 1.952099055051803589e-01 2.205392718315124512e-01
-5.354655981063842773e-01 7.337409257888793945e-02 7.810923457145690918e-02
-5.893702507019042969e-01 1.097516864538192749e-01 -2.043263614177703857e-01
-6.115689277648925781e-01 6.828512996435165405e-02 -1.275842934846878052e-01
-7.042806148529052734e-01 1.452254354953765869e-01 1.467216610908508301e-01
-7.156889438629150391e-01 2.637248337268829346e-01 1.829358041286468506e-01
-5.226467847824096680e-01 1.662031710147857666e-01 -5.523354187607765198e-02
-5.269027948379516602e-01 1.531938910484313965e-01 -1.228530555963516235e-01
-7.488875389099121094e-01 1.837565153837203979e-01 5.753979086875915527e-02
-5.632399320602416992e-01 2.231710106134414673e-01 5.780604854226112366e-02
-5.688167810440063477e-01 2.391371428966522217e-01 6.334856152534484863e-03
-6.183968782424926758e-01 2.082982212305068970e-01 1.976826936006546021e-01
-6.056679487228393555e-01 8.127416670322418213e-02 1.439205557107925415e-01
-7.577486634254455566e-01 2.013772577047348022e-01 4.254263639450073242e-02
-6.054673194885253906e-01 5.565626919269561768e-02 -9.244877845048904419e-02
-6.898583769798278809e-01 1.025676056742668152e-01 2.692092768847942352e-02
-7.218403816223144531e-01 1.501310169696807861e-01 -6.443979591131210327e-02
-7.614755630493164062e-01 2.210427969694137573e-01 -2.579357661306858063e-02
-6.160023808479309082e-01 2.789862155914306641e-01 5.883800983428955078e-02
-7.132028341293334961e-01 1.759302020072937012e-01 -1.418541222810745239e-01
-7.343910336494445801e-01 3.121413588523864746e-01 -5.233372747898101807e-02
-6.428003907203674316e-01 8.491964638233184814e-02 -1.228335797786712646e-01
-6.712480187416076660e-01 2.958535552024841309e-01 1.258032768964767456e-01
-6.371433734893798828e-01 1.161193177103996277e-01 -1.887791156768798828e-01
-6.615079641342163086e-01 2.607316374778747559e-01 1.824766248464584351e-01
-6.834908723831176758e-01 3.192605972290039062e-01 3.810387849807739258e-02
-5.279446840286254883e-01 5.997961759567260742e-02 2.946019917726516724e-02
-5.720237493515014648e-01 1.273224204778671265e-01 1.696015298366546631e-01
-5.199782848358154297e-01 1.580470949411392212e-01 -2.163962228223681450e-03
-5.458835363388061523e-01 1.008817479014396667e-01 1.237611547112464905e-01
-7.415325641632080078e-01 2.307374328374862671e-01 -1.158254146575927734e-01
-5.752243995666503906e-01 2.472048699855804443e-01 -3.974662348628044128e-02
-6.817069649696350098e-01 2.817412018775939941e-01 1.636080443859100342e-01
-6.080010533332824707e-01 6.544510275125503540e-02 1.067687273025512695e-01
-5.153412818908691406e-01 1.299102306365966797e-01 -9.728194028139114380e-02
-7.642979025840759277e-01 2.395024448633193970e-01 -3.430490568280220032e-02
-7.281460762023925781e-01 1.767754852771759033e-01 1.428453028202056885e-01
-5.220055580139160156e-01 1.244049519300460815e-01 6.582608819007873535e-02
-6.053854823112487793e-01 1.565944850444793701e-01 2.029633224010467529e-01
-5.658743381500244141e-01 2.141148298978805542e-01 -1.409559994935989380e-01
-6.746683120727539062e-01 2.272986471652984619e-01 2.141600102186203003e-01
-6.137650012969970703e-01 4.992912709712982178e-02 -1.542866695672273636e-02
-5.892720818519592285e-01 2.503037154674530029e-01 7.486236840486526489e-02
-6.671000123023986816e-01 1.721158623695373535e-01 2.157515287399291992e-01
-5.979323983192443848e-01 1.681859195232391357e-01 1.961882710456848145e-01
-5.579559803009033203e-01 4.468242824077606201e-02 -7.819347828626632690e-02
-5.989071130752563477e-01 8.014771342277526855e-02 -1.653783321380615234e-01
-6.993256807327270508e-01 2.382171750068664551e-01 -1.829536557197570801e-01
-5.783786177635192871e-01 3.992511332035064697e-02 -9.562100283801555634e-03
-5.442389845848083496e-01 4.863491654396057129e-02 -8.279936760663986206e-02
-5.703512430191040039e-01 1.832241714000701904e-01 1.505386531352996826e-01
-7.200164794921875000e-01 1.418684422969818115e-01 7.900850474834442139e-02
-7.187757492065429688e-01 3.234755992889404297e-01 4.147489741444587708e-02
-5.928754806518554688e-01 5.066874623298645020e-02 6.502618640661239624e-02
-5.403681993484497070e-01 4.723979532718658447e-02 -6.720406562089920044e-02
-5.982343554496765137e-01 7.441656291484832764e-02 1.322230994701385498e-01
-6.925930976867675781e-01 1.291116625070571899e-01 -1.154760271310806274e-01
-5.363392233848571777e-01 1.487248837947845459e-01 -1.574218422174453735e-01
-5.213668346405029297e-01 1.510911732912063599e-01 -9.898789972066879272e-02
-7.545397877693176270e-01 2.955860197544097900e-01 9.281238913536071777e-02
-7.120209336280822754e-01 2.362492680549621582e-01 1.987054944038391113e-01
-5.516456365585327148e-01 4.060107469558715820e-02 -2.870417013764381409e-02
-6.667279005050659180e-01 8.205695450305938721e-02 1.724325865507125854e-02
-6.946046948432922363e-01 3.133238554000854492e-01 -7.623431831598281860e-02
-6.285448074340820312e-01 2.588321864604949951e-01 1.498392671346664429e-01
-7.490425705909729004e-01 3.081766963005065918e-01 -2.669800631701946259e-02
-7.428440451622009277e-01 1.711791306734085083e-01 4.491282626986503601e-02
-5.662157535552978516e-01 1.234671622514724731e-01 -2.036896497011184692e-01
-6.010035276412963867e-01 2.669987678527832031e-01 5.273699387907981873e-02
-6.483324170112609863e-01 1.383884102106094360e-01 -2.016566842794418335e-01
-5.107081532478332520e-01 8.297245204448699951e-02 -8.743056096136569977e-03
-6.009332537651062012e-01 4.561458528041839600e-02 -3.103538230061531067e-02
-7.033907771110534668e-01 3.229871988296508789e-01 4.264264926314353943e-02
-7.250972390174865723e-01 2.265733182430267334e-01 -1.499387919902801514e-01
-5.746584534645080566e-01 1.442330479621887207e-01 -2.127630114555358887e-01
-5.316446423530578613e-01 1.850593984127044678e-01 -8.810454048216342926e-03
-6.121957898139953613e-01 2.640873491764068604e-01 1.043626293540000916e-01
-7.124485969543457031e-01 2.031947076320648193e-01 1.953475922346115112e-01
-6.518027782440185547e-01 2.480195760726928711e-01 1.907527595758438110e-01
-6.617089509963989258e-01 2.671906054019927979e-01 -1.726014614105224609e-01
-7.444668412208557129e-01 3.018473386764526367e-01 -6.027689576148986816e-02
-7.067626714706420898e-01 3.228324055671691895e-01 -2.545643597841262817e-02
-7.494089603424072266e-01 1.827730685472488403e-01 1.463364530354738235e-02
-7.072479128837585449e-01 1.759195476770401001e-01 1.839223206043243408e-01
-5.794674754142761230e-01 2.403444349765777588e-01 -1.113775521516799927e-01
-6.791930198669433594e-01 9.620444476604461670e-02 6.397598236799240112e-02
-5.784395933151245117e-01 7.719787210226058960e-02 1.336670070886611938e-01
-6.245676875114440918e-01 2.630285024642944336e-01 -1.526769995689392090e-01
-7.697415947914123535e-01 2.512442767620086670e-01 2.384865423664450645e-03
-5.406562685966491699e-01 4.908140003681182861e-02 2.653679624199867249e-02
-5.698060989379882812e-01 2.098985165357589722e-01 -1.591602563858032227e-01
-6.510362625122070312e-01 1.272701323032379150e-01 -1.877137720584869385e-01
-7.547025680541992188e-01 2.219854891300201416e-01 1.185379102826118469e-01
-5.253121852874755859e-01 1.343635022640228271e-01 -1.364192217588424683e-01
-6.673147678375244141e-01 1.094901189208030701e-01 1.451712548732757568e-01
-6.320223808288574219e-01 5.891513824462890625e-02 1.137359719723463058e-02
-6.911183595657348633e-01 2.782512009143829346e-01 -1.560453474521636963e-01
-5.190933346748352051e-01 1.428574919700622559e-01 3.337766230106353760e-02
-7.127963304519653320e-01 2.841976881027221680e-01 1.626340299844741821e-01
-6.146764159202575684e-01 5.455744266510009766e-02 -6.539775431156158447e-02
-7.131106257438659668e-01 1.502753943204879761e-01 1.344498246908187866e-01
-6.872596144676208496e-01 1.651585847139358521e-01 -1.788772046566009521e-01
-6.343607902526855469e-01 2.930098772048950195e-01 -7.109158486127853394e-02
-5.209184288978576660e-01 8.196744322776794434e-02 4.924169927835464478e-02
-7.497497200965881348e-01 3.122060000896453857e-01 2.210110658779740334e-03
-5.115187168121337891e-01 1.219576895236968994e-01 9.277219884097576141e-03
-6.292594671249389648e-01 2.689731717109680176e-01 1.297642737627029419e-01
-6.630704998970031738e-01 7.913808524608612061e-02 -2.076784381642937660e-03
-6.574978232383728027e-01 8.379294723272323608e-02 -7.976128906011581421e-02
-5.446747541427612305e-01 1.755493432283401489e-01 -1.507371068000793457e-01
-7.406162023544311523e-01 1.775215119123458862e-01 -5.009946972131729126e-02
-5.571015477180480957e-01 2.096808552742004395e-01 7.225918769836425781e-02
-6.277338862419128418e-01 2.833776473999023438e-01 -9.897396713495254517e-02
-6.133889555931091309e-01 2.696620225906372070e-01 8.977653086185455322e-02
-5.831854939460754395e-01 1.551840752363204956e-01 1.833147406578063965e-01
-7.399584650993347168e-01 1.722358912229537964e-01 -3.564260527491569519e-02
-6.761375665664672852e-01 2.701488137245178223e-01 1.783464103937149048e-01
-5.777652859687805176e-01 2.480732500553131104e-01 2.036927826702594757e-02
-7.650442719459533691e-01 2.803343236446380615e-01 7.809806615114212036e-02
-6.411081552505493164e-01 7.912294566631317139e-02 1.082136258482933044e-01
-6.527339220046997070e-01 2.529916167259216309e-01 -1.886131912469863892e-01
-7.399432063102722168e-01 2.400460541248321533e-01 1.650976538658142090e-01
-7.190897464752197266e-01 3.202545046806335449e-01 6.714386492967605591e-02
-6.617249250411987305e-01 1.439075022935867310e-01 -1.930837333202362061e-01
-7.370025515556335449e-01 3.200257420539855957e-01 3.437986969947814941e-02
-6.807004213333129883e-01 9.711670875549316406e-02 -4.168737679719924927e-02
-5.213512182235717773e-01 1.352066397666931152e-01 5.541927367448806763e-02
-7.562112212181091309e-01 2.176286280155181885e-01 -5.339229851961135864e-02
-5.780851840972900391e-01 4.028671979904174805e-02 -3.392842039465904236e-02
-6.275821328163146973e-01 2.917091250419616699e-01 3.033885732293128967e-02
-5.775364041328430176e-01 4.340374469757080078e-02 3.512106090784072876e-02
-5.460678339004516602e-01 1.990805715322494507e-01 5.017636716365814209e-02
-6.503580808639526367e-01 1.858063042163848877e-01 2.208894044160842896e-01
-6.139991283416748047e-01 2.488883286714553833e-01 1.437633037567138672e-01
-5.636861920356750488e-01 1.636352241039276123e-01 -1.973857879638671875e-01
-5.609061717987060547e-01 4.213340580463409424e-02 2.289045974612236023e-02
-6.660392284393310547e-01 2.972721755504608154e-01 -1.131921261548995972e-01
-6.841076612472534180e-01 2.130776941776275635e-01 2.165311425924301147e-01
-5.611796379089355469e-01 7.262674719095230103e-02 1.145906373858451843e-01
-5.224580168724060059e-01 1.033707112073898315e-01 -1.332858949899673462e-01
-6.534418463706970215e-01 2.224399447441101074e-01 2.121560275554656982e-01
-7.554224729537963867e-01 2.119548022747039795e-01 1.011750847101211548e-01
-5.506610274314880371e-01 1.423329412937164307e-01 -1.878734529018402100e-01
-5.956518054008483887e-01 2.653730213642120361e-01 3.010581061244010925e-02
-6.431156396865844727e-01 9.076068550348281860e-02 -1.374156028032302856e-01
-6.697494387626647949e-01 2.878568470478057861e-01 -1.392309069633483887e-01
-5.871775746345520020e-01 7.030047476291656494e-02 -1.523545682430267334e-01
-6.031257510185241699e-01 1.323721110820770264e-01 1.956684738397598267e-01
-5.413620471954345703e-01 5.897641181945800781e-02 6.179952993988990784e-02
-5.730801224708557129e-01 4.326346516609191895e-02 -6.967611610889434814e-02
-7.670297622680664062e-01 2.452732175588607788e-01 -2.004849351942539215e-02
-6.456174254417419434e-01 2.774135470390319824e-01 -1.453564167022705078e-01
-5.465953946113586426e-01 1.269475370645523071e-01 -1.839838027954101562e-01
-7.680558562278747559e-01 2.769453227519989014e-01 -5.477055441588163376e-03
-7.368061542510986328e-01 2.788392007350921631e-01 -1.111351475119590759e-01
-5.133218169212341309e-01 1.137706041336059570e-01 -9.817127883434295654e-02
-7.242964506149291992e-01 1.483630239963531494e-01 -4.302694275975227356e-02
-5.505647063255310059e-01 4.197087883949279785e-02 3.925484605133533478e-03
-6.445714831352233887e-01 7.205486297607421875e-02 -6.831211596727371216e-02
-6.412922143936157227e-01 2.950727939605712891e-01 7.059061527252197266e-02
-7.208566665649414062e-01 3.182106316089630127e-01 -4.759615287184715271e-02
-6.890540122985839844e-01 1.077083349227905273e-01 7.971848547458648682e-02
-6.874270439147949219e-01 2.868378758430480957e-01 -1.436927020549774170e-01
-6.288424134254455566e-01 1.511111706495285034e-01 -2.218092679977416992e-01
-5.822166800498962402e-01 2.521723806858062744e-01 -6.651155650615692139e-02
-7.309105396270751953e-01 2.972762882709503174e-01 -9.518089890480041504e-02
-7.672820091247558594e-01 2.313459515571594238e-01 4.362263157963752747e-02
-6.727914214134216309e-01 2.528953552246093750e-01 -1.889384090900421143e-01
-6.123878955841064453e-01 7.652328163385391235e-02 -1.474087834358215332e-01
-5.392252802848815918e-01 1.672846525907516479e-01 8.818506449460983276e-02
-7.499101758003234863e-01 2.894724607467651367e-01 -6.996700167655944824e-02
-5.932095646858215332e-01 2.628714144229888916e-01 -6.576883047819137573e-02
-6.851297616958618164e-01 1.098160594701766968e-01 1.046878099441528320e-01
-6.934183835983276367e-01 3.155090212821960449e-01 8.167833089828491211e-02
-5.431458950042724609e-01 2.044860869646072388e-01 -5.610164254903793335e-02
-6.094987392425537109e-01 2.797483503818511963e-01 -3.127203136682510376e-02
-6.192191243171691895e-01 2.874983251094818115e-01 -2.270223572850227356e-02
-5.879783034324645996e-01 6.200610101222991943e-02 1.052892953157424927e-01
-7.139251232147216797e-01 3.130922913551330566e-01 -7.378612458705902100e-02
-6.618125438690185547e-01 1.417879313230514526e-01 1.983100175857543945e-01
-6.516068577766418457e-01 3.052369356155395508e-01 4.398387297987937927e-02
-7.244046926498413086e-01 1.422620117664337158e-01 7.884859107434749603e-03
-5.342282056808471680e-01 6.877522915601730347e-02 -1.237651109695434570e-01
-5.512247085571289062e-01 1.259472668170928955e-01 1.401724964380264282e-01
-6.726206541061401367e-01 2.803029119968414307e-01 -1.544609069824218750e-01
-7.642778158187866211e-01 2.243641465902328491e-01 6.445164233446121216e-02
-7.704588174819946289e-01 2.669155895709991455e-01 4.712524265050888062e-02
-5.107951164245605469e-01 1.311079263687133789e-01 -3.003605082631111145e-02
-5.608097314834594727e-01 4.622453451156616211e-02 4.622110724449157715e-02
-7.530241012573242188e-01 1.899958550930023193e-01 3.146012127399444580e-02
-5.543701648712158203e-01 6.546305865049362183e-02 9.509475529193878174e-02
-7.458489537239074707e-01 2.510169744491577148e-01 1.533943265676498413e-01
-5.637321472167968750e-01 5.566897988319396973e-02 8.141214400529861450e-02
-7.015319466590881348e-01 1.155662313103675842e-01 -1.591254957020282745e-02
-5.723602771759033203e-01 2.376814186573028564e-01 -9.050429612398147583e-02
-5.405187010765075684e-01 8.909472078084945679e-02 1.060499921441078186e-01
-7.064760923385620117e-01 1.197687759995460510e-01 1.268277596682310104e-02
-6.351945400238037109e-01 1.394938677549362183e-01 2.058566361665725708e-01
-5.990819931030273438e-01 5.781272798776626587e-02 -1.102628558874130249e-01
-7.448142766952514648e-01 2.688966393470764160e-01 -1.032062992453575134e-01
-6.854070425033569336e-01 6.430057436227798462e-02 -3.782738000154495239e-02
-4.393527507781982422e-01 7.448663562536239624e-02 5.012296885251998901e-02
-6.787510514259338379e-01 7.520610839128494263e-02 -1.918474584817886353e-02
-6.235648393630981445e-01 -8.066160231828689575e-02 -1.302441488951444626e-02
-5.814428925514221191e-01 -6.683144718408584595e-02 6.496703624725341797e-02
-5.735248923301696777e-01 5.466232076287269592e-03 -7.046568393707275391e-02
-6.450416445732116699e-01 -4.212743788957595825e-02 7.036619633436203003e-02
-4.803264737129211426e-01 -7.105930149555206299e-02 2.499939128756523132e-02
-6.927578449249267578e-01 -7.960092276334762573e-02 9.306065738201141357e-03
-5.946488380432128906e-01 9.739267081022262573e-02 1.072536595165729523e-02
-6.157128214836120605e-01 -8.586547523736953735e-02 3.886301442980766296e-02
-6.335169672966003418e-01 8.988206088542938232e-02 3.521697595715522766e-03
-4.115672707557678223e-01 -3.172926604747772217e-02 -1.124832127243280411e-02
-3.771581649780273438e-01 2.260763756930828094e-02 5.257680267095565796e-02
-5.618677139282226562e-01 7.145981490612030029e-02 -6.428539007902145386e-02
-4.372025728225708008e-01 -3.400064073503017426e-03 7.254906743764877319e-02
-5.004070401191711426e-01 2.943087369203567505e-02 7.746750861406326294e-02
-5.691351294517517090e-01 -5.742790922522544861e-02 7.124426215887069702e-02
-4.638830125331878662e-01 -6.592821329832077026e-02 2.424471452832221985e-02
-6.084486246109008789e-01 5.427574366331100464e-02 -6.739313900470733643e-02
-4.200840592384338379e-01 8.434256538748741150e-03 6.898841261863708496e-02
-6.754109859466552734e-01 -2.965432405471801758e-02 -5.331037938594818115e-02
-7.314503788948059082e-01 4.452057555317878723e-02 -1.672242581844329834e-02
-4.946776330471038818e-01 2.732343971729278564e-02 -6.698529422283172607e-02
-4.044294059276580811e-01 9.608244150876998901e-02 -9.012044407427310944e-03
-6.972196698188781738e-01 -5.295610055327415466e-02 -3.432020545005798340e-02
-5.940213203430175781e-01 -5.867351964116096497e-02 -3.968579322099685669e-02
-6.935330033302307129e-01 -7.299163937568664551e-02 3.667347878217697144e-02
-3.800490796566009521e-01 -2.288085967302322388e-02 2.439121529459953308e-02
-7.276489734649658203e-01 1.073051709681749344e-02 3.896707668900489807e-02
-4.225869178771972656e-01 -3.194327279925346375e-02 -1.858859509229660034e-02
-6.932318210601806641e-01 2.153614535927772522e-03 5.775297433137893677e-02
-4.496689438819885254e-01 -5.944542214274406433e-02 1.040890440344810486e-02
-4.155517220497131348e-01 -3.838882967829704285e-02 4.542296007275581360e-02
-3.536406159400939941e-01 5.221974104642868042e-03 1.062536798417568207e-02
-6.330597400665283203e-01 3.568685427308082581e-02 6.281416118144989014e-02
-6.192040443420410156e-01 -5.383231863379478455e-02 -4.407865926623344421e-02
-5.508401393890380859e-01 -2.924991026520729065e-02 8.126412332057952881e-02
-4.807621538639068604e-01 3.801792860031127930e-02 -6.532755494117736816e-02
-5.716503858566284180e-01 -8.513224124908447266e-02 3.884926065802574158e-02
-4.603033065795898438e-01 -3.667496144771575928e-02 -3.196094557642936707e-02
-5.041763186454772949e-01 6.175056844949722290e-02 -6.571047753095626831e-02
-3.500652611255645752e-01 5.462748929858207703e-02 1.937506906688213348e-02
-4.863125085830688477e-01 7.218168675899505615e-02 5.660408735275268555e-02
-6.220523118972778320e-01 -4.398569092154502869e-02 -5.094760283827781677e-02
