6.842418015003204346e-02 -4.400790929794311523e-01 -7.792736887931823730e-01
2.400454878807067871e-01 -4.775665700435638428e-01 -7.989026308059692383e-01
1.676013022661209106e-01 -3.634060621261596680e-01 -8.086436390876770020e-01
2.856230139732360840e-01 -3.859557211399078369e-01 -7.852392792701721191e-01
3.470336645841598511e-02 -4.761087000370025635e-01 -8.025753498077392578e-01
3.361763954162597656e-01 -3.517915904521942139e-01 -7.938389778137207031e-01
2.485828548669815063e-01 -3.531589806079864502e-01 -7.907799482345581055e-01
2.101303040981292725e-01 -4.188954830169677734e-01 -8.108385205268859863e-01
2.859146595001220703e-01 -3.972043097019195557e-01 -7.841947078704833984e-01
1.803559958934783936e-01 -4.718705415725708008e-01 -8.035670518875122070e-01
2.364988327026367188e-01 -4.789551794528961182e-01 -7.880359292030334473e-01
1.005537509918212891e-01 -3.572927117347717285e-01 -7.920420169830322266e-01
1.359574496746063232e-01 -3.929143548011779785e-01 -7.825018167495727539e-01
4.744158685207366943e-02 -4.627263844013214111e-01 -8.052126169204711914e-01
3.218526840209960938e-01 -4.335753321647644043e-01 -7.854862809181213379e-01
1.605308502912521362e-01 -3.454629480838775635e-01 -7.958696484565734863e-01
1.548095792531967163e-01 -4.177007079124450684e-01 -7.802760004997253418e-01
-9.198118746280670166e-02 -4.851904511451721191e-01 -7.928791642189025879e-01
2.280615270137786865e-01 -3.446656465530395508e-01 -8.051841259002685547e-01
3.240477442741394043e-01 -3.546105623245239258e-01 -8.076363205909729004e-01
3.792520761489868164e-01 -4.155392348766326904e-01 -7.888089418411254883e-01
2.225444614887237549e-01 -3.892871737480163574e-01 -8.114686012268066406e-01
1.634949892759323120e-01 -4.266317486763000488e-01 -7.799985408782958984e-01
-3.593409061431884766e-02 -4.227826297283172607e-01 -8.048505187034606934e-01
1.157125905156135559e-01 -4.940663576126098633e-01 -7.860531210899353027e-01
3.572695851325988770e-01 -3.986435234546661377e-01 -7.873359322547912598e-01
1.650630682706832886e-01 -4.020097255706787109e-01 -7.815138101577758789e-01
2.015035897493362427e-01 -3.483633995056152344e-01 -7.925754785537719727e-01
3.929671645164489746e-01 -3.673226237297058105e-01 -7.935023903846740723e-01
4.814080893993377686e-02 -5.013596415519714355e-01 -7.889233231544494629e-01
4.144592285156250000e-01 -4.077460169792175293e-01 -7.923609018325805664e-01
8.402335643768310547e-02 -4.644307792186737061e-01 -7.798558473587036133e-01
1.213584989309310913e-01 -3.718305826187133789e-01 -7.864313721656799316e-01
3.005340397357940674e-01 -3.763242363929748535e-01 -8.105214834213256836e-01
3.025433421134948730e-02 -4.868172109127044678e-01 -7.825102210044860840e-01
2.347569465637207031e-01 -3.841680288314819336e-01 -7.842775583267211914e-01
1.062835827469825745e-01 -4.331618547439575195e-01 -7.793916463851928711e-01
6.407854706048965454e-02 -4.136931896209716797e-01 -8.091675639152526855e-01
1.708624213933944702e-01 -3.628776371479034424e-01 -7.879750728607177734e-01
6.451348960399627686e-02 -3.648846149444580078e-01 -8.038427233695983887e-01
1.773769557476043701e-01 -4.295733273029327393e-01 -7.801356315612792969e-01
1.783069074153900146e-01 -3.969722092151641846e-01 -8.113373517990112305e-01
-1.147424280643463135e-01 -4.363142549991607666e-01 -7.980927824974060059e-01
2.846669256687164307e-01 -3.500165045261383057e-01 -7.924697995185852051e-01
1.905936151742935181e-01 -4.241192936897277832e-01 -7.804780006408691406e-01
9.382039308547973633e-03 -4.319272637367248535e-01 -8.069331049919128418e-01
2.745018154382705688e-02 -4.071410298347473145e-01 -7.822234034538269043e-01
1.802559494972229004e-01 -4.595511853694915771e-01 -7.811514735221862793e-01
7.585009932518005371e-02 -3.976393342018127441e-01 -7.824614048004150391e-01
3.117525577545166016e-01 -4.331755638122558594e-01 -7.848380804061889648e-01
2.053221762180328369e-01 -4.842095673084259033e-01 -7.980127930641174316e-01
1.306460201740264893e-01 -4.227127730846405029e-01 -8.102998137474060059e-01
-1.264797151088714600e-02 -4.041462242603302002e-01 -7.841351032257080078e-01
-8.515904843807220459e-02 -4.277040362358093262e-01 -8.012227416038513184e-01
1.454413831233978271e-01 -3.717219829559326172e-01 -7.860923409461975098e-01
1.299811750650405884e-01 -4.613427817821502686e-01 -7.801597118377685547e-01
6.319918483495712280e-02 -4.021166861057281494e-01 -7.820744514465332031e-01
1.955130547285079956e-01 -4.762051403522491455e-01 -8.018878698348999023e-01
1.786763668060302734e-01 -4.622606635093688965e-01 -8.057765364646911621e-01
-6.673207879066467285e-02 -4.730759263038635254e-01 -7.829003930091857910e-01
7.387280464172363281e-03 -3.877477645874023438e-01 -7.866219282150268555e-01
1.490049660205841064e-01 -4.959889650344848633e-01 -7.927925586700439453e-01
2.101352810859680176e-01 -4.609663784503936768e-01 -7.823114395141601562e-01
3.803733289241790771e-01 -4.379464387893676758e-01 -8.006936311721801758e-01
9.486220031976699829e-02 -3.803068995475769043e-01 -7.850846648216247559e-01
1.357224583625793457e-01 -3.501211702823638916e-01 -7.939461469650268555e-01
4.185666739940643311e-01 -4.177910387516021729e-01 -7.944855690002441406e-01
1.276611387729644775e-01 -4.866767525672912598e-01 -8.000383377075195312e-01
3.528039157390594482e-01 -3.627460896968841553e-01 -8.080260157585144043e-01
2.708010375499725342e-01 -3.961740434169769287e-01 -7.838117480278015137e-01
6.199666857719421387e-02 -4.947179853916168213e-01 -7.972530126571655273e-01
7.113641500473022461e-02 -4.442560672760009766e-01 -8.078744411468505859e-01
1.849699765443801880e-01 -3.449997007846832275e-01 -7.948406338691711426e-01
9.654619544744491577e-02 -4.514761865139007568e-01 -8.074884414672851562e-01
1.360729634761810303e-01 -4.485962688922882080e-01 -7.796223163604736328e-01
2.265768051147460938e-01 -4.727636575698852539e-01 -7.851453423500061035e-01
8.085799962282180786e-02 -5.010790824890136719e-01 -7.908245325088500977e-01
6.874445825815200806e-02 -3.731647431850433350e-01 -7.876277565956115723e-01
-3.619402647018432617e-03 -4.416222870349884033e-01 -8.059287667274475098e-01
1.270509809255599976e-01 -4.149353802204132080e-01 -7.803095579147338867e-01
3.590002059936523438e-01 -3.527438640594482422e-01 -8.057432770729064941e-01
2.974702119827270508e-01 -4.545896351337432861e-01 -8.035343885421752930e-01
-9.790372848510742188e-02 -4.153515398502349854e-01 -7.887725830078125000e-01
-8.469499647617340088e-02 -4.190922677516937256e-01 -7.862415909767150879e-01
2.396501004695892334e-01 -3.929552435874938965e-01 -8.114967346191406250e-01
-1.366577744483947754e-01 -4.466837942600250244e-01 -7.937949299812316895e-01
2.070367336273193359e-01 -4.346245527267456055e-01 -7.807260751724243164e-01
3.347866535186767578e-01 -3.427866399288177490e-01 -7.992166876792907715e-01
-2.109132707118988037e-02 -4.204613268375396729e-01 -7.821858525276184082e-01
4.083153605461120605e-01 -4.171679019927978516e-01 -7.923111915588378906e-01
1.182316392660140991e-01 -4.040837287902832031e-01 -8.105055093765258789e-01
1.033541560173034668e-01 -4.998588562011718750e-01 -7.918173670768737793e-01
3.833331167697906494e-01 -4.221195876598358154e-01 -8.047786355018615723e-01
-2.464090287685394287e-02 -4.317912757396697998e-01 -8.054255843162536621e-01
4.139177501201629639e-01 -3.656844794750213623e-01 -7.964957356452941895e-01
4.106188714504241943e-01 -3.885282278060913086e-01 -8.059436082839965820e-01
-6.251882016658782959e-02 -4.787820577621459961e-01 -7.981365919113159180e-01
2.654738724231719971e-01 -4.097642898559570312e-01 -7.827920913696289062e-01
2.222728729248046875e-02 -4.164260625839233398e-01 -7.812736630439758301e-01
4.296679496765136719e-01 -3.885982334613800049e-01 -8.036749958992004395e-01
2.996030449867248535e-02 -4.638910889625549316e-01 -7.798645496368408203e-01
1.101539060473442078e-01 -4.817279577255249023e-01 -7.822900414466857910e-01
-7.710221409797668457e-02 -4.484056234359741211e-01 -8.015362620353698730e-01
9.325440227985382080e-02 -4.883767366409301758e-01 -7.997957468032836914e-01
1.476756334304809570e-01 -4.279530346393585205e-01 -8.101553320884704590e-01
-3.488029539585113525e-02 -4.752485156059265137e-01 -7.818697690963745117e-01
-5.327597260475158691e-02 -4.722782671451568604e-01 -8.000985383987426758e-01
4.165551811456680298e-02 -4.074508845806121826e-01 -7.818334102630615234e-01
1.323668658733367920e-02 -4.871363043785095215e-01 -7.826951742172241211e-01
1.714456379413604736e-01 -3.808602094650268555e-01 -7.842206358909606934e-01
1.584272831678390503e-01 -4.345526993274688721e-01 -8.096904754638671875e-01
-1.906433701515197754e-02 -4.620073139667510986e-01 -8.033382892608642578e-01
2.510823011398315430e-01 -4.274193346500396729e-01 -8.097444176673889160e-01
2.451009154319763184e-01 -3.396474719047546387e-01 -8.021203875541687012e-01
3.814247846603393555e-01 -3.984781801700592041e-01 -7.889904975891113281e-01
3.776172548532485962e-02 -4.370726644992828369e-01 -7.796046137809753418e-01
1.715603172779083252e-01 -4.099514782428741455e-01 -8.111668229103088379e-01
-3.017728030681610107e-02 -3.802520334720611572e-01 -7.956151366233825684e-01
2.056332081556320190e-01 -3.806053996086120605e-01 -7.844147086143493652e-01
1.243299245834350586e-02 -4.573586881160736084e-01 -8.050441145896911621e-01
2.378187477588653564e-01 -4.172823727130889893e-01 -8.107521533966064453e-01
3.857113718986511230e-01 -4.125443994998931885e-01 -8.060902357101440430e-01
1.386541128158569336e-01 -3.626297712326049805e-01 -8.075641393661499023e-01
2.434834688901901245e-01 -4.251980483531951904e-01 -7.817243337631225586e-01
6.628876179456710815e-02 -4.239996671676635742e-01 -8.090378642082214355e-01
2.203637510538101196e-01 -4.418146014213562012e-01 -7.812603712081909180e-01
-7.418662309646606445e-02 -4.802064001560211182e-01 -7.843109965324401855e-01
2.187577486038208008e-01 -3.797718882560729980e-01 -8.111041188240051270e-01
9.618574380874633789e-02 -3.997982144355773926e-01 -7.818961739540100098e-01
3.107491135597229004e-01 -4.127838015556335449e-01 -7.844213843345642090e-01
3.047668337821960449e-01 -4.684945940971374512e-01 -7.939434647560119629e-01
4.536994546651840210e-02 -4.474136233329772949e-01 -8.070194721221923828e-01
5.879961699247360229e-02 -4.341222345829010010e-01 -7.794936299324035645e-01
1.645618677139282227e-01 -4.916651844978332520e-01 -7.879089117050170898e-01
3.468923270702362061e-02 -3.879056572914123535e-01 -7.852816581726074219e-01
7.920983433723449707e-02 -3.754737973213195801e-01 -8.072637319564819336e-01
2.493046224117279053e-01 -4.430889785289764404e-01 -8.078109025955200195e-01
3.130386769771575928e-01 -3.600015938282012939e-01 -7.904366254806518555e-01
2.770528793334960938e-01 -3.508729934692382812e-01 -8.075464367866516113e-01
1.415054053068161011e-01 -3.485311567783355713e-01 -8.028287887573242188e-01
1.643851846456527710e-01 -4.374126791954040527e-01 -7.798717021942138672e-01
3.275793492794036865e-01 -4.510025978088378906e-01 -8.023634552955627441e-01
-1.058857142925262451e-02 -3.795398473739624023e-01 -7.910078167915344238e-01
3.306707143783569336e-01 -3.753768801689147949e-01 -7.882267236709594727e-01
2.394084185361862183e-01 -3.704091310501098633e-01 -8.105168938636779785e-01
-4.066517949104309082e-02 -4.890748262405395508e-01 -7.845151424407958984e-01
2.264869213104248047e-01 -4.509457945823669434e-01 -8.070409297943115234e-01
2.333361357450485229e-01 -3.609677255153656006e-01 -8.093788623809814453e-01
-8.441342413425445557e-02 -4.455504417419433594e-01 -7.832448482513427734e-01
1.947991102933883667e-01 -4.726785719394683838e-01 -7.834134697914123535e-01
5.264771729707717896e-02 -4.441536962985992432e-01 -7.793063521385192871e-01
3.891924917697906494e-01 -3.776395916938781738e-01 -8.074489831924438477e-01
-6.202830374240875244e-02 -3.925653696060180664e-01 -7.926164269447326660e-01
-7.189084589481353760e-02 -4.660944342613220215e-01 -7.999954819679260254e-01
1.762313693761825562e-01 -4.187373816967010498e-01 -7.804526686668395996e-01
1.662630438804626465e-01 -4.565303027629852295e-01 -8.069375157356262207e-01
2.541690468788146973e-01 -3.549128472805023193e-01 -8.084529638290405273e-01
1.110297441482543945e-02 -4.089304208755493164e-01 -7.824683785438537598e-01
2.415989488363265991e-01 -3.550420403480529785e-01 -8.084145784378051758e-01
2.707557678222656250e-01 -4.680508971214294434e-01 -8.008295297622680664e-01
-2.040667831897735596e-02 -4.092153310775756836e-01 -8.053078651428222656e-01
3.735612332820892334e-01 -4.249826371669769287e-01 -7.888964414596557617e-01
1.424258500337600708e-01 -3.840526342391967773e-01 -7.837750911712646484e-01
2.451479434967041016e-03 -4.524601697921752930e-01 -8.052592277526855469e-01
4.019016027450561523e-02 -3.729580342769622803e-01 -7.891869544982910156e-01
-1.217712461948394775e-01 -4.510790109634399414e-01 -7.863523960113525391e-01
2.393790781497955322e-01 -4.677341878414154053e-01 -8.028045892715454102e-01
4.917383939027786255e-02 -3.986000120639801025e-01 -7.828736305236816406e-01
3.177877664566040039e-01 -4.442382752895355225e-01 -7.862601280212402344e-01
-1.084608137607574463e-01 -4.162960052490234375e-01 -7.906559705734252930e-01
2.632037699222564697e-01 -4.496486186981201172e-01 -8.062753677368164062e-01
3.849318623542785645e-02 -4.108470380306243896e-01 -8.082805275917053223e-01
-5.451743304729461670e-02 -4.412154555320739746e-01 -7.818657755851745605e-01
3.546053171157836914e-01 -4.266063570976257324e-01 -7.873484492301940918e-01
2.385882139205932617e-01 -3.812496960163116455e-01 -8.112263083457946777e-01
3.010158538818359375e-01 -4.210895001888275146e-01 -7.839131951332092285e-01
2.370588183403015137e-01 -4.291713833808898926e-01 -8.097835183143615723e-01
-1.002837717533111572e-01 -4.301667213439941406e-01 -7.858977317810058594e-01
1.895870119333267212e-01 -3.893034160137176514e-01 -8.112943172454833984e-01
1.415110379457473755e-01 -4.146988689899444580e-01 -7.803710103034973145e-01
-1.860605180263519287e-02 -4.974394440650939941e-01 -7.934390902519226074e-01
-5.645424127578735352e-02 -4.949391186237335205e-01 -7.907776236534118652e-01
4.259712696075439453e-01 -3.989951312541961670e-01 -7.938271164894104004e-01
-1.811932027339935303e-02 -3.857133984565734863e-01 -7.891415953636169434e-01
3.825207352638244629e-01 -3.708325624465942383e-01 -7.919238209724426270e-01
2.359971106052398682e-01 -3.606872260570526123e-01 -7.885518670082092285e-01
1.100510358810424805e-01 -4.206947386264801025e-01 -7.799279093742370605e-01
2.015252411365509033e-01 -4.162515699863433838e-01 -7.809553742408752441e-01
4.239156246185302734e-01 -3.868255317211151123e-01 -7.939677238464355469e-01
2.952718734741210938e-01 -3.915212452411651611e-01 -8.109275698661804199e-01
1.172768771648406982e-01 -4.153994619846343994e-01 -8.103787302970886230e-01
1.146951988339424133e-01 -4.701960980892181396e-01 -8.046057224273681641e-01
-6.936490535736083984e-02 -4.620496928691864014e-01 -7.823072671890258789e-01
3.707213699817657471e-02 -4.857442378997802734e-01 -8.002389073371887207e-01
3.589648753404617310e-02 -4.412599205970764160e-01 -8.072907924652099609e-01
8.436833322048187256e-02 -4.493163526058197021e-01 -7.792425155639648438e-01
8.015711605548858643e-02 -4.270585775375366211e-01 -7.796609997749328613e-01
-4.744714498519897461e-02 -4.164808988571166992e-01 -8.038759231567382812e-01
3.191240429878234863e-01 -3.739572763442993164e-01 -8.100389838218688965e-01
3.086639046669006348e-01 -3.524167835712432861e-01 -8.075219392776489258e-01
3.574720919132232666e-01 -3.659235239028930664e-01 -7.911997437477111816e-01
1.769952476024627686e-02 -4.731116890907287598e-01 -7.806418538093566895e-01
2.082394957542419434e-01 -3.765620589256286621e-01 -8.108297586441040039e-01
3.948798775672912598e-01 -3.693673014640808105e-01 -8.064622879028320312e-01
1.308796852827072144e-01 -4.557695090770721436e-01 -8.071419000625610352e-01
3.638668656349182129e-01 -3.896728157997131348e-01 -7.883190512657165527e-01
1.940515041351318359e-01 -4.624170660972595215e-01 -7.818782925605773926e-01
-1.198167502880096436e-01 -4.466239809989929199e-01 -7.973835468292236328e-01
1.050256118178367615e-01 -4.087163805961608887e-01 -8.102368712425231934e-01
-5.723924934864044189e-02 -4.242969155311584473e-01 -8.034577369689941406e-01
2.287335395812988281e-01 -4.104752540588378906e-01 -7.817826867103576660e-01
3.469991087913513184e-01 -4.108463227748870850e-01 -8.085310459136962891e-01
3.112666904926300049e-01 -4.026841521263122559e-01 -8.102988600730895996e-01
1.159244477748870850e-01 -3.829444944858551025e-01 -8.095530271530151367e-01
2.859306335449218750e-01 -4.079945981502532959e-01 -8.106075525283813477e-01
-5.393353104591369629e-02 -4.716951847076416016e-01 -7.821974158287048340e-01
-9.118697047233581543e-02 -4.493478536605834961e-01 -8.003615140914916992e-01
-1.074526607990264893e-01 -4.705160558223724365e-01 -7.855840325355529785e-01
3.190509080886840820e-01 -3.415461778640747070e-01 -7.988001108169555664e-01
2.038799226284027100e-02 -3.942681849002838135e-01 -7.845332622528076172e-01
3.139073848724365234e-01 -3.845840096473693848e-01 -7.863610386848449707e-01
2.562266290187835693e-01 -3.751116991043090820e-01 -7.859776616096496582e-01
1.104805916547775269e-01 -4.597804248332977295e-01 -7.797884345054626465e-01
1.751900017261505127e-01 -4.306539595127105713e-01 -8.100515604019165039e-01
1.760605424642562866e-01 -4.885437190532684326e-01 -7.974723577499389648e-01
2.015466988086700439e-01 -4.433599710464477539e-01 -7.807701826095581055e-01
1.945401132106781006e-01 -3.891415894031524658e-01 -7.831376791000366211e-01
-5.074878036975860596e-02 -4.822441339492797852e-01 -7.979828715324401855e-01
-4.356640577316284180e-02 -4.541279673576354980e-01 -8.031245470046997070e-01
8.776498585939407349e-02 -4.789521694183349609e-01 -8.025788664817810059e-01
3.651596307754516602e-01 -4.093978106975555420e-01 -7.875738739967346191e-01
1.693809777498245239e-01 -4.443600773811340332e-01 -8.086581826210021973e-01
-6.057378649711608887e-02 -4.222963452339172363e-01 -7.838867902755737305e-01
2.012391239404678345e-01 -4.136622548103332520e-01 -8.111338615417480469e-01
2.292843014001846313e-01 -4.467601478099822998e-01 -7.818009853363037109e-01
3.137642741203308105e-01 -4.491440057754516602e-01 -8.039745688438415527e-01
1.547643244266510010e-01 -3.979023694992065430e-01 -7.818897962570190430e-01
7.868492603302001953e-02 -4.164293408393859863e-01 -7.803652882575988770e-01
-3.869505226612091064e-02 -4.654413461685180664e-01 -8.019910454750061035e-01
3.227998018264770508e-01 -4.379591941833496094e-01 -8.059644103050231934e-01
9.768643975257873535e-02 -4.279507994651794434e-01 -8.095448613166809082e-01
2.558843195438385010e-01 -4.655719101428985596e-01 -8.026635050773620605e-01
9.542316198348999023e-02 -4.250015616416931152e-01 -7.797091007232666016e-01
2.016487717628479004e-02 -4.252022206783294678e-01 -8.075460791587829590e-01
3.622778654098510742e-01 -4.221321046352386475e-01 -8.063802719116210938e-01
3.520901799201965332e-01 -4.394883513450622559e-01 -8.036175370216369629e-01
1.462986320257186890e-01 -3.564428687095642090e-01 -8.064013719558715820e-01
-4.171997308731079102e-02 -4.893308281898498535e-01 -7.962264418601989746e-01
2.208961546421051025e-02 -4.428222775459289551e-01 -7.796595692634582520e-01
3.301185965538024902e-01 -3.791182935237884521e-01 -8.100031018257141113e-01
3.890502750873565674e-01 -4.120448231697082520e-01 -7.895897030830383301e-01
4.105481803417205811e-01 -4.211629629135131836e-01 -8.015362620353698730e-01
3.460474610328674316e-01 -3.955986499786376953e-01 -7.868660688400268555e-01
1.644114553928375244e-01 -4.667682647705078125e-01 -8.050330281257629395e-01
2.138637602329254150e-01 -4.088212251663208008e-01 -7.815759181976318359e-01
2.665816545486450195e-01 -3.869411051273345947e-01 -7.846021056175231934e-01
-4.162983596324920654e-02 -4.239173233509063721e-01 -7.826768755912780762e-01
1.381730288267135620e-01 -3.974757492542266846e-01 -8.107995986938476562e-01
2.896959185600280762e-01 -3.814603984355926514e-01 -8.108891248703002930e-01
2.440928518772125244e-01 -4.537582099437713623e-01 -7.829742431640625000e-01
7.929944992065429688e-02 -4.878540039062500000e-01 -7.830184698104858398e-01
9.299375861883163452e-02 -3.796149194240570068e-01 -8.084338307380676270e-01
3.318740129470825195e-01 -4.218772649765014648e-01 -8.080292940139770508e-01
9.649975597858428955e-02 -3.678710460662841797e-01 -8.067535758018493652e-01
2.559950947761535645e-01 -3.401092886924743652e-01 -7.973722815513610840e-01
2.822729349136352539e-01 -3.659655749797821045e-01 -8.099693059921264648e-01
4.066272675991058350e-01 -3.571758866310119629e-01 -8.003828525543212891e-01
5.228196084499359131e-02 -4.391894340515136719e-01 -8.078787922859191895e-01
7.941932976245880127e-02 -3.599758744239807129e-01 -8.032478094100952148e-01
1.572307497262954712e-01 -4.636482596397399902e-01 -7.809111475944519043e-01
1.754957437515258789e-02 -4.128097295761108398e-01 -8.074553608894348145e-01
-3.819882869720458984e-03 -4.504594504833221436e-01 -7.800241708755493164e-01
-9.496460855007171631e-02 -4.431648254394531250e-01 -7.841119766235351562e-01
6.034258753061294556e-02 -3.797911405563354492e-01 -7.861850857734680176e-01
2.081994861364364624e-01 -4.302146136760711670e-01 -8.099808096885681152e-01
-3.996014595031738281e-03 -4.173129498958587646e-01 -8.065267801284790039e-01
3.427116274833679199e-01 -4.519000649452209473e-01 -8.003042936325073242e-01
5.123830586671829224e-02 -3.692475557327270508e-01 -7.898747324943542480e-01
3.287825882434844971e-01 -3.693488836288452148e-01 -8.094887137413024902e-01
2.848499715328216553e-01 -4.251954555511474609e-01 -8.092562556266784668e-01
2.725818753242492676e-01 -4.216363430023193359e-01 -7.827302813529968262e-01
1.903598904609680176e-01 -4.651917815208435059e-01 -8.049714565277099609e-01
1.906680166721343994e-01 -4.530790448188781738e-01 -7.809525132179260254e-01
-1.217696070671081543e-02 -3.815825879573822021e-01 -8.015555143356323242e-01
1.755710989236831665e-01 -3.525637388229370117e-01 -7.912311553955078125e-01
1.232358813285827637e-02 -4.536844789981842041e-01 -7.797465920448303223e-01
1.116203516721725464e-01 -4.572585821151733398e-01 -8.068454265594482422e-01
5.952739715576171875e-02 -3.582389354705810547e-01 -7.980833649635314941e-01
-6.617414951324462891e-02 -4.150166511535644531e-01 -8.022252321243286133e-01
3.066653013229370117e-01 -3.717755973339080811e-01 -7.878600358963012695e-01
2.762108296155929565e-02 -5.015414953231811523e-01 -7.893642187118530273e-01
1.984698623418807983e-01 -4.842884838581085205e-01 -7.868876457214355469e-01
3.731965422630310059e-01 -4.447392523288726807e-01 -7.937474846839904785e-01
2.724995017051696777e-01 -3.708820641040802002e-01 -8.104916810989379883e-01
1.610466390848159790e-01 -4.757230281829833984e-01 -7.826253771781921387e-01
1.534387469291687012e-02 -3.746653795242309570e-01 -7.904659509658813477e-01
2.415734082460403442e-01 -3.450272083282470703e-01 -7.939293384552001953e-01
-8.846934139728546143e-02 -4.035567343235015869e-01 -7.923746705055236816e-01
1.894519031047821045e-01 -4.421645402908325195e-01 -8.088292479515075684e-01
-7.268385589122772217e-02 -4.103568494319915771e-01 -7.869679927825927734e-01
2.567858695983886719e-01 -4.001961052417755127e-01 -7.831128239631652832e-01
1.417688131332397461e-01 -4.027986526489257812e-01 -7.813541293144226074e-01
-4.669743776321411133e-02 -4.018390476703643799e-01 -8.025136590003967285e-01
1.020611524581909180e-01 -3.884843587875366211e-01 -7.834485769271850586e-01
2.895640730857849121e-01 -3.394305706024169922e-01 -8.013382554054260254e-01
2.327023446559906006e-01 -4.629397988319396973e-01 -7.835850715637207031e-01
1.748835444450378418e-01 -3.902943730354309082e-01 -7.828625440597534180e-01
2.718190848827362061e-01 -4.752832055091857910e-01 -7.910657525062561035e-01
-2.948285639286041260e-02 -4.922599792480468750e-01 -7.957487106323242188e-01
1.424731016159057617e-01 -4.817059636116027832e-01 -8.014827370643615723e-01
1.109827309846878052e-01 -3.537042140960693359e-01 -8.031432032585144043e-01
-5.163095891475677490e-02 -4.831321835517883301e-01 -7.836214900016784668e-01
2.366179823875427246e-01 -3.703741133213043213e-01 -7.864763140678405762e-01
2.732533514499664307e-01 -4.386262893676757812e-01 -7.831395268440246582e-01
8.714304864406585693e-02 -3.928619921207427979e-01 -8.093481659889221191e-01
3.413739204406738281e-01 -3.663668632507324219e-01 -8.088549971580505371e-01
1.534146070480346680e-02 -3.968453407287597656e-01 -8.065094947814941406e-01
5.397889018058776855e-02 -4.231703877449035645e-01 -7.801235318183898926e-01
2.798929810523986816e-01 -4.553500413894653320e-01 -8.043180704116821289e-01
4.269881844520568848e-01 -4.048822820186614990e-01 -8.025128245353698730e-01
2.981634140014648438e-01 -3.481087386608123779e-01 -8.065710663795471191e-01
-3.296157717704772949e-02 -4.819293916225433350e-01 -7.990283370018005371e-01
1.743609756231307983e-01 -4.722643494606018066e-01 -7.825109362602233887e-01
2.801649868488311768e-01 -4.388446211814880371e-01 -8.076052665710449219e-01
7.234749943017959595e-02 -4.671387970447540283e-01 -8.049080371856689453e-01
3.527043461799621582e-01 -3.763882517814636230e-01 -8.091780543327331543e-01
1.017561256885528564e-01 -4.760746657848358154e-01 -7.812188863754272461e-01
4.861115664243698120e-02 -3.710801899433135986e-01 -8.044547438621520996e-01
5.872496217489242554e-02 -4.541018307209014893e-01 -8.065921664237976074e-01
2.284111976623535156e-01 -4.221201837062835693e-01 -7.813438177108764648e-01
2.073486745357513428e-01 -3.900537192821502686e-01 -8.114364743232727051e-01
1.926090568304061890e-01 -3.727670013904571533e-01 -7.856810092926025391e-01
2.038457542657852173e-01 -4.046164453029632568e-01 -7.816988229751586914e-01
3.305203616619110107e-01 -4.051687419414520264e-01 -8.095943927764892578e-01
-3.090037405490875244e-02 -4.049726426601409912e-01 -7.849461436271667480e-01
3.518203496932983398e-01 -4.117811620235443115e-01 -7.866674065589904785e-01
6.520323455333709717e-02 -4.813138246536254883e-01 -7.815838456153869629e-01
2.579122185707092285e-01 -4.736012220382690430e-01 -7.879734635353088379e-01
1.879431903362274170e-01 -4.536385834217071533e-01 -8.072126507759094238e-01
-2.549619972705841064e-02 -4.427164494991302490e-01 -8.049134016036987305e-01
3.758835196495056152e-01 -3.727383017539978027e-01 -8.079505562782287598e-01
1.986131072044372559e-01 -3.796856403350830078e-01 -8.109467029571533203e-01
1.891373842954635620e-01 -4.079408645629882812e-01 -7.812491059303283691e-01
3.571385741233825684e-01 -3.881123661994934082e-01 -8.092139959335327148e-01
4.199430346488952637e-02 -4.598110318183898926e-01 -7.795943617820739746e-01
3.193525373935699463e-01 -3.750655949115753174e-01 -7.878057956695556641e-01
2.379044890403747559e-03 -4.602325856685638428e-01 -7.800480127334594727e-01
2.578262388706207275e-01 -3.614426851272583008e-01 -7.886601686477661133e-01
9.077100455760955811e-02 -3.544969856739044189e-01 -8.012999296188354492e-01
3.997518867254257202e-02 -3.952310085296630859e-01 -8.076428174972534180e-01
-1.494221389293670654e-02 -4.438400268554687500e-01 -8.053149580955505371e-01
-8.525894582271575928e-02 -4.105898141860961914e-01 -7.993934750556945801e-01
1.145668625831604004e-01 -4.869503080844879150e-01 -8.001297712326049805e-01
5.289033800363540649e-02 -4.852871000766754150e-01 -7.822152972221374512e-01
4.047716557979583740e-01 -3.675868809223175049e-01 -8.053717613220214844e-01
-1.270992457866668701e-01 -4.292454123497009277e-01 -7.943887710571289062e-01
-8.303508162498474121e-03 -4.946268498897552490e-01 -7.957310676574707031e-01
4.916956275701522827e-02 -4.080378413200378418e-01 -8.086259961128234863e-01
2.756615281105041504e-01 -3.538420796394348145e-01 -7.910080552101135254e-01
-7.868060469627380371e-02 -4.369233548641204834e-01 -8.018854260444641113e-01
-6.765316426753997803e-02 -4.407745599746704102e-01 -7.825254201889038086e-01
3.460589945316314697e-01 -4.262095689773559570e-01 -8.067297339439392090e-01
3.910869359970092773e-01 -3.790486156940460205e-01 -7.913259267807006836e-01
2.724382877349853516e-01 -4.050676226615905762e-01 -8.109776377677917480e-01
1.345353275537490845e-01 -3.772664666175842285e-01 -8.095661401748657227e-01
7.554004341363906860e-02 -3.606539666652679443e-01 -7.920727729797363281e-01
3.769408911466598511e-02 -4.646962881088256836e-01 -8.047071695327758789e-01
-9.923586249351501465e-02 -4.776145517826080322e-01 -7.951191067695617676e-01
1.283011436462402344e-01 -4.923940896987915039e-01 -7.858802676200866699e-01
1.369442790746688843e-01 -4.459809958934783936e-01 -8.084478378295898438e-01
2.809963524341583252e-01 -4.685308933258056641e-01 -7.997007966041564941e-01
2.726165652275085449e-01 -4.270857870578765869e-01 -8.093523383140563965e-01
3.180297613143920898e-01 -4.638143777847290039e-01 -7.969424128532409668e-01
3.589608073234558105e-01 -4.512524306774139404e-01 -7.968114018440246582e-01
-1.012979447841644287e-01 -4.617669582366943359e-01 -7.843167185783386230e-01
1.343081891536712646e-01 -4.735076725482940674e-01 -8.038124442100524902e-01
1.918928325176239014e-02 -4.930567741394042969e-01 -7.973655462265014648e-01
2.763508558273315430e-01 -4.063172042369842529e-01 -7.833039164543151855e-01
-3.806306421756744385e-02 -3.906379938125610352e-01 -8.010879158973693848e-01
2.550143003463745117e-02 -4.380262196063995361e-01 -8.071963787078857422e-01
-3.817624747753143311e-01 -1.150316819548606873e-01 7.786432504653930664e-01
-3.846692442893981934e-01 -1.011384502053260803e-01 7.977542877197265625e-01
-3.862703144550323486e-01 -1.507513970136642456e-01 7.927888631820678711e-01
-3.899148404598236084e-01 -1.011809930205345154e-01 7.734243273735046387e-01
-4.081337749958038330e-01 -1.195708736777305603e-01 7.843171358108520508e-01
-3.987736999988555908e-01 -1.474874317646026611e-01 7.968032360076904297e-01
-3.830895423889160156e-01 -8.748353272676467896e-02 7.854155898094177246e-01
-3.982380032539367676e-01 -7.703758776187896729e-02 7.816559672355651855e-01
-3.911485373973846436e-01 -1.312415897846221924e-01 7.717908024787902832e-01
-3.929566442966461182e-01 -1.464822292327880859e-01 7.736210823059082031e-01
-4.047940075397491455e-01 -1.382487118244171143e-01 7.940450310707092285e-01
-3.847838640213012695e-01 -1.531491577625274658e-01 7.833906412124633789e-01
-3.975358605384826660e-01 -7.368305325508117676e-02 7.928775548934936523e-01
-3.829628229141235352e-01 -9.132771939039230347e-02 7.825307250022888184e-01
-3.927920758724212646e-01 -1.544688493013381958e-01 7.951987385749816895e-01
-4.048024117946624756e-01 -1.435321122407913208e-01 7.918633222579956055e-01
-3.901540040969848633e-01 -1.602766215801239014e-01 7.905029058456420898e-01
-3.884921669960021973e-01 -1.473384797573089600e-01 7.752712368965148926e-01
-3.935130238533020020e-01 -1.487751305103302002e-01 7.974442243576049805e-01
-3.814624547958374023e-01 -1.399455964565277100e-01 7.843372821807861328e-01
-3.886149227619171143e-01 -8.800538629293441772e-02 7.984262704849243164e-01
-3.858464062213897705e-01 -1.555387228727340698e-01 7.827607989311218262e-01
-3.959177136421203613e-01 -7.403650879859924316e-02 7.825475931167602539e-01
-3.955037891864776611e-01 -9.053780883550643921e-02 8.004693984985351562e-01
-3.887255489826202393e-01 -1.537265777587890625e-01 7.937266826629638672e-01
-4.056561589241027832e-01 -1.451085805892944336e-01 7.870494723320007324e-01
-4.046757817268371582e-01 -1.461622416973114014e-01 7.816044688224792480e-01
-3.805911242961883545e-01 -1.125548854470252991e-01 7.920580506324768066e-01
-3.984161913394927979e-01 -8.307771384716033936e-02 7.976428270339965820e-01
-3.855614662170410156e-01 -1.261152625083923340e-01 7.741674780845642090e-01
-4.022171795368194580e-01 -1.317788958549499512e-01 7.983921766281127930e-01
-4.003863930702209473e-01 -8.451168239116668701e-02 7.793365120887756348e-01
-4.032747149467468262e-01 -1.133855730295181274e-01 7.753648757934570312e-01
-3.851103484630584717e-01 -1.296049356460571289e-01 7.747574448585510254e-01
-3.972754180431365967e-01 -1.067245602607727051e-01 8.019977211952209473e-01
-4.006500542163848877e-01 -1.145074144005775452e-01 8.008269667625427246e-01
-3.946108520030975342e-01 -9.809086471796035767e-02 7.733557224273681641e-01
-3.947927057743072510e-01 -7.554887235164642334e-02 7.811251282691955566e-01
-3.801063001155853271e-01 -1.251578330993652344e-01 7.892525792121887207e-01
-3.856707513332366943e-01 -1.128407493233680725e-01 7.994198203086853027e-01
-3.844875395298004150e-01 -8.204051852226257324e-02 7.874462604522705078e-01
-3.876487612724304199e-01 -1.022587940096855164e-01 8.002627491950988770e-01
-4.038314819335937500e-01 -9.053724259138107300e-02 7.950192093849182129e-01
-4.034880101680755615e-01 -1.151337996125221252e-01 7.987616658210754395e-01
-3.910456895828247070e-01 -1.057593524456024170e-01 8.019119501113891602e-01
-4.006306529045104980e-01 -1.291806250810623169e-01 7.998360991477966309e-01
-3.803472518920898438e-01 -1.044979393482208252e-01 7.848682999610900879e-01
-3.840970695018768311e-01 -1.509347110986709595e-01 7.832087278366088867e-01
-4.061736464500427246e-01 -1.156486645340919495e-01 7.953806519508361816e-01
-3.938262462615966797e-01 -9.332060813903808594e-02 8.010338544845581055e-01
-3.927274942398071289e-01 -9.104527533054351807e-02 8.005451560020446777e-01
-3.849518895149230957e-01 -1.218594834208488464e-01 7.985117435455322266e-01
-3.869605660438537598e-01 -1.342689692974090576e-01 7.985228300094604492e-01
-3.825562298297882080e-01 -9.933518618345260620e-02 7.800124883651733398e-01
-3.925316035747528076e-01 -1.414852738380432129e-01 7.727140188217163086e-01
-3.856678307056427002e-01 -9.133046865463256836e-02 7.782847881317138672e-01
-3.826746046543121338e-01 -8.947201073169708252e-02 7.901743054389953613e-01
-3.920350670814514160e-01 -7.205840945243835449e-02 7.921814918518066406e-01
-4.037181735038757324e-01 -9.186503291130065918e-02 7.801427841186523438e-01
-3.865602314472198486e-01 -9.434074163436889648e-02 7.765922546386718750e-01
-3.927574753761291504e-01 -9.532456099987030029e-02 7.739099860191345215e-01
-4.030405282974243164e-01 -1.361009329557418823e-01 7.759551405906677246e-01
-4.047461450099945068e-01 -1.000591367483139038e-01 7.790606617927551270e-01
-4.007501900196075439e-01 -1.520308256149291992e-01 7.935634851455688477e-01
-4.066523313522338867e-01 -1.273840516805648804e-01 7.801253795623779297e-01
-3.975144028663635254e-01 -8.854964375495910645e-02 7.761971950531005859e-01
-4.032806158065795898e-01 -1.078201457858085632e-01 7.987883687019348145e-01
-3.930162191390991211e-01 -1.577827483415603638e-01 7.773871421813964844e-01
-4.044361412525177002e-01 -9.059847146272659302e-02 7.819541096687316895e-01
-4.076685011386871338e-01 -1.184517368674278259e-01 7.918642759323120117e-01
-4.050944745540618896e-01 -9.309586882591247559e-02 7.936481833457946777e-01
-3.843098878860473633e-01 -9.414572268724441528e-02 7.959960103034973145e-01
-4.043869376182556152e-01 -1.180711984634399414e-01 7.977715134620666504e-01
-3.965574204921722412e-01 -1.577130258083343506e-01 7.932741641998291016e-01
-4.032412171363830566e-01 -1.277774870395660400e-01 7.981016635894775391e-01
-4.078332781791687012e-01 -1.245755404233932495e-01 7.903940081596374512e-01
-3.976055383682250977e-01 -1.250523626804351807e-01 7.718203067779541016e-01
-4.078545272350311279e-01 -1.051954030990600586e-01 7.867828607559204102e-01
-3.972159028053283691e-01 -1.066962927579879761e-01 7.725464701652526855e-01
-4.028114080429077148e-01 -1.317616552114486694e-01 7.751742005348205566e-01
-4.028506577014923096e-01 -1.545282900333404541e-01 7.841715812683105469e-01
-3.851851224899291992e-01 -9.083362668752670288e-02 7.961922883987426758e-01
-4.072686433792114258e-01 -1.111183762550354004e-01 7.817310094833374023e-01
-4.051741957664489746e-01 -1.455425918102264404e-01 7.894458770751953125e-01
-3.825470209121704102e-01 -9.889850020408630371e-02 7.943784594535827637e-01
-3.812201917171478271e-01 -1.219500154256820679e-01 7.933678030967712402e-01
-3.925649821758270264e-01 -7.499270141124725342e-02 7.949396371841430664e-01
-3.827945888042449951e-01 -1.041243001818656921e-01 7.784376740455627441e-01
-4.063863456249237061e-01 -1.134805306792259216e-01 7.949883937835693359e-01
-3.801488578319549561e-01 -1.191252470016479492e-01 7.905457019805908203e-01
-4.023453295230865479e-01 -7.997106015682220459e-02 7.854188680648803711e-01
-4.048408269882202148e-01 -1.361758410930633545e-01 7.782520055770874023e-01
-4.064179956912994385e-01 -1.057575792074203491e-01 7.806800007820129395e-01
-4.067323803901672363e-01 -1.160552725195884705e-01 7.799453139305114746e-01
-3.808916807174682617e-01 -1.051937937736511230e-01 7.821600437164306641e-01
-4.031509757041931152e-01 -9.648820012807846069e-02 7.975305318832397461e-01
-3.944489955902099609e-01 -1.021093875169754028e-01 7.726879715919494629e-01
-3.817472457885742188e-01 -1.357773840427398682e-01 7.913957238197326660e-01
-3.960978984832763672e-01 -7.930994033813476562e-02 7.970893383026123047e-01
-3.860109746456146240e-01 -7.824058830738067627e-02 7.871043682098388672e-01
-3.854761421680450439e-01 -1.371916830539703369e-01 7.753458619117736816e-01
-3.911636769771575928e-01 -1.375863552093505859e-01 7.998550534248352051e-01
-4.072838723659515381e-01 -1.286359876394271851e-01 7.820394635200500488e-01
-3.937175273895263672e-01 -1.630567163228988647e-01 7.811033129692077637e-01
-3.819029033184051514e-01 -1.401700228452682495e-01 7.821261882781982422e-01
-4.030044078826904297e-01 -1.381229162216186523e-01 7.963827252388000488e-01
-3.814394474029541016e-01 -1.391078233718872070e-01 7.882698774337768555e-01
-3.987924456596374512e-01 -1.094866916537284851e-01 8.016332387924194336e-01
-3.805254697799682617e-01 -1.018685847520828247e-01 7.886577248573303223e-01
-4.016939103603363037e-01 -9.913244098424911499e-02 7.759545445442199707e-01
-4.019574820995330811e-01 -8.621631562709808350e-02 7.801868319511413574e-01
-3.847632706165313721e-01 -8.275413513183593750e-02 7.844464182853698730e-01
-3.826147615909576416e-01 -1.279135942459106445e-01 7.774886488914489746e-01
-3.797089159488677979e-01 -1.135321110486984253e-01 7.863139510154724121e-01
-3.797848522663116455e-01 -1.113627329468727112e-01 7.874193191528320312e-01
-3.948538005352020264e-01 -9.833560883998870850e-02 8.017041087150573730e-01
-3.987930715084075928e-01 -7.471231371164321899e-02 7.842202186584472656e-01
-3.937360644340515137e-01 -1.121668517589569092e-01 8.024737834930419922e-01
-3.860162794589996338e-01 -8.253037929534912109e-02 7.938248515129089355e-01
-4.072835147380828857e-01 -1.296360790729522705e-01 7.911001443862915039e-01
-3.985962569713592529e-01 -7.954706996679306030e-02 7.960717082023620605e-01
-4.050389528274536133e-01 -9.329979866743087769e-02 7.818963527679443359e-01
-4.066756069660186768e-01 -1.228690072894096375e-01 7.797920703887939453e-01
-4.071975052356719971e-01 -1.224332898855209351e-01 7.928714156150817871e-01
-3.985443413257598877e-01 -8.706441521644592285e-02 7.988121509552001953e-01
-3.862854540348052979e-01 -1.210970208048820496e-01 7.735435962677001953e-01
-4.079671502113342285e-01 -1.164518371224403381e-01 7.907845973968505859e-01
-3.841475248336791992e-01 -8.743765205144882202e-02 7.932127714157104492e-01
-3.857726752758026123e-01 -1.562158763408660889e-01 7.852029800415039062e-01
-3.846586644649505615e-01 -1.093794628977775574e-01 7.754641175270080566e-01
-4.078123569488525391e-01 -1.285185515880584717e-01 7.844022512435913086e-01
-4.080855250358581543e-01 -1.227954775094985962e-01 7.843821644783020020e-01
-3.830402195453643799e-01 -1.038867086172103882e-01 7.960969805717468262e-01
-3.831790685653686523e-01 -9.631249308586120605e-02 7.798895835876464844e-01
-3.819546997547149658e-01 -1.423386335372924805e-01 7.837166786193847656e-01
-3.884848952293395996e-01 -7.861749827861785889e-02 7.946361899375915527e-01
-3.905355334281921387e-01 -1.627819687128067017e-01 7.877445220947265625e-01
-3.823277354240417480e-01 -9.252887964248657227e-02 7.913212180137634277e-01
-3.933669626712799072e-01 -1.579026579856872559e-01 7.935454249382019043e-01
-3.918958902359008789e-01 -1.620221734046936035e-01 7.900570034980773926e-01
-4.053601622581481934e-01 -1.288136690855026245e-01 7.954574823379516602e-01
-4.015199244022369385e-01 -9.214352816343307495e-02 7.775479555130004883e-01
-3.885210156440734863e-01 -8.420306444168090820e-02 7.785477042198181152e-01
-3.842400908470153809e-01 -1.340398937463760376e-01 7.961156368255615234e-01
-4.057241082191467285e-01 -1.443583071231842041e-01 7.843275070190429688e-01
-4.020370841026306152e-01 -8.201956748962402344e-02 7.936982512474060059e-01
-3.896142840385437012e-01 -1.616726368665695190e-01 7.823973298072814941e-01
-3.971590995788574219e-01 -1.484166234731674194e-01 7.745971083641052246e-01
-3.951701521873474121e-01 -1.203057542443275452e-01 8.022487163543701172e-01
-3.867316544055938721e-01 -1.582589149475097656e-01 7.853961586952209473e-01
-3.978307843208312988e-01 -7.935816049575805664e-02 7.799877524375915527e-01
-3.978136479854583740e-01 -9.759902209043502808e-02 8.010871410369873047e-01
-3.864939808845520020e-01 -8.848196268081665039e-02 7.784814238548278809e-01
-3.968616425991058350e-01 -1.624705344438552856e-01 7.891522049903869629e-01
-3.806963264942169189e-01 -1.200507506728172302e-01 7.807762026786804199e-01
-3.816175162792205811e-01 -1.306776851415634155e-01 7.927089333534240723e-01
-3.801410496234893799e-01 -1.058070436120033264e-01 7.882316708564758301e-01
-4.047437906265258789e-01 -1.334190070629119873e-01 7.954302430152893066e-01
-3.903152346611022949e-01 -1.147910878062248230e-01 8.018733859062194824e-01
-3.802442550659179688e-01 -1.306340247392654419e-01 7.853869795799255371e-01
-3.868711590766906738e-01 -7.898637652397155762e-02 7.927504181861877441e-01
-4.041283726692199707e-01 -1.500908136367797852e-01 7.832072973251342773e-01
-3.900655806064605713e-01 -8.134141564369201660e-02 7.789101600646972656e-01
-4.063535332679748535e-01 -1.252496391534805298e-01 7.943518161773681641e-01
-4.021324217319488525e-01 -1.100779250264167786e-01 7.746703028678894043e-01
-3.906915485858917236e-01 -1.557911038398742676e-01 7.938934564590454102e-01
-4.076891839504241943e-01 -1.311276853084564209e-01 7.850597500801086426e-01
-3.807392120361328125e-01 -1.043851226568222046e-01 7.911494374275207520e-01
-4.031847715377807617e-01 -1.521397382020950317e-01 7.821202874183654785e-01
-4.045768678188323975e-01 -1.218706518411636353e-01 7.973325848579406738e-01
-3.807717859745025635e-01 -1.015561148524284363e-01 7.841526269912719727e-01
-3.838082253932952881e-01 -1.211480423808097839e-01 7.756760120391845703e-01
-3.883636891841888428e-01 -1.429737508296966553e-01 7.743108868598937988e-01
-4.010678827762603760e-01 -8.028270304203033447e-02 7.824301719665527344e-01
-3.996669948101043701e-01 -1.460522711277008057e-01 7.752056717872619629e-01
-4.082011878490447998e-01 -1.247605085372924805e-01 7.866410613059997559e-01
-4.062955677509307861e-01 -1.397136300802230835e-01 7.897708415985107422e-01
-4.061473608016967773e-01 -9.233780205249786377e-02 7.872282862663269043e-01
-3.826069533824920654e-01 -1.410771608352661133e-01 7.912219166755676270e-01
-3.801547586917877197e-01 -1.281298547983169556e-01 7.842025160789489746e-01
-3.852119445800781250e-01 -1.075364127755165100e-01 7.988726496696472168e-01
-4.019583165645599365e-01 -1.258790791034698486e-01 7.993724346160888672e-01
-3.999716341495513916e-01 -9.462709724903106689e-02 7.997174263000488281e-01
-3.863393366336822510e-01 -1.528441607952117920e-01 7.916506528854370117e-01
-3.815261423587799072e-01 -1.197203844785690308e-01 7.941854000091552734e-01
-3.970957398414611816e-01 -1.494826525449752808e-01 7.967987656593322754e-01
-3.943521082401275635e-01 -1.162922382354736328e-01 8.024379014968872070e-01
-4.070478379726409912e-01 -9.979735314846038818e-02 7.906002998352050781e-01
-4.081957638263702393e-01 -1.200350224971771240e-01 7.893024086952209473e-01
-4.018396139144897461e-01 -7.961978018283843994e-02 7.921388745307922363e-01
-3.888934850692749023e-01 -1.543065011501312256e-01 7.774795293807983398e-01
-3.939543068408966064e-01 -1.207470521330833435e-01 7.712354063987731934e-01
-3.818615674972534180e-01 -9.291134029626846313e-02 7.855222225189208984e-01
-3.911939263343811035e-01 -1.362238675355911255e-01 7.722257375717163086e-01
-3.923253715038299561e-01 -1.113818436861038208e-01 7.717228531837463379e-01
-3.822519779205322266e-01 -1.017001867294311523e-01 7.799029946327209473e-01
-3.987681567668914795e-01 -1.155553534626960754e-01 8.016619086265563965e-01
-4.049668312072753906e-01 -1.478071212768554688e-01 7.875337600708007812e-01
-3.911317884922027588e-01 -8.027724921703338623e-02 7.971558570861816406e-01
-4.043960273265838623e-01 -1.479727923870086670e-01 7.899450063705444336e-01
-3.960566818714141846e-01 -1.638473570346832275e-01 7.830494046211242676e-01
-3.829757571220397949e-01 -1.356220692396163940e-01 7.780900001525878906e-01
-4.026762843132019043e-01 -1.528738290071487427e-01 7.901809215545654297e-01
-3.910000920295715332e-01 -1.521995514631271362e-01 7.755760550498962402e-01
-3.819555044174194336e-01 -1.176768541336059570e-01 7.781871557235717773e-01
-4.059569239616394043e-01 -1.035831719636917114e-01 7.802394628524780273e-01
-3.867695331573486328e-01 -8.124009519815444946e-02 7.817184329032897949e-01
-3.899781405925750732e-01 -7.643131911754608154e-02 7.945716977119445801e-01
-3.856314122676849365e-01 -1.325408220291137695e-01 7.978004813194274902e-01
-3.907113671302795410e-01 -1.235818937420845032e-01 8.015838861465454102e-01
-3.887061178684234619e-01 -1.314018070697784424e-01 7.999879717826843262e-01
-4.038730263710021973e-01 -8.315373957157135010e-02 7.877467274665832520e-01
-4.012826383113861084e-01 -7.699292153120040894e-02 7.867528200149536133e-01
-3.816052675247192383e-01 -1.005565002560615540e-01 7.816755771636962891e-01
-3.867184221744537354e-01 -1.000350862741470337e-01 7.752030491828918457e-01
-3.912245929241180420e-01 -9.926459193229675293e-02 7.733907103538513184e-01
-3.854651153087615967e-01 -1.190680488944053650e-01 7.991231679916381836e-01
-4.083371460437774658e-01 -1.159060075879096985e-01 7.880665063858032227e-01
-3.998609781265258789e-01 -1.597758531570434570e-01 7.825247049331665039e-01
-4.077970683574676514e-01 -1.109556555747985840e-01 7.910970449447631836e-01
-4.016056656837463379e-01 -1.425703763961791992e-01 7.758300900459289551e-01
-3.809156119823455811e-01 -9.804515540599822998e-02 7.869950532913208008e-01
-3.875612020492553711e-01 -1.129595637321472168e-01 8.006980419158935547e-01
-4.021602869033813477e-01 -9.969453513622283936e-02 7.989875674247741699e-01
-3.974170386791229248e-01 -1.509960293769836426e-01 7.754341363906860352e-01
-3.854880928993225098e-01 -8.054457604885101318e-02 7.848377823829650879e-01
-3.929395675659179688e-01 -7.051537930965423584e-02 7.899960875511169434e-01
-3.891595900058746338e-01 -1.109745353460311890e-01 7.725111842155456543e-01
-4.031426906585693359e-01 -1.033712923526763916e-01 7.764410972595214844e-01
-3.881829679012298584e-01 -1.317701041698455811e-01 7.728584408760070801e-01
-3.809933364391326904e-01 -1.372904330492019653e-01 7.865737676620483398e-01
-4.014333188533782959e-01 -1.546420007944107056e-01 7.910849452018737793e-01
-3.879729509353637695e-01 -9.072558581829071045e-02 7.986859679222106934e-01
-4.045659601688385010e-01 -1.060927435755729675e-01 7.775880098342895508e-01
-4.045245647430419922e-01 -1.117391064763069153e-01 7.768276929855346680e-01
-4.073311388492584229e-01 -1.137288063764572144e-01 7.928948998451232910e-01
-4.076328277587890625e-01 -1.056850180029869080e-01 7.845095396041870117e-01
-3.826118111610412598e-01 -1.177171766757965088e-01 7.960854172706604004e-01
-3.947636783123016357e-01 -1.005252525210380554e-01 8.019317984580993652e-01
-4.015231430530548096e-01 -1.182581633329391479e-01 8.002141714096069336e-01
-3.969956040382385254e-01 -8.134046196937561035e-02 7.976298332214355469e-01
-4.000287055969238281e-01 -1.316287666559219360e-01 7.998215556144714355e-01
