-3.278371095657348633e-01 -1.174516975879669189e-01 -5.463929176330566406e-01
-4.418846964836120605e-01 -1.540926098823547363e-02 -5.260092020034790039e-01
-3.227647542953491211e-01 -1.320286691188812256e-01 -5.348477959632873535e-01
-3.443650603294372559e-01 -1.639252603054046631e-01 -5.074311494827270508e-01
-4.206938743591308594e-01 -1.130699664354324341e-01 -5.275810956954956055e-01
-4.337733387947082520e-01 -7.327077537775039673e-02 -5.461106300354003906e-01
-3.763494491577148438e-01 -7.433036714792251587e-02 -5.727575421333312988e-01
-3.484772741794586182e-01 -8.577659726142883301e-02 -5.617483258247375488e-01
-4.429556131362915039e-01 -5.215807259082794189e-02 -5.226820707321166992e-01
-3.519598841667175293e-01 -1.096049174666404724e-01 -4.949349164962768555e-01
-4.276728630065917969e-01 -4.633679240942001343e-02 -5.595675706863403320e-01
-3.678538203239440918e-01 -6.166326999664306641e-02 -4.989052712917327881e-01
-3.332735300064086914e-01 -9.299632161855697632e-02 -5.367014408111572266e-01
-4.389143288135528564e-01 -4.327340051531791687e-02 -5.100700855255126953e-01
-3.710384964942932129e-01 -1.165089681744575500e-01 -4.891945719718933105e-01
-3.260520398616790771e-01 -1.247818619012832642e-01 -5.454206466674804688e-01
-3.344653248786926270e-01 -9.636912494897842407e-02 -5.194126963615417480e-01
-3.494227230548858643e-01 -1.245980784296989441e-01 -4.955702424049377441e-01
-3.432218432426452637e-01 -7.282608747482299805e-02 -5.418850779533386230e-01
-3.980368077754974365e-01 -1.129521057009696960e-01 -5.649670958518981934e-01
-4.122382402420043945e-01 -5.831889808177947998e-02 -4.916825294494628906e-01
-3.585958480834960938e-01 -1.529240310192108154e-01 -5.609521865844726562e-01
-3.748621642589569092e-01 -9.987351298332214355e-02 -5.738700032234191895e-01
-3.244103789329528809e-01 -1.334670037031173706e-01 -5.439394116401672363e-01
-3.303270936012268066e-01 -1.138933151960372925e-01 -5.500951409339904785e-01
-4.109911322593688965e-01 -4.372448474168777466e-02 -5.671824812889099121e-01
-3.593083322048187256e-01 -4.728591069579124451e-02 -5.231778621673583984e-01
-3.297453522682189941e-01 -1.471564173698425293e-01 -5.524242520332336426e-01
-4.072481095790863037e-01 -1.408754289150238037e-02 -5.086245536804199219e-01
-4.340175986289978027e-01 -8.040856570005416870e-02 -5.394524931907653809e-01
-3.361431658267974854e-01 -1.126971989870071411e-01 -5.074810385704040527e-01
-3.719767332077026367e-01 -1.592282652854919434e-01 -5.066964030265808105e-01
-3.555566966533660889e-01 -1.314038336277008057e-01 -4.937796294689178467e-01
-4.437925517559051514e-01 -4.225620254874229431e-02 -5.209401249885559082e-01
-3.967351019382476807e-01 -1.084833592176437378e-02 -5.450644493103027344e-01
-3.847546577453613281e-01 -2.163837850093841553e-02 -5.168080925941467285e-01
-3.756204843521118164e-01 -2.547031641006469727e-02 -5.354186296463012695e-01
-3.496727049350738525e-01 -1.385971456766128540e-01 -4.967953264713287354e-01
-4.120502471923828125e-01 -1.150865554809570312e-01 -5.507966279983520508e-01
-3.596841096878051758e-01 -5.873757600784301758e-02 -5.082495212554931641e-01
-4.032706320285797119e-01 -5.501979589462280273e-02 -4.907151460647583008e-01
-4.183281958103179932e-01 -1.090703159570693970e-02 -5.524222254753112793e-01
-3.813797831535339355e-01 -1.580254435539245605e-01 -5.440352559089660645e-01
-4.157685041427612305e-01 -1.016223356127738953e-01 -5.011229515075683594e-01
-3.581697642803192139e-01 -8.675149828195571899e-02 -4.957446455955505371e-01
-4.245821237564086914e-01 -7.686653733253479004e-02 -5.574363470077514648e-01
-4.162970185279846191e-01 -1.135238930583000183e-01 -5.108278989791870117e-01
3.986780345439910889e-01 -1.501836478710174561e-01 -5.213357210159301758e-01
3.756829500198364258e-01 -4.747016429901123047e-01 -4.801307320594787598e-01
4.138341546058654785e-01 -2.335882931947708130e-01 -5.092148184776306152e-01
4.217032790184020996e-01 -3.699148297309875488e-01 -5.289967060089111328e-01
4.124670922756195068e-01 -3.748402893543243408e-01 -4.872231781482696533e-01
3.782909810543060303e-01 -4.095348119735717773e-01 -5.649516582489013672e-01
4.187190532684326172e-01 -5.802375078201293945e-01 -5.362964272499084473e-01
3.593723177909851074e-01 -3.314332962036132812e-01 -4.924530386924743652e-01
3.697426617145538330e-01 -2.057060450315475464e-01 -4.938342571258544922e-01
3.491413593292236328e-01 -5.231872200965881348e-01 -5.275810956954956055e-01
4.060685634613037109e-01 -3.917285799980163574e-01 -5.561285614967346191e-01
3.816795349121093750e-01 -6.927029490470886230e-01 -5.540965199470520020e-01
3.746048212051391602e-01 -7.327718734741210938e-01 -5.177298188209533691e-01
3.602734804153442383e-01 -5.488018989562988281e-01 -5.550113916397094727e-01
4.027655422687530518e-01 -6.333179473876953125e-01 -4.939622581005096436e-01
4.153567552566528320e-01 -5.378330945968627930e-01 -5.471907854080200195e-01
3.741375207901000977e-01 -3.624556660652160645e-01 -4.794897139072418213e-01
4.202119112014770508e-01 -3.433973193168640137e-01 -5.302734971046447754e-01
3.666595220565795898e-01 -7.035787105560302734e-01 -5.383298993110656738e-01
3.747486472129821777e-01 -1.518478095531463623e-01 -5.293844938278198242e-01
3.795875906944274902e-01 -1.288782954216003418e-01 -5.180190801620483398e-01
3.631948232650756836e-01 -6.557047963142395020e-01 -5.465589165687561035e-01
3.580385446548461914e-01 -5.775133371353149414e-01 -5.499181747436523438e-01
3.980081677436828613e-01 -7.349231243133544922e-01 -5.384368896484375000e-01
3.765880763530731201e-01 -7.063945531845092773e-01 -5.061764121055603027e-01
3.858010768890380859e-01 -4.550892412662506104e-01 -4.770387709140777588e-01
4.051081836223602295e-01 -6.658852100372314453e-01 -5.482539534568786621e-01
3.514781594276428223e-01 -4.461564719676971436e-01 -5.437847375869750977e-01
3.693197071552276611e-01 -6.437830924987792969e-01 -4.990568459033966064e-01
3.679697811603546143e-01 -3.871779739856719971e-01 -5.604962706565856934e-01
3.950775861740112305e-01 -6.166085600852966309e-01 -5.605956912040710449e-01
3.496177196502685547e-01 -3.479464948177337646e-01 -5.298009514808654785e-01
4.184934496879577637e-01 -5.503040552139282227e-01 -5.403746962547302246e-01
3.650155961513519287e-01 -3.996667861938476562e-01 -4.850521981716156006e-01
3.617067635059356689e-01 -6.825694441795349121e-01 -5.268157124519348145e-01
4.223551154136657715e-01 -5.134912729263305664e-01 -5.089573264122009277e-01
3.539839088916778564e-01 -5.735691785812377930e-01 -5.420352220535278320e-01
3.940579295158386230e-01 -7.512491941452026367e-01 -5.215077400207519531e-01
3.822792470455169678e-01 -1.584505736827850342e-01 -4.958340525627136230e-01
3.792249262332916260e-01 -5.787116885185241699e-01 -4.854284226894378662e-01
3.998718857765197754e-01 -6.028510928153991699e-01 -4.885694682598114014e-01
3.827809393405914307e-01 -5.048892498016357422e-01 -4.793790578842163086e-01
4.209243059158325195e-01 -5.400502681732177734e-01 -5.073609948158264160e-01
3.502094447612762451e-01 -3.255191445350646973e-01 -5.164168477058410645e-01
4.163684248924255371e-01 -3.231314718723297119e-01 -4.956811368465423584e-01
3.962975740432739258e-01 -2.243202328681945801e-01 -5.457654595375061035e-01
3.936881721019744873e-01 -2.770780026912689209e-01 -5.542210936546325684e-01
3.782933354377746582e-01 -6.650900840759277344e-01 -5.572413206100463867e-01
3.954684138298034668e-01 -7.390918731689453125e-01 -5.148509144783020020e-01
3.690543472766876221e-01 -5.443346500396728516e-01 -5.622876286506652832e-01
3.499651551246643066e-01 -3.355988860130310059e-01 -5.151490569114685059e-01
3.921364843845367432e-01 -3.712967336177825928e-01 -4.764584302902221680e-01
3.975457549095153809e-01 -3.148040473461151123e-01 -4.792543649673461914e-01
3.860234618186950684e-01 -7.493648529052734375e-01 -5.168790221214294434e-01
3.901076018810272217e-01 -5.377445220947265625e-01 -4.807733297348022461e-01
4.038209319114685059e-01 -3.704905509948730469e-01 -4.803484380245208740e-01
3.865073919296264648e-01 -7.408084869384765625e-01 -5.127275586128234863e-01
4.163198173046112061e-01 -6.431969404220581055e-01 -5.247368812561035156e-01
4.092883169651031494e-01 -6.790015697479248047e-01 -5.388619303703308105e-01
3.699283897876739502e-01 -7.167924642562866211e-01 -5.179387927055358887e-01
3.629376590251922607e-01 -6.288983821868896484e-01 -5.038345456123352051e-01
3.755505681037902832e-01 -7.160715460777282715e-01 -5.098206996917724609e-01
3.779309093952178955e-01 -7.431976199150085449e-01 -5.190235972404479980e-01
3.605647683143615723e-01 -2.867426872253417969e-01 -5.460410714149475098e-01
3.929867744445800781e-01 -1.389900743961334229e-01 -5.050306320190429688e-01
3.583850562572479248e-01 -3.215373456478118896e-01 -5.475211143493652344e-01
4.034462869167327881e-01 -4.560384452342987061e-01 -5.602224469184875488e-01
4.080462753772735596e-01 -4.102675318717956543e-01 -5.552912950515747070e-01
4.205325245857238770e-01 -4.909546971321105957e-01 -5.384773015975952148e-01
4.099345803260803223e-01 -5.917204618453979492e-01 -5.513075590133666992e-01
4.188220500946044922e-01 -5.181190371513366699e-01 -4.994900226593017578e-01
4.123443961143493652e-01 -2.388623058795928955e-01 -5.286607146263122559e-01
4.227234125137329102e-01 -4.715402126312255859e-01 -5.318947434425354004e-01
3.891258835792541504e-01 -2.536910474300384521e-01 -4.813850522041320801e-01
4.171088635921478271e-01 -4.811292886734008789e-01 -4.940776824951171875e-01
3.737779259681701660e-01 -2.592517733573913574e-01 -4.844684898853302002e-01
4.219948053359985352e-01 -5.283275842666625977e-01 -5.314692854881286621e-01
4.124655723571777344e-01 -6.036157011985778809e-01 -5.467627644538879395e-01
4.123601019382476807e-01 -2.729060947895050049e-01 -5.368459820747375488e-01
3.712804615497589111e-01 -3.453111946582794189e-01 -4.813208580017089844e-01
3.786903023719787598e-01 -3.524460494518280029e-01 -4.779329299926757812e-01
4.005471467971801758e-01 -5.172650218009948730e-01 -5.621035695075988770e-01
3.888469338417053223e-01 -4.397636651992797852e-01 -5.657929182052612305e-01
3.604991734027862549e-01 -5.218293666839599609e-01 -5.564156770706176758e-01
3.689056038856506348e-01 -6.913455128669738770e-01 -5.465353727340698242e-01
4.077972769737243652e-01 -1.865867972373962402e-01 -5.165339708328247070e-01
3.624830245971679688e-01 -4.729335308074951172e-01 -5.589722990989685059e-01
4.119330048561096191e-01 -4.018762409687042236e-01 -4.862278997898101807e-01
3.557593226432800293e-01 -4.662351906299591064e-01 -5.515850186347961426e-01
4.195457100868225098e-01 -4.045110940933227539e-01 -5.388070940971374512e-01
4.173830747604370117e-01 -3.624557852745056152e-01 -4.946146011352539062e-01
4.059876203536987305e-01 -5.737968683242797852e-01 -4.890471100807189941e-01
4.077697098255157471e-01 -7.069056034088134766e-01 -5.217368602752685547e-01
3.562636971473693848e-01 -5.607759952545166016e-01 -5.041454434394836426e-01
3.573781847953796387e-01 -6.361101865768432617e-01 -5.376832485198974609e-01
4.045643210411071777e-01 -5.416713356971740723e-01 -4.854022860527038574e-01
3.769567310810089111e-01 -1.379272937774658203e-01 -5.239395499229431152e-01
3.903813958168029785e-01 -1.330041885375976562e-01 -5.220972299575805664e-01
3.993210494518280029e-01 -3.743860125541687012e-01 -5.596863031387329102e-01
3.928282856941223145e-01 -3.167340159416198730e-01 -5.583935976028442383e-01
3.995777666568756104e-01 -2.853736579418182373e-01 -4.817325472831726074e-01
3.909547030925750732e-01 -5.289729833602905273e-01 -5.656541585922241211e-01
3.533091545104980469e-01 -5.994433164596557617e-01 -5.314648747444152832e-01
3.496007919311523438e-01 -3.672801852226257324e-01 -5.333631634712219238e-01
3.939680457115173340e-01 -4.375562667846679688e-01 -4.769743084907531738e-01
3.853523433208465576e-01 -4.900631308555603027e-01 -5.667706727981567383e-01
4.204162955284118652e-01 -3.919178843498229980e-01 -5.357188582420349121e-01
3.721840381622314453e-01 -3.642997443675994873e-01 -5.612125396728515625e-01
3.763529360294342041e-01 -1.525281965732574463e-01 -5.007557272911071777e-01
4.217110872268676758e-01 -5.045531988143920898e-01 -5.055586099624633789e-01
3.623012602329254150e-01 -1.877514421939849854e-01 -5.192370414733886719e-01
3.678665757179260254e-01 -6.481025218963623047e-01 -5.534603595733642578e-01
3.813120424747467041e-01 -1.652328073978424072e-01 -5.371127724647521973e-01
3.544714152812957764e-01 -4.342319965362548828e-01 -4.981513619422912598e-01
4.134494662284851074e-01 -3.139589428901672363e-01 -4.916557669639587402e-01
3.854466080665588379e-01 -1.451321840286254883e-01 -5.306708216667175293e-01
3.538117110729217529e-01 -5.303642749786376953e-01 -5.462989807128906250e-01
4.083860814571380615e-01 -3.590579628944396973e-01 -4.837557077407836914e-01
4.124748110771179199e-01 -6.451694369316101074e-01 -5.071977376937866211e-01
4.107764363288879395e-01 -6.735659837722778320e-01 -5.122184157371520996e-01
4.241927862167358398e-01 -4.475502669811248779e-01 -5.142087340354919434e-01
4.076389372348785400e-01 -5.472268462181091309e-01 -5.562030076980590820e-01
3.551468849182128906e-01 -3.900723755359649658e-01 -4.968280196189880371e-01
4.181122779846191406e-01 -4.676985442638397217e-01 -5.438783168792724609e-01
3.718322515487670898e-01 -4.147063493728637695e-01 -4.804981052875518799e-01
3.504384458065032959e-01 -4.436485171318054199e-01 -5.073558092117309570e-01
3.582696020603179932e-01 -6.165326237678527832e-01 -5.451068282127380371e-01
3.482409417629241943e-01 -4.188688397407531738e-01 -5.318277478218078613e-01
4.068958461284637451e-01 -7.110787034034729004e-01 -5.301236510276794434e-01
3.929207921028137207e-01 -2.494597733020782471e-01 -5.511270165443420410e-01
3.675678968429565430e-01 -3.968766331672668457e-01 -5.607156753540039062e-01
3.489369750022888184e-01 -3.809379339218139648e-01 -5.139353871345520020e-01
3.629313707351684570e-01 -2.321934849023818970e-01 -5.397057533264160156e-01
3.518170416355133057e-01 -3.791933655738830566e-01 -5.415753722190856934e-01
3.822911083698272705e-01 -4.173721075057983398e-01 -4.767896533012390137e-01
3.526419401168823242e-01 -4.848247766494750977e-01 -5.039040446281433105e-01
4.179553389549255371e-01 -6.136646270751953125e-01 -5.139687657356262207e-01
3.524738848209381104e-01 -4.570625424385070801e-01 -5.460056662559509277e-01
4.037118852138519287e-01 -2.853529751300811768e-01 -5.492175221443176270e-01
3.995125591754913330e-01 -3.102498054504394531e-01 -5.548132658004760742e-01
3.546796441078186035e-01 -3.756403923034667969e-01 -4.979293942451477051e-01
3.562323153018951416e-01 -6.022195219993591309e-01 -5.430630445480346680e-01
3.968039751052856445e-01 -5.658049583435058594e-01 -5.626945495605468750e-01
3.592978715896606445e-01 -2.128192335367202759e-01 -5.122697949409484863e-01
3.576934933662414551e-01 -3.550152182579040527e-01 -5.497474670410156250e-01
4.096854627132415771e-01 -6.368836760520935059e-01 -5.467855930328369141e-01
4.026374816894531250e-01 -3.364902436733245850e-01 -5.550935864448547363e-01
3.869540393352508545e-01 -6.270996928215026855e-01 -5.617870688438415527e-01
4.114378392696380615e-01 -2.196529060602188110e-01 -5.053633451461791992e-01
4.174832105636596680e-01 -5.513281822204589844e-01 -5.002434849739074707e-01
4.131887853145599365e-01 -5.979805588722229004e-01 -4.992654919624328613e-01
4.163952171802520752e-01 -2.578192949295043945e-01 -5.194451212882995605e-01
3.810982406139373779e-01 -5.569633245468139648e-01 -5.656073689460754395e-01
3.867291212081909180e-01 -7.020428776741027832e-01 -5.527782440185546875e-01
3.648060560226440430e-01 -6.812442541122436523e-01 -5.429303646087646484e-01
3.687728643417358398e-01 -3.534388244152069092e-01 -5.590007305145263672e-01
4.198823571205139160e-01 -5.024743080139160156e-01 -5.397884249687194824e-01
3.606617450714111328e-01 -6.742502450942993164e-01 -5.317133665084838867e-01
4.014955461025238037e-01 -1.593290269374847412e-01 -5.206499099731445312e-01
3.854838609695434570e-01 -2.416111528873443604e-01 -5.517647266387939453e-01
3.615957200527191162e-01 -4.866394102573394775e-01 -5.581603646278381348e-01
3.697773218154907227e-01 -1.743546128273010254e-01 -5.009418129920959473e-01
3.869746327400207520e-01 -5.902264118194580078e-01 -4.850178062915802002e-01
4.232575297355651855e-01 -3.743502497673034668e-01 -5.167055726051330566e-01
3.981003463268280029e-01 -5.965571999549865723e-01 -5.605610013008117676e-01
3.533183634281158447e-01 -5.159381031990051270e-01 -5.461835265159606934e-01
3.971063792705535889e-01 -4.115228354930877686e-01 -5.624865889549255371e-01
3.904161155223846436e-01 -2.224694192409515381e-01 -4.846150875091552734e-01
3.534730970859527588e-01 -4.201833903789520264e-01 -4.997748136520385742e-01
4.072673320770263672e-01 -4.458628296852111816e-01 -5.571201443672180176e-01
3.519480526447296143e-01 -2.980265021324157715e-01 -5.134584307670593262e-01
3.981955647468566895e-01 -5.689734816551208496e-01 -4.846197664737701416e-01
3.772467076778411865e-01 -4.547004699707031250e-01 -5.659262537956237793e-01
3.553273677825927734e-01 -5.188640356063842773e-01 -5.012407302856445312e-01
4.050016105175018311e-01 -1.829864680767059326e-01 -5.256931781768798828e-01
4.033018648624420166e-01 -4.964726567268371582e-01 -5.605890750885009766e-01
3.485239148139953613e-01 -4.996054768562316895e-01 -5.290585756301879883e-01
3.738161921501159668e-01 -2.407996803522109985e-01 -5.498401522636413574e-01
3.940430283546447754e-01 -5.775840878486633301e-01 -4.842900931835174561e-01
4.231734871864318848e-01 -4.047870934009552002e-01 -5.268284082412719727e-01
4.126124978065490723e-01 -3.098588287830352783e-01 -5.421619415283203125e-01
4.134501814842224121e-01 -6.686388254165649414e-01 -5.276997685432434082e-01
3.993917107582092285e-01 -6.472086906433105469e-01 -5.556497573852539062e-01
4.203474223613739014e-01 -3.532045185565948486e-01 -5.314293503761291504e-01
4.202302396297454834e-01 -4.493997097015380859e-01 -4.987188279628753662e-01
3.557785153388977051e-01 -2.542736232280731201e-01 -5.300686955451965332e-01
3.797476589679718018e-01 -3.278856575489044189e-01 -4.782750606536865234e-01
4.223561286926269531e-01 -3.838063776493072510e-01 -5.282030105590820312e-01
4.194965362548828125e-01 -3.031901717185974121e-01 -5.087359547615051270e-01
4.185499548912048340e-01 -3.656306266784667969e-01 -5.377995967864990234e-01
3.548507690429687500e-01 -4.166295230388641357e-01 -5.493646264076232910e-01
3.521612882614135742e-01 -5.518083572387695312e-01 -5.397930145263671875e-01
3.596406877040863037e-01 -3.826234638690948486e-01 -5.538462400436401367e-01
4.204888045787811279e-01 -3.512238264083862305e-01 -5.029447674751281738e-01
3.563489615917205811e-01 -3.334598541259765625e-01 -5.458880066871643066e-01
4.125832319259643555e-01 -6.557210087776184082e-01 -5.376051068305969238e-01
4.170154631137847900e-01 -3.456965386867523193e-01 -4.949933588504791260e-01
3.515179753303527832e-01 -5.720579028129577637e-01 -5.308256745338439941e-01
3.566575944423675537e-01 -2.984034121036529541e-01 -5.419825315475463867e-01
3.625802695751190186e-01 -3.736159205436706543e-01 -5.560889244079589844e-01
4.199602901935577393e-01 -4.215541779994964600e-01 -5.388244986534118652e-01
3.573738038539886475e-01 -2.369581609964370728e-01 -5.091315507888793945e-01
4.227696657180786133e-01 -4.386990070343017578e-01 -5.058038234710693359e-01
3.993663489818572998e-01 -4.120939970016479492e-01 -4.780801236629486084e-01
3.774457275867462158e-01 -6.438611745834350586e-01 -4.936424791812896729e-01
4.235077798366546631e-01 -5.054910778999328613e-01 -5.253804922103881836e-01
4.160912930965423584e-01 -3.009180426597595215e-01 -5.343467593193054199e-01
4.114778339862823486e-01 -5.464923977851867676e-01 -4.913186430931091309e-01
3.562345504760742188e-01 -6.166471242904663086e-01 -5.152904391288757324e-01
3.984237611293792725e-01 -7.166163325309753418e-01 -5.444924831390380859e-01
4.028105437755584717e-01 -1.630845069885253906e-01 -5.090806484222412109e-01
3.619349598884582520e-01 -1.960292309522628784e-01 -5.256977677345275879e-01
3.939255475997924805e-01 -1.615937650203704834e-01 -4.965881109237670898e-01
3.935136198997497559e-01 -1.502211987972259521e-01 -5.000815391540527344e-01
3.936399817466735840e-01 -3.474150896072387695e-01 -4.771157801151275635e-01
3.858568668365478516e-01 -5.370750427246093750e-01 -5.662326216697692871e-01
3.943866491317749023e-01 -2.116157710552215576e-01 -4.869610369205474854e-01
4.093621373176574707e-01 -2.297503948211669922e-01 -4.972001910209655762e-01
4.166371226310729980e-01 -4.326324462890625000e-01 -5.457103252410888672e-01
3.583082258701324463e-01 -2.243987619876861572e-01 -5.105860233306884766e-01
4.108347594738006592e-01 -4.273752868175506592e-01 -5.531866550445556641e-01
3.637376129627227783e-01 -4.404072761535644531e-01 -5.596069097518920898e-01
4.091417193412780762e-01 -1.994616687297821045e-01 -5.072377920150756836e-01
4.240198135375976562e-01 -4.090848565101623535e-01 -5.160186886787414551e-01
4.097293019294738770e-01 -6.318145394325256348e-01 -5.000699162483215332e-01
4.228028655052185059e-01 -3.818907141685485840e-01 -5.090419650077819824e-01
4.036427140235900879e-01 -5.827696323394775391e-01 -5.578958988189697266e-01
4.160914123058319092e-01 -4.554279446601867676e-01 -5.471568703651428223e-01
3.725297749042510986e-01 -6.019313931465148926e-01 -5.610658526420593262e-01
3.963452279567718506e-01 -5.070647597312927246e-01 -4.798885583877563477e-01
3.846190273761749268e-01 -3.869782984256744385e-01 -4.763166010379791260e-01
4.157413840293884277e-01 -4.635701477527618408e-01 -4.914100468158721924e-01
4.193572402000427246e-01 -4.145776629447937012e-01 -4.966931641101837158e-01
4.002884030342102051e-01 -3.311999142169952393e-01 -4.796535670757293701e-01
4.172421991825103760e-01 -2.672922015190124512e-01 -5.193524956703186035e-01
4.171113073825836182e-01 -3.763426542282104492e-01 -5.417011380195617676e-01
4.139225780963897705e-01 -4.956693351268768311e-01 -4.904902875423431396e-01
3.517903387546539307e-01 -4.751794934272766113e-01 -5.443797111511230469e-01
4.044626355171203613e-01 -2.094148248434066772e-01 -5.354600548744201660e-01
3.904882073402404785e-01 -3.737989962100982666e-01 -5.629480481147766113e-01
4.175340831279754639e-01 -5.768411755561828613e-01 -5.038807988166809082e-01
3.937683701515197754e-01 -2.435085624456405640e-01 -4.830539822578430176e-01
3.599896132946014404e-01 -6.640033721923828125e-01 -5.358572602272033691e-01
3.939020633697509766e-01 -6.940315961837768555e-01 -5.522900819778442383e-01
4.106804132461547852e-01 -2.838171720504760742e-01 -5.413628816604614258e-01
4.120059013366699219e-01 -5.682266950607299805e-01 -5.503762364387512207e-01
4.183493852615356445e-01 -3.862740695476531982e-01 -4.953543841838836670e-01
4.114805757999420166e-01 -3.409756720066070557e-01 -4.874032139778137207e-01
3.785717189311981201e-01 -3.724043369293212891e-01 -4.776720106601715088e-01
3.532032966613769531e-01 -5.854300260543823242e-01 -5.368383526802062988e-01
3.480320870876312256e-01 -4.489478170871734619e-01 -5.310359597206115723e-01
3.997805416584014893e-01 -6.835527420043945312e-01 -5.008528828620910645e-01
4.052255153656005859e-01 -2.227521091699600220e-01 -5.375937223434448242e-01
3.591177761554718018e-01 -5.345711112022399902e-01 -5.543760061264038086e-01
4.046620726585388184e-01 -1.921159327030181885e-01 -4.990057945251464844e-01
3.767182230949401855e-01 -7.471650242805480957e-01 -5.323871374130249023e-01
4.145779311656951904e-01 -2.980658113956451416e-01 -4.950885772705078125e-01
4.191690683364868164e-01 -2.937870025634765625e-01 -5.205090045928955078e-01
3.964654803276062012e-01 -6.583426594734191895e-01 -4.946253001689910889e-01
3.647645711898803711e-01 -2.434591650962829590e-01 -5.440514683723449707e-01
3.719139099121093750e-01 -6.559932827949523926e-01 -4.989353418350219727e-01
3.609252274036407471e-01 -5.913824439048767090e-01 -5.526289343833923340e-01
3.755658268928527832e-01 -6.806188821792602539e-01 -5.539901852607727051e-01
3.973686695098876953e-01 -5.513590574264526367e-01 -4.829462766647338867e-01
3.775677978992462158e-01 -2.151682376861572266e-01 -4.872295856475830078e-01
4.196354448795318604e-01 -4.014908075332641602e-01 -4.975068271160125732e-01
4.106131196022033691e-01 -2.193640470504760742e-01 -5.265458226203918457e-01
3.726955354213714600e-01 -4.307806491851806641e-01 -5.641950368881225586e-01
3.528164625167846680e-01 -5.056529641151428223e-01 -5.456488132476806641e-01
4.020476341247558594e-01 -4.600217640399932861e-01 -4.800033569335937500e-01
3.584184944629669189e-01 -2.223687469959259033e-01 -5.264807939529418945e-01
3.565895855426788330e-01 -2.582704424858093262e-01 -5.055559873580932617e-01
4.073233008384704590e-01 -2.814243137836456299e-01 -4.873374700546264648e-01
4.000055789947509766e-01 -1.991060376167297363e-01 -4.920825362205505371e-01
3.998419642448425293e-01 -5.420486927032470703e-01 -5.619909763336181641e-01
3.729731142520904541e-01 -6.198849678039550781e-01 -4.927920401096343994e-01
3.819994628429412842e-01 -6.033365130424499512e-01 -5.634778738021850586e-01
3.505266308784484863e-01 -5.501629710197448730e-01 -5.210949182510375977e-01
3.665286898612976074e-01 -2.552481889724731445e-01 -5.475630164146423340e-01
3.861516714096069336e-01 -1.265441477298736572e-01 -5.104315876960754395e-01
4.081374406814575195e-01 -2.507888376712799072e-01 -4.917204976081848145e-01
4.152588248252868652e-01 -3.549155592918395996e-01 -5.430274009704589844e-01
4.075657725334167480e-01 -6.529541015625000000e-01 -5.014410018920898438e-01
3.555161952972412109e-01 -2.747557759284973145e-01 -5.351948738098144531e-01
3.617354929447174072e-01 -2.752587199211120605e-01 -4.935633838176727295e-01
3.667310178279876709e-01 -3.806825578212738037e-01 -4.837467670440673828e-01
4.045617878437042236e-01 -1.705322563648223877e-01 -5.184594988822937012e-01
3.594983518123626709e-01 -2.496419548988342285e-01 -5.381214618682861328e-01
4.187892973423004150e-01 -5.879581570625305176e-01 -5.094742178916931152e-01
4.056611955165863037e-01 -4.778443872928619385e-01 -4.825340807437896729e-01
3.831415772438049316e-01 -7.457528114318847656e-01 -5.406370162963867188e-01
3.717011809349060059e-01 -1.901572346687316895e-01 -4.949153661727905273e-01
3.836598396301269531e-01 -6.630665659904479980e-01 -4.944930672645568848e-01
3.795526623725891113e-01 -1.892064213752746582e-01 -5.425984859466552734e-01
4.062277972698211670e-01 -3.470222949981689453e-01 -5.531251430511474609e-01
3.499659895896911621e-01 -5.007452368736267090e-01 -5.131281018257141113e-01
4.229939579963684082e-01 -5.165835618972778320e-01 -5.276055932044982910e-01
4.133617281913757324e-01 -3.231219649314880371e-01 -5.426592230796813965e-01
4.068615436553955078e-01 -5.016582012176513672e-01 -4.843806326389312744e-01
3.908751010894775391e-01 -3.856262862682342529e-01 -5.634614229202270508e-01
4.051703512668609619e-01 -6.103340387344360352e-01 -5.547472238540649414e-01
4.044561982154846191e-01 -2.422339618206024170e-01 -5.422916412353515625e-01
4.175785183906555176e-01 -6.257044076919555664e-01 -5.281768441200256348e-01
3.685356378555297852e-01 -3.346720635890960693e-01 -4.833920598030090332e-01
3.983726799488067627e-01 -1.461839973926544189e-01 -5.099900960922241211e-01
3.768405616283416748e-01 -2.006804049015045166e-01 -5.441927313804626465e-01
4.045776426792144775e-01 -7.234298586845397949e-01 -5.285047888755798340e-01
3.758924007415771484e-01 -4.894748926162719727e-01 -4.806565046310424805e-01
4.180684089660644531e-01 -3.755750656127929688e-01 -4.952408373355865479e-01
4.017106294631958008e-01 -1.935414671897888184e-01 -5.348125100135803223e-01
4.220072627067565918e-01 -4.443213343620300293e-01 -5.341669321060180664e-01
3.507432639598846436e-01 -4.653366208076477051e-01 -5.419321656227111816e-01
4.042161703109741211e-01 -4.250717163085937500e-01 -4.804000258445739746e-01
4.092777073383331299e-01 -6.079951524734497070e-01 -4.958356320858001709e-01
3.717736005783081055e-01 -3.097648620605468750e-01 -4.823257327079772949e-01
4.043338894844055176e-01 -6.999834775924682617e-01 -5.093785524368286133e-01
3.559862375259399414e-01 -4.274822175502777100e-01 -5.513666272163391113e-01
3.880313336849212646e-01 -7.531936168670654297e-01 -5.369994640350341797e-01
4.028104245662689209e-01 -2.413071990013122559e-01 -4.877685010433197021e-01
3.577065765857696533e-01 -2.958178520202636719e-01 -4.975560307502746582e-01
3.513860702514648438e-01 -3.175252974033355713e-01 -5.112675428390502930e-01
3.762514591217041016e-01 -3.991272151470184326e-01 -5.641594529151916504e-01
3.742380440235137939e-01 -5.850654244422912598e-01 -5.628290772438049316e-01
3.601110577583312988e-01 -5.356896519660949707e-01 -4.955216646194458008e-01
3.513849079608917236e-01 -3.558284044265747070e-01 -5.063596367835998535e-01
3.741468787193298340e-01 -4.940738677978515625e-01 -5.653726458549499512e-01
4.193041026592254639e-01 -6.064688563346862793e-01 -5.202779769897460938e-01
4.048207700252532959e-01 -2.975333929061889648e-01 -4.839875400066375732e-01
4.024238288402557373e-01 -4.226906299591064453e-01 -5.600518584251403809e-01
4.222765266895294189e-01 -5.506258010864257812e-01 -5.174134969711303711e-01
3.561029732227325439e-01 -2.492179572582244873e-01 -5.097329616546630859e-01
4.020457565784454346e-01 -2.578539252281188965e-01 -5.469805598258972168e-01
3.987275362014770508e-01 -4.809850752353668213e-01 -5.632119178771972656e-01
3.578253984451293945e-01 -2.343334555625915527e-01 -5.297917723655700684e-01
3.479637801647186279e-01 -4.738267064094543457e-01 -5.279409885406494141e-01
3.933533430099487305e-01 -4.563125669956207275e-01 -5.650646686553955078e-01
3.608170747756958008e-01 -1.993834972381591797e-01 -5.136737227439880371e-01
3.643902540206909180e-01 -5.072807073593139648e-01 -4.888709783554077148e-01
4.119598865509033203e-01 -5.220484733581542969e-01 -5.524289011955261230e-01
4.184173941612243652e-01 -6.053819060325622559e-01 -5.319532752037048340e-01
3.624046444892883301e-01 -4.292526841163635254e-01 -5.582958459854125977e-01
3.941675424575805664e-01 -1.720694005489349365e-01 -5.358576178550720215e-01
3.484313786029815674e-01 -4.344758987426757812e-01 -5.335476398468017578e-01
4.115862846374511719e-01 -6.608529686927795410e-01 -5.097512602806091309e-01
3.478295505046844482e-01 -4.096956849098205566e-01 -5.274111628532409668e-01
3.625904619693756104e-01 -5.650286078453063965e-01 -5.565143227577209473e-01
4.233744740486145020e-01 -5.225781202316284180e-01 -5.200060606002807617e-01
4.144123792648315430e-01 -6.391654610633850098e-01 -5.370143651962280273e-01
3.952976763248443604e-01 -3.028945028781890869e-01 -4.791426956653594971e-01
3.931794762611389160e-01 -6.771723628044128418e-01 -4.968758225440979004e-01
3.974140286445617676e-01 -7.267546057701110840e-01 -5.111703872680664062e-01
3.845344781875610352e-01 -4.859045743942260742e-01 -4.782342016696929932e-01
4.220353364944458008e-01 -5.582280755043029785e-01 -5.233820080757141113e-01
3.518674373626708984e-01 -4.908674955368041992e-01 -5.441235899925231934e-01
3.869876265525817871e-01 -5.890126824378967285e-01 -5.642505884170532227e-01
3.505252599716186523e-01 -5.330290794372558594e-01 -5.363112688064575195e-01
3.610133826732635498e-01 -6.671029329299926758e-01 -5.182103514671325684e-01
3.707494139671325684e-01 -5.994043350219726562e-01 -4.917764663696289062e-01
3.812482655048370361e-01 -2.408288568258285522e-01 -4.831956326961517334e-01
4.084776043891906738e-01 -6.887819766998291016e-01 -5.126685500144958496e-01
3.884171247482299805e-01 -1.940964907407760620e-01 -5.434610247611999512e-01
4.238719642162322998e-01 -4.779821336269378662e-01 -5.254352092742919922e-01
3.523216843605041504e-01 -5.421390533447265625e-01 -5.415893793106079102e-01
4.173346757888793945e-01 -2.880737185478210449e-01 -5.033706426620483398e-01
4.190242290496826172e-01 -3.302446603775024414e-01 -5.318225622177124023e-01
4.202428460121154785e-01 -5.928478240966796875e-01 -5.210459232330322266e-01
3.478751778602600098e-01 -4.254550635814666748e-01 -5.186710357666015625e-01
3.861441612243652344e-01 -5.610790252685546875e-01 -4.825372695922851562e-01
3.530133962631225586e-01 -2.859312891960144043e-01 -5.115008950233459473e-01
3.927415013313293457e-01 -6.113598942756652832e-01 -4.874467849731445312e-01
3.810999393463134766e-01 -3.088318705558776855e-01 -4.786649942398071289e-01
3.596774637699127197e-01 -3.431733250617980957e-01 -4.915210604667663574e-01
3.665182292461395264e-01 -1.682183742523193359e-01 -5.108215212821960449e-01
3.650832474231719971e-01 -6.971907615661621094e-01 -5.202258229255676270e-01
3.890602290630340576e-01 -4.277560114860534668e-01 -5.654453635215759277e-01
3.630635142326354980e-01 -2.026799172163009644e-01 -5.041218400001525879e-01
3.776821196079254150e-01 -2.269898802042007446e-01 -5.490374565124511719e-01
3.730247914791107178e-01 -5.584186315536499023e-01 -4.863519370555877686e-01
3.931102752685546875e-01 -4.972784817218780518e-01 -4.787823855876922607e-01
3.865117132663726807e-01 -2.705404460430145264e-01 -5.552610158920288086e-01
4.110163152217864990e-01 -6.183637380599975586e-01 -5.472735762596130371e-01
3.679016828536987305e-01 -5.580760240554809570e-01 -5.610668063163757324e-01
4.114432334899902344e-01 -5.366825461387634277e-01 -4.904740750789642334e-01
3.871183097362518311e-01 -6.317228078842163086e-01 -4.895978868007659912e-01
4.236776232719421387e-01 -4.259059429168701172e-01 -5.259519219398498535e-01
3.834379315376281738e-01 -6.138290762901306152e-01 -5.628700852394104004e-01
3.559410870075225830e-01 -4.602491259574890137e-01 -4.965190291404724121e-01
3.625022768974304199e-01 -5.929002761840820312e-01 -4.987813830375671387e-01
3.571252226829528809e-01 -3.540834486484527588e-01 -4.946098923683166504e-01
3.756450712680816650e-01 -5.349310040473937988e-01 -4.833105802536010742e-01
4.086705744266510010e-01 -3.866624236106872559e-01 -4.834094047546386719e-01
3.488079309463500977e-01 -4.109332263469696045e-01 -5.129376053810119629e-01
3.928106725215911865e-01 -5.119834542274475098e-01 -5.654131174087524414e-01
4.192204475402832031e-01 -5.297635197639465332e-01 -5.014446377754211426e-01
3.664271533489227295e-01 -6.665812730789184570e-01 -5.489443540573120117e-01
4.109661579132080078e-01 -6.692802309989929199e-01 -5.378226637840270996e-01
3.784238398075103760e-01 -2.817789912223815918e-01 -4.808310866355895996e-01
3.800511956214904785e-01 -4.209278821945190430e-01 -5.655629038810729980e-01
3.841507732868194580e-01 -1.804271042346954346e-01 -5.411109924316406250e-01
3.636147379875183105e-01 -6.493179202079772949e-01 -5.069624185562133789e-01
4.164782762527465820e-01 -5.975340008735656738e-01 -5.397993922233581543e-01
4.215743839740753174e-01 -3.640024960041046143e-01 -5.053889155387878418e-01
3.723860085010528564e-01 -4.430207014083862305e-01 -5.643661618232727051e-01
4.198276400566101074e-01 -5.608410835266113281e-01 -5.072410106658935547e-01
4.147554934024810791e-01 -3.368310034275054932e-01 -5.420060753822326660e-01
3.486450612545013428e-01 -5.083260536193847656e-01 -5.254955291748046875e-01
3.620396554470062256e-01 -4.660437107086181641e-01 -4.890845119953155518e-01
3.529550433158874512e-01 -3.640551269054412842e-01 -5.428081154823303223e-01
3.566857278347015381e-01 -4.013686180114746094e-01 -4.943230748176574707e-01
3.722159266471862793e-01 -2.713603079319000244e-01 -5.531871914863586426e-01
3.614539802074432373e-01 -6.042292714118957520e-01 -5.018066763877868652e-01
4.120448231697082520e-01 -4.746017754077911377e-01 -5.527806282043457031e-01
4.191635847091674805e-01 -5.298493504524230957e-01 -5.402520895004272461e-01
3.533487915992736816e-01 -5.500610470771789551e-01 -5.091884136199951172e-01
3.824074864387512207e-01 -1.787311136722564697e-01 -4.912841618061065674e-01
3.746837377548217773e-01 -7.374594211578369141e-01 -5.369723439216613770e-01
3.784288465976715088e-01 -2.980559766292572021e-01 -5.578742027282714844e-01
3.719109594821929932e-01 -3.306183815002441406e-01 -5.588140487670898438e-01
3.722615838050842285e-01 -2.979335188865661621e-01 -4.826489686965942383e-01
3.870966136455535889e-01 -5.163778662681579590e-01 -4.794846177101135254e-01
4.241819679737091064e-01 -4.510732889175415039e-01 -5.232238173484802246e-01
4.066723585128784180e-01 -2.177103906869888306e-01 -4.955571293830871582e-01
3.533407449722290039e-01 -2.756630778312683105e-01 -5.133934020996093750e-01
3.517480492591857910e-01 -5.683558583259582520e-01 -5.193334817886352539e-01
3.477949500083923340e-01 -4.490981996059417725e-01 -5.203754305839538574e-01
3.613488376140594482e-01 -3.742610812187194824e-01 -4.887170195579528809e-01
3.477666676044464111e-01 -4.623203575611114502e-01 -5.230595469474792480e-01
4.137760996818542480e-01 -5.693206787109375000e-01 -4.963359534740447998e-01
3.747386336326599121e-01 -6.713533401489257812e-01 -4.996664524078369141e-01
3.698941767215728760e-01 -7.248736619949340820e-01 -5.240417718887329102e-01
3.602413535118103027e-01 -3.176621794700622559e-01 -4.920943379402160645e-01
4.205724596977233887e-01 -3.170986771583557129e-01 -5.108771324157714844e-01
3.905173242092132568e-01 -3.424981236457824707e-01 -5.610163211822509766e-01
3.638870716094970703e-01 -6.030001640319824219e-01 -5.548637509346008301e-01
4.041693508625030518e-01 -7.077660560607910156e-01 -5.397202372550964355e-01
3.863765001296997070e-01 -1.969380080699920654e-01 -4.877414703369140625e-01
3.869711756706237793e-01 -6.788374185562133789e-01 -5.563726425170898438e-01
4.152367711067199707e-01 -2.675360143184661865e-01 -5.017027258872985840e-01
3.686668276786804199e-01 -2.064152508974075317e-01 -5.405027866363525391e-01
3.957847654819488525e-01 -6.604450941085815430e-01 -5.561715960502624512e-01
3.973512053489685059e-01 -6.746777892112731934e-01 -5.534876585006713867e-01
3.640490174293518066e-01 -4.580616056919097900e-01 -5.601118803024291992e-01
3.848414421081542969e-01 -3.511773347854614258e-01 -5.623992681503295898e-01
3.814176023006439209e-01 -6.875152587890625000e-01 -4.994368255138397217e-01
4.217773079872131348e-01 -3.908112943172454834e-01 -5.036892890930175781e-01
4.203521013259887695e-01 -3.141062855720520020e-01 -5.216078162193298340e-01
3.998224735260009766e-01 -2.667088806629180908e-01 -4.832800328731536865e-01
3.478405773639678955e-01 -4.362848103046417236e-01 -5.191177129745483398e-01
3.561570644378662109e-01 -4.919966757297515869e-01 -4.978019297122955322e-01
4.153056144714355469e-01 -2.445186972618103027e-01 -5.170456767082214355e-01
3.693290352821350098e-01 -5.758763551712036133e-01 -4.902833998203277588e-01
4.117469787597656250e-01 -3.300269246101379395e-01 -4.883010983467102051e-01
4.132453501224517822e-01 -5.800422430038452148e-01 -5.477866530418395996e-01
3.912077546119689941e-01 -7.236800193786621094e-01 -5.472639799118041992e-01
4.049749076366424561e-01 -4.368307888507843018e-01 -5.587242841720581055e-01
3.571430742740631104e-01 -5.595496892929077148e-01 -5.501150488853454590e-01
3.721725940704345703e-01 -6.250641345977783203e-01 -5.590241551399230957e-01
4.119082987308502197e-01 -6.817532777786254883e-01 -5.232110023498535156e-01
3.736212849617004395e-01 -4.989856481552124023e-01 -4.821198284626007080e-01
3.838171958923339844e-01 -5.496178269386291504e-01 -4.819524586200714111e-01
3.608471155166625977e-01 -6.261069774627685547e-01 -5.481997132301330566e-01
3.528605103492736816e-01 -2.906442880630493164e-01 -5.305529236793518066e-01
3.536278903484344482e-01 -3.277306854724884033e-01 -5.027481913566589355e-01
3.834964632987976074e-01 -6.445554494857788086e-01 -5.603506565093994141e-01
3.751603960990905762e-01 -4.042685329914093018e-01 -4.788295626640319824e-01
3.733293712139129639e-01 -2.189993858337402344e-01 -5.461328625679016113e-01
3.941508233547210693e-01 -1.828562021255493164e-01 -4.916414618492126465e-01
4.224949181079864502e-01 -5.384460687637329102e-01 -5.268136262893676758e-01
3.660860359668731689e-01 -4.528907835483551025e-01 -4.850151240825653076e-01
3.969683051109313965e-01 -3.283513486385345459e-01 -5.577206611633300781e-01
3.899550139904022217e-01 -3.988778889179229736e-01 -5.642600059509277344e-01
3.687379062175750732e-01 -7.185220122337341309e-01 -5.351115465164184570e-01
3.665786385536193848e-01 -3.021274507045745850e-01 -5.534066557884216309e-01
3.643435239791870117e-01 -2.652834653854370117e-01 -5.471087098121643066e-01
3.482810556888580322e-01 -3.991923928260803223e-01 -5.165278911590576172e-01
3.736427426338195801e-01 -7.273949384689331055e-01 -5.408138632774353027e-01
3.609099984169006348e-01 -2.379604876041412354e-01 -4.999445974826812744e-01
3.658966422080993652e-01 -1.872074007987976074e-01 -5.316847562789916992e-01
4.162097871303558350e-01 -5.091929435729980469e-01 -4.943174719810485840e-01
4.132187068462371826e-01 -4.148689508438110352e-01 -4.875567853450775146e-01
3.934025168418884277e-01 -4.657085537910461426e-01 -5.651819705963134766e-01
3.774838149547576904e-01 -3.077590465545654297e-01 -5.585891008377075195e-01
3.865616023540496826e-01 -2.768031358718872070e-01 -4.796488583087921143e-01
3.546337485313415527e-01 -5.729370117187500000e-01 -5.096383094787597656e-01
3.604857921600341797e-01 -6.149349808692932129e-01 -5.050985813140869141e-01
3.909370601177215576e-01 -2.881746888160705566e-01 -5.562947392463684082e-01
3.659808337688446045e-01 -3.134123086929321289e-01 -5.541028380393981934e-01
3.557579219341278076e-01 -4.112116396427154541e-01 -4.957395195960998535e-01
3.881042301654815674e-01 -6.975647211074829102e-01 -5.003080368041992188e-01
3.811315894126892090e-01 -7.557498216629028320e-01 -5.269339680671691895e-01
3.776182532310485840e-01 -4.779595136642456055e-01 -5.662300586700439453e-01
4.019780158996582031e-01 -3.003332018852233887e-01 -5.522349476814270020e-01
4.092258214950561523e-01 -5.121359825134277344e-01 -4.867488741874694824e-01
4.158533811569213867e-01 -6.211131215095520020e-01 -5.371796488761901855e-01
4.081277549266815186e-01 -5.933341383934020996e-01 -4.928466081619262695e-01
3.484907746315002441e-01 -3.873097300529479980e-01 -5.302117466926574707e-01
3.675159811973571777e-01 -2.810891866683959961e-01 -4.870129227638244629e-01
3.501217961311340332e-01 -4.906732141971588135e-01 -5.113833546638488770e-01
3.766261339187622070e-01 -1.986511498689651489e-01 -4.900126755237579346e-01
4.042829573154449463e-01 -6.312631368637084961e-01 -5.535985827445983887e-01
-3.856324851512908936e-01 -1.569263041019439697e-01 5.197983980178833008e-01
-4.208598136901855469e-01 -5.966746807098388672e-01 5.216036438941955566e-01
-4.186005294322967529e-01 -5.364419221878051758e-01 5.535500049591064453e-01
-3.657022714614868164e-01 -4.203107655048370361e-01 5.585694909095764160e-01
-3.541901111602783203e-01 -2.758862376213073730e-01 5.353031158447265625e-01
-4.306487143039703369e-01 -4.513026177883148193e-01 5.286372303962707520e-01
-4.158211946487426758e-01 -6.287867426872253418e-01 5.209368467330932617e-01
-4.195869565010070801e-01 -4.555698931217193604e-01 5.093801617622375488e-01
-4.158888757228851318e-01 -4.643850922584533691e-01 5.067890882492065430e-01
-4.247078895568847656e-01 -5.917833447456359863e-01 5.343317389488220215e-01
-4.043332934379577637e-01 -2.728700637817382812e-01 5.549973845481872559e-01
-3.819424510002136230e-01 -5.898863077163696289e-01 5.073150992393493652e-01
-3.655541837215423584e-01 -2.907113432884216309e-01 5.529521107673645020e-01
-4.018013477325439453e-01 -4.997701644897460938e-01 5.018317699432373047e-01
-4.040799140930175781e-01 -4.311100542545318604e-01 5.629025101661682129e-01
-3.573332428932189941e-01 -5.128612518310546875e-01 5.490564703941345215e-01
-4.238660633563995361e-01 -3.325067758560180664e-01 5.441983342170715332e-01
-3.695699572563171387e-01 -4.098892211914062500e-01 5.604689717292785645e-01
-4.077434241771697998e-01 -6.457493305206298828e-01 5.504280924797058105e-01
-4.189541637897491455e-01 -6.189785599708557129e-01 5.232501029968261719e-01
-4.089818596839904785e-01 -5.494245886802673340e-01 5.068620443344116211e-01
-3.635236024856567383e-01 -1.980689465999603271e-01 5.303564667701721191e-01
-4.222359061241149902e-01 -3.055002391338348389e-01 5.432189702987670898e-01
-3.690368831157684326e-01 -3.444898426532745361e-01 5.583468675613403320e-01
-4.206072688102722168e-01 -3.507133722305297852e-01 5.120555758476257324e-01
-3.930082619190216064e-01 -3.275201916694641113e-01 5.001790523529052734e-01
-3.730416595935821533e-01 -2.155275642871856689e-01 5.484425425529479980e-01
-4.175203442573547363e-01 -4.794644415378570557e-01 5.083342194557189941e-01
-3.753497898578643799e-01 -3.684193789958953857e-01 5.616884231567382812e-01
-3.569582402706146240e-01 -4.189357757568359375e-01 5.118850469589233398e-01
-3.660986125469207764e-01 -6.113209724426269531e-01 5.478075742721557617e-01
-3.677637875080108643e-01 -4.477871656417846680e-01 5.597075223922729492e-01
-3.614302575588226318e-01 -3.396153748035430908e-01 5.533541440963745117e-01
-4.138696789741516113e-01 -5.563072562217712402e-01 5.100216865539550781e-01
-3.502233326435089111e-01 -4.692521691322326660e-01 5.375506877899169922e-01
-4.019089043140411377e-01 -2.103467583656311035e-01 5.120767354965209961e-01
-3.658792972564697266e-01 -2.625907063484191895e-01 5.503839254379272461e-01
-3.953246772289276123e-01 -6.033726334571838379e-01 5.590839385986328125e-01
-3.667753636837005615e-01 -6.474550962448120117e-01 5.297331213951110840e-01
-4.282883405685424805e-01 -3.809813261032104492e-01 5.226645469665527344e-01
-3.526605963706970215e-01 -3.221174478530883789e-01 5.406275987625122070e-01
-3.536967635154724121e-01 -5.071351528167724609e-01 5.215507745742797852e-01
-4.230544269084930420e-01 -5.362443923950195312e-01 5.167928934097290039e-01
-4.207745194435119629e-01 -5.039894580841064453e-01 5.529880523681640625e-01
-4.301666617393493652e-01 -4.688827395439147949e-01 5.377235412597656250e-01
-3.865770995616912842e-01 -5.540565848350524902e-01 5.623030066490173340e-01
-4.273849427700042725e-01 -5.479915738105773926e-01 5.385033488273620605e-01
-3.597061336040496826e-01 -5.804271101951599121e-01 5.442382097244262695e-01
-4.078407287597656250e-01 -1.946986466646194458e-01 5.390328168869018555e-01
-3.541479110717773438e-01 -3.127797245979309082e-01 5.426186323165893555e-01
-3.809407055377960205e-01 -6.828128099441528320e-01 5.448102355003356934e-01
-3.865599930286407471e-01 -2.903559803962707520e-01 5.595521926879882812e-01
-3.928906619548797607e-01 -1.968628168106079102e-01 5.485128760337829590e-01
-3.733639419078826904e-01 -6.736068725585937500e-01 5.284578800201416016e-01
-4.116523861885070801e-01 -3.575450778007507324e-01 5.048243999481201172e-01
-4.284087419509887695e-01 -4.448523223400115967e-01 5.433046817779541016e-01
-4.212050735950469971e-01 -5.936353206634521484e-01 5.450385212898254395e-01
-3.891998827457427979e-01 -5.147432088851928711e-01 5.011727213859558105e-01
-3.638199269771575928e-01 -6.242266893386840820e-01 5.261641144752502441e-01
-4.268624484539031982e-01 -5.320826768875122070e-01 5.426614284515380859e-01
-3.845468461513519287e-01 -6.661843061447143555e-01 5.505053400993347168e-01
-3.770224750041961670e-01 -3.127101063728332520e-01 5.595878958702087402e-01
-4.073337912559509277e-01 -2.084934860467910767e-01 5.436045527458190918e-01
-4.172065854072570801e-01 -5.691866874694824219e-01 5.136749744415283203e-01
-3.724196255207061768e-01 -3.532527089118957520e-01 5.601577162742614746e-01
-3.705194890499114990e-01 -3.351559937000274658e-01 5.034678578376770020e-01
-4.123430550098419189e-01 -4.368643760681152344e-01 5.042724609375000000e-01
-4.098938703536987305e-01 -1.934789717197418213e-01 5.253123044967651367e-01
-3.747079372406005859e-01 -6.534295082092285156e-01 5.197627544403076172e-01
-4.073689877986907959e-01 -4.030897021293640137e-01 5.019636154174804688e-01
-3.527631759643554688e-01 -4.917384386062622070e-01 5.217608809471130371e-01
-4.037145078182220459e-01 -2.212258577346801758e-01 5.113634467124938965e-01
-3.776855170726776123e-01 -3.603546619415283203e-01 5.620428919792175293e-01
-3.831858336925506592e-01 -4.315773844718933105e-01 5.645234584808349609e-01
-4.053665399551391602e-01 -5.820256471633911133e-01 5.079599618911743164e-01
