1.149876266717910767e-01 -8.842080831527709961e-02 3.185251653194427490e-01
6.735786199569702148e-01 -2.646863162517547607e-01 -1.934943646192550659e-01
3.196727335453033447e-01 -3.106815516948699951e-01 4.793096780776977539e-01
2.240992933511734009e-01 -2.731624841690063477e-01 -4.491554200649261475e-01
6.237214803695678711e-01 -2.646322548389434814e-02 -1.404315829277038574e-01
2.037794440984725952e-01 -2.482326328754425049e-02 -2.039056420326232910e-01
1.090303957462310791e-01 -1.589525640010833740e-01 -3.459318280220031738e-01
2.056504637002944946e-01 -3.761238157749176025e-01 3.244096934795379639e-01
1.981495767831802368e-01 -6.261929869651794434e-03 -7.696077227592468262e-02
6.718503236770629883e-01 -6.196703016757965088e-02 1.277395337820053101e-01
4.483863115310668945e-01 -5.830332636833190918e-03 -2.762454450130462646e-01
4.076943397521972656e-01 -3.765097856521606445e-01 -2.988956570625305176e-01
4.692553877830505371e-01 2.692842483520507812e-02 -7.748812437057495117e-02
6.589715480804443359e-01 -4.742828011512756348e-02 -1.245163232088088989e-01
7.142983675003051758e-01 -1.056694462895393372e-01 6.083025410771369934e-02
5.352618694305419922e-01 -2.332656085491180420e-02 2.872427701950073242e-01
3.552532494068145752e-01 -4.212762117385864258e-01 1.295663863420486450e-01
5.014440417289733887e-01 -3.243555128574371338e-01 -3.638824522495269775e-01
3.360294699668884277e-01 -1.090612560510635376e-01 -4.684660136699676514e-01
5.262911319732666016e-01 -3.415335714817047119e-01 -2.970320880413055420e-01
5.099299550056457520e-02 -3.562820553779602051e-01 -2.951851114630699158e-02
3.076841831207275391e-01 -2.032675445079803467e-01 -5.062339305877685547e-01
6.211568117141723633e-01 -1.494395732879638672e-02 4.543202370405197144e-02
1.977098882198333740e-01 -1.054620072245597839e-01 4.456543624401092529e-01
1.371389627456665039e-02 -2.586725652217864990e-01 2.587459683418273926e-01
4.355199038982391357e-01 -4.113817811012268066e-01 9.991796314716339111e-02
5.160039067268371582e-01 1.187944412231445312e-02 -1.473714113235473633e-01
2.558351755142211914e-01 -1.378110051155090332e-02 2.810209691524505615e-01
4.255874454975128174e-01 -3.943461477756500244e-01 2.362131029367446899e-01
2.288150042295455933e-01 -4.216766357421875000e-01 9.784838557243347168e-02
3.319771289825439453e-01 -3.693830370903015137e-01 -3.378920853137969971e-01
8.290708065032958984e-02 -6.809027493000030518e-02 1.569427698850631714e-01
5.653043985366821289e-01 -3.122122883796691895e-01 -3.176756203174591064e-01
4.175702929496765137e-01 -4.117857217788696289e-01 1.358553618192672729e-01
4.133021533489227295e-01 -4.008840918540954590e-01 -1.966773569583892822e-01
4.968361854553222656e-01 -3.312953710556030273e-01 3.619347810745239258e-01
7.074371576309204102e-01 -1.411218941211700439e-01 -1.873001903295516968e-01
3.739524483680725098e-01 -8.271683007478713989e-02 4.751387536525726318e-01
3.733245432376861572e-01 -3.663746118545532227e-01 -3.404014110565185547e-01
4.303447306156158447e-01 2.955979108810424805e-02 1.056040078401565552e-01
4.590124487876892090e-01 -2.293858528137207031e-01 5.080704092979431152e-01
2.214947491884231567e-01 -3.458961248397827148e-01 4.053927063941955566e-01
6.188589334487915039e-02 -2.641415297985076904e-01 3.586577773094177246e-01
2.963028848171234131e-01 -3.855259418487548828e-01 3.265081346035003662e-01
1.102493554353713989e-01 -3.848300874233245850e-01 -8.701850473880767822e-02
7.250707149505615234e-01 -2.079831957817077637e-01 3.224827349185943604e-02
6.783869266510009766e-01 -2.890076339244842529e-01 1.283741928637027740e-02
5.362215042114257812e-01 -1.742092370986938477e-01 -4.610428512096405029e-01
2.855322659015655518e-01 -4.236254394054412842e-01 1.284355968236923218e-01
4.456678926944732666e-01 3.233802318572998047e-02 1.670039445161819458e-02
2.922679781913757324e-01 -2.865970134735107422e-01 5.048897266387939453e-01
7.292863130569458008e-01 -1.765607595443725586e-01 5.145813524723052979e-02
5.404329299926757812e-02 -1.529873609542846680e-01 -2.423635572195053101e-01
9.494519233703613281e-02 -7.602602243423461914e-02 -1.657554805278778076e-01
6.236763596534729004e-01 -3.187103867530822754e-01 -1.755021512508392334e-01
1.407930850982666016e-01 -1.005075201392173767e-01 3.816044032573699951e-01
2.396501004695892334e-01 9.197622537612915039e-03 1.044345051050186157e-01
1.661535799503326416e-01 -4.900291562080383301e-02 -2.304053455591201782e-01
3.854720592498779297e-01 -3.986640572547912598e-01 2.515015304088592529e-01
6.582747101783752441e-01 -6.840902566909790039e-02 1.961615830659866333e-01
7.239656448364257812e-01 -1.885842531919479370e-01 -1.109448969364166260e-01
2.465027272701263428e-01 -6.501176953315734863e-02 4.142775833606719971e-01
6.409084796905517578e-01 -1.484751403331756592e-01 -3.448692858219146729e-01
4.883342385292053223e-01 -3.855673074722290039e-01 -1.807276755571365356e-01
5.207819342613220215e-01 -3.558468222618103027e-01 2.642791867256164551e-01
4.094139337539672852e-01 2.024315297603607178e-02 -1.646107435226440430e-01
2.336707860231399536e-01 -3.014883399009704590e-01 -4.284922480583190918e-01
6.587992906570434570e-01 -1.673101633787155151e-01 -3.198321163654327393e-01
2.390680313110351562e-01 -3.366917371749877930e-04 1.911789774894714355e-01
4.677516222000122070e-01 -3.650997281074523926e-01 3.037213981151580811e-01
3.380077779293060303e-01 2.094599604606628418e-02 -1.306045055389404297e-01
-2.364764809608459473e-01 2.547973692417144775e-01 1.756605952978134155e-01
-5.397483706474304199e-03 -3.079483509063720703e-01 -3.606568276882171631e-01
-1.305952072143554688e-01 2.142926491796970367e-02 -4.909152388572692871e-01
-2.491099536418914795e-01 -9.542947262525558472e-02 -2.775413691997528076e-01
-1.869182437658309937e-01 -1.313151568174362183e-01 4.191164076328277588e-01
-1.666805148124694824e-02 -3.532740175724029541e-01 -2.175621241331100464e-01
-1.073857694864273071e-01 9.074416756629943848e-02 -3.002610206604003906e-01
-1.707339882850646973e-01 2.037739753723144531e-01 2.500210888683795929e-02
-1.505972445011138916e-02 -3.584208190441131592e-01 6.509475409984588623e-02
-3.823680579662322998e-01 2.299140244722366333e-01 1.876052767038345337e-01
-1.713547557592391968e-01 2.011498361825942993e-01 -9.158828109502792358e-02
-3.304699063301086426e-01 7.145106047391891479e-02 3.304616510868072510e-01
5.624832212924957275e-02 -2.099018543958663940e-01 -5.430027097463607788e-02
-5.501724779605865479e-02 1.585390977561473846e-02 -2.927847802639007568e-01
-3.273583054542541504e-01 4.130812361836433411e-03 -1.405204087495803833e-02
-2.107096314430236816e-01 -1.942090690135955811e-01 -3.145162388682365417e-02
-3.106240630149841309e-01 1.180928573012351990e-01 -3.470488786697387695e-01
-1.279939860105514526e-01 1.162309125065803528e-01 -3.015450537204742432e-01
-3.016380667686462402e-01 2.806659638881683350e-01 -1.570145338773727417e-01
6.361767649650573730e-03 -1.010042205452919006e-01 -2.840883433818817139e-01
-3.239812254905700684e-01 3.215788304805755615e-02 -1.905637234449386597e-01
-6.891585141420364380e-02 -3.184925615787506104e-01 1.679915636777877808e-01
-2.616572976112365723e-01 -8.815495669841766357e-02 2.736223638057708740e-01
-2.593119740486145020e-01 -7.093267142772674561e-02 3.376081585884094238e-01
-3.470537066459655762e-01 5.376409739255905151e-02 -3.627271577715873718e-02
1.987195014953613281e-02 -2.854610085487365723e-01 -3.635233640670776367e-01
-3.267196416854858398e-01 2.902335226535797119e-01 2.223370820283889771e-01
-2.000340372323989868e-01 -2.084762603044509888e-01 2.843883819878101349e-02
2.527508139610290527e-02 -2.883162796497344971e-01 2.035818696022033691e-01
-1.524504423141479492e-01 -1.136890649795532227e-01 -5.042197108268737793e-01
-1.705076247453689575e-01 1.860388815402984619e-01 2.022356539964675903e-01
-3.449289798736572266e-01 8.122890442609786987e-02 -1.636819541454315186e-01
-2.653504014015197754e-01 -1.031943038105964661e-01 -1.257858276367187500e-01
-1.871505826711654663e-01 -2.250937819480895996e-01 1.801607199013233185e-03
-2.287369966506958008e-02 -2.526069618761539459e-02 -2.288825958967208862e-01
-1.230302453041076660e-01 1.259174495935440063e-01 -2.372358739376068115e-01
2.806566655635833740e-02 -2.546865344047546387e-01 2.143123596906661987e-01
-2.323324680328369141e-01 -1.638598740100860596e-01 5.223085731267929077e-02
-3.460212051868438721e-02 1.334884203970432281e-02 -5.841891467571258545e-02
-3.704001009464263916e-02 1.744913868606090546e-02 -2.243178896605968475e-02
-2.979332804679870605e-01 1.093136295676231384e-01 -3.759882152080535889e-01
1.171466708183288574e-02 -8.348619937896728516e-02 -1.455908715724945068e-01
-1.487176269292831421e-01 5.978094786405563354e-02 -4.688253402709960938e-01
-2.436898499727249146e-01 -1.401848047971725464e-01 -1.140363141894340515e-01
-2.400140464305877686e-01 1.560085564851760864e-01 -4.098329246044158936e-01
-3.698498755693435669e-02 -1.536968648433685303e-01 3.834930062294006348e-01
-1.587728559970855713e-01 1.876523196697235107e-01 8.257157355546951294e-02
-1.985031366348266602e-01 2.323726564645767212e-01 9.861430153250694275e-03
-1.613801717758178711e-01 -2.124125063419342041e-01 2.940075099468231201e-01
-2.840839028358459473e-01 -3.573964908719062805e-02 3.180922567844390869e-01
-3.631110787391662598e-01 2.046853601932525635e-01 3.005722165107727051e-01
-3.792262673377990723e-01 2.350174933671951294e-01 -7.384170591831207275e-02
-3.683257102966308594e-02 8.169915527105331421e-04 1.316813379526138306e-01
-2.454975843429565430e-01 2.515079639852046967e-02 4.946105480194091797e-01
-3.067740499973297119e-01 -2.616765350103378296e-02 1.966416686773300171e-01
-9.362348169088363647e-02 8.334881812334060669e-02 -2.558594942092895508e-01
-1.398353278636932373e-01 -2.670672237873077393e-01 1.445542126893997192e-01
-8.068114519119262695e-03 -4.944623261690139771e-02 8.959423005580902100e-02
-4.557006061077117920e-02 -3.502276539802551270e-01 -1.448843330144882202e-01
-1.326864957809448242e-02 -1.252379417419433594e-01 3.010008335113525391e-01
2.253672480583190918e-02 -3.676142096519470215e-01 -1.323202103376388550e-01
-1.447186917066574097e-01 1.409452259540557861e-01 -2.820871770381927490e-01
1.366026699542999268e-02 -8.365461230278015137e-02 -6.430071592330932617e-02
-3.340417444705963135e-01 1.975265704095363617e-02 1.153110936284065247e-01
-1.499433368444442749e-01 -1.997963637113571167e-01 3.574687242507934570e-01
-2.462553977966308594e-01 2.724722623825073242e-01 5.135179311037063599e-02
-2.206751704216003418e-01 8.933873474597930908e-02 4.997432231903076172e-01
-3.570414781570434570e-01 7.459105551242828369e-02 3.863336145877838135e-02
-3.506971001625061035e-01 3.060914576053619385e-01 6.887149810791015625e-02
-2.371406108140945435e-01 -1.392651498317718506e-01 2.128648757934570312e-01
-3.292146623134613037e-01 2.631311304867267609e-02 2.218945622444152832e-01
-6.392065435647964478e-02 1.461253128945827484e-02 -3.417745232582092285e-01
-1.979281455278396606e-01 -1.687801927328109741e-01 -3.024764358997344971e-01
6.209267675876617432e-02 -2.456246465444564819e-01 -1.402211636304855347e-01
-2.889163792133331299e-01 -6.621129810810089111e-02 1.518575102090835571e-01
-3.601622581481933594e-01 1.646400690078735352e-01 -1.847370564937591553e-01
-3.348075151443481445e-01 1.627119928598403931e-01 -2.847687602043151855e-01
4.221630096435546875e-02 -2.292705923318862915e-01 1.452637910842895508e-01
-2.320988923311233521e-01 -1.046679317951202393e-01 3.567430078983306885e-01
4.412789642810821533e-02 -1.649851351976394653e-01 -5.972658097743988037e-02
-1.124174371361732483e-01 8.914120495319366455e-02 2.853366136550903320e-01
5.145236849784851074e-03 -1.252881437540054321e-01 2.196960151195526123e-01
-1.811006367206573486e-01 2.132034897804260254e-01 6.940539926290512085e-02
-7.937661558389663696e-02 5.913877487182617188e-02 2.080866098403930664e-01
-5.836901813745498657e-02 -7.976062595844268799e-03 -3.752433359622955322e-01
-4.560697823762893677e-02 -3.153266906738281250e-01 -3.212099373340606689e-01
-7.666476070880889893e-02 4.662525653839111328e-02 2.375530749559402466e-01
-2.313220053911209106e-01 2.326529175043106079e-01 2.677201032638549805e-01
-3.621800541877746582e-01 2.841454744338989258e-01 -6.599103659391403198e-02
-2.809751033782958984e-01 -8.658497780561447144e-02 7.431472837924957275e-02
5.468207597732543945e-02 -2.458034604787826538e-01 7.020201534032821655e-02
-1.452918946743011475e-01 7.131791859865188599e-02 4.267154633998870850e-01
-1.367810070514678955e-01 1.446492373943328857e-01 2.027081847190856934e-01
-2.098951190710067749e-01 2.422591000795364380e-01 5.536697059869766235e-02
-1.534303724765777588e-01 -1.308201700448989868e-01 4.621002972126007080e-01
1.992727816104888916e-02 -3.668580949306488037e-01 -6.378768011927604675e-04
-2.143123745918273926e-02 -1.242651604115962982e-02 -1.081318333745002747e-01
-3.523230552673339844e-01 6.673616915941238403e-02 1.365772783756256104e-01
-3.185401856899261475e-02 -2.707114219665527344e-01 3.131295442581176758e-01
-5.693780630826950073e-02 2.432185597717761993e-02 1.927436292171478271e-01
-1.274887919425964355e-01 9.638627618551254272e-02 3.274443149566650391e-01
-1.780973970890045166e-01 -2.265868633985519409e-01 -1.568592637777328491e-01
-3.670262694358825684e-01 1.080789342522621155e-01 -2.821575384587049484e-03
-1.721557229757308960e-01 -1.797782629728317261e-01 -3.697235584259033203e-01
-3.535367846488952637e-01 6.656686216592788696e-02 7.032631896436214447e-03
-1.723257750272750854e-01 1.916088461875915527e-01 -1.808938533067703247e-01
-2.081546336412429810e-01 -1.835325360298156738e-01 1.857728809118270874e-01
-2.747720479965209961e-01 2.634103298187255859e-01 2.663150429725646973e-01
-2.626051604747772217e-01 2.328007370233535767e-01 -2.798098921775817871e-01
2.448186278343200684e-03 -1.383740007877349854e-01 2.524361908435821533e-01
-2.617256045341491699e-01 1.841235719621181488e-02 -4.178181588649749756e-01
-1.830924749374389648e-01 2.063369154930114746e-01 1.626149713993072510e-01
-3.046428561210632324e-01 5.781648308038711548e-02 -3.280033171176910400e-01
3.698174655437469482e-02 -3.635948598384857178e-01 -1.039731726050376892e-01
5.183018743991851807e-02 -2.842025160789489746e-01 9.872405976057052612e-02
-2.127981632947921753e-01 -1.253348588943481445e-01 -3.576460182666778564e-01
-3.050227761268615723e-01 -1.460131444036960602e-02 -1.850629299879074097e-01
-2.374507039785385132e-01 2.174614965915679932e-01 3.344156444072723389e-01
-1.938836127519607544e-01 1.929815709590911865e-01 -2.694097459316253662e-01
-8.426620811223983765e-02 8.340571075677871704e-02 -1.822410970926284790e-01
-3.178585171699523926e-01 2.711042463779449463e-01 -1.898372471332550049e-01
-1.493418812751770020e-01 1.197112128138542175e-01 -3.623275756835937500e-01
-1.898617446422576904e-01 1.581728309392929077e-01 3.711017966270446777e-01
-1.427644491195678711e-02 -2.655271291732788086e-01 -4.232559502124786377e-01
6.303510069847106934e-02 -3.015454709529876709e-01 -7.261722814291715622e-03
-2.177118360996246338e-01 -1.832423359155654907e-01 7.416001707315444946e-02
-6.992653012275695801e-02 -3.385896682739257812e-01 -8.535010367631912231e-02
-1.247852444648742676e-01 -2.831227183341979980e-01 -1.821591556072235107e-01
6.619985401630401611e-02 -2.766895890235900879e-01 -8.101620525121688843e-02
2.333903312683105469e-02 -3.201918303966522217e-01 1.648147255182266235e-01
-2.682834267616271973e-01 -1.020262464880943298e-01 1.454161405563354492e-01
5.422288179397583008e-02 -2.086262851953506470e-01 -3.190269228070974350e-03
-8.870089054107666016e-02 -2.964028120040893555e-01 2.111739367246627808e-01
-1.828026771545410156e-02 -2.478280849754810333e-02 6.772400438785552979e-02
-2.703912556171417236e-02 -1.872746944427490234e-01 3.654614090919494629e-01
-1.255213618278503418e-01 -2.499273568391799927e-01 2.795796394348144531e-01
-1.857155561447143555e-01 8.307570219039916992e-02 4.786408543586730957e-01
2.744106948375701904e-02 -1.189401000738143921e-01 -1.179199665784835815e-01
-5.674891918897628784e-02 -2.481572479009628296e-01 -4.463205635547637939e-01
-1.113493666052818298e-01 1.261290013790130615e-01 9.709552675485610962e-02
-3.389990329742431641e-01 3.084708452224731445e-01 3.321135044097900391e-02
-8.363489061594009399e-02 -3.153257369995117188e-01 1.360166966915130615e-01
-1.965944468975067139e-01 2.119209766387939453e-01 -1.972086727619171143e-01
-9.058915823698043823e-02 2.599777653813362122e-03 -4.491537511348724365e-01
-7.161911576986312866e-02 -3.036530315876007080e-01 -3.073972761631011963e-01
-1.447781324386596680e-01 -1.913014240562915802e-02 5.006551146507263184e-01
-2.418255805969238281e-02 -3.971613198518753052e-02 -2.954291701316833496e-01
-1.292084902524948120e-01 -2.112030684947967529e-01 -4.142835140228271484e-01
3.378495573997497559e-03 -3.641280829906463623e-01 3.827422857284545898e-02
-3.846780210733413696e-02 -5.860859528183937073e-02 3.079333007335662842e-01
-2.992244064807891846e-01 -5.128738284111022949e-02 1.159280091524124146e-01
-5.646156519651412964e-02 -3.811066970229148865e-02 3.425136208534240723e-01
-1.722843050956726074e-01 -2.278686463832855225e-01 -1.965705901384353638e-01
1.166303455829620361e-02 -2.335046827793121338e-01 -4.053581953048706055e-01
-3.313943743705749512e-01 2.323260456323623657e-01 -2.499824464321136475e-01
-2.010157108306884766e-01 1.653473824262619019e-01 -3.633599579334259033e-01
-9.757027775049209595e-02 -4.260585829615592957e-02 -5.080782175064086914e-01
-2.431657165288925171e-01 -1.148052662611007690e-01 -2.481168210506439209e-01
-6.071528047323226929e-02 -3.442406952381134033e-01 4.487321712076663971e-03
-3.138843774795532227e-01 2.450142987072467804e-02 -2.354081124067306519e-01
-2.766291797161102295e-01 2.790454924106597900e-01 1.975264847278594971e-01
-2.217186987400054932e-01 -1.760025471448898315e-01 -8.407802134752273560e-02
6.354509294033050537e-02 -2.750578522682189941e-01 -1.652175635099411011e-01
-1.195944398641586304e-01 1.295772045850753784e-01 1.578967720270156860e-01
-9.063537418842315674e-02 -3.202186822891235352e-01 -1.283930391073226929e-01
-2.588164210319519043e-01 2.740244269371032715e-01 1.556524336338043213e-01
2.095775306224822998e-02 -1.086492687463760376e-01 -1.716081351041793823e-01
-1.269825994968414307e-01 -2.868337929248809814e-01 8.092462271451950073e-02
-1.024493649601936340e-01 1.021395996212959290e-01 -2.229252457618713379e-01
-2.570888996124267578e-01 2.586757242679595947e-01 2.403651028871536255e-01
-1.065158322453498840e-01 1.130660399794578552e-01 -1.903945356607437134e-01
-9.056669473648071289e-02 1.029159352183341980e-01 -4.871656000614166260e-02
1.925916969776153564e-02 -1.025055199861526489e-01 2.309686504304409027e-02
-1.720916032791137695e-01 -2.102388441562652588e-01 2.622890770435333252e-01
-3.238164186477661133e-01 5.430554971098899841e-03 -8.987621963024139404e-02
-1.754999607801437378e-01 1.883008480072021484e-01 -2.169869989156723022e-01
-3.551388978958129883e-01 2.196580618619918823e-01 -2.020402550697326660e-01
-1.687172055244445801e-02 -2.072329074144363403e-02 -5.726345349103212357e-03
-6.351545453071594238e-03 -3.244674801826477051e-01 -3.261705040931701660e-01
-3.010168075561523438e-01 -3.362644836306571960e-02 -1.425400525331497192e-01
-1.129332035779953003e-01 -2.572710439562797546e-02 4.656491875648498535e-01
-1.856379359960556030e-01 1.311997324228286743e-01 4.153448641300201416e-01
-8.154582977294921875e-02 3.605087101459503174e-02 -3.571752607822418213e-01
-3.870952725410461426e-01 1.949266344308853149e-01 6.479506194591522217e-02
-6.341481208801269531e-02 -2.691445052623748779e-01 -4.083569347858428955e-01
-2.684225440025329590e-01 -1.083091422915458679e-01 -9.081880562007427216e-03
-1.551094353199005127e-01 -1.639377176761627197e-01 -4.432415664196014404e-01
-2.877052128314971924e-01 3.176067769527435303e-02 4.249161183834075928e-01
-2.182213962078094482e-02 -2.252590209245681763e-01 3.448302745819091797e-01
-2.185782194137573242e-01 -1.654230654239654541e-01 2.106976509094238281e-01
-1.115867346525192261e-01 1.699624583125114441e-03 4.410431385040283203e-01
-1.957976967096328735e-01 -1.620482951402664185e-01 3.308977484703063965e-01
-2.704044878482818604e-01 -6.593547761440277100e-02 -2.485103458166122437e-01
-2.600045204162597656e-01 -6.956852227449417114e-02 -2.934321463108062744e-01
-2.708818316459655762e-01 7.841554284095764160e-02 4.836844503879547119e-01
-3.584076464176177979e-01 1.364432275295257568e-01 2.860775291919708252e-01
-2.297019660472869873e-01 2.446841150522232056e-01 -1.643345057964324951e-01
-1.303579360246658325e-01 1.126260124146938324e-02 4.663178026676177979e-01
-2.037985920906066895e-01 -6.623002886772155762e-02 4.778242111206054688e-01
-2.884458005428314209e-01 -3.899114578962326050e-02 2.851630151271820068e-01
-3.080392777919769287e-01 -1.278408803045749664e-02 2.456247359514236450e-01
6.489275395870208740e-02 -2.761932611465454102e-01 -2.887787297368049622e-02
-1.439811289310455322e-01 1.269902139902114868e-01 3.063948452472686768e-01
-1.821474730968475342e-02 -1.132899373769760132e-01 -4.169825017452239990e-01
2.832713723182678223e-02 -1.300739496946334839e-01 4.541253298521041870e-02
-3.207446038722991943e-01 3.736416995525360107e-02 3.122051656246185303e-01
-4.278974980115890503e-02 2.569867484271526337e-02 2.055154182016849518e-02
-1.706454157829284668e-01 1.789787113666534424e-01 2.377252578735351562e-01
-3.667811155319213867e-01 2.804414629936218262e-01 1.866267174482345581e-01
-2.452856153249740601e-01 6.476546823978424072e-02 -4.623058140277862549e-01
1.452425122261047363e-02 -1.551906913518905640e-01 -3.504544496536254883e-01
-3.719728589057922363e-01 1.396209001541137695e-01 -6.069882959127426147e-02
-1.219240427017211914e-01 -2.789890766143798828e-01 -2.256570309400558472e-01
-3.275033831596374512e-01 1.440566629171371460e-01 4.026981294155120850e-01
-3.588326275348663330e-01 1.130319312214851379e-01 -1.267412453889846802e-01
-1.559471338987350464e-01 -2.403996884822845459e-01 -2.347913831472396851e-01
-8.578328043222427368e-02 4.305912554264068604e-02 2.943173050880432129e-01
-3.184750676155090332e-02 -2.547010220587253571e-02 1.979581862688064575e-01
-2.299046218395233154e-01 2.444325834512710571e-01 2.066531479358673096e-01
-3.696213960647583008e-01 1.126443669199943542e-01 5.825149267911911011e-02
-3.213911056518554688e-01 1.204841807484626770e-01 -3.172558546066284180e-01
-2.741880118846893311e-01 -9.216187149286270142e-02 -9.387644380331039429e-02
-6.515590846538543701e-02 -3.374100625514984131e-01 6.001722067594528198e-02
-9.522775560617446899e-02 -6.636599451303482056e-02 4.594916701316833496e-01
-1.098645925521850586e-01 6.461027264595031738e-02 -3.835450410842895508e-01
-2.384271919727325439e-01 -1.135517507791519165e-01 3.075283467769622803e-01
3.949569165706634521e-02 -2.576625943183898926e-01 1.682019382715225220e-01
-3.151968717575073242e-01 5.983306467533111572e-02 -2.896091938018798828e-01
-3.342673182487487793e-02 -1.332212798297405243e-02 1.657073199748992920e-01
-1.485611796379089355e-01 1.786062717437744141e-01 -3.728032484650611877e-02
-3.890530765056610107e-02 -2.281833440065383911e-02 -3.272793591022491455e-01
-5.114092677831649780e-02 2.680307440459728241e-02 -2.167851328849792480e-01
-2.776803970336914062e-01 -7.272236049175262451e-02 -1.726577132940292358e-01
-2.906428575515747070e-01 -2.477560006082057953e-02 -2.484891712665557861e-01
-3.150868713855743408e-01 5.915626883506774902e-02 3.748724460601806641e-01
4.692982137203216553e-02 -2.240406572818756104e-01 -2.668276429176330566e-01
-3.829047977924346924e-01 2.365365177392959595e-01 -4.121939092874526978e-02
2.217257022857666016e-02 -1.985110491514205933e-01 -3.650486767292022705e-01
-3.807512521743774414e-01 2.707898318767547607e-01 1.179731711745262146e-01
2.105355262756347656e-02 -1.769105345010757446e-01 2.107295095920562744e-01
-5.628043413162231445e-02 -3.389409780502319336e-01 9.084229171276092529e-02
-3.034815192222595215e-01 5.577303469181060791e-02 4.081396460533142090e-01
-1.001699119806289673e-01 -3.160093426704406738e-01 -2.824049815535545349e-02
-3.161931633949279785e-01 1.183969900012016296e-03 -1.512839943170547485e-01
-1.327756494283676147e-01 1.255856156349182129e-01 2.612112164497375488e-01
-2.169829756021499634e-01 -1.323787569999694824e-01 3.390987217426300049e-01
-7.789693772792816162e-02 5.594071745872497559e-02 -2.762777507305145264e-01
-2.201815843582153320e-01 -1.237654127180576324e-02 -4.788817465305328369e-01
-1.951052844524383545e-01 -2.134319841861724854e-01 -6.506367772817611694e-02
5.413529276847839355e-02 -2.494375407695770264e-01 -2.410518527030944824e-01
-2.125158905982971191e-02 -3.644061982631683350e-01 -1.035834401845932007e-01
-2.510923147201538086e-01 1.801842004060745239e-01 -3.783438503742218018e-01
-2.720642089843750000e-01 -1.229259185492992401e-02 -3.549878895282745361e-01
-7.821501791477203369e-02 7.194732874631881714e-02 1.353963911533355713e-01
-3.361328244209289551e-01 9.770282357931137085e-02 -2.431008368730545044e-01
-8.312680572271347046e-02 4.884186387062072754e-02 -3.277089595794677734e-01
-1.987317055463790894e-01 -1.728900372982025146e-01 2.863637804985046387e-01
-1.686945855617523193e-01 -2.461209297180175781e-01 3.968401998281478882e-02
-8.548395335674285889e-02 -2.884059846401214600e-01 2.471819669008255005e-01
-3.588320016860961914e-01 8.121319860219955444e-02 1.038839071989059448e-01
-3.180888295173645020e-01 -1.141262799501419067e-02 1.456027626991271973e-01
-2.803551256656646729e-01 -3.180901333689689636e-02 -2.853704988956451416e-01
-2.385096549987792969e-01 1.243257150053977966e-01 4.824706912040710449e-01
-2.133771777153015137e-01 1.999484002590179443e-01 -2.973136901855468750e-01
1.019293069839477539e-02 -3.713616728782653809e-01 -6.566913425922393799e-02
-3.058989048004150391e-01 3.047129213809967041e-01 3.365085273981094360e-02
-1.944725364446640015e-01 -2.089444249868392944e-01 -1.296375542879104614e-01
-1.730680018663406372e-01 1.569284796714782715e-01 -3.256941139698028564e-01
-2.977077662944793701e-01 2.621033489704132080e-01 -2.192263752222061157e-01
-9.815957397222518921e-02 1.077524945139884949e-01 -1.437411457300186157e-01
-2.752937078475952148e-01 2.903597652912139893e-01 8.175271004438400269e-02
-1.014573723077774048e-01 -3.122177422046661377e-01 4.554751515388488770e-02
2.068357169628143311e-02 -1.156808137893676758e-01 7.706867903470993042e-02
-3.490068316459655762e-01 1.237481608986854553e-01 -2.084739655256271362e-01
-9.745146334171295166e-02 -2.368210852146148682e-01 3.576693534851074219e-01
-3.804551959037780762e-01 1.553126722574234009e-01 8.503746241331100464e-02
-9.894024580717086792e-02 -3.161527514457702637e-01 -8.027920126914978027e-02
-1.274476200342178345e-01 1.428699940443038940e-01 -1.693377345800399780e-01
-3.865597546100616455e-01 2.118886113166809082e-01 -4.286854527890682220e-04
3.027197718620300293e-02 -2.380520254373550415e-01 -3.542012572288513184e-01
-6.973750889301300049e-02 -3.619394078850746155e-02 -4.563334584236145020e-01
-2.000210583209991455e-01 -7.714130729436874390e-02 -4.652036428451538086e-01
-3.167849481105804443e-01 2.605190277099609375e-01 3.140734434127807617e-01
-1.223001405596733093e-01 4.160421341657638550e-02 -4.544937908649444580e-01
-2.879998385906219482e-01 -6.562479585409164429e-02 -1.055170297622680664e-01
-8.687515556812286377e-02 9.752906113862991333e-02 -6.704575847834348679e-03
-3.482804596424102783e-01 1.161252036690711975e-01 3.126683533191680908e-01
-1.916481107473373413e-01 -3.424758836627006531e-02 5.093845725059509277e-01
-2.917016148567199707e-01 4.862110316753387451e-02 -3.617154359817504883e-01
-4.230004549026489258e-02 -6.663190573453903198e-02 -4.276227355003356934e-01
-1.610239893198013306e-01 1.857268959283828735e-01 -1.372597217559814453e-01
-2.166600376367568970e-01 -1.004891544580459595e-01 4.096055626869201660e-01
1.829193532466888428e-02 -1.405940055847167969e-01 -3.060070276260375977e-01
-9.851053357124328613e-03 -3.332969546318054199e-02 -6.539082527160644531e-02
-3.022032380104064941e-01 8.985778316855430603e-03 3.403471708297729492e-01
-2.988767623901367188e-01 2.104895710945129395e-01 4.029148817062377930e-01
-1.084094047546386719e-01 -1.439006626605987549e-01 4.628178775310516357e-01
-2.839415371417999268e-01 2.931112945079803467e-01 -3.663690388202667236e-02
-2.636542618274688721e-01 1.267398595809936523e-01 -4.255135059356689453e-01
-1.504679322242736816e-01 -2.477751672267913818e-01 1.965097635984420776e-01
-1.210355162620544434e-01 -2.874289155006408691e-01 1.243969872593879700e-01
-1.355982124805450439e-01 8.524448424577713013e-02 3.789324462413787842e-01
-3.164954781532287598e-01 -1.948150619864463806e-02 9.199540317058563232e-02
-1.472113579511642456e-01 -2.557722330093383789e-01 -2.056653797626495361e-01
-1.865141242742538452e-01 -2.256070077419281006e-01 -3.077185899019241333e-02
-8.077710866928100586e-02 2.057420648634433746e-02 -3.910161554813385010e-01
-1.171723604202270508e-01 -5.574458464980125427e-02 4.841431081295013428e-01
-3.467203974723815918e-01 6.337179988622665405e-02 -9.296847879886627197e-02
-3.825211524963378906e-01 1.666936874389648438e-01 3.529623150825500488e-02
-4.371961206197738647e-02 -1.996414922177791595e-02 2.525342404842376709e-01
-3.129703104496002197e-01 9.653737768530845642e-03 2.860716879367828369e-01
-2.782376110553741455e-01 1.846052892506122589e-02 -3.734322190284729004e-01
-2.082073092460632324e-01 -1.876854598522186279e-01 -1.513978689908981323e-01
-6.447943300008773804e-02 5.783409625291824341e-02 -1.482848376035690308e-01
-1.771807670593261719e-03 -7.557691633701324463e-02 1.419590711593627930e-01
6.001225113868713379e-02 -2.492876648902893066e-01 -1.840081959962844849e-01
-3.246863484382629395e-01 -3.713637590408325195e-03 5.700744688510894775e-02
-1.925592720508575439e-01 2.150320410728454590e-01 -1.563564389944076538e-01
-1.435954868793487549e-01 -1.543856561183929443e-01 4.430828690528869629e-01
-4.949043691158294678e-02 -3.018510937690734863e-01 -3.532273471355438232e-01
5.062936246395111084e-02 -2.136184722185134888e-01 6.109526753425598145e-02
-2.882332205772399902e-01 -7.476805895566940308e-02 4.268870502710342407e-02
-3.329690396785736084e-01 2.067195810377597809e-02 -5.084238201379776001e-02
2.357380092144012451e-02 -1.418275088071823120e-01 -2.743588984012603760e-01
-3.757456839084625244e-01 1.371991783380508423e-01 1.999295689165592194e-02
2.516712248325347900e-02 -1.564036458730697632e-01 1.563347727060317993e-01
-9.060066938400268555e-02 -1.764819025993347168e-01 4.360801279544830322e-01
-1.487046778202056885e-01 1.570995450019836426e-01 -2.322342544794082642e-01
-1.054627746343612671e-01 -8.552864193916320801e-02 -5.307663679122924805e-01
-3.810316920280456543e-01 2.637329697608947754e-01 -8.212186396121978760e-03
-3.577633500099182129e-01 8.714248985052108765e-02 -5.464293807744979858e-02
-1.452548652887344360e-01 -2.409089356660842896e-01 2.497116178274154663e-01
2.231228351593017578e-02 -1.276320666074752808e-01 -2.427765876054763794e-01
-2.156109064817428589e-01 2.134580165147781372e-01 -2.582583129405975342e-01
-3.904393315315246582e-02 2.000975422561168671e-02 -9.603220969438552856e-02
-4.945560544729232788e-02 -3.272446393966674805e-01 -2.720023393630981445e-01
-3.008276820182800293e-01 -4.920073598623275757e-02 -3.286878764629364014e-02
-9.002358466386795044e-02 8.192759752273559570e-02 1.825616806745529175e-01
-1.364782452583312988e-03 -2.030792385339736938e-01 -4.325758218765258789e-01
-2.354886829853057861e-01 -2.007848769426345825e-02 4.776925146579742432e-01
-2.405535876750946045e-01 -1.486680358648300171e-01 -7.831919193267822266e-02
-2.255612909793853760e-01 -7.367237657308578491e-02 4.332639276981353760e-01
-5.595595389604568481e-02 4.970742017030715942e-02 -5.910958349704742432e-02
-2.259176969528198242e-02 -1.600939631462097168e-01 -4.628441333770751953e-01
-8.084940910339355469e-02 -1.510247886180877686e-01 -5.179167389869689941e-01
-2.722370326519012451e-01 2.503815591335296631e-01 -2.389366328716278076e-01
-3.679732084274291992e-01 2.320038825273513794e-01 2.688957154750823975e-01
-2.269251793622970581e-01 2.577174007892608643e-01 9.517408907413482666e-03
-2.096058875322341919e-01 -1.015882343053817749e-01 -4.121437370777130127e-01
-2.291813343763351440e-01 -1.478238552808761597e-01 -2.048066258430480957e-01
-2.218492329120635986e-02 -3.565706014633178711e-01 -1.854405850172042847e-01
-1.622948348522186279e-01 1.037112101912498474e-01 -4.226337969303131104e-01
-3.520797491073608398e-01 2.084711343050003052e-01 3.351766169071197510e-01
-1.988255381584167480e-01 2.291143089532852173e-01 -8.185845613479614258e-02
2.026136219501495361e-02 -2.241782993078231812e-01 2.426886409521102905e-01
-2.326211631298065186e-01 2.593315243721008301e-01 1.043765619397163391e-01
2.673402428627014160e-03 -3.473951518535614014e-01 1.235255375504493713e-01
-2.359511703252792358e-01 -1.593125909566879272e-01 1.594331860542297363e-02
4.717993736267089844e-02 -3.065502643585205078e-01 -2.665460407733917236e-01
-1.267535388469696045e-01 9.353591501712799072e-02 -3.643538951873779297e-01
-1.958025395870208740e-01 -1.484742462635040283e-01 3.652520477771759033e-01
-1.047577857971191406e-01 8.886630833148956299e-02 2.479347437620162964e-01
-1.269723922014236450e-01 -2.898418307304382324e-01 -8.939018845558166504e-02
-3.225796818733215332e-01 2.947736680507659912e-01 -9.888015687465667725e-02
3.677490353584289551e-02 -1.673483997583389282e-01 8.755066990852355957e-02
3.876829147338867188e-02 -1.616751998662948608e-01 4.525492340326309204e-02
-1.050574406981468201e-01 4.598324745893478394e-02 -4.097370207309722900e-01
4.061356186866760254e-02 -2.882832586765289307e-01 1.516934186220169067e-01
-3.641163110733032227e-01 1.225413158535957336e-01 2.210903018712997437e-01
-1.307741850614547729e-01 1.564435213804244995e-01 -5.959808826446533203e-02
-5.930965393781661987e-02 -3.066131174564361572e-01 2.308573424816131592e-01
-3.425072431564331055e-01 1.958659291267395020e-01 3.643368482589721680e-01
-2.371008694171905518e-02 -6.277883797883987427e-02 2.491234093904495239e-01
-1.049077659845352173e-01 5.925027281045913696e-02 3.330137729644775391e-01
-5.527602136135101318e-02 -3.488191664218902588e-01 -3.977125883102416992e-02
-3.300759196281433105e-02 -3.286705911159515381e-01 1.854494661092758179e-01
-6.405487656593322754e-02 5.266246944665908813e-02 1.106216162443161011e-01
-1.313438862562179565e-01 -1.827698647975921631e-01 4.157841205596923828e-01
5.567371845245361328e-02 -3.231506645679473877e-01 -1.947068274021148682e-01
-2.994334697723388672e-01 2.286936491727828979e-01 3.764598667621612549e-01
4.316650331020355225e-02 -2.917406260967254639e-01 -2.963000237941741943e-01
-2.432481199502944946e-01 1.753877289593219757e-02 -4.553017914295196533e-01
-3.439098000526428223e-01 2.514079809188842773e-01 -1.968143731355667114e-01
-2.847396731376647949e-01 1.919596940279006958e-01 -3.543702661991119385e-01
2.955488860607147217e-02 -1.268172562122344971e-01 1.572821289300918579e-03
-1.719660609960556030e-01 1.325191259384155273e-01 3.820142745971679688e-01
-3.439998626708984375e-02 -2.963671386241912842e-01 2.703549861907958984e-01
-2.139077782630920410e-01 2.449798136949539185e-01 -4.660394787788391113e-02
-2.710731327533721924e-02 -9.188604354858398438e-02 3.129653334617614746e-01
1.011529564857482910e-02 -7.672701030969619751e-02 -1.062010005116462708e-01
-1.373229324817657471e-01 -9.419295936822891235e-02 4.929897189140319824e-01
-1.076492965221405029e-01 -2.748411297798156738e-01 -3.040532171726226807e-01
5.989021062850952148e-02 -2.626551091670989990e-01 3.380706161260604858e-02
-9.091900289058685303e-02 -2.550974786281585693e-01 -3.985508084297180176e-01
-3.405420184135437012e-01 8.902406692504882812e-02 -2.074787169694900513e-01
-5.285812169313430786e-02 -2.123653590679168701e-01 3.892088234424591064e-01
-8.294980973005294800e-02 -2.104143947362899780e-01 -4.770057797431945801e-01
-3.156974613666534424e-01 3.009851872920989990e-01 -5.651551485061645508e-02
5.435436964035034180e-03 -1.789741516113281250e-01 -4.067577421665191650e-01
-4.265743494033813477e-02 -1.942006796598434448e-01 -4.878648221492767334e-01
-3.377863764762878418e-01 2.669776044785976410e-02 6.001000292599201202e-03
-3.457008004188537598e-01 1.803681701421737671e-01 -2.489977926015853882e-01
-1.509542465209960938e-01 -6.307068467140197754e-02 -5.292876362800598145e-01
-2.436837404966354370e-01 -7.915106415748596191e-02 3.758346438407897949e-01
-3.852690160274505615e-01 1.862605810165405273e-01 1.139675080776214600e-01
5.417869985103607178e-02 -2.024601548910140991e-01 -1.214194893836975098e-01
-2.400267422199249268e-01 2.572674155235290527e-01 -1.311247199773788452e-01
-2.489337623119354248e-01 -1.297007948160171509e-01 1.657156944274902344e-01
-9.565711021423339844e-02 6.799878552556037903e-03 3.976689577102661133e-01
-1.530905216932296753e-01 1.829593479633331299e-01 5.025467276573181152e-02
-1.990822404623031616e-01 2.268929034471511841e-01 1.286600232124328613e-01
3.938135504722595215e-02 -2.694098055362701416e-01 -3.212088346481323242e-01
-3.648653626441955566e-01 2.675184011459350586e-01 -1.031221449375152588e-01
-3.993778675794601440e-02 -9.149219840764999390e-02 3.554592430591583252e-01
-2.896115183830261230e-03 -4.820669069886207581e-02 -9.460590034723281860e-02
-3.850987553596496582e-01 2.084207236766815186e-01 1.581346988677978516e-01
3.569716215133666992e-02 -1.902753859758377075e-01 -2.922663390636444092e-01
-3.692870736122131348e-01 1.677579730749130249e-01 2.572962641716003418e-01
-2.176236957311630249e-01 3.926224261522293091e-02 -4.919736385345458984e-01
-2.871067523956298828e-01 2.868366837501525879e-01 -1.044357419013977051e-01
-5.533298850059509277e-02 2.959391288459300995e-02 1.572649627923965454e-01
-6.819605827331542969e-03 -1.656281501054763794e-01 3.110591471195220947e-01
-6.555281579494476318e-02 -2.726654708385467529e-01 3.111110031604766846e-01
-2.492188811302185059e-01 2.740331292152404785e-01 -1.673392206430435181e-02
-2.753141522407531738e-02 -7.344231754541397095e-02 -3.904759585857391357e-01
-2.078706622123718262e-01 -1.811916232109069824e-01 -1.948083192110061646e-01
-1.094572842121124268e-01 1.295267939567565918e-01 -2.491088025271892548e-02
-1.579177528619766235e-01 -2.515864372253417969e-01 1.215201690793037415e-01
4.704195261001586914e-02 -1.751157194375991821e-01 -1.066458672285079956e-01
-6.670967489480972290e-02 6.708594411611557007e-02 -2.473245188593864441e-02
-1.842194348573684692e-01 -2.254583835601806641e-01 8.271273225545883179e-02
4.624706506729125977e-02 -1.961254775524139404e-01 -2.229881286621093750e-01
-1.437942087650299072e-01 1.677389442920684814e-01 1.058454886078834534e-01
-2.425897717475891113e-01 -4.705207794904708862e-02 -3.997386991977691650e-01
-2.388671189546585083e-01 1.102915480732917786e-01 -4.525293409824371338e-01
-2.661182880401611328e-01 -1.124798208475112915e-01 4.041807353496551514e-02
-2.353408932685852051e-01 -9.513112902641296387e-02 -3.401244878768920898e-01
-8.878053724765777588e-02 9.821256250143051147e-02 -1.005892977118492126e-01
-1.700937002897262573e-01 1.743234694004058838e-01 -2.560453712940216064e-01
-1.298598945140838623e-01 1.521752625703811646e-01 -1.112218201160430908e-01
-1.693173050880432129e-01 8.958130329847335815e-02 -4.536153376102447510e-01
-1.139565557241439819e-01 -2.580285072326660156e-01 -3.392321169376373291e-01
-3.146210610866546631e-01 9.194397181272506714e-02 4.101977646350860596e-01
-2.216566801071166992e-01 1.914023607969284058e-01 3.671096563339233398e-01
-2.293795347213745117e-03 -7.581151276826858521e-02 -2.663968503475189209e-01
-1.078222617506980896e-01 -3.089136183261871338e-01 1.986360177397727966e-03
-2.989996969699859619e-02 -1.850707456469535828e-03 -1.636346429586410522e-01
-2.739749550819396973e-01 -5.561571568250656128e-03 4.145303964614868164e-01
-2.574871480464935303e-01 -1.057082042098045349e-01 -1.866772919893264771e-01
1.546967029571533203e-02 -1.018109470605850220e-01 -2.077608108520507812e-01
-7.942562550306320190e-02 -9.620631486177444458e-02 4.456157088279724121e-01
3.853942453861236572e-02 -1.479283869266510010e-01 -9.146364033222198486e-02
-9.510131925344467163e-02 -3.125371932983398438e-01 9.660342335700988770e-02
-1.589744389057159424e-01 -2.579645812511444092e-01 9.936511516571044922e-03
-1.467405110597610474e-01 -2.552921324968338013e-02 -5.289494991302490234e-01
-2.915234565734863281e-01 1.388907879590988159e-01 4.598926007747650146e-01
-8.034891635179519653e-02 8.153774589300155640e-02 8.912844955921173096e-02
-2.686043083667755127e-02 -1.142005175352096558e-01 3.365728557109832764e-01
3.290267288684844971e-02 -3.506798148155212402e-01 5.865958333015441895e-02
5.717238783836364746e-02 -2.801796197891235352e-01 -2.296481579542160034e-01
-3.191923201084136963e-01 3.018864095211029053e-01 1.518375426530838013e-01
-3.385450243949890137e-01 5.456561595201492310e-02 -1.427685767412185669e-01
-8.493676781654357910e-03 -3.109107315540313721e-01 2.298141717910766602e-01
-1.866867393255233765e-01 -1.520694047212600708e-01 -3.862017095088958740e-01
1.438276469707489014e-02 -8.701432496309280396e-02 -1.448275148868560791e-02
5.756242573261260986e-02 -2.979243397712707520e-01 5.131314694881439209e-02
-2.020746469497680664e-03 -1.248950585722923279e-01 -3.761807084083557129e-01
-1.995235681533813477e-01 2.102394849061965942e-01 2.375177145004272461e-01
-1.410872787237167358e-01 1.221249774098396301e-01 -3.312959969043731689e-01
-7.266432046890258789e-03 -9.141349792480468750e-02 2.223295122385025024e-01
-3.869659006595611572e-01 2.506280541419982910e-01 8.248699456453323364e-02
-3.231506347656250000e-01 1.912113279104232788e-01 -3.047146499156951904e-01
-2.041064798831939697e-01 -1.739133447408676147e-01 -2.531906068325042725e-01
-6.454527378082275391e-02 -2.524476647377014160e-01 3.477229177951812744e-01
-1.456020921468734741e-01 -1.452136784791946411e-01 -4.836708903312683105e-01
-2.155392169952392578e-01 -1.394053399562835693e-01 -3.115710020065307617e-01
-2.856186628341674805e-01 5.297356843948364258e-02 4.491989910602569580e-01
-1.762595921754837036e-01 -2.098572552204132080e-01 -2.603798806667327881e-01
6.370435655117034912e-02 -3.106608688831329346e-01 -1.361372768878936768e-01
-3.577149808406829834e-01 2.978268265724182129e-01 -1.608899980783462524e-02
-4.445407539606094360e-02 6.498536095023155212e-03 -2.605126202106475830e-01
2.314825356006622314e-02 -1.375865191221237183e-01 1.280135661363601685e-01
-3.880530595779418945e-01 2.296919673681259155e-01 2.927117981016635895e-02
-1.497703790664672852e-02 -3.670749068260192871e-01 -3.630591183900833130e-02
-5.085486173629760742e-02 -1.037934944033622742e-01 -4.838220477104187012e-01
-2.839178144931793213e-01 -6.218159943819046021e-02 2.274524122476577759e-01
-8.918285369873046875e-03 -4.203132539987564087e-02 -1.665131151676177979e-01
3.029684722423553467e-02 -3.497431576251983643e-01 -2.228306531906127930e-01
-1.587772816419601440e-01 -2.137727588415145874e-01 -3.241342902183532715e-01
-8.859852701425552368e-02 -2.789568603038787842e-01 -3.443761765956878662e-01
-1.804349124431610107e-01 2.132369279861450195e-01 -4.722588509321212769e-02
-1.627698838710784912e-01 5.033349245786666870e-02 4.803014993667602539e-01
-3.035393953323364258e-01 -3.647040575742721558e-02 -9.857853502035140991e-02
2.035103738307952881e-02 -3.507901430130004883e-01 8.961022645235061646e-02
-1.617345213890075684e-01 -2.507249116897583008e-01 -1.152385324239730835e-01
-1.400251984596252441e-01 -2.778743803501129150e-01 -5.975202471017837524e-02
2.848704159259796143e-02 -3.609325587749481201e-01 -1.732536852359771729e-01
-8.915239572525024414e-02 -3.158130645751953125e-01 -1.813118010759353638e-01
-2.810161709785461426e-01 2.940338253974914551e-01 8.765112608671188354e-03
-4.208709299564361572e-02 1.881228201091289520e-02 7.987878471612930298e-02
2.911217808723449707e-01 -5.861285924911499023e-01 3.484591245651245117e-01
2.042511403560638428e-01 -5.944905281066894531e-01 5.706690549850463867e-01
3.622009158134460449e-01 -5.373722314834594727e-01 5.649563670158386230e-01
4.594454765319824219e-01 -5.897030830383300781e-01 3.744059503078460693e-01
6.884334981441497803e-02 -8.117693662643432617e-01 4.793154001235961914e-01
1.126305311918258667e-01 -8.097546100616455078e-01 4.554581940174102783e-01
4.810405075550079346e-01 -5.361724495887756348e-01 5.645323395729064941e-01
5.873426198959350586e-01 -6.850408315658569336e-01 4.900482594966888428e-01
-1.676325201988220215e-01 -7.544490694999694824e-01 4.460829198360443115e-01
1.794391572475433350e-01 -7.164981961250305176e-01 5.717663764953613281e-01
5.459483265876770020e-01 -6.422874331474304199e-01 5.664157867431640625e-01
4.554193615913391113e-01 -4.452219009399414062e-01 4.569691121578216553e-01
4.740333259105682373e-01 -4.723759293556213379e-01 4.079152047634124756e-01
3.741591572761535645e-01 -4.600989222526550293e-01 5.035859346389770508e-01
2.559855580329895020e-03 -6.422688961029052734e-01 3.480677604675292969e-01
4.524803757667541504e-01 -6.215322017669677734e-01 3.777822852134704590e-01
9.099595248699188232e-02 -8.021361827850341797e-01 5.099009275436401367e-01
6.960478425025939941e-02 -6.394885778427124023e-01 5.584686398506164551e-01
7.439029216766357422e-02 -6.070818305015563965e-01 3.435645401477813721e-01
4.084911346435546875e-01 -7.624823451042175293e-01 5.023527741432189941e-01
4.293329119682312012e-01 -6.331412792205810547e-01 3.751854300498962402e-01
1.101373881101608276e-01 -4.902598559856414795e-01 4.069878756999969482e-01
1.807771325111389160e-01 -5.930347442626953125e-01 3.423071503639221191e-01
-1.288912594318389893e-01 -6.357124447822570801e-01 4.887627959251403809e-01
2.814350724220275879e-01 -6.099731922149658203e-01 3.480004370212554932e-01
2.970726490020751953e-01 -6.655816435813903809e-01 5.850302577018737793e-01
2.969236075878143311e-01 -4.835332930088043213e-01 5.216392278671264648e-01
1.543771922588348389e-01 -4.796633720397949219e-01 4.711619019508361816e-01
4.565857052803039551e-01 -5.197926759719848633e-01 3.798624873161315918e-01
-4.928648471832275391e-03 -8.076611757278442383e-01 4.600900709629058838e-01
-1.354298293590545654e-01 -6.090742349624633789e-01 3.981240391731262207e-01
6.102850437164306641e-01 -5.644319653511047363e-01 4.203323721885681152e-01
-7.289311289787292480e-02 -7.488873004913330078e-01 3.862057328224182129e-01
6.610543727874755859e-01 -5.280548930168151855e-01 4.550877213478088379e-01
1.168233007192611694e-01 -5.413463711738586426e-01 5.297816991806030273e-01
5.316203236579895020e-01 -6.780921816825866699e-01 4.301692843437194824e-01
2.432855218648910522e-01 -7.999229431152343750e-01 4.786546528339385986e-01
2.990908026695251465e-01 -5.139269828796386719e-01 5.467826128005981445e-01
6.086246371269226074e-01 -4.783179163932800293e-01 4.938988685607910156e-01
5.013064742088317871e-01 -5.097681879997253418e-01 5.503474473953247070e-01
6.144112348556518555e-01 -6.245212554931640625e-01 5.483315587043762207e-01
1.051732301712036133e-01 -6.672111153602600098e-01 5.678862333297729492e-01
2.461244165897369385e-02 -7.836903333663940430e-01 5.219789147377014160e-01
3.994648456573486328e-01 -5.028890371322631836e-01 5.476276278495788574e-01
2.867313921451568604e-01 -4.988907873630523682e-01 5.340859889984130859e-01
5.840964317321777344e-01 -6.652259230613708496e-01 5.418725013732910156e-01
4.648610949516296387e-02 -6.036168932914733887e-01 3.461913764476776123e-01
-2.875629067420959473e-02 -5.524310469627380371e-01 3.852380514144897461e-01
3.416108191013336182e-01 -6.947542428970336914e-01 3.791887760162353516e-01
2.342264205217361450e-01 -4.656148254871368408e-01 4.797223210334777832e-01
8.108925819396972656e-02 -7.442293763160705566e-01 3.741448819637298584e-01
5.473626852035522461e-01 -5.046296119689941406e-01 4.072492122650146484e-01
4.272468090057373047e-01 -4.441144764423370361e-01 4.532379209995269775e-01
