-3.512030839920043945e-01 -6.063750386238098145e-01 -3.466157317161560059e-01
-3.798478841781616211e-01 -7.240619659423828125e-01 -3.429800271987915039e-01
-3.900694251060485840e-01 -7.609921097755432129e-01 -3.431088328361511230e-01
-3.043791055679321289e-01 -4.589273333549499512e-01 -3.560614287853240967e-01
-3.442358970642089844e-01 -5.672872066497802734e-01 -3.681466579437255859e-01
-2.850845158100128174e-01 -4.339166283607482910e-01 -3.582138419151306152e-01
-3.210143148899078369e-01 -5.863327383995056152e-01 -3.671517968177795410e-01
-3.583446145057678223e-01 -6.830508708953857422e-01 -3.657736182212829590e-01
-3.426347374916076660e-01 -6.178393363952636719e-01 -3.452779948711395264e-01
-3.776279389858245850e-01 -7.370966672897338867e-01 -3.628498911857604980e-01
-3.581779003143310547e-01 -6.152872443199157715e-01 -3.475387394428253174e-01
-3.581097424030303955e-01 -6.799008846282958984e-01 -3.440051674842834473e-01
-3.331667780876159668e-01 -5.226985812187194824e-01 -3.667936623096466064e-01
-3.879516720771789551e-01 -6.949471831321716309e-01 -3.605059087276458740e-01
-3.290268480777740479e-01 -6.349462270736694336e-01 -3.597034811973571777e-01
-3.046685457229614258e-01 -5.472044944763183594e-01 -3.645477890968322754e-01
-3.550683856010437012e-01 -5.886543989181518555e-01 -3.513248860836029053e-01
-3.394145369529724121e-01 -6.509222388267517090e-01 -3.478515446186065674e-01
-3.285011649131774902e-01 -5.015035867691040039e-01 -3.635353744029998779e-01
-3.512656986713409424e-01 -5.640423893928527832e-01 -3.587951958179473877e-01
-3.747357726097106934e-01 -7.291092872619628906e-01 -3.432976603507995605e-01
-2.852743268013000488e-01 -4.643691778182983398e-01 -3.581922054290771484e-01
-3.442719280719757080e-01 -6.651102900505065918e-01 -3.637284040451049805e-01
-3.701669573783874512e-01 -6.556282639503479004e-01 -3.461490869522094727e-01
-4.021837711334228516e-01 -8.023563623428344727e-01 -3.571828901767730713e-01
-1.935185194015502930e-01 1.237501204013824463e-01 -3.390754461288452148e-01
-1.437613815069198608e-01 2.043363302946090698e-01 1.632519066333770752e-02
-1.627358943223953247e-01 1.860240548849105835e-01 -4.145336449146270752e-01
-2.261526286602020264e-01 1.755789816379547119e-01 -1.012457162141799927e-02
-1.431539952754974365e-01 1.915597021579742432e-01 1.716440916061401367e-02
-1.732506901025772095e-01 1.686323285102844238e-01 2.543487846851348877e-01
-1.873922795057296753e-01 1.050876826047897339e-01 8.577871322631835938e-02
-1.609026789665222168e-01 1.179493665695190430e-01 -2.502936311066150665e-02
-2.126055359840393066e-01 1.396888643503189087e-01 -2.408289760351181030e-01
-2.176918983459472656e-01 1.684392988681793213e-01 -1.818567961454391479e-01
-1.623509228229522705e-01 1.086909547448158264e-01 -1.781728267669677734e-01
-1.467208266258239746e-01 2.310028374195098877e-01 -1.173992753028869629e-01
-1.984820216894149780e-01 1.336842030286788940e-01 2.487895190715789795e-01
-1.531161367893218994e-01 1.222105249762535095e-01 -2.119543850421905518e-01
-2.161886096000671387e-01 1.418414711952209473e-01 2.367624342441558838e-01
-2.220978438854217529e-01 1.524202227592468262e-01 2.171474993228912354e-01
-1.676686257123947144e-01 2.472548484802246094e-01 -1.289933025836944580e-01
-1.481131911277770996e-01 1.347056925296783447e-01 -2.629303336143493652e-01
-1.513594090938568115e-01 2.154854685068130493e-01 -3.139770030975341797e-01
-1.877847313880920410e-01 1.123920604586601257e-01 1.372678279876708984e-01
-2.210975140333175659e-01 1.348095834255218506e-01 -1.295478790998458862e-01
-1.803188621997833252e-01 1.155281364917755127e-01 1.249116212129592896e-01
-2.198494374752044678e-01 1.325809061527252197e-01 -1.435302197933197021e-01
-2.267464995384216309e-01 1.754985749721527100e-01 1.298062503337860107e-02
-2.231158763170242310e-01 1.819799840450286865e-01 2.014447450637817383e-01
-1.655844300985336304e-01 2.475906312465667725e-01 -1.163723617792129517e-01
-1.402661055326461792e-01 2.039805650711059570e-01 -5.503676086664199829e-02
-1.894220858812332153e-01 2.437883168458938599e-01 -7.699820399284362793e-02
-1.586090922355651855e-01 1.159113645553588867e-01 -2.552314996719360352e-01
-1.516397148370742798e-01 1.263711005449295044e-01 -1.213625743985176086e-01
-1.451894938945770264e-01 1.581340879201889038e-01 -3.398321270942687988e-01
-1.455036997795104980e-01 2.284394949674606323e-01 -1.340360343456268311e-01
-1.481190621852874756e-01 2.333532571792602539e-01 -8.660897612571716309e-02
-1.581904590129852295e-01 1.178498938679695129e-01 -7.316924631595611572e-02
-1.438287496566772461e-01 1.433325558900833130e-01 -2.082850784063339233e-01
-2.115059792995452881e-01 1.034299582242965698e-01 -7.398332655429840088e-02
-1.685343533754348755e-01 1.270657777786254883e-01 1.120121926069259644e-01
-1.905827075242996216e-01 1.230631321668624878e-01 1.987141966819763184e-01
-1.371395289897918701e-01 1.845435798168182373e-01 -1.987322866916656494e-01
-1.522600054740905762e-01 1.344362795352935791e-01 -2.374088019132614136e-02
-1.386385709047317505e-01 2.034350633621215820e-01 -1.131822615861892700e-01
-1.641527712345123291e-01 1.718533039093017578e-01 2.081325948238372803e-01
-2.277352958917617798e-01 1.583821624517440796e-01 1.286897063255310059e-01
-2.082889527082443237e-01 2.080046832561492920e-01 -1.656611263751983643e-01
-1.764234006404876709e-01 2.250720709562301636e-01 -2.890688478946685791e-01
-1.993514299392700195e-01 1.681752502918243408e-01 -3.372087776660919189e-01
-1.977343708276748657e-01 2.254658490419387817e-01 -1.713094413280487061e-01
-1.791533231735229492e-01 1.491847634315490723e-01 2.456164658069610596e-01
-1.903875619173049927e-01 2.443279922008514404e-01 1.109582185745239258e-01
-1.652699857950210571e-01 2.160199880599975586e-01 -3.420794010162353516e-01
-1.550749540328979492e-01 2.308922708034515381e-01 -2.486279159784317017e-01
-2.235421985387802124e-01 1.439929455518722534e-01 1.811792701482772827e-01
-1.745668649673461914e-01 2.484571039676666260e-01 -1.068334355950355530e-01
-1.673071831464767456e-01 1.449566781520843506e-01 1.724936515092849731e-01
-1.721770614385604858e-01 1.787809431552886963e-01 -4.207884371280670166e-01
-1.417594552040100098e-01 2.056533545255661011e-01 -2.386036515235900879e-02
-1.914666891098022461e-01 1.525788754224777222e-01 -3.822498023509979248e-01
-1.456475108861923218e-01 1.935058385133743286e-01 5.368717759847640991e-02
-1.371782720088958740e-01 1.901802867650985718e-01 -1.539974063634872437e-01
-1.920142918825149536e-01 2.450927793979644775e-01 7.214666903018951416e-02
-1.755488663911819458e-01 2.188243716955184937e-01 2.444716691970825195e-01
-2.249442487955093384e-01 1.343685686588287354e-01 1.123071014881134033e-01
-1.485666036605834961e-01 1.404580473899841309e-01 -4.740585759282112122e-02
-2.040213048458099365e-01 2.297707349061965942e-01 -5.961443111300468445e-02
-1.751263886690139771e-01 2.045617699623107910e-01 2.666577994823455811e-01
-1.675399839878082275e-01 1.827639192342758179e-01 2.375786304473876953e-01
-1.581874489784240723e-01 1.381065547466278076e-01 7.234451174736022949e-02
-1.381366699934005737e-01 1.952635943889617920e-01 -2.283111363649368286e-01
-2.279736995697021484e-01 1.701907515525817871e-01 8.906401693820953369e-02
-1.555166840553283691e-01 1.377437561750411987e-01 4.100078344345092773e-02
-1.516724079847335815e-01 1.245302259922027588e-01 -1.811478435993194580e-01
-2.086503058671951294e-01 1.025662124156951904e-01 -1.218377947807312012e-01
-1.467538326978683472e-01 1.572347283363342285e-01 -3.543411195278167725e-01
-1.838644444942474365e-01 9.727078676223754883e-02 -1.452891156077384949e-02
-2.268099933862686157e-01 1.670143455266952515e-01 -2.059457078576087952e-02
-1.466941535472869873e-01 1.745113432407379150e-01 5.281431972980499268e-02
-1.807920634746551514e-01 1.503610461950302124e-01 -4.148112237453460693e-01
-1.433338969945907593e-01 2.084246575832366943e-01 -2.787943482398986816e-01
-1.530196964740753174e-01 1.480256617069244385e-01 -3.824347257614135742e-01
-1.748611479997634888e-01 1.887931078672409058e-01 2.737448513507843018e-01
-1.677139401435852051e-01 1.110990196466445923e-01 -3.005848228931427002e-01
-1.561331748962402344e-01 2.151475250720977783e-01 -3.336659669876098633e-01
-1.521008908748626709e-01 2.375398576259613037e-01 -1.517261266708374023e-01
-2.164882719516754150e-01 1.667868942022323608e-01 -1.983024179935455322e-01
-1.804307550191879272e-01 2.480839639902114868e-01 -8.667352795600891113e-02
-1.836490631103515625e-01 1.109292060136795044e-01 1.125556379556655884e-01
-1.378450095653533936e-01 1.800394058227539062e-01 -2.389974594116210938e-01
-1.702560633420944214e-01 1.865908801555633545e-01 2.530125081539154053e-01
-1.998214721679687500e-01 2.385007441043853760e-01 9.545876085758209229e-02
-1.399627625942230225e-01 1.661437600851058960e-01 -9.689321368932723999e-02
-1.875738650560379028e-01 2.120128422975540161e-01 -3.021830320358276367e-01
-2.248444259166717529e-01 1.407496929168701172e-01 1.495480984449386597e-01
-2.245090305805206299e-01 1.566796302795410156e-01 -9.132263064384460449e-02
-1.755776554346084595e-01 2.509385645389556885e-01 -4.006000608205795288e-02
-2.157339155673980713e-01 2.018682211637496948e-01 -9.932503849267959595e-02
-1.533224135637283325e-01 1.713079363107681274e-01 1.218483597040176392e-01
-1.568700373172760010e-01 1.231774613261222839e-01 -3.881198912858963013e-02
-1.623116433620452881e-01 2.448354363441467285e-01 3.997434675693511963e-02
-1.587838381528854370e-01 1.134625673294067383e-01 -1.456145942211151123e-01
-1.702473163604736328e-01 1.010462939739227295e-01 -1.443997621536254883e-01
-1.409512013196945190e-01 1.736347526311874390e-01 -4.384602233767509460e-02
-1.884686350822448730e-01 9.670755267143249512e-02 -2.087110877037048340e-01
-2.214715331792831421e-01 1.630489230155944824e-01 2.350943684577941895e-01
-1.629436463117599487e-01 1.439137309789657593e-01 1.376383900642395020e-01
-1.377525627613067627e-01 1.970560550689697266e-01 -2.000842690467834473e-01
-1.974899172782897949e-01 1.861822903156280518e-01 3.192709088325500488e-01
-2.207665741443634033e-01 1.545411348342895508e-01 -1.540420949459075928e-01
-1.406544744968414307e-01 1.887497007846832275e-01 -2.883582375943660736e-02
-2.092680484056472778e-01 1.228290051221847534e-01 -2.382243424654006958e-01
-1.623024642467498779e-01 1.617837846279144287e-01 1.796436309814453125e-01
-1.488206237554550171e-01 1.858204603195190430e-01 9.101884067058563232e-02
-2.038267403841018677e-01 1.111495047807693481e-01 1.445158869028091431e-01
-1.786028146743774414e-01 1.307850927114486694e-01 1.879274249076843262e-01
-1.725995093584060669e-01 2.466731071472167969e-01 9.340645372867584229e-02
-1.394657939672470093e-01 1.834211796522140503e-01 -5.999404191970825195e-02
-2.170784771442413330e-01 2.072875201702117920e-01 -3.452860563993453979e-02
-2.215047925710678101e-01 1.442508250474929810e-01 2.047861814498901367e-01
-2.254994958639144897e-01 1.340406835079193115e-01 9.197680652141571045e-02
-2.005570232868194580e-01 1.253121346235275269e-01 -3.075755238533020020e-01
-2.107357531785964966e-01 1.950340121984481812e-01 -1.936277300119400024e-01
-2.002234905958175659e-01 1.799602806568145752e-01 -3.165810108184814453e-01
-1.987071633338928223e-01 2.260721027851104736e-01 -1.582407802343368530e-01
-2.254700660705566406e-01 1.411885917186737061e-01 -5.586009472608566284e-02
-1.525491774082183838e-01 2.396150231361389160e-01 -6.606417894363403320e-02
-2.177517116069793701e-01 1.212911605834960938e-01 -1.336289942264556885e-01
-1.662357747554779053e-01 1.070186197757720947e-01 -2.435362190008163452e-01
-2.024356722831726074e-01 2.343431711196899414e-01 1.310521215200424194e-01
-1.421322524547576904e-01 1.497547477483749390e-01 -2.289019972085952759e-01
-1.971128731966018677e-01 2.404798269271850586e-01 -1.691552624106407166e-02
-1.925782561302185059e-01 2.362668365240097046e-01 -1.337419450283050537e-01
-1.844232082366943359e-01 1.015302091836929321e-01 -2.633833885192871094e-01
-1.624829024076461792e-01 2.329744994640350342e-01 1.318267285823822021e-01
-2.279230952262878418e-01 1.528066247701644897e-01 6.183821707963943481e-03
-1.646944135427474976e-01 1.073365882039070129e-01 -1.036818176507949829e-01
-2.066483497619628906e-01 1.028039380908012390e-01 -1.532035768032073975e-01
-2.061744332313537598e-01 1.009087264537811279e-01 -1.363526135683059692e-01
-2.282849252223968506e-01 1.616537123918533325e-01 3.246337175369262695e-02
-1.542755067348480225e-01 2.196543067693710327e-01 1.125063747167587280e-01
-2.093227356672286987e-01 1.096787527203559875e-01 -1.794562339782714844e-01
-2.260270565748214722e-01 1.334856450557708740e-01 4.802487790584564209e-02
-2.190793901681900024e-01 2.063398957252502441e-01 1.499371230602264404e-02
-1.758541166782379150e-01 1.296586394309997559e-01 1.698487848043441772e-01
-1.563036143779754639e-01 1.484594792127609253e-01 -3.997084200382232666e-01
-1.376163959503173828e-01 1.850503236055374146e-01 -1.209956407546997070e-01
-2.193699479103088379e-01 1.835896521806716919e-01 -1.240028217434883118e-01
-2.110276222229003906e-01 2.212361395359039307e-01 1.601203829050064087e-01
-1.592315584421157837e-01 2.403815090656280518e-01 5.494947731494903564e-02
-2.280533909797668457e-01 1.584429740905761719e-01 1.154033392667770386e-01
-2.246327102184295654e-01 1.821241974830627441e-01 -2.401352301239967346e-02
-1.693021059036254883e-01 2.368689775466918945e-01 1.538315862417221069e-01
-1.401864886283874512e-01 1.618439406156539917e-01 -1.153852343559265137e-01
-1.659185588359832764e-01 1.070917025208473206e-01 -7.983759045600891113e-02
-1.848013103008270264e-01 2.014783322811126709e-01 -3.475009500980377197e-01
-2.083255350589752197e-01 1.251121163368225098e-01 -2.526196241378784180e-01
-2.175623178482055664e-01 1.992718875408172607e-01 2.194688022136688232e-01
-2.239950299263000488e-01 1.750162690877914429e-01 -6.931546330451965332e-02
-1.374035477638244629e-01 1.929405182600021362e-01 -1.394820511341094971e-01
-1.459669470787048340e-01 2.196904122829437256e-01 5.988903343677520752e-03
-1.983723193407058716e-01 1.435424685478210449e-01 2.760453820228576660e-01
-2.006921768188476562e-01 1.038840040564537048e-01 -2.176526933908462524e-01
-1.383260190486907959e-01 1.972220242023468018e-01 -9.972910583019256592e-02
-1.820105314254760742e-01 2.347626388072967529e-01 -2.140587270259857178e-01
-1.935843676328659058e-01 1.723067909479141235e-01 -3.639234900474548340e-01
-1.537945717573165894e-01 1.597265899181365967e-01 1.026580929756164551e-01
-2.092859297990798950e-01 1.780945807695388794e-01 -2.520555853843688965e-01
-2.192092984914779663e-01 2.080686092376708984e-01 9.364397823810577393e-02
-1.597539782524108887e-01 1.895770579576492310e-01 1.906613856554031372e-01
-1.486078351736068726e-01 1.587481498718261719e-01 -3.726753294467926025e-01
-1.845843046903610229e-01 1.033783778548240662e-01 -2.777197659015655518e-01
-2.231886684894561768e-01 1.961272656917572021e-01 1.007127016782760620e-01
-1.396131515502929688e-01 1.624700427055358887e-01 -2.424478381872177124e-01
-1.967686116695404053e-01 9.789732098579406738e-02 3.265483677387237549e-02
-1.896376013755798340e-01 9.823167324066162109e-02 -2.242307662963867188e-01
-1.916235685348510742e-01 2.367445230484008789e-01 1.870894730091094971e-01
-1.636400073766708374e-01 1.364057511091232300e-01 -3.987583816051483154e-01
-2.050617635250091553e-01 1.379554271697998047e-01 -3.001227378845214844e-01
-1.931732445955276489e-01 2.037475407123565674e-01 3.037783503532409668e-01
-1.459894776344299316e-01 2.286562025547027588e-01 -7.253499329090118408e-02
-1.713418066501617432e-01 1.061320081353187561e-01 -2.769258618354797363e-01
-1.586672961711883545e-01 1.526993513107299805e-01 1.294285356998443604e-01
-2.260498106479644775e-01 1.679508835077285767e-01 -4.064074903726577759e-02
-1.427831500768661499e-01 1.704018414020538330e-01 -3.308920562267303467e-01
-1.589387357234954834e-01 1.667423099279403687e-01 1.633736193180084229e-01
-1.489035636186599731e-01 1.740469783544540405e-01 7.938180863857269287e-02
-2.150017321109771729e-01 1.091960594058036804e-01 -8.644080907106399536e-02
-1.862312406301498413e-01 1.022774875164031982e-01 5.691627413034439087e-02
-1.420704424381256104e-01 1.491162031888961792e-01 -1.842821985483169556e-01
-2.199248373508453369e-01 1.164054423570632935e-01 5.069804936647415161e-02
-1.936330646276473999e-01 2.294598966836929321e-01 2.274847328662872314e-01
-2.203184515237808228e-01 1.365420669317245483e-01 1.911419928073883057e-01
-2.148078680038452148e-01 1.803043782711029053e-01 -1.926062554121017456e-01
-1.948114037513732910e-01 1.174617707729339600e-01 -3.154907822608947754e-01
-2.090157270431518555e-01 1.600682437419891357e-01 -2.761374115943908691e-01
-2.095923572778701782e-01 2.118140161037445068e-01 2.403555810451507568e-01
-2.013989090919494629e-01 2.269395738840103149e-01 -1.235242486000061035e-01
-1.512512117624282837e-01 1.465810239315032959e-01 -3.670828342437744141e-01
-1.906915903091430664e-01 1.308578252792358398e-01 -3.651349842548370361e-01
-2.103055417537689209e-01 1.722199767827987671e-01 3.008586764335632324e-01
-1.854861080646514893e-01 2.490215599536895752e-01 7.726214826107025146e-03
-1.393184065818786621e-01 2.007317692041397095e-01 -7.335566729307174683e-02
-1.740828603506088257e-01 1.769837439060211182e-01 2.662138342857360840e-01
-2.028755247592926025e-01 9.638965874910354614e-02 -9.653073549270629883e-02
-2.059892863035202026e-01 1.070500463247299194e-01 1.083307564258575439e-01
-2.045851647853851318e-01 2.274547517299652100e-01 1.851102560758590698e-01
-1.382451951503753662e-01 1.680079847574234009e-01 -1.873861402273178101e-01
-2.047508358955383301e-01 2.336841970682144165e-01 7.367351651191711426e-02
-1.451714336872100830e-01 1.407049894332885742e-01 -2.416142225265502930e-01
-1.642079949378967285e-01 1.191997528076171875e-01 2.681678533554077148e-02
-1.882300674915313721e-01 2.076180279254913330e-01 -3.144531250000000000e-01
-2.020189017057418823e-01 2.369200289249420166e-01 6.030942499637603760e-02
-2.237238883972167969e-01 1.933640986680984497e-01 4.221031814813613892e-02
-1.869983077049255371e-01 9.835871309041976929e-02 1.800853013992309570e-02
-1.875776797533035278e-01 1.352277398109436035e-01 2.360309958457946777e-01
-1.389052122831344604e-01 1.851368993520736694e-01 -7.339651882648468018e-02
-1.454021334648132324e-01 2.222172617912292480e-01 -2.237503528594970703e-01
-2.038635611534118652e-01 9.656757116317749023e-02 -4.631949216127395630e-02
-2.139182388782501221e-01 1.536553800106048584e-01 2.719340920448303223e-01
-1.434321552515029907e-01 2.110924869775772095e-01 -6.074976176023483276e-03
-1.686304807662963867e-01 1.115322262048721313e-01 1.190099865198135376e-02
-1.990793645381927490e-01 1.427881866693496704e-01 -3.416004776954650879e-01
-2.229970544576644897e-01 1.613230705261230469e-01 -1.154042482376098633e-01
-1.675122678279876709e-01 1.388738155364990234e-01 1.539254933595657349e-01
-1.555688530206680298e-01 2.314581573009490967e-01 7.839025557041168213e-02
-1.400893926620483398e-01 1.958952695131301880e-01 -4.371088743209838867e-02
-2.111272364854812622e-01 2.116304934024810791e-01 -1.093875914812088013e-01
-1.860347241163253784e-01 2.245939075946807861e-01 -2.549614310264587402e-01
-1.702934801578521729e-01 1.423187702894210815e-01 -4.180973768234252930e-01
-1.555146127939224243e-01 2.018708139657974243e-01 1.540753841400146484e-01
-2.266445904970169067e-01 1.754508614540100098e-01 1.400987058877944946e-01
-2.284843027591705322e-01 1.556232720613479614e-01 7.845248281955718994e-02
-1.937867552042007446e-01 1.021120622754096985e-01 -2.440130114555358887e-01
-2.030035853385925293e-01 1.021654307842254639e-01 7.182869315147399902e-02
-1.480574756860733032e-01 1.371290385723114014e-01 -8.678570389747619629e-02
-1.401239782571792603e-01 2.130718678236007690e-01 -1.317470520734786987e-01
-2.139961719512939453e-01 2.133166193962097168e-01 1.860764473676681519e-01
-1.890965402126312256e-01 1.405218988656997681e-01 2.553743720054626465e-01
-2.181380540132522583e-01 2.010563462972640991e-01 -6.113192439079284668e-02
-2.212443649768829346e-01 1.633126586675643921e-01 -1.410414874553680420e-01
-1.637335419654846191e-01 2.392251789569854736e-01 -2.132659703493118286e-01
-2.129935175180435181e-01 1.449653655290603638e-01 2.588018774986267090e-01
-2.211272865533828735e-01 1.300546824932098389e-01 -1.143951639533042908e-01
-1.510176360607147217e-01 1.682608574628829956e-01 9.285989403724670410e-02
-2.167665809392929077e-01 2.111475020647048950e-01 4.079639911651611328e-04
-1.439743638038635254e-01 1.743198931217193604e-01 1.336254179477691650e-02
-2.095312178134918213e-01 2.254621237516403198e-01 1.591172069311141968e-03
-1.396917104721069336e-01 2.075480222702026367e-01 -8.965730667114257812e-02
-1.867715865373611450e-01 1.301999092102050781e-01 2.167533040046691895e-01
-1.380622386932373047e-01 1.699450910091400146e-01 -2.052038162946701050e-01
-1.437117755413055420e-01 2.217954099178314209e-01 -1.925877034664154053e-01
-2.030120939016342163e-01 2.306878715753555298e-01 1.705429404973983765e-01
-1.402891278266906738e-01 2.027024924755096436e-01 -2.553739845752716064e-01
-1.375381499528884888e-01 1.747224181890487671e-01 -1.760494410991668701e-01
-1.852318942546844482e-01 1.640869081020355225e-01 2.921061813831329346e-01
-2.156776785850524902e-01 1.834454983472824097e-01 -1.743715107440948486e-01
-1.533838361501693726e-01 2.241021692752838135e-01 8.870071172714233398e-02
-1.614885777235031128e-01 1.399481743574142456e-01 1.112606823444366455e-01
-1.489744186401367188e-01 2.271498739719390869e-01 1.599580794572830200e-02
-1.498628109693527222e-01 1.437579095363616943e-01 -3.462787866592407227e-01
-2.187843918800354004e-01 1.131169945001602173e-01 1.386671513319015503e-02
-1.950650066137313843e-01 2.368730753660202026e-01 -1.027615219354629517e-01
-1.810695976018905640e-01 2.493671178817749023e-01 6.363558769226074219e-02
-1.917051970958709717e-01 9.327267110347747803e-02 -1.275878399610519409e-01
-2.137308120727539062e-01 1.835914105176925659e-01 2.835607826709747314e-01
-2.230738699436187744e-01 1.446060836315155029e-01 -1.137751638889312744e-01
-1.462696492671966553e-01 1.910901069641113281e-01 -3.532217144966125488e-01
-1.854705363512039185e-01 2.358260005712509155e-01 -1.887549608945846558e-01
-2.128175944089889526e-01 2.203627526760101318e-01 1.287631690502166748e-01
-2.012883126735687256e-01 1.940212994813919067e-01 -2.786258757114410400e-01
-2.239235043525695801e-01 1.253907531499862671e-01 2.100420743227005005e-02
-2.127346992492675781e-01 2.147582471370697021e-01 -5.884571000933647156e-02
-1.846238374710083008e-01 1.875832378864288330e-01 -3.793584406375885010e-01
-1.421919316053390503e-01 2.195344269275665283e-01 -1.683380156755447388e-01
-1.506825685501098633e-01 2.206201106309890747e-01 7.071912288665771484e-02
-1.396180987358093262e-01 1.808490008115768433e-01 -2.874342799186706543e-01
-1.708137094974517822e-01 2.347106635570526123e-01 -2.468814998865127563e-01
-1.498353332281112671e-01 1.925836503505706787e-01 1.039669513702392578e-01
-2.050716876983642578e-01 1.703954041004180908e-01 -2.973767518997192383e-01
-1.946941912174224854e-01 1.865889281034469604e-01 -3.368193805217742920e-01
-2.115194201469421387e-01 1.030191779136657715e-01 -5.990805476903915405e-02
-1.545432806015014648e-01 2.051284611225128174e-01 -3.620134890079498291e-01
-2.006517052650451660e-01 1.359700709581375122e-01 -3.258722424507141113e-01
-1.433565169572830200e-01 1.490248888731002808e-01 -1.089482605457305908e-01
-1.778194159269332886e-01 1.137320101261138916e-01 1.005008965730667114e-01
-2.063229680061340332e-01 1.546284109354019165e-01 2.939060032367706299e-01
-1.798107028007507324e-01 1.686756610870361328e-01 2.810199558734893799e-01
-1.681148111820220947e-01 1.650816649198532104e-01 2.227902710437774658e-01
-1.419503986835479736e-01 1.923715621232986450e-01 -3.106191158294677734e-01
-1.682625263929367065e-01 1.166895329952239990e-01 -3.393976092338562012e-01
-1.406132429838180542e-01 1.707220971584320068e-01 -2.985587120056152344e-01
-1.583627015352249146e-01 1.415705978870391846e-01 8.886039257049560547e-02
-2.238696962594985962e-01 1.901710629463195801e-01 8.712790906429290771e-03
-2.043102830648422241e-01 2.252814024686813354e-01 2.044571340084075928e-01
-2.197681665420532227e-01 1.586045175790786743e-01 -1.659837365150451660e-01
-2.260312587022781372e-01 1.765229552984237671e-01 1.560804694890975952e-01
-1.817845553159713745e-01 2.431392222642898560e-01 -1.448356509208679199e-01
-2.092090100049972534e-01 1.154985576868057251e-01 1.572507023811340332e-01
-2.209931313991546631e-01 1.865943372249603271e-01 2.198406457901000977e-01
-1.737152636051177979e-01 9.961143136024475098e-02 -2.013647705316543579e-01
-2.138370871543884277e-01 1.621162891387939453e-01 2.826144099235534668e-01
-1.413141489028930664e-01 1.932518482208251953e-01 -1.566651463508605957e-02
-2.164537757635116577e-01 1.226204931735992432e-01 -1.589852422475814819e-01
-2.247778326272964478e-01 1.291187703609466553e-01 -2.756569534540176392e-03
-2.056237906217575073e-01 1.977326422929763794e-01 -2.333366721868515015e-01
-2.149099111557006836e-01 1.692859828472137451e-01 -2.123151570558547974e-01
-2.019824981689453125e-01 2.143893092870712280e-01 -1.968877315521240234e-01
-2.030450701713562012e-01 2.177978008985519409e-01 2.517396211624145508e-01
-1.426353156566619873e-01 1.576676070690155029e-01 -3.015043735504150391e-01
-1.408340930938720703e-01 1.543933004140853882e-01 -1.675927489995956421e-01
-1.525191068649291992e-01 1.562868952751159668e-01 7.972437143325805664e-02
-2.148844301700592041e-01 2.157800495624542236e-01 1.416209042072296143e-01
-1.626453995704650879e-01 2.323592007160186768e-01 -2.620365023612976074e-01
-2.080065608024597168e-01 2.288475483655929565e-01 2.683021128177642822e-02
-1.807075142860412598e-01 2.294294536113739014e-01 2.261624038219451904e-01
-1.525832861661911011e-01 2.382816672325134277e-01 -2.723221480846405029e-02
-1.503521800041198730e-01 1.290315687656402588e-01 -2.514345943927764893e-01
-1.776212900876998901e-01 1.098027676343917847e-01 -3.200072348117828369e-01
-1.656433343887329102e-01 2.078958451747894287e-01 2.186013758182525635e-01
-1.697233319282531738e-01 2.340838909149169922e-01 1.699898988008499146e-01
-1.697142124176025391e-01 2.431598752737045288e-01 -1.806102246046066284e-01
-1.650399416685104370e-01 1.284267455339431763e-01 -3.795852363109588623e-01
-1.960075050592422485e-01 9.596840292215347290e-02 3.511898219585418701e-03
-1.525817364454269409e-01 2.328102290630340576e-01 3.283437341451644897e-02
-1.584992855787277222e-01 1.160394176840782166e-01 -9.284982085227966309e-02
-2.269302308559417725e-01 1.576627939939498901e-01 1.521078795194625854e-01
-2.193743288516998291e-01 1.712412983179092407e-01 2.544444799423217773e-01
-1.501604616641998291e-01 1.286144554615020752e-01 -1.377697438001632690e-01
-1.535420417785644531e-01 1.797638684511184692e-01 1.346575617790222168e-01
-2.191785275936126709e-01 1.713296920061111450e-01 -1.580186188220977783e-01
-1.793050616979598999e-01 2.422962933778762817e-01 -1.653667986392974854e-01
-1.373765170574188232e-01 1.863840371370315552e-01 -2.172059714794158936e-01
-1.728502213954925537e-01 2.511762380599975586e-01 -1.410168409347534180e-02
-2.007461637258529663e-01 2.093361169099807739e-01 -2.304880619049072266e-01
-1.537712812423706055e-01 2.318069636821746826e-01 -2.341315150260925293e-01
-2.194238603115081787e-01 1.964976042509078979e-01 2.068317830562591553e-01
-2.064468860626220703e-01 1.541355699300765991e-01 -2.980555891990661621e-01
-1.598014086484909058e-01 1.491293907165527344e-01 -4.127193689346313477e-01
-1.577775776386260986e-01 1.317388415336608887e-01 -3.608677685260772705e-01
-1.495097428560256958e-01 2.299473285675048828e-01 -2.115761637687683105e-01
-1.562431454658508301e-01 2.419039905071258545e-01 -1.398781239986419678e-01
-1.579575836658477783e-01 1.273263394832611084e-01 1.011680811643600464e-02
-2.252124249935150146e-01 1.447687149047851562e-01 -7.036684453487396240e-02
-2.281051874160766602e-01 1.691650897264480591e-01 7.315470278263092041e-02
-1.957819759845733643e-01 1.557117551565170288e-01 -3.628271222114562988e-01
-1.569090932607650757e-01 1.892759501934051514e-01 1.690193563699722290e-01
-2.051202505826950073e-01 1.934177130460739136e-01 -2.509736418724060059e-01
-1.968409121036529541e-01 2.414296269416809082e-01 4.090968519449234009e-03
-1.434741765260696411e-01 2.207813262939453125e-01 -5.883429199457168579e-02
-2.261929810047149658e-01 1.608789563179016113e-01 1.709713339805603027e-01
-1.590646207332611084e-01 2.043926119804382324e-01 -3.742638528347015381e-01
-1.614468842744827271e-01 2.339145243167877197e-01 1.193310171365737915e-01
-2.251976728439331055e-01 1.330573409795761108e-01 -2.586216479539871216e-02
-2.243794053792953491e-01 1.782769411802291870e-01 -4.891368374228477478e-02
-1.611522138118743896e-01 2.400821447372436523e-01 -1.987843364477157593e-01
-2.179790884256362915e-01 1.473746150732040405e-01 -1.895111054182052612e-01
-1.446796059608459473e-01 1.556199938058853149e-01 -3.388205915689468384e-02
-1.636854559183120728e-01 1.074716746807098389e-01 -1.957918703556060791e-01
-2.142773121595382690e-01 1.282760649919509888e-01 -2.039163112640380859e-01
-2.073547691106796265e-01 1.745691895484924316e-01 -2.742574810981750488e-01
-1.498854607343673706e-01 1.901832818984985352e-01 -3.761300444602966309e-01
-1.627758592367172241e-01 2.389063239097595215e-01 9.989543259143829346e-02
-1.778476685285568237e-01 1.895801872014999390e-01 -3.955576419830322266e-01
-1.644098907709121704e-01 2.374621629714965820e-01 -2.285953462123870850e-01
-2.077399790287017822e-01 1.359439939260482788e-01 -2.780066728591918945e-01
-2.198525518178939819e-01 1.191836297512054443e-01 -7.840003073215484619e-02
-1.471287161111831665e-01 1.666321158409118652e-01 4.240109026432037354e-02
-1.778848171234130859e-01 1.215962767601013184e-01 1.446477621793746948e-01
-2.111197412014007568e-01 1.244313642382621765e-01 -2.258455753326416016e-01
-2.145946174860000610e-01 1.478226780891418457e-01 -2.271526455879211426e-01
-2.193263173103332520e-01 2.072074264287948608e-01 4.476618766784667969e-02
-2.176246047019958496e-01 1.939964294433593750e-01 -1.098640710115432739e-01
-2.052724212408065796e-01 1.204346269369125366e-01 1.942125856876373291e-01
-1.979337632656097412e-01 9.881250560283660889e-02 -1.921620517969131470e-01
-1.837976872920989990e-01 2.121362090110778809e-01 2.801687419414520264e-01
-1.464866101741790771e-01 1.984188258647918701e-01 -3.402237296104431152e-01
-2.266616523265838623e-01 1.781521886587142944e-01 1.243395656347274780e-01
-1.413817107677459717e-01 1.583048254251480103e-01 -2.769456803798675537e-01
-1.487420052289962769e-01 1.347707062959671021e-01 -2.790890336036682129e-01
-2.191803157329559326e-01 1.355171948671340942e-01 -1.601026058197021484e-01
-2.249718308448791504e-01 1.894054263830184937e-01 8.792668581008911133e-02
-2.053740322589874268e-01 2.318627685308456421e-01 1.151407063007354736e-01
-2.189190685749053955e-01 1.134140342473983765e-01 -1.903668045997619629e-02
-1.625682264566421509e-01 2.133765071630477905e-01 1.918191760778427124e-01
-2.170117199420928955e-01 1.170910447835922241e-01 1.145496368408203125e-01
-1.570347100496292114e-01 1.318824291229248047e-01 2.740566432476043701e-02
-2.086181789636611938e-01 1.968374103307723999e-01 2.888708710670471191e-01
-1.623767316341400146e-01 2.003526389598846436e-01 2.058957517147064209e-01
-2.271811813116073608e-01 1.438370198011398315e-01 -4.833549261093139648e-03
-1.573915779590606689e-01 2.044529765844345093e-01 1.670643687248229980e-01
-1.562464982271194458e-01 1.645055562257766724e-01 1.366534531116485596e-01
-1.678600460290908813e-01 1.077077463269233704e-01 -3.798399865627288818e-02
-2.268956154584884644e-01 1.384495049715042114e-01 2.096589654684066772e-02
-2.275093197822570801e-01 1.639194637537002563e-01 -3.359071910381317139e-03
-1.699062734842300415e-01 1.068438217043876648e-01 -2.181600406765937805e-02
-1.788344234228134155e-01 2.495288848876953125e-01 -6.730034947395324707e-02
-1.935518980026245117e-01 1.626294553279876709e-01 3.060832917690277100e-01
-2.192316800355911255e-01 1.249174773693084717e-01 1.459484398365020752e-01
-1.582891047000885010e-01 1.177583038806915283e-01 -2.738496065139770508e-01
-2.186827063560485840e-01 1.133494377136230469e-01 3.076016902923583984e-02
-1.986921578645706177e-01 1.579642444849014282e-01 -3.470880389213562012e-01
-2.280936390161514282e-01 1.478308290243148804e-01 3.867272287607192993e-02
-1.482717841863632202e-01 1.343957334756851196e-01 -1.123437583446502686e-01
-1.942790746688842773e-01 2.171164005994796753e-01 2.748572528362274170e-01
-1.753774732351303101e-01 9.787773340940475464e-02 -1.062323972582817078e-01
-1.819806843996047974e-01 1.168102920055389404e-01 -3.503538966178894043e-01
-2.221208512783050537e-01 1.809045672416687012e-01 -8.685809373855590820e-02
-2.170216441154479980e-01 1.516360491514205933e-01 -2.017794549465179443e-01
-1.635995060205459595e-01 1.870553791522979736e-01 2.160101532936096191e-01
-1.692275255918502808e-01 1.191391348838806152e-01 7.384827733039855957e-02
-1.819160431623458862e-01 9.479282051324844360e-02 -9.300046414136886597e-02
-1.643513888120651245e-01 1.076045632362365723e-01 -2.215075641870498657e-01
-2.189393639564514160e-01 1.962996423244476318e-01 -7.537719607353210449e-02
-2.146524935960769653e-01 2.177037000656127930e-01 1.118147522211074829e-01
-1.883791089057922363e-01 2.276515662670135498e-01 -2.257704585790634155e-01
-2.283446043729782104e-01 1.507213711738586426e-01 5.757015198469161987e-02
-1.453743875026702881e-01 2.066704928874969482e-01 -3.072485625743865967e-01
-2.127220183610916138e-01 2.017209380865097046e-01 2.553982436656951904e-01
-1.503833383321762085e-01 2.231555581092834473e-01 -2.700856924057006836e-01
-1.418577432632446289e-01 2.113775014877319336e-01 -4.154391959309577942e-02
-1.503273397684097290e-01 1.511154025793075562e-01 3.576374799013137817e-02
-2.051493227481842041e-01 2.261361777782440186e-01 -8.108194917440414429e-02
-1.516211479902267456e-01 2.028931230306625366e-01 1.174060553312301636e-01
-2.270556688308715820e-01 1.505962610244750977e-01 -2.706452645361423492e-02
-1.541776955127716064e-01 1.646207571029663086e-01 -4.081169664859771729e-01
-1.946653723716735840e-01 2.163394391536712646e-01 -2.444718033075332642e-01
-1.652438640594482422e-01 1.197581291198730469e-01 4.161603003740310669e-02
-1.389580070972442627e-01 1.725222468376159668e-01 -2.638811171054840088e-01
-1.508253365755081177e-01 2.375564873218536377e-01 -1.015215963125228882e-01
-1.734387278556823730e-01 1.601933836936950684e-01 2.427485883235931396e-01
-1.402118504047393799e-01 1.673625111579895020e-01 -8.342243731021881104e-02
-2.214099466800689697e-01 1.974863708019256592e-01 -8.150082081556320190e-03
-1.489768624305725098e-01 1.306112706661224365e-01 -1.525681018829345703e-01
-1.734224557876586914e-01 2.267927527427673340e-01 2.145255208015441895e-01
-2.004793882369995117e-01 1.247515007853507996e-01 2.170635163784027100e-01
-1.620605885982513428e-01 2.203449606895446777e-01 1.735894829034805298e-01
-2.156105190515518188e-01 1.253079473972320557e-01 -1.798409819602966309e-01
-1.869560182094573975e-01 9.361574053764343262e-02 -1.441845893859863281e-01
-1.967248022556304932e-01 1.081570163369178772e-01 -2.677381634712219238e-01
-1.440920233726501465e-01 1.423982977867126465e-01 -1.957019269466400146e-01
-2.171201705932617188e-01 1.882903724908828735e-01 2.553043961524963379e-01
-2.226230949163436890e-01 1.923801302909851074e-01 1.687582135200500488e-01
-1.485173255205154419e-01 1.544263511896133423e-01 2.383097261190414429e-02
-1.539530307054519653e-01 1.212138086557388306e-01 -2.257851362228393555e-01
-1.676768362522125244e-01 1.599375754594802856e-01 2.113325893878936768e-01
-2.132449150085449219e-01 2.004859447479248047e-01 -1.423153579235076904e-01
-1.786385923624038696e-01 2.270998060703277588e-01 -2.724208235740661621e-01
-2.111926525831222534e-01 1.765744239091873169e-01 -2.375637739896774292e-01
-2.107847630977630615e-01 1.047261729836463928e-01 5.057378858327865601e-02
-1.631801277399063110e-01 1.080991029739379883e-01 -1.343616843223571777e-01
-1.879793107509613037e-01 1.529406458139419556e-01 -3.955159783363342285e-01
-2.118838131427764893e-01 1.058610379695892334e-01 -1.090070903301239014e-01
-2.154684960842132568e-01 2.003029584884643555e-01 2.377158105373382568e-01
-2.159488499164581299e-01 2.156755328178405762e-01 7.788901031017303467e-02
-2.142041325569152832e-01 2.079586684703826904e-01 -8.620422333478927612e-02
-1.444342881441116333e-01 1.430683135986328125e-01 -1.385273337364196777e-01
-2.218372970819473267e-01 1.466012150049209595e-01 -1.362907588481903076e-01
-2.242474853992462158e-01 1.685155779123306274e-01 2.037081718444824219e-01
-1.954966038465499878e-01 1.126193478703498840e-01 -2.944858670234680176e-01
-2.107348591089248657e-01 1.555264294147491455e-01 -2.635703384876251221e-01
-2.261234819889068604e-01 1.832120865583419800e-01 1.059069335460662842e-01
-2.277398407459259033e-01 1.475333273410797119e-01 9.775364398956298828e-02
-1.941664814949035645e-01 9.465672820806503296e-02 -2.176243439316749573e-02
-1.436089277267456055e-01 2.119884192943572998e-01 -2.654154300689697266e-01
-1.959741115570068359e-01 2.313301414251327515e-01 -1.449219286441802979e-01
-1.689560115337371826e-01 2.081910371780395508e-01 2.357799410820007324e-01
-2.255365550518035889e-01 1.640874147415161133e-01 -6.162320822477340698e-02
-1.987875699996948242e-01 2.354972064495086670e-01 -7.148710638284683228e-02
-1.472306549549102783e-01 2.057295441627502441e-01 6.440520286560058594e-02
-1.370833218097686768e-01 1.886723041534423828e-01 -1.816196143627166748e-01
-1.416272073984146118e-01 1.768265664577484131e-01 -2.281236648559570312e-02
-2.045640796422958374e-01 1.309578567743301392e-01 2.381056249141693115e-01
-1.890737563371658325e-01 9.454438090324401855e-02 -1.721108555793762207e-01
-1.871380805969238281e-01 9.322659671306610107e-02 -1.124607771635055542e-01
-2.166557312011718750e-01 1.794387698173522949e-01 2.700158953666687012e-01
-1.507485806941986084e-01 1.406465321779251099e-01 -8.169516921043395996e-03
-1.857147663831710815e-01 9.443448483943939209e-02 -5.850787088274955750e-02
-2.014327198266983032e-01 2.225435972213745117e-01 2.373247742652893066e-01
-2.198999822139739990e-01 2.061864137649536133e-01 6.256094574928283691e-02
-2.269083261489868164e-01 1.383840590715408325e-01 6.306385993957519531e-02
-1.539604514837265015e-01 1.267682313919067383e-01 -2.989266514778137207e-01
-1.944737434387207031e-01 9.330466389656066895e-02 -7.211837172508239746e-02
-1.974387317895889282e-01 2.179758846759796143e-01 -2.167282253503799438e-01
-1.672957241535186768e-01 2.492816299200057983e-01 1.475881040096282959e-02
-1.383746266365051270e-01 1.868103146553039551e-01 -2.555972933769226074e-01
-1.957057267427444458e-01 2.012367695569992065e-01 -2.945597767829895020e-01
-2.098858058452606201e-01 2.230308651924133301e-01 -2.793009579181671143e-02
-1.922662407159805298e-01 2.393356859683990479e-01 1.627911180257797241e-01
-1.649357080459594727e-01 2.488381564617156982e-01 -7.802958041429519653e-02
-1.537933647632598877e-01 2.383036315441131592e-01 -1.666397750377655029e-01
-1.751214116811752319e-01 1.507050693035125732e-01 2.315938770771026611e-01
-2.239847928285598755e-01 1.269733458757400513e-01 6.839218735694885254e-02
-1.871285140514373779e-01 2.427667230367660522e-01 -1.127821654081344604e-01
-1.772679984569549561e-01 1.054526492953300476e-01 -2.909908294677734375e-01
-1.390765309333801270e-01 1.877261996269226074e-01 -2.718092203140258789e-01
-2.250468432903289795e-01 1.750101000070571899e-01 1.831238865852355957e-01
-1.486817151308059692e-01 2.067188173532485962e-01 8.080795407295227051e-02
-1.965022534132003784e-01 1.179789081215858459e-01 1.850433349609375000e-01
-1.711885929107666016e-01 2.049341201782226562e-01 2.500824630260467529e-01
-1.432528346776962280e-01 1.561577022075653076e-01 -6.117229163646697998e-02
-2.090762704610824585e-01 1.923406869173049927e-01 -2.191312760114669800e-01
-1.587435305118560791e-01 1.746629476547241211e-01 1.732965111732482910e-01
-2.125916182994842529e-01 9.176247566938400269e-02 2.717594504356384277e-01
-1.669614464044570923e-01 1.974005997180938721e-01 -2.328626662492752075e-01
-2.133122384548187256e-01 -1.586826145648956299e-02 4.421540722250938416e-02
-2.244983017444610596e-01 7.744441926479339600e-02 -1.018937528133392334e-01
-1.680297702550888062e-01 2.205922603607177734e-01 1.438971906900405884e-01
-1.622151285409927368e-01 -3.543508052825927734e-02 -5.954614654183387756e-02
-1.740549355745315552e-01 -1.047189533710479736e-02 1.981598585844039917e-01
-2.118625491857528687e-01 5.403444170951843262e-03 1.655340939760208130e-01
-2.259755432605743408e-01 2.107933461666107178e-01 -1.596897542476654053e-01
-2.313283234834671021e-01 1.396144181489944458e-01 1.543324161320924759e-02
-1.988310813903808594e-01 9.284571558237075806e-02 -3.212526142597198486e-01
-1.842380911111831665e-01 2.309770584106445312e-01 2.547195851802825928e-01
-2.274743914604187012e-01 1.156051903963088989e-01 -1.018211990594863892e-01
-1.606408208608627319e-01 1.486029475927352905e-01 1.313125342130661011e-01
-2.230370342731475830e-01 1.742767691612243652e-01 2.263316065073013306e-01
-2.307350337505340576e-01 1.452713310718536377e-01 -4.768039286136627197e-02
-1.588824838399887085e-01 1.519245505332946777e-01 -1.763216853141784668e-01
-1.664693802595138550e-01 1.749153137207031250e-01 -2.501304149627685547e-01
-1.777079701423645020e-01 -6.974524259567260742e-02 7.422739267349243164e-02
-2.259893864393234253e-01 1.214064210653305054e-01 -1.376322656869888306e-01
-1.810850054025650024e-01 3.210153877735137939e-01 -1.387286931276321411e-02
-1.562847197055816650e-01 1.357733607292175293e-01 5.538329854607582092e-02
-2.185157239437103271e-01 9.993750602006912231e-02 -2.143862992525100708e-01
-1.588175594806671143e-01 1.893787682056427002e-01 1.969347521662712097e-02
-2.223061025142669678e-01 6.635915488004684448e-02 -1.233109757304191589e-01
-2.147771418094635010e-01 -6.879001855850219727e-03 6.560014933347702026e-02
-1.555698215961456299e-01 1.523945629596710205e-01 -1.769882068037986755e-02
-2.133660316467285156e-01 1.488581746816635132e-01 -2.761578559875488281e-01
-2.210738807916641235e-01 2.908394336700439453e-01 1.468268930912017822e-01
-1.640339046716690063e-01 3.071084618568420410e-03 -1.987813264131546021e-01
-1.789114028215408325e-01 1.525658369064331055e-01 2.815200388431549072e-01
-1.599429845809936523e-01 1.698907464742660522e-01 9.538126736879348755e-02
-1.651369780302047729e-01 -5.013623833656311035e-02 -3.469925746321678162e-02
-1.589063555002212524e-01 1.795996576547622681e-01 -1.334004700183868408e-01
-1.559814363718032837e-01 1.992752403020858765e-02 1.131470967084169388e-02
-2.310430407524108887e-01 1.558923870325088501e-01 8.930195122957229614e-02
-1.586927771568298340e-01 1.942164152860641479e-01 -6.473381817340850830e-02
-2.291703969240188599e-01 1.740704178810119629e-01 -1.111658215522766113e-01
-2.186384350061416626e-01 4.428658634424209595e-02 -1.400430649518966675e-01
-1.619082242250442505e-01 1.208953335881233215e-01 1.646330505609512329e-01
-2.221859097480773926e-01 1.562688499689102173e-01 -2.069086581468582153e-01
-1.646829247474670410e-01 1.261221170425415039e-01 1.933302730321884155e-01
-1.594190001487731934e-01 1.994616091251373291e-01 -8.291774243116378784e-02
-1.809310615062713623e-01 2.800438702106475830e-01 1.644805073738098145e-01
-1.536225527524948120e-01 8.935706317424774170e-02 -1.430367864668369293e-02
-2.030753046274185181e-01 -4.868951439857482910e-02 -6.715191155672073364e-02
-2.041970044374465942e-01 -1.741315424442291260e-02 -1.700892746448516846e-01
-2.285238355398178101e-01 2.694862484931945801e-01 -2.891982719302177429e-02
-1.571458280086517334e-01 5.011239647865295410e-02 8.848273754119873047e-02
-1.666617542505264282e-01 6.600364297628402710e-02 2.108441442251205444e-01
-1.582236140966415405e-01 1.527491062879562378e-01 8.277326822280883789e-02
-2.020875811576843262e-01 3.053271174430847168e-01 1.970402449369430542e-01
-1.582420319318771362e-01 1.036669686436653137e-01 -1.943028569221496582e-01
-1.970210820436477661e-01 3.458317369222640991e-02 2.793968617916107178e-01
-1.616542190313339233e-01 -3.197267651557922363e-02 3.146665170788764954e-03
-2.235420048236846924e-01 1.819461584091186523e-01 -1.952071487903594971e-01
-2.231280803680419922e-01 3.113865852355957031e-01 8.568094111979007721e-03
-1.644545346498489380e-01 -2.164144814014434814e-02 1.017092093825340271e-01
-2.143314033746719360e-01 3.407560288906097412e-01 -2.034802921116352081e-02
-1.814650446176528931e-01 2.942107021808624268e-01 -1.872415691614151001e-01
-1.624583303928375244e-01 2.175757288932800293e-01 -1.252668350934982300e-01
-2.265530377626419067e-01 7.086163014173507690e-02 2.384740486741065979e-02
-2.118026018142700195e-01 2.785028815269470215e-01 -2.245286852121353149e-01
-1.787659823894500732e-01 3.008771538734436035e-01 8.174771815538406372e-02
-1.601005345582962036e-01 1.093665584921836853e-01 1.448308825492858887e-01
-2.139787822961807251e-01 1.741054058074951172e-01 -2.738408744335174561e-01
-2.201510816812515259e-01 3.160186409950256348e-01 -7.300459593534469604e-02
-1.538141220808029175e-01 6.313569098711013794e-02 -6.796634197235107422e-02
-2.112996876239776611e-01 2.459846436977386475e-02 2.088744789361953735e-01
-2.308317422866821289e-01 2.178643643856048584e-01 -5.838431417942047119e-02
-1.669064164161682129e-01 6.719137728214263916e-02 -2.723726332187652588e-01
-1.590144336223602295e-01 1.405024826526641846e-01 1.113573461771011353e-01
-1.838351935148239136e-01 3.062865436077117920e-01 1.225776374340057373e-01
-1.559561789035797119e-01 8.197969198226928711e-02 7.598311454057693481e-02
-2.012360692024230957e-01 -3.236885368824005127e-02 -1.557846665382385254e-01
-1.724020540714263916e-01 3.435298800468444824e-03 -2.516260445117950439e-01
-1.578424423933029175e-01 1.703185737133026123e-01 4.144601151347160339e-02
-1.552663445472717285e-01 2.351581305265426636e-02 -3.268645331263542175e-02
-1.812925487756729126e-01 3.208349347114562988e-01 4.132249392569065094e-03
-2.278024703264236450e-01 2.606802880764007568e-01 -7.913229614496231079e-02
-1.576616466045379639e-01 -2.285376191139221191e-03 -7.043166458606719971e-02
-1.687566190958023071e-01 2.408628463745117188e-01 1.143297702074050903e-01
-1.770771294832229614e-01 -5.246962606906890869e-02 1.331931799650192261e-01
-2.245739102363586426e-01 1.368863582611083984e-01 2.018141448497772217e-01
-1.857785731554031372e-01 1.737774014472961426e-01 2.989017069339752197e-01
-1.596597135066986084e-01 2.046432346105575562e-01 -2.425875514745712280e-02
-2.125918716192245483e-01 4.784245043992996216e-02 2.323132008314132690e-01
-2.159683108329772949e-01 9.343506395816802979e-02 -2.325084954500198364e-01
-2.159851193428039551e-01 4.347372055053710938e-02 1.976127475500106812e-01
-1.631131321191787720e-01 6.052885949611663818e-02 -2.416685968637466431e-01
-2.309536635875701904e-01 2.071648389101028442e-01 9.904890507459640503e-02
-1.551579385995864868e-01 1.414959132671356201e-01 -8.105973899364471436e-02
-1.694744229316711426e-01 2.710751295089721680e-01 1.649614796042442322e-02
-1.851665675640106201e-01 1.946971565485000610e-01 2.865880131721496582e-01
-1.720980852842330933e-01 2.678598761558532715e-01 9.460145980119705200e-02
-2.281080186367034912e-01 1.035010069608688354e-01 1.018731966614723206e-01
-1.763671189546585083e-01 2.343992441892623901e-01 -2.612868249416351318e-01
-1.708957552909851074e-01 1.091274842619895935e-01 2.466138750314712524e-01
-1.705525219440460205e-01 -8.702367544174194336e-03 -2.276225984096527100e-01
-1.795340031385421753e-01 1.335358470678329468e-01 2.887005209922790527e-01
-2.306041717529296875e-01 1.567904204130172729e-01 -6.592915207147598267e-02
