9.110428392887115479e-03 -4.317230582237243652e-01 1.024431139230728149e-01
2.995185554027557373e-03 -4.396798312664031982e-01 3.170125931501388550e-02
6.915186531841754913e-04 -4.150371253490447998e-01 5.908598378300666809e-02
8.046352304518222809e-04 -4.576753675937652588e-01 1.212232559919357300e-01
3.583729499951004982e-03 -3.751262426376342773e-01 2.048089355230331421e-02
7.714055478572845459e-03 -6.455190777778625488e-01 1.647327542304992676e-01
2.285710535943508148e-03 -5.584337711334228516e-01 1.862256973981857300e-01
1.182463951408863068e-03 -4.171949028968811035e-01 4.337829351425170898e-02
8.883210830390453339e-04 -3.989007472991943359e-01 5.623589456081390381e-02
3.223073203116655350e-03 -5.600318312644958496e-01 7.271642237901687622e-02
7.693716324865818024e-03 -6.093467473983764648e-01 1.327661126852035522e-01
6.874803919345140457e-03 -6.658055186271667480e-01 1.621614396572113037e-01
8.883243426680564880e-03 -4.389957189559936523e-01 1.359844803810119629e-01
6.301161367446184158e-03 -5.439673662185668945e-01 7.887299358844757080e-02
8.921286091208457947e-03 -5.833111405372619629e-01 1.603249609470367432e-01
6.933483295142650604e-03 -4.097923040390014648e-01 4.344622045755386353e-02
2.350787864997982979e-03 -3.431323170661926270e-01 7.117269188165664673e-02
2.285460708662867546e-03 -3.925230205059051514e-01 1.128254160284996033e-01
6.776566617190837860e-03 -3.571776747703552246e-01 3.743929415941238403e-02
2.278907923027873039e-03 -6.708106994628906250e-01 1.961732506752014160e-01
9.756572544574737549e-04 -6.348444819450378418e-01 1.663981378078460693e-01
5.894061177968978882e-05 -5.058369040489196777e-01 1.147966608405113220e-01
8.907912299036979675e-03 -5.300747752189636230e-01 1.182740703225135803e-01
6.115534342825412750e-03 -5.925054550170898438e-01 1.005007624626159668e-01
9.065946564078330994e-03 -5.689800977706909180e-01 1.575672328472137451e-01
2.948518143966794014e-03 -5.978917479515075684e-01 9.159657359123229980e-02
8.567289449274539948e-03 -6.056734919548034668e-01 1.839754879474639893e-01
6.314561236649751663e-03 -3.137460350990295410e-01 4.522784799337387085e-02
2.537486143410205841e-03 -3.771793544292449951e-01 1.061953604221343994e-01
8.842253126204013824e-03 -4.121605455875396729e-01 1.172421276569366455e-01
4.390515387058258057e-04 -4.945692718029022217e-01 1.283513754606246948e-01
1.780516467988491058e-03 -3.771435320377349854e-01 3.434567898511886597e-02
4.547550342977046967e-04 -6.044697761535644531e-01 1.465267539024353027e-01
3.088470548391342163e-04 -5.882583856582641602e-01 1.251653283834457397e-01
1.412995858117938042e-03 -5.328599214553833008e-01 1.657612323760986328e-01
2.598195103928446770e-03 -5.199570655822753906e-01 1.778744608163833618e-01
8.501901756972074509e-04 -6.198197007179260254e-01 1.281989216804504395e-01
4.112665541470050812e-03 -7.034132480621337891e-01 1.717124879360198975e-01
7.416240870952606201e-03 -6.661268472671508789e-01 1.909723579883575439e-01
3.330395324155688286e-03 -3.161554038524627686e-01 5.756504088640213013e-02
4.076887853443622589e-04 -4.652195572853088379e-01 6.683881580829620361e-02
6.286879070103168488e-04 -4.382775425910949707e-01 1.032025218009948730e-01
1.054777530953288078e-03 -6.081257462501525879e-01 1.737223267555236816e-01
7.030534557998180389e-03 -5.431104302406311035e-01 1.995485424995422363e-01
6.634688004851341248e-03 -3.493747711181640625e-01 3.603351861238479614e-02
9.215091355144977570e-03 -5.482047796249389648e-01 1.497123837471008301e-01
1.942097209393978119e-03 -4.939026236534118652e-01 1.600107252597808838e-01
4.341838881373405457e-03 -4.903907179832458496e-01 1.804607808589935303e-01
1.858616480603814125e-03 -3.533755540847778320e-01 6.654137372970581055e-02
8.283502422273159027e-03 -4.945871829986572266e-01 1.734165251255035400e-01
2.139079617336392403e-03 -6.227251887321472168e-01 1.966035366058349609e-01
8.804444223642349243e-05 -4.733663797378540039e-01 8.888808637857437134e-02
8.069433271884918213e-03 -3.793035745620727539e-01 1.131893396377563477e-01
8.890824392437934875e-03 -5.831903219223022461e-01 1.733936518430709839e-01
7.737268693745136261e-03 -3.885900676250457764e-01 1.257967650890350342e-01
9.255975484848022461e-03 -4.503054916858673096e-01 1.133652627468109131e-01
7.727319374680519104e-03 -6.177091002464294434e-01 1.395015567541122437e-01
5.571855232119560242e-03 -4.145053029060363770e-01 3.170936554670333862e-02
9.352149441838264465e-03 -5.174522399902343750e-01 1.414336413145065308e-01
9.247778914868831635e-03 -4.637767970561981201e-01 1.106576099991798401e-01
2.240589819848537445e-03 -5.133197307586669922e-01 1.713598370552062988e-01
4.549212288111448288e-03 -6.598237752914428711e-01 1.311264187097549438e-01
1.394370803609490395e-03 -5.414903163909912109e-01 1.681086272001266479e-01
1.156885409727692604e-03 -4.155283868312835693e-01 1.046695113182067871e-01
7.080353330820798874e-03 -5.943502783775329590e-01 1.128146946430206299e-01
1.512799877673387527e-03 -4.089684784412384033e-01 3.739679604768753052e-02
8.560535497963428497e-03 -3.937401175498962402e-01 7.760474085807800293e-02
8.495588786900043488e-03 -3.827423453330993652e-01 7.889689505100250244e-02
1.864102203398942947e-03 -3.906551599502563477e-01 1.038492545485496521e-01
1.789640169590711594e-03 -5.716041326522827148e-01 1.827272176742553711e-01
5.295523442327976227e-04 -4.585924446582794189e-01 6.208242103457450867e-02
5.224017892032861710e-03 -6.327219009399414062e-01 1.165147349238395691e-01
8.529290556907653809e-03 -4.004494547843933105e-01 1.191519126296043396e-01
8.765088394284248352e-03 -5.021524429321289062e-01 1.680526137351989746e-01
7.030865177512168884e-03 -3.238531947135925293e-01 5.858204141259193420e-02
8.745624683797359467e-03 -5.464241504669189453e-01 1.212644353508949280e-01
8.248114027082920074e-03 -5.624971389770507812e-01 1.929552406072616577e-01
1.286612823605537415e-04 -5.668538212776184082e-01 1.302530914545059204e-01
7.559888996183872223e-03 -4.944476485252380371e-01 7.427026331424713135e-02
8.123226463794708252e-03 -5.857387185096740723e-01 1.982079148292541504e-01
9.003482758998870850e-03 -4.577596783638000488e-01 1.429341435432434082e-01
1.804996049031615257e-03 -3.522530198097229004e-01 4.747574776411056519e-02
1.218607649207115173e-04 -5.213688611984252930e-01 1.252385526895523071e-01
8.604454342275857925e-04 -6.204523444175720215e-01 1.662442535161972046e-01
8.669970557093620300e-03 -5.230738520622253418e-01 1.075389757752418518e-01
8.784145116806030273e-03 -5.682724118232727051e-01 1.816019266843795776e-01
8.157705888152122498e-03 -6.128879189491271973e-01 1.975251138210296631e-01
1.380291301757097244e-03 -4.847727417945861816e-01 1.471621096134185791e-01
6.737134419381618500e-03 -5.538125038146972656e-01 2.037170827388763428e-01
1.073329709470272064e-03 -3.961852192878723145e-01 4.842368513345718384e-02
4.992322064936161041e-04 -5.048860311508178711e-01 1.347239315509796143e-01
7.417369168251752853e-03 -5.158104896545410156e-01 8.017439395189285278e-02
6.873739883303642273e-03 -4.229362010955810547e-01 4.519165307283401489e-02
1.767480513080954552e-03 -4.440949559211730957e-01 1.346391141414642334e-01
3.571482375264167786e-05 -5.249364972114562988e-01 9.910617768764495850e-02
8.766671642661094666e-03 -5.780987739562988281e-01 1.819617301225662231e-01
6.755674257874488831e-03 -5.641285777091979980e-01 9.284828603267669678e-02
1.296256436035037041e-03 -5.068768262863159180e-01 1.545558422803878784e-01
2.851948607712984085e-03 -3.463941514492034912e-01 8.623729646205902100e-02
1.131429802626371384e-03 -4.035601615905761719e-01 4.504654556512832642e-02
1.508947694674134254e-03 -6.059799194335937500e-01 1.051151007413864136e-01
6.062625907361507416e-04 -6.186853647232055664e-01 1.463898867368698120e-01
9.206572547554969788e-03 -4.442944824695587158e-01 1.225924938917160034e-01
7.357671856880187988e-03 -6.666499376296997070e-01 1.815759092569351196e-01
5.102879367768764496e-04 -5.767719745635986328e-01 1.061267927289009094e-01
9.026296436786651611e-03 -4.248614907264709473e-01 1.185866296291351318e-01
8.546285331249237061e-03 -4.226936995983123779e-01 7.570451498031616211e-02
9.380375966429710388e-03 -4.914510548114776611e-01 1.325698792934417725e-01
6.836627610027790070e-03 -3.405206203460693359e-01 4.072405397891998291e-02
4.708883352577686310e-03 -4.697574079036712646e-01 4.133970290422439575e-02
7.855332456529140472e-03 -5.643330216407775879e-01 1.091948598623275757e-01
1.619948074221611023e-03 -5.561875104904174805e-01 1.761431843042373657e-01
-2.854038029909133911e-06 -5.121396780014038086e-01 9.857571125030517578e-02
4.718932323157787323e-04 -5.689054131507873535e-01 1.518681645393371582e-01
7.521030493080615997e-04 -6.273855566978454590e-01 1.549256145954132080e-01
1.250713830813765526e-03 -5.517735481262207031e-01 7.955016195774078369e-02
8.088326081633567810e-03 -6.386619806289672852e-01 1.853661239147186279e-01
1.768106594681739807e-04 -5.763028264045715332e-01 1.268511861562728882e-01
7.210242561995983124e-03 -3.742849230766296387e-01 1.213470473885536194e-01
7.755769882351160049e-03 -6.312323212623596191e-01 1.512825191020965576e-01
2.313121221959590912e-04 -5.295498967170715332e-01 9.049750864505767822e-02
6.485200021415948868e-03 -4.332179427146911621e-01 1.589716672897338867e-01
7.827866356819868088e-04 -5.174404382705688477e-01 1.474216878414154053e-01
4.380516242235898972e-03 -6.969467401504516602e-01 1.636771857738494873e-01
9.269610978662967682e-03 -5.125400424003601074e-01 1.271076202392578125e-01
7.762635592371225357e-03 -6.501847505569458008e-01 1.950047314167022705e-01
8.994928561151027679e-03 -5.738376379013061523e-01 1.691991090774536133e-01
7.473005913197994232e-03 -4.477037787437438965e-01 5.878894031047821045e-02
6.713397800922393799e-03 -6.071455478668212891e-01 1.152615323662757874e-01
3.596786409616470337e-04 -5.223816037178039551e-01 1.364766657352447510e-01
6.204950623214244843e-04 -4.303799569606781006e-01 5.852910503745079041e-02
3.738853614777326584e-03 -6.876218318939208984e-01 1.528924703598022461e-01
8.525237441062927246e-03 -5.842629075050354004e-01 1.376405656337738037e-01
8.515228983014822006e-04 -4.751255810260772705e-01 1.314518600702285767e-01
7.775809615850448608e-03 -3.466147780418395996e-01 6.658593565225601196e-02
9.145603515207767487e-03 -4.351802170276641846e-01 1.191339492797851562e-01
7.219614461064338684e-03 -3.448624610900878906e-01 4.734285920858383179e-02
7.066822610795497894e-03 -6.464681625366210938e-01 1.479966938495635986e-01
7.806255947798490524e-03 -5.976158380508422852e-01 1.273907572031021118e-01
8.420523256063461304e-03 -4.095633327960968018e-01 7.112988084554672241e-02
3.366807708516716957e-03 -3.854594230651855469e-01 2.170909941196441650e-02
9.118007495999336243e-03 -5.211999416351318359e-01 1.225436031818389893e-01
2.523336792364716530e-03 -3.309712409973144531e-01 5.662414431571960449e-02
2.959537319839000702e-03 -6.025227904319763184e-01 2.037355899810791016e-01
2.903619781136512756e-03 -5.794036984443664551e-01 1.983660608530044556e-01
3.765802830457687378e-04 -4.355961680412292480e-01 7.312858849763870239e-02
4.170260857790708542e-03 -3.629421293735504150e-01 1.968586444854736328e-02
8.091777563095092773e-03 -3.684306144714355469e-01 1.020007729530334473e-01
8.011847734451293945e-03 -3.586478829383850098e-01 6.764324009418487549e-02
8.236286230385303497e-04 -4.202957749366760254e-01 5.224866420030593872e-02
8.637744933366775513e-03 -4.686042368412017822e-01 8.707369863986968994e-02
3.405292518436908722e-04 -5.470437407493591309e-01 1.427875459194183350e-01
1.218720572069287300e-03 -4.539529681205749512e-01 1.293860077857971191e-01
5.215238779783248901e-04 -4.570412635803222656e-01 1.115647628903388977e-01
7.875535637140274048e-03 -5.564486980438232422e-01 1.055510342121124268e-01
1.169674796983599663e-03 -6.287832260131835938e-01 1.269137859344482422e-01
4.865812603384256363e-03 -3.372863233089447021e-01 2.202051877975463867e-02
8.830567821860313416e-03 -5.570314526557922363e-01 1.304695606231689453e-01
9.197639301419258118e-03 -5.023686289787292480e-01 1.550282090902328491e-01
4.604339599609375000e-03 -5.124459266662597656e-01 1.898156702518463135e-01
8.729272522032260895e-04 -4.028819203376770020e-01 8.252683281898498535e-02
5.118600092828273773e-04 -6.047940254211425781e-01 1.288486719131469727e-01
4.338109865784645081e-04 -4.817291498184204102e-01 6.885425746440887451e-02
1.272502122446894646e-03 -4.609799087047576904e-01 1.340892016887664795e-01
3.612432628870010376e-04 -5.972400903701782227e-01 1.331958621740341187e-01
7.473364938050508499e-03 -4.695964157581329346e-01 6.487746536731719971e-02
8.105297572910785675e-03 -5.745981335639953613e-01 1.199318915605545044e-01
8.218232542276382446e-03 -4.551713466644287109e-01 7.368268072605133057e-02
5.600259173661470413e-03 -3.067314922809600830e-01 6.427517533302307129e-02
3.792998148128390312e-03 -6.310107707977294922e-01 2.148072123527526855e-01
2.740917494520545006e-03 -5.379231572151184082e-01 1.853184998035430908e-01
6.219516042619943619e-03 -6.926617026329040527e-01 1.820823997259140015e-01
2.521842485293745995e-03 -4.093355834484100342e-01 1.267279982566833496e-01
6.421562284231185913e-05 -5.141671895980834961e-01 1.187724694609642029e-01
6.743641104549169540e-03 -3.683577179908752441e-01 3.681459277868270874e-02
6.069565191864967346e-03 -6.707001924514770508e-01 1.524368822574615479e-01
1.161266118288040161e-05 -4.939750730991363525e-01 9.521862119436264038e-02
8.654869161546230316e-03 -4.394951164722442627e-01 8.108408004045486450e-02
8.877351880073547363e-03 -5.207594633102416992e-01 1.711816191673278809e-01
9.257732890546321869e-04 -5.257013440132141113e-01 7.286956906318664551e-02
4.969307687133550644e-03 -7.099651098251342773e-01 1.932651549577713013e-01
8.958110585808753967e-03 -5.057763457298278809e-01 1.091745421290397644e-01
4.380697850137948990e-03 -4.977327287197113037e-01 4.933997988700866699e-02
9.280513972043991089e-03 -5.251916646957397461e-01 1.548590660095214844e-01
1.962676644325256348e-03 -5.184774398803710938e-01 5.974983051419258118e-02
9.278152137994766235e-03 -5.194228291511535645e-01 1.315211057662963867e-01
8.767446503043174744e-03 -4.035581946372985840e-01 8.587950468063354492e-02
7.952706888318061829e-03 -4.027927219867706299e-01 5.902065709233283997e-02
4.572781268507242203e-03 -5.044516324996948242e-01 1.868158429861068726e-01
4.727817140519618988e-04 -4.289115667343139648e-01 6.758104264736175537e-02
3.197948681190609932e-03 -6.866732835769653320e-01 2.068931907415390015e-01
6.934868171811103821e-03 -4.809664189815521240e-01 1.787819564342498779e-01
8.167932741343975067e-03 -5.870923399925231934e-01 1.290164887905120850e-01
8.239210583269596100e-04 -4.002854228019714355e-01 7.457561790943145752e-02
1.334513770416378975e-03 -6.398603320121765137e-01 1.794559955596923828e-01
5.471101030707359314e-04 -5.598447322845458984e-01 1.529895812273025513e-01
8.517134934663772583e-03 -5.394096970558166504e-01 1.110844835638999939e-01
2.406373387202620506e-03 -4.337550997734069824e-01 1.386847794055938721e-01
2.182298339903354645e-04 -5.011652112007141113e-01 8.098931610584259033e-02
7.259429432451725006e-03 -4.356813132762908936e-01 5.286374688148498535e-02
2.412470057606697083e-04 -5.416896343231201172e-01 1.372287869453430176e-01
2.656868426129221916e-03 -3.262566924095153809e-01 4.868072271347045898e-02
9.205996990203857422e-03 -5.284483432769775391e-01 1.314506083726882935e-01
1.435080310329794884e-03 -4.699427783489227295e-01 4.854077100753784180e-02
3.742254339158535004e-04 -5.654341578483581543e-01 1.036463081836700439e-01
1.680402318015694618e-03 -6.516449451446533203e-01 1.869123280048370361e-01
6.036763545125722885e-03 -3.141133189201354980e-01 7.359975576400756836e-02
4.509235732257366180e-03 -6.221666336059570312e-01 2.174723744392395020e-01
8.066043257713317871e-03 -4.807412028312683105e-01 1.706926673650741577e-01
5.640534684062004089e-03 -6.801506280899047852e-01 1.558438092470169067e-01
1.605332829058170319e-03 -5.071011185646057129e-01 5.827371031045913696e-02
2.443420700728893280e-03 -6.884378194808959961e-01 1.897384077310562134e-01
9.071491658687591553e-03 -5.142971277236938477e-01 1.171774044632911682e-01
6.252708379179239273e-03 -6.557884216308593750e-01 2.193430811166763306e-01
9.095851331949234009e-03 -4.941228628158569336e-01 1.562538743019104004e-01
2.017361111938953400e-03 -3.586666584014892578e-01 7.969553768634796143e-02
1.352709485217928886e-03 -5.496997833251953125e-01 1.697341948747634888e-01
1.181240659207105637e-03 -6.160444617271423340e-01 1.166749745607376099e-01
2.436354756355285645e-03 -4.849855601787567139e-01 4.585231095552444458e-02
2.848543226718902588e-05 -5.369445085525512695e-01 1.060598865151405334e-01
2.034316072240471840e-03 -3.446988165378570557e-01 5.912660807371139526e-02
3.034130902960896492e-03 -6.146630048751831055e-01 2.064729928970336914e-01
3.349875565618276596e-03 -6.292745471000671387e-01 1.089170500636100769e-01
7.277997210621833801e-03 -3.594689965248107910e-01 4.560969769954681396e-02
1.212640665471553802e-03 -4.696532487869262695e-01 1.370769590139389038e-01
3.547826781868934631e-05 -4.867752492427825928e-01 9.935507923364639282e-02
8.515613153576850891e-04 -4.183039069175720215e-01 9.665109962224960327e-02
2.125761471688747406e-03 -4.053387641906738281e-01 1.184933334589004517e-01
8.617710322141647339e-03 -4.543022215366363525e-01 8.292768150568008423e-02
8.380660787224769592e-03 -4.635736346244812012e-01 1.593469828367233276e-01
9.544908534735441208e-04 -4.866217970848083496e-01 1.392234265804290771e-01
1.375430962070822716e-03 -3.770848214626312256e-01 7.738761603832244873e-02
6.570032797753810883e-03 -3.528457283973693848e-01 1.097941994667053223e-01
9.139724075794219971e-03 -4.802233874797821045e-01 1.489999890327453613e-01
4.418268799781799316e-04 -5.322052836418151855e-01 1.425336599349975586e-01
5.311770364642143250e-04 -4.254872500896453857e-01 8.623919636011123657e-02
1.654574414715170860e-03 -4.037513434886932373e-01 1.086842790246009827e-01
3.800919279456138611e-03 -3.082906603813171387e-01 3.858021646738052368e-02
9.019304066896438599e-03 -4.485299587249755859e-01 1.370943635702133179e-01
7.048237137496471405e-03 -3.341500759124755859e-01 4.762425273656845093e-02
7.962878793478012085e-03 -3.673761487007141113e-01 6.127591431140899658e-02
5.261404439806938171e-04 -6.010494828224182129e-01 1.540428102016448975e-01
2.639234997332096100e-03 -4.900184869766235352e-01 1.671393513679504395e-01
5.906191654503345490e-03 -4.539250731468200684e-01 4.351420700550079346e-02
5.315052811056375504e-03 -3.029162883758544922e-01 5.649580806493759155e-02
6.112537346780300140e-03 -3.566399216651916504e-01 2.951964735984802246e-02
2.814186271280050278e-03 -5.041563510894775391e-01 1.744354367256164551e-01
1.369833946228027344e-03 -6.311993002891540527e-01 1.817074716091156006e-01
1.071269158273935318e-03 -6.279874444007873535e-01 1.729827821254730225e-01
5.601444281637668610e-04 -4.179201126098632812e-01 6.938515603542327881e-02
6.188860163092613220e-03 -5.766822099685668945e-01 9.304821491241455078e-02
2.557975240051746368e-04 -5.055658817291259766e-01 1.259882897138595581e-01
4.350338131189346313e-04 -6.048077344894409180e-01 1.383119076490402222e-01
4.119998775422573090e-04 -5.933415889739990234e-01 1.487504839897155762e-01
8.382813073694705963e-03 -5.787716507911682129e-01 1.927535533905029297e-01
3.286790568381547928e-03 -3.823856413364410400e-01 1.192347705364227295e-01
8.681987412273883820e-03 -6.016941070556640625e-01 1.631637066602706909e-01
5.795368924736976624e-04 -5.873647928237915039e-01 1.575839370489120483e-01
8.360523730516433716e-03 -4.932105541229248047e-01 8.820712566375732422e-02
6.383728701621294022e-03 -4.885684549808502197e-01 5.823804438114166260e-02
8.986743167042732239e-03 -5.642755627632141113e-01 1.730846762657165527e-01
1.491068396717309952e-03 -5.182371735572814941e-01 1.621866226196289062e-01
8.850366808474063873e-03 -4.195913970470428467e-01 8.703443408012390137e-02
2.141841454431414604e-03 -3.677959442138671875e-01 9.161823987960815430e-02
5.538928322494029999e-03 -6.517055034637451172e-01 1.315689831972122192e-01
3.502205945551395416e-04 -4.377505779266357422e-01 8.356001228094100952e-02
6.847395095974206924e-03 -5.231522917747497559e-01 1.943088769912719727e-01
8.908322080969810486e-03 -4.087637364864349365e-01 1.081340759992599487e-01
7.926506921648979187e-03 -6.191244125366210938e-01 2.021704614162445068e-01
9.244701825082302094e-03 -5.025982260704040527e-01 1.209094077348709106e-01
7.898160256445407867e-04 -5.145339369773864746e-01 7.087630778551101685e-02
4.019615706056356430e-03 -6.223909854888916016e-01 1.051782295107841492e-01
7.924511097371578217e-03 -6.446416378021240234e-01 1.751848757266998291e-01
9.351933840662240982e-04 -6.391893029212951660e-01 1.569924652576446533e-01
4.126178100705146790e-05 -5.497630834579467773e-01 1.223995983600616455e-01
4.471359308809041977e-03 -6.844487786293029785e-01 2.177461087703704834e-01
6.598072592169046402e-03 -4.980906546115875244e-01 6.364151835441589355e-02
7.264118175953626633e-03 -3.487941026687622070e-01 9.981779754161834717e-02
3.698223037645220757e-03 -5.606005787849426270e-01 2.000925093889236450e-01
8.070436306297779083e-03 -3.757703900337219238e-01 6.275467574596405029e-02
1.883117947727441788e-03 -4.748298227787017822e-01 1.511436253786087036e-01
2.046681707724928856e-03 -6.096034049987792969e-01 1.937398016452789307e-01
8.627234492450952530e-04 -5.383111238479614258e-01 1.562126278877258301e-01
7.408024743199348450e-03 -5.032383799552917480e-01 7.524471729993820190e-02
2.859751461073756218e-03 -3.342523276805877686e-01 7.352378964424133301e-02
3.295590169727802277e-03 -3.634100258350372314e-01 1.063461378216743469e-01
7.640344090759754181e-03 -4.990317821502685547e-01 1.816228330135345459e-01
9.379570838063955307e-04 -4.393467903137207031e-01 1.142915785312652588e-01
9.225985035300254822e-03 -4.775288105010986328e-01 1.115442886948585510e-01
6.048986688256263733e-04 -6.017382144927978516e-01 1.210961118340492249e-01
7.708865217864513397e-03 -5.865412354469299316e-01 1.186827123165130615e-01
8.511720225214958191e-03 -6.004787087440490723e-01 1.503733992576599121e-01
9.035369381308555603e-03 -4.194701015949249268e-01 1.097025349736213684e-01
1.100052380934357643e-03 -4.018416404724121094e-01 9.200823307037353516e-02
5.506253335624933243e-03 -3.964200019836425781e-01 2.808332443237304688e-02
1.978171057999134064e-04 -5.675554275512695312e-01 1.136122569441795349e-01
-1.177657395601272583e-05 -5.322203636169433594e-01 1.135421395301818848e-01
8.316991850733757019e-03 -3.702149391174316406e-01 7.692240923643112183e-02
8.283050730824470520e-03 -3.850986361503601074e-01 6.814646720886230469e-02
5.949490703642368317e-03 -3.460613489151000977e-01 2.835673093795776367e-02
6.316393613815307617e-03 -6.844511032104492188e-01 1.714412420988082886e-01
8.921496570110321045e-03 -4.107835888862609863e-01 9.467101097106933594e-02
9.177802130579948425e-03 -5.316962599754333496e-01 1.626237332820892334e-01
9.186008945107460022e-03 -4.421790242195129395e-01 1.067693457007408142e-01
8.472772315144538879e-03 -4.531064033508300781e-01 1.529603898525238037e-01
7.722393609583377838e-03 -3.527453839778900146e-01 5.866053700447082520e-02
2.584723522886633873e-03 -3.332284986972808838e-01 3.557489812374114990e-02
7.740231230854988098e-04 -6.290963888168334961e-01 1.453949213027954102e-01
1.453607575967907906e-03 -3.948374688625335693e-01 9.729109704494476318e-02
1.214431598782539368e-03 -3.926054239273071289e-01 8.769693970680236816e-02
6.878579501062631607e-03 -4.528312087059020996e-01 5.241106450557708740e-02
8.046406321227550507e-03 -6.295698881149291992e-01 1.966863870620727539e-01
3.104578005149960518e-03 -3.215555548667907715e-01 3.411349654197692871e-02
8.685545995831489563e-03 -4.787719547748565674e-01 9.132628887891769409e-02
1.244382001459598541e-04 -5.116177201271057129e-01 8.839963376522064209e-02
2.870233729481697083e-04 -4.461267888545989990e-01 7.576357573270797729e-02
8.517727255821228027e-03 -6.095774173736572266e-01 1.608391702175140381e-01
2.604504814371466637e-03 -6.386181116104125977e-01 2.041823118925094604e-01
8.200525306165218353e-03 -5.445772409439086914e-01 1.898557990789413452e-01
7.093608845025300980e-03 -3.865272104740142822e-01 4.257591813802719116e-02
1.023964723572134972e-03 -4.760239124298095703e-01 5.531945079565048218e-02
2.815009793266654015e-03 -5.686620473861694336e-01 1.948518455028533936e-01
8.666619658470153809e-03 -5.917645692825317383e-01 1.840647608041763306e-01
6.738379597663879395e-04 -4.089770615100860596e-01 6.705335527658462524e-02
9.876219555735588074e-04 -4.964494109153747559e-01 1.441534906625747681e-01
6.197146140038967133e-04 -5.400686264038085938e-01 8.423753827810287476e-02
8.845324628055095673e-03 -4.332386553287506104e-01 8.681669831275939941e-02
7.029716856777667999e-03 -6.363859176635742188e-01 1.392800956964492798e-01
6.844907067716121674e-03 -6.790151000022888184e-01 1.792569160461425781e-01
1.746067777276039124e-03 -3.774189352989196777e-01 9.050413966178894043e-02
8.481571450829505920e-03 -4.339557886123657227e-01 7.532726228237152100e-02
3.356384579092264175e-03 -7.059546113014221191e-01 1.851407438516616821e-01
9.114324115216732025e-03 -5.372316837310791016e-01 1.312078982591629028e-01
5.887875333428382874e-03 -5.687233209609985352e-01 8.653245866298675537e-02
8.926743641495704651e-03 -5.462731122970581055e-01 1.750779300928115845e-01
6.317168474197387695e-03 -4.342783391475677490e-01 4.189195483922958374e-02
3.856347873806953430e-03 -4.211295843124389648e-01 1.463748812675476074e-01
1.212010392919182777e-03 -3.835500180721282959e-01 4.833785444498062134e-02
3.917734138667583466e-04 -5.463985800743103027e-01 9.281945228576660156e-02
2.055102959275245667e-04 -4.604375362396240234e-01 7.764356583356857300e-02
6.722121965140104294e-03 -6.756740808486938477e-01 1.699744760990142822e-01
9.370453190058469772e-04 -4.298913478851318359e-01 4.907075315713882446e-02
8.223368786275386810e-03 -5.014383792877197266e-01 8.829893171787261963e-02
6.901226006448268890e-04 -4.170986115932464600e-01 8.776511251926422119e-02
7.938556373119354248e-04 -6.105158925056457520e-01 1.651605963706970215e-01
8.154951967298984528e-03 -5.116568803787231445e-01 9.084893763065338135e-02
5.602333694696426392e-04 -5.859293341636657715e-01 1.105963364243507385e-01
7.747206836938858032e-03 -4.567434787750244141e-01 6.541115045547485352e-02
3.390205092728137970e-04 -4.521906971931457520e-01 6.949542462825775146e-02
4.544585943222045898e-03 -3.936975002288818359e-01 1.354442387819290161e-01
8.871421217918395996e-03 -5.384640097618103027e-01 1.212729439139366150e-01
8.682413958013057709e-03 -4.263625741004943848e-01 1.337642371654510498e-01
1.105624251067638397e-04 -4.795734882354736328e-01 1.035652458667755127e-01
2.343017142266035080e-03 -4.480246305465698242e-01 3.610253334045410156e-02
2.411650493741035461e-03 -3.365956544876098633e-01 6.330701708793640137e-02
9.326263330876827240e-03 -4.785566329956054688e-01 1.197035387158393860e-01
8.860691450536251068e-03 -4.998674988746643066e-01 1.036211326718330383e-01
5.498222541064023972e-03 -3.295079469680786133e-01 2.670543640851974487e-02
7.339918054640293121e-03 -5.926342010498046875e-01 2.084584534168243408e-01
8.121048100292682648e-03 -6.179824471473693848e-01 1.509136557579040527e-01
1.174149569123983383e-03 -6.439060568809509277e-01 1.423223018646240234e-01
2.050637267529964447e-03 -4.499949514865875244e-01 1.420264095067977905e-01
2.994855167344212532e-03 -5.538928508758544922e-01 1.925864219665527344e-01
6.889546755701303482e-03 -5.480300784111022949e-01 8.692210912704467773e-02
9.797441307455301285e-04 -3.887511491775512695e-01 6.447310000658035278e-02
9.153712540864944458e-03 -5.432963967323303223e-01 1.377781480550765991e-01
8.990293368697166443e-03 -4.707940518856048584e-01 1.498912572860717773e-01
1.077203080058097839e-03 -5.629801154136657715e-01 1.676609069108963013e-01
6.895800586789846420e-03 -5.318403244018554688e-01 7.995702326297760010e-02
8.816420100629329681e-03 -5.856186151504516602e-01 1.525621861219406128e-01
8.554831147193908691e-03 -5.153469443321228027e-01 1.011907458305358887e-01
8.826610632240772247e-03 -5.782792568206787109e-01 1.459303200244903564e-01
8.797885850071907043e-03 -5.533643960952758789e-01 1.799856722354888916e-01
8.380778133869171143e-03 -5.539507269859313965e-01 1.150283664464950562e-01
2.387423999607563019e-03 -6.600117683410644531e-01 2.004680931568145752e-01
9.345097467303276062e-03 -5.031617283821105957e-01 1.452964246273040771e-01
8.717233315110206604e-03 -3.975983560085296631e-01 1.083140969276428223e-01
7.886765524744987488e-03 -6.405377388000488281e-01 1.971987187862396240e-01
8.946798741817474365e-03 -4.639020264148712158e-01 9.545764327049255371e-02
3.151264972984790802e-03 -3.579669594764709473e-01 1.005094647407531738e-01
4.208342172205448151e-03 -5.678402781486511230e-01 7.720477879047393799e-02
9.057780727744102478e-03 -4.903126955032348633e-01 1.072002798318862915e-01
8.849797304719686508e-04 -5.587559342384338379e-01 8.794705569744110107e-02
6.921788677573204041e-03 -5.657207965850830078e-01 2.059190869331359863e-01
7.660979405045509338e-03 -6.543067693710327148e-01 1.753567159175872803e-01
8.337348699569702148e-03 -5.980468392372131348e-01 1.415581554174423218e-01
8.596343919634819031e-03 -6.099902987480163574e-01 1.714978963136672974e-01
-4.458706825971603394e-06 -4.992555081844329834e-01 1.016880050301551819e-01
3.881434211507439613e-03 -3.347559869289398193e-01 8.938099443912506104e-02
7.330127991735935211e-03 -6.560550928115844727e-01 1.636882722377777100e-01
3.683259710669517517e-04 -4.759061038494110107e-01 1.164449900388717651e-01
9.257158264517784119e-03 -4.576070606708526611e-01 1.297144442796707153e-01
2.095582662150263786e-03 -4.614395499229431152e-01 1.481413096189498901e-01
2.231132239103317261e-04 -5.553540587425231934e-01 1.388382166624069214e-01
5.632714368402957916e-03 -6.890981793403625488e-01 1.651182472705841064e-01
2.439911477267742157e-04 -5.318053960800170898e-01 1.347579956054687500e-01
8.768821135163307190e-03 -4.873144328594207764e-01 9.640098363161087036e-02
7.445651106536388397e-03 -4.638016223907470703e-01 1.689734309911727905e-01
3.477632999420166016e-04 -5.839783549308776855e-01 1.463875323534011841e-01
8.674571290612220764e-03 -3.886635899543762207e-01 9.471655637025833130e-02
8.991600945591926575e-03 -4.777559936046600342e-01 1.007082015275955200e-01
7.681649178266525269e-03 -5.349962711334228516e-01 9.216108918190002441e-02
1.382440328598022461e-03 -6.487054824829101562e-01 1.784298121929168701e-01
2.022838918492197990e-03 -5.315955877304077148e-01 1.747915893793106079e-01
7.896724157035350800e-03 -3.494188487529754639e-01 7.936792075634002686e-02
3.171727992594242096e-03 -4.588152766227722168e-01 3.620211035013198853e-02
1.421913038939237595e-03 -5.984474420547485352e-01 1.814075410366058350e-01
7.209728006273508072e-03 -4.457915127277374268e-01 1.622490435838699341e-01
4.306931048631668091e-03 -4.315888583660125732e-01 2.987510710954666138e-02
7.958199828863143921e-03 -5.485034584999084473e-01 1.032034009695053101e-01
8.050768636167049408e-03 -4.714347720146179199e-01 7.489837706089019775e-02
2.736179158091545105e-03 -6.516599655151367188e-01 2.060977220535278320e-01
8.682716637849807739e-03 -6.028693914413452148e-01 1.761278957128524780e-01
1.178067177534103394e-04 -5.493215322494506836e-01 1.060730814933776855e-01
8.470471017062664032e-03 -4.007067084312438965e-01 7.284110784530639648e-02
5.151660181581974030e-03 -6.728485226631164551e-01 2.208203077316284180e-01
8.955990895628929138e-03 -4.518463909626007080e-01 9.341728687286376953e-02
9.348161984235048294e-04 -5.975849628448486328e-01 1.698377281427383423e-01
4.219590686261653900e-03 -6.952005624771118164e-01 2.133803367614746094e-01
5.330362822860479355e-03 -4.057034552097320557e-01 1.448598653078079224e-01
1.879795454442501068e-04 -4.752916097640991211e-01 7.767681777477264404e-02
7.418589666485786438e-05 -4.810585081577301025e-01 8.710904419422149658e-02
1.145889516919851303e-03 -3.806868791580200195e-01 6.715299189090728760e-02
-2.249144017696380615e-05 -5.193701982498168945e-01 1.053190976381301880e-01
2.428214065730571747e-03 -3.589180111885070801e-01 8.979133516550064087e-02
7.476772181689739227e-03 -4.269606769084930420e-01 5.411737412214279175e-02
7.014594972133636475e-03 -6.160060167312622070e-01 1.249163150787353516e-01
1.526122912764549255e-03 -6.631710529327392578e-01 1.557630300521850586e-01
3.700507804751396179e-04 -4.509874582290649414e-01 1.002537682652473450e-01
1.542684389278292656e-03 -5.842446684837341309e-01 1.813450306653976440e-01
1.405500806868076324e-04 -4.651565253734588623e-01 9.271077066659927368e-02
7.318852934986352921e-03 -3.303723931312561035e-01 6.773364543914794922e-02
9.028884582221508026e-03 -5.621473789215087891e-01 1.442417800426483154e-01
4.802515730261802673e-03 -6.778963804244995117e-01 1.467074453830718994e-01
5.019974894821643829e-03 -3.141855001449584961e-01 2.880042046308517456e-02
3.975467756390571594e-03 -6.076478362083435059e-01 9.674239158630371094e-02
1.108837313950061798e-04 -5.563949346542358398e-01 1.116046980023384094e-01
9.351616725325584412e-03 -4.934015870094299316e-01 1.414309591054916382e-01
1.313871471211314201e-03 -3.841098546981811523e-01 8.290657401084899902e-02
9.058309718966484070e-03 -5.534523129463195801e-01 1.390230208635330200e-01
2.219569869339466095e-04 -5.823625922203063965e-01 1.329914182424545288e-01
8.292613551020622253e-03 -6.255964040756225586e-01 1.868920624256134033e-01
2.439198782667517662e-03 -6.821286678314208984e-01 1.949565708637237549e-01
8.649360388517379761e-03 -5.717322826385498047e-01 1.332815289497375488e-01
2.788503188639879227e-03 -5.451605319976806641e-01 6.690903007984161377e-02
9.344180114567279816e-03 -4.701167345046997070e-01 1.233018413186073303e-01
2.030768897384405136e-03 -4.167187809944152832e-01 1.238408908247947693e-01
8.545301854610443115e-03 -5.636771321296691895e-01 1.248704046010971069e-01
2.832471858710050583e-03 -6.242100596427917480e-01 2.056709527969360352e-01
1.822846243157982826e-03 -3.850451111793518066e-01 3.283906728029251099e-02
1.028963597491383553e-03 -5.966480374336242676e-01 1.064298748970031738e-01
7.834553252905607224e-04 -4.494193196296691895e-01 1.158793419599533081e-01
8.927870541810989380e-03 -4.844617843627929688e-01 1.576052606105804443e-01
8.124238811433315277e-03 -5.086231827735900879e-01 1.803468912839889526e-01
2.778912894427776337e-04 -4.912327826023101807e-01 1.204924359917640686e-01
1.948708668351173401e-04 -4.553538560867309570e-01 8.429358899593353271e-02
6.702892482280731201e-03 -5.845355987548828125e-01 1.025140583515167236e-01
8.177567273378372192e-03 -6.263610124588012695e-01 1.621110886335372925e-01
1.450472744181752205e-03 -3.915610909461975098e-01 3.890062868595123291e-02
2.793967723846435547e-04 -4.457621574401855469e-01 8.625622093677520752e-02
7.305046077817678452e-03 -6.241420507431030273e-01 -4.323577880859375000e-01
2.006717724725604057e-03 -5.243667960166931152e-01 -4.465617537498474121e-01
9.230669587850570679e-03 -5.559694170951843262e-01 -4.477742016315460205e-01
8.651847951114177704e-03 -5.846800208091735840e-01 -4.667305350303649902e-01
3.128982149064540863e-03 -3.414989113807678223e-01 -4.537496864795684814e-01
6.600473541766405106e-03 -5.635931491851806641e-01 -4.810602962970733643e-01
5.651419516652822495e-03 -4.706272184848785400e-01 -4.806767404079437256e-01
8.752546273171901703e-03 -6.097715497016906738e-01 -4.580205678939819336e-01
6.274922285228967667e-03 -6.794683933258056641e-01 -4.436413645744323730e-01
4.200489725917577744e-03 -6.668602228164672852e-01 -4.604944288730621338e-01
2.019302221015095711e-03 -4.779061377048492432e-01 -4.369743466377258301e-01
8.283533155918121338e-03 -3.552725911140441895e-01 -4.355212152004241943e-01
2.999756252393126488e-03 -3.631716966629028320e-01 -4.265603125095367432e-01
2.827866002917289734e-03 -3.381498456001281738e-01 -4.440628588199615479e-01
2.561393426731228828e-03 -4.105039536952972412e-01 -4.599657058715820312e-01
8.118622936308383942e-03 -3.376248478889465332e-01 -4.404080212116241455e-01
2.786779310554265976e-03 -4.646580219268798828e-01 -4.675161838531494141e-01
9.096528403460979462e-03 -5.663898587226867676e-01 -4.594633579254150391e-01
4.758618772029876709e-03 -3.666696846485137939e-01 -4.161187410354614258e-01
2.543875947594642639e-03 -5.884748697280883789e-01 -4.458985924720764160e-01
9.047798812389373779e-03 -4.619807302951812744e-01 -4.615236222743988037e-01
1.964574446901679039e-03 -4.717142283916473389e-01 -4.526033699512481689e-01
3.743396606296300888e-03 -3.056131005287170410e-01 -4.323008358478546143e-01
3.241986501961946487e-03 -4.647437632083892822e-01 -4.201335608959197998e-01
8.023864589631557465e-03 -3.611353337764739990e-01 -4.591341912746429443e-01
2.487756544724106789e-03 -5.745188593864440918e-01 -4.578148424625396729e-01
3.304482437670230865e-03 -4.125725924968719482e-01 -4.682462513446807861e-01
2.369791734963655472e-03 -4.226775467395782471e-01 -4.584057331085205078e-01
2.193955937400460243e-03 -5.551196336746215820e-01 -4.479600489139556885e-01
9.102327749133110046e-03 -4.493109583854675293e-01 -4.587076008319854736e-01
2.756146946921944618e-03 -4.413129091262817383e-01 -4.657101333141326904e-01
9.359569288790225983e-03 -4.678767025470733643e-01 -4.458862841129302979e-01
7.314334157854318619e-03 -3.583589196205139160e-01 -4.225109815597534180e-01
3.960493952035903931e-03 -6.422863602638244629e-01 -4.669675230979919434e-01
9.309623390436172485e-03 -4.520490467548370361e-01 -4.455780684947967529e-01
7.969938218593597412e-03 -6.203071475028991699e-01 -4.701536297798156738e-01
2.139373216778039932e-03 -5.472557544708251953e-01 -4.498592913150787354e-01
7.721244823187589645e-03 -6.274155378341674805e-01 -4.712560772895812988e-01
2.337709302082657814e-03 -4.151683151721954346e-01 -4.567396640777587891e-01
3.622872056439518929e-03 -6.528252363204956055e-01 -4.524455070495605469e-01
2.855428494513034821e-03 -5.213345885276794434e-01 -4.690747857093811035e-01
8.611789904534816742e-03 -3.670669496059417725e-01 -4.451353549957275391e-01
1.943460199981927872e-03 -5.019195675849914551e-01 -4.432545602321624756e-01
8.508572354912757874e-03 -4.512022435665130615e-01 -4.683029055595397949e-01
8.951090276241302490e-03 -4.785005748271942139e-01 -4.329755902290344238e-01
9.373839944601058960e-03 -4.734588563442230225e-01 -4.462124407291412354e-01
6.459560710936784744e-03 -6.200166344642639160e-01 -4.777921736240386963e-01
4.957842640578746796e-03 -4.329154491424560547e-01 -4.134177863597869873e-01
2.400255994871258736e-03 -4.397889077663421631e-01 -4.285363554954528809e-01
8.743620477616786957e-03 -5.002932548522949219e-01 -4.686139225959777832e-01
8.846002630889415741e-03 -4.310211539268493652e-01 -4.613081514835357666e-01
8.911786600947380066e-03 -5.152408480644226074e-01 -4.336954057216644287e-01
7.596848532557487488e-03 -4.571211040019989014e-01 -4.756729602813720703e-01
9.323082864284515381e-03 -4.629179537296295166e-01 -4.438543319702148438e-01
2.540272660553455353e-03 -4.016366899013519287e-01 -4.283513426780700684e-01
6.873202975839376450e-03 -5.938548445701599121e-01 -4.790230989456176758e-01
8.734542876482009888e-03 -3.816256523132324219e-01 -4.507068395614624023e-01
8.579206652939319611e-03 -4.884944558143615723e-01 -4.279762506484985352e-01
2.035531913861632347e-03 -5.057913064956665039e-01 -4.391749203205108643e-01
2.300318330526351929e-03 -4.987279474735260010e-01 -4.319588840007781982e-01
9.389644488692283630e-03 -5.186840295791625977e-01 -4.492222070693969727e-01
8.632250130176544189e-03 -5.375761389732360840e-01 -4.701248705387115479e-01
3.336341353133320808e-03 -4.427919685840606689e-01 -4.711256325244903564e-01
3.572494257241487503e-03 -6.122485399246215820e-01 -4.337914884090423584e-01
9.138370864093303680e-03 -4.213445782661437988e-01 -4.439426660537719727e-01
6.288267672061920166e-03 -3.066103458404541016e-01 -4.571616351604461670e-01
2.854289719834923744e-03 -5.869774818420410156e-01 -4.635956883430480957e-01
5.819978658109903336e-03 -5.550352334976196289e-01 -4.186657071113586426e-01
6.817069835960865021e-03 -6.296047568321228027e-01 -4.310064315795898438e-01
7.516481913626194000e-03 -4.442216157913208008e-01 -4.188044965267181396e-01
4.111106507480144501e-03 -2.909044623374938965e-01 -4.361379444599151611e-01
9.187795221805572510e-03 -4.934601187705993652e-01 -4.608473777770996094e-01
1.966065494343638420e-03 -4.282861351966857910e-01 -4.444326758384704590e-01
2.594219055026769638e-03 -5.949839949607849121e-01 -4.484850764274597168e-01
5.574472248554229736e-03 -3.254950642585754395e-01 -4.634901285171508789e-01
8.357441984117031097e-03 -3.513584733009338379e-01 -4.406966269016265869e-01
2.745362929999828339e-03 -5.754145979881286621e-01 -4.358863830566406250e-01
7.551886141300201416e-03 -5.113568902015686035e-01 -4.206181466579437256e-01
7.943814620375633240e-03 -3.290990591049194336e-01 -4.459568858146667480e-01
9.298065677285194397e-03 -4.474509954452514648e-01 -4.489385485649108887e-01
2.433724235743284225e-03 -3.951179981231689453e-01 -4.309422373771667480e-01
8.501202799379825592e-03 -3.931180536746978760e-01 -4.600177109241485596e-01
4.221186507493257523e-03 -6.008504629135131836e-01 -4.754474163055419922e-01
3.529950277879834175e-03 -5.667901635169982910e-01 -4.734766483306884766e-01
7.161988411098718643e-03 -3.551276624202728271e-01 -4.652791023254394531e-01
2.402710728347301483e-03 -3.712466359138488770e-01 -4.464867413043975830e-01
7.582849357277154922e-03 -6.518737077713012695e-01 -4.671608507633209229e-01
8.457398042082786560e-03 -5.751991868019104004e-01 -4.339601695537567139e-01
2.767219906672835350e-03 -3.496636748313903809e-01 -4.493487775325775146e-01
2.461347728967666626e-03 -5.502701997756958008e-01 -4.358119964599609375e-01
9.111359715461730957e-03 -4.247540831565856934e-01 -4.529877305030822754e-01
5.983545444905757904e-03 -3.956866264343261719e-01 -4.746894538402557373e-01
3.512974595651030540e-03 -5.468434095382690430e-01 -4.237336814403533936e-01
8.167612366378307343e-03 -6.035462617874145508e-01 -4.705629646778106689e-01
8.801808580756187439e-03 -3.830240368843078613e-01 -4.433378279209136963e-01
8.972680196166038513e-03 -5.293849110603332520e-01 -4.358653128147125244e-01
1.910778693854808807e-03 -4.488682746887207031e-01 -4.466011822223663330e-01
8.977908641099929810e-03 -5.353513956069946289e-01 -4.365632534027099609e-01
7.525253575295209885e-03 -6.503604650497436523e-01 -4.407872557640075684e-01
8.875843137502670288e-03 -4.831182658672332764e-01 -4.660989940166473389e-01
8.162699639797210693e-03 -4.832878410816192627e-01 -4.237145483493804932e-01
8.497988805174827576e-03 -5.619037151336669922e-01 -4.707327783107757568e-01
2.802841830998659134e-03 -3.435522317886352539e-01 -4.472952783107757568e-01
2.982502803206443787e-03 -6.200165152549743652e-01 -4.555018842220306396e-01
7.216389290988445282e-03 -3.265149295330047607e-01 -4.272875189781188965e-01
3.397392807528376579e-03 -4.039761424064636230e-01 -4.680168330669403076e-01
9.094651788473129272e-03 -5.759925842285156250e-01 -4.481514394283294678e-01
4.546084906905889511e-03 -5.048481225967407227e-01 -4.160251021385192871e-01
7.846112363040447235e-03 -6.417039036750793457e-01 -4.415702521800994873e-01
8.223270997405052185e-03 -3.484981060028076172e-01 -4.507823586463928223e-01
5.010304972529411316e-03 -6.255614757537841797e-01 -4.762252867221832275e-01
9.045765735208988190e-03 -4.865997433662414551e-01 -4.347983598709106445e-01
3.335864515975117683e-03 -5.100057721138000488e-01 -4.735783040523529053e-01
2.062287880107760429e-03 -5.295471549034118652e-01 -4.434612095355987549e-01
8.883640170097351074e-03 -4.217670559883117676e-01 -4.344722926616668701e-01
2.796890214085578918e-03 -6.084939241409301758e-01 -4.546820223331451416e-01
9.307326748967170715e-03 -5.288946032524108887e-01 -4.567852020263671875e-01
3.629893297329545021e-03 -5.809915661811828613e-01 -4.732448458671569824e-01
8.753531612455844879e-03 -4.008031487464904785e-01 -4.347136318683624268e-01
3.189269453287124634e-03 -3.191376328468322754e-01 -4.428453445434570312e-01
2.168952953070402145e-03 -4.841077327728271484e-01 -4.334642291069030762e-01
7.551890797913074493e-03 -3.386794924736022949e-01 -4.279416501522064209e-01
3.437014762312173843e-03 -6.357678174972534180e-01 -4.432473182678222656e-01
2.165219513699412346e-03 -5.097622871398925781e-01 -4.583615660667419434e-01
8.785113692283630371e-03 -4.587379992008209229e-01 -4.304574131965637207e-01
5.187139846384525299e-03 -6.819459199905395508e-01 -4.635484218597412109e-01
6.400548852980136871e-03 -5.997732877731323242e-01 -4.247028231620788574e-01
9.229717776179313660e-03 -4.854852259159088135e-01 -4.593147635459899902e-01
2.830098150297999382e-03 -5.627312064170837402e-01 -4.321491420269012451e-01
9.086277335882186890e-03 -5.608452558517456055e-01 -4.607820212841033936e-01
2.020238200202584267e-03 -4.167415201663970947e-01 -4.424436092376708984e-01
6.735569331794977188e-03 -3.469081819057464600e-01 -4.657036066055297852e-01
7.956020534038543701e-03 -5.728220939636230469e-01 -4.750123918056488037e-01
3.124636830762028694e-03 -4.818193614482879639e-01 -4.215662181377410889e-01
6.030482240021228790e-03 -3.157255649566650391e-01 -4.226891100406646729e-01
2.744585741311311722e-03 -5.238916277885437012e-01 -4.280145168304443359e-01
1.952060265466570854e-03 -4.934902489185333252e-01 -4.517818987369537354e-01
4.307839553803205490e-03 -5.679955482482910156e-01 -4.221260547637939453e-01
2.552207559347152710e-03 -4.029848575592041016e-01 -4.587161540985107422e-01
3.332707798108458519e-03 -3.725070357322692871e-01 -4.630925059318542480e-01
8.059063926339149475e-03 -6.094034314155578613e-01 -4.355198740959167480e-01
2.222596900537610054e-03 -5.527768135070800781e-01 -4.538716375827789307e-01
7.931888103485107422e-03 -4.360425770282745361e-01 -4.719288945198059082e-01
4.488907754421234131e-03 -2.855255305767059326e-01 -4.345811903476715088e-01
4.594882018864154816e-03 -6.790738105773925781e-01 -4.582926332950592041e-01
1.887226011604070663e-03 -4.693958759307861328e-01 -4.471042156219482422e-01
6.693564821034669876e-03 -2.893349528312683105e-01 -4.436718523502349854e-01
8.842745795845985413e-03 -3.934225142002105713e-01 -4.520528912544250488e-01
2.345716813579201698e-03 -5.722221136093139648e-01 -4.475380182266235352e-01
8.817560970783233643e-03 -3.876463174819946289e-01 -4.501610696315765381e-01
1.948902849107980728e-03 -5.087199807167053223e-01 -4.451487362384796143e-01
8.330696262419223785e-03 -6.283494830131530762e-01 -4.632222354412078857e-01
7.236476987600326538e-03 -4.268742799758911133e-01 -4.175277650356292725e-01
4.362691659480333328e-03 -3.258285224437713623e-01 -4.219457805156707764e-01
2.443606732413172722e-03 -3.765926063060760498e-01 -4.505444169044494629e-01
8.318977430462837219e-03 -3.881901800632476807e-01 -4.289131462574005127e-01
2.309041330590844154e-03 -4.093489646911621094e-01 -4.318616688251495361e-01
8.856271393597126007e-03 -6.000858545303344727e-01 -4.481615722179412842e-01
9.050494991242885590e-03 -4.728311896324157715e-01 -4.348235726356506348e-01
9.028494358062744141e-03 -4.053422510623931885e-01 -4.467746019363403320e-01
8.776193484663963318e-03 -5.918900370597839355e-01 -4.632283449172973633e-01
8.326759561896324158e-03 -3.980095386505126953e-01 -4.633895158767700195e-01
4.788277670741081238e-03 -6.719546914100646973e-01 -4.429506063461303711e-01
2.185810822993516922e-03 -5.112016201019287109e-01 -4.355376064777374268e-01
5.693331826478242874e-03 -5.501347184181213379e-01 -4.819638729095458984e-01
3.120017703622579575e-03 -3.812118172645568848e-01 -4.624976217746734619e-01
9.082010947167873383e-03 -5.804040431976318359e-01 -4.550819993019104004e-01
9.173428639769554138e-03 -4.572633504867553711e-01 -4.579659700393676758e-01
3.038755385205149651e-03 -6.252137422561645508e-01 -4.504625201225280762e-01
