-1.342908740043640137e-01 7.822640538215637207e-01 -3.158091902732849121e-01
-2.066422998905181885e-01 7.471660971641540527e-01 -3.187791407108306885e-01
-2.339122444391250610e-01 8.821102380752563477e-01 -2.976852655410766602e-01
-1.617359369993209839e-01 8.865534663200378418e-01 -2.959877550601959229e-01
-1.412965059280395508e-01 7.487955093383789062e-01 -3.767669200897216797e-01
-1.372450143098831177e-01 8.059641122817993164e-01 -2.926487326622009277e-01
-1.750524640083312988e-01 7.357114553451538086e-01 -3.122240900993347168e-01
-1.927001327276229858e-01 8.687293529510498047e-01 -3.428124189376831055e-01
-1.577955335378646851e-01 8.022102117538452148e-01 -3.817932307720184326e-01
-1.889013200998306274e-01 8.768047690391540527e-01 -2.084506601095199585e-01
-2.412492334842681885e-01 8.727840185165405273e-01 -2.838208973407745361e-01
-1.391893923282623291e-01 7.937691211700439453e-01 -2.914616167545318604e-01
-1.836301386356353760e-01 8.110359311103820801e-01 -2.362203896045684814e-01
-2.028470933437347412e-01 7.367964982986450195e-01 -3.436581194400787354e-01
-2.381817698478698730e-01 8.821411728858947754e-01 -2.862894237041473389e-01
-2.078640013933181763e-01 7.435891032218933105e-01 -3.548839688301086426e-01
-2.140510529279708862e-01 8.919016122817993164e-01 -2.056926935911178589e-01
-1.386328488588333130e-01 7.775338292121887207e-01 -3.035641908645629883e-01
-1.792435795068740845e-01 7.970307469367980957e-01 -2.468854635953903198e-01
-1.936818957328796387e-01 9.261759519577026367e-01 -2.389076650142669678e-01
-2.380669265985488892e-01 8.254912495613098145e-01 -3.161753714084625244e-01
-2.312339842319488525e-01 7.962774038314819336e-01 -3.334118723869323730e-01
-1.695017367601394653e-01 8.733350038528442383e-01 -3.290809392929077148e-01
-2.246145904064178467e-01 8.299982547760009766e-01 -2.386586666107177734e-01
-2.345135807991027832e-01 8.284832835197448730e-01 -3.284620940685272217e-01
-1.999824643135070801e-01 9.284061789512634277e-01 -2.451016604900360107e-01
-1.565728783607482910e-01 8.596103191375732422e-01 -3.304338157176971436e-01
-1.960729360580444336e-01 7.588651776313781738e-01 -2.858574390411376953e-01
-1.339176595211029053e-01 8.066185116767883301e-01 -3.286359608173370361e-01
-1.593896448612213135e-01 7.217186689376831055e-01 -3.472336828708648682e-01
-2.134946286678314209e-01 7.929098606109619141e-01 -3.723872005939483643e-01
-1.410796493291854858e-01 7.977944016456604004e-01 -2.846926748752593994e-01
-2.374763339757919312e-01 8.186231851577758789e-01 -2.786226868629455566e-01
-1.374528706073760986e-01 7.606948614120483398e-01 -3.683812022209167480e-01
-1.454406231641769409e-01 8.589676022529602051e-01 -2.876554727554321289e-01
-2.288809120655059814e-01 8.667270541191101074e-01 -3.201833665370941162e-01
-1.459343880414962769e-01 7.698408365249633789e-01 -3.845469951629638672e-01
-1.984181404113769531e-01 7.511609792709350586e-01 -3.863551318645477295e-01
-2.392637878656387329e-01 8.202607631683349609e-01 -2.888365685939788818e-01
-2.043732404708862305e-01 7.774792313575744629e-01 -2.689088881015777588e-01
-2.375417947769165039e-01 8.964409828186035156e-01 -2.673565149307250977e-01
-1.877556592226028442e-01 9.108032584190368652e-01 -2.166543602943420410e-01
-1.790165603160858154e-01 7.463534474372863770e-01 -2.967789173126220703e-01
-1.696919500827789307e-01 8.319028615951538086e-01 -2.317094802856445312e-01
-1.404578983783721924e-01 8.051629066467285156e-01 -2.830357253551483154e-01
-2.128578573465347290e-01 7.562925815582275391e-01 -3.618930280208587646e-01
-1.883551627397537231e-01 8.639739751815795898e-01 -2.109545320272445679e-01
-2.286237180233001709e-01 7.819521427154541016e-01 -3.170509636402130127e-01
-1.886192858219146729e-01 9.023298025131225586e-01 -2.111037820577621460e-01
-1.460458636283874512e-01 7.312555909156799316e-01 -3.728464543819427490e-01
-2.226326465606689453e-01 7.684072852134704590e-01 -3.361319899559020996e-01
-2.031324952840805054e-01 7.684025764465332031e-01 -2.786902189254760742e-01
-1.352612376213073730e-01 8.008131980895996094e-01 -3.022325932979583740e-01
-1.620784848928451538e-01 7.352952957153320312e-01 -3.172176480293273926e-01
-1.359049826860427856e-01 7.882431745529174805e-01 -3.048259615898132324e-01
-1.365742087364196777e-01 8.182115554809570312e-01 -3.307798504829406738e-01
-1.330026984214782715e-01 7.997594475746154785e-01 -3.224982023239135742e-01
-2.342033088207244873e-01 8.126880526542663574e-01 -3.294090032577514648e-01
-1.486499607563018799e-01 8.318876624107360840e-01 -3.491758406162261963e-01
-1.889759153127670288e-01 7.824050784111022949e-01 -2.579986155033111572e-01
-1.364502906799316406e-01 8.080446124076843262e-01 -3.427097797393798828e-01
-2.220871448516845703e-01 7.851734757423400879e-01 -3.571848869323730469e-01
-1.465852260589599609e-01 8.191388845443725586e-01 -2.647468745708465576e-01
-1.431218683719635010e-01 8.137179017066955566e-01 -3.559449017047882080e-01
-1.771639585494995117e-01 9.139264822006225586e-01 -2.509869337081909180e-01
-2.332873195409774780e-01 8.067404627799987793e-01 -2.795103490352630615e-01
-1.922633945941925049e-01 8.011800050735473633e-01 -2.425826787948608398e-01
-1.578169018030166626e-01 7.332383394241333008e-01 -3.938894569873809814e-01
-1.829678714275360107e-01 8.184437155723571777e-01 -3.803381621837615967e-01
-2.373715043067932129e-01 8.155618309974670410e-01 -3.155634701251983643e-01
-2.289434820413589478e-01 7.953957915306091309e-01 -2.830284833908081055e-01
-1.528208404779434204e-01 8.048665523529052734e-01 -2.608936429023742676e-01
-1.838399171829223633e-01 7.947369813919067383e-01 -3.915005624294281006e-01
-1.510711014270782471e-01 8.634237647056579590e-01 -3.124963343143463135e-01
-2.127460986375808716e-01 9.184883832931518555e-01 -2.752628028392791748e-01
-1.836459934711456299e-01 8.768761754035949707e-01 -3.334432840347290039e-01
-1.480810493230819702e-01 8.387258052825927734e-01 -3.408194482326507568e-01
-1.877183020114898682e-01 7.227872014045715332e-01 -3.635281324386596680e-01
-2.340880483388900757e-01 8.941037654876708984e-01 -2.832068204879760742e-01
-2.279174029827117920e-01 8.214867711067199707e-01 -3.449241518974304199e-01
-2.118964195251464844e-01 7.553790211677551270e-01 -3.123456835746765137e-01
-1.881157010793685913e-01 9.162486791610717773e-01 -2.761359810829162598e-01
-1.751612722873687744e-01 7.650536894798278809e-01 -2.754874527454376221e-01
-1.901062875986099243e-01 7.352880835533142090e-01 -3.190338611602783203e-01
-2.159465551376342773e-01 8.093236088752746582e-01 -2.466054260730743408e-01
-1.910739094018936157e-01 7.396322488784790039e-01 -3.115708529949188232e-01
-2.373235523700714111e-01 8.958712816238403320e-01 -2.369875907897949219e-01
-1.996685415506362915e-01 8.200621008872985840e-01 -3.750901222229003906e-01
-1.868970245122909546e-01 9.196455478668212891e-01 -2.642488479614257812e-01
-1.662911474704742432e-01 7.759773731231689453e-01 -2.688576579093933105e-01
-1.708347201347351074e-01 8.508413434028625488e-01 -3.538534939289093018e-01
-1.771082878112792969e-01 9.112033843994140625e-01 -2.365873754024505615e-01
-2.298275530338287354e-01 8.125479221343994141e-01 -2.625829875469207764e-01
-1.827390044927597046e-01 8.553554415702819824e-01 -3.541096448898315430e-01
-1.709432452917098999e-01 8.802303075790405273e-01 -2.230691462755203247e-01
-2.042185366153717041e-01 9.058136343955993652e-01 -2.056645601987838745e-01
-2.099717259407043457e-01 7.658618688583374023e-01 -2.894853055477142334e-01
-1.487979739904403687e-01 8.674771189689636230e-01 -2.778827250003814697e-01
-2.156422734260559082e-01 8.366976380348205566e-01 -3.551853001117706299e-01
-1.990966498851776123e-01 7.768231034278869629e-01 -3.888358771800994873e-01
-1.737576276063919067e-01 8.187682032585144043e-01 -3.792529106140136719e-01
-1.448348462581634521e-01 7.770255804061889648e-01 -3.807694315910339355e-01
-1.526345312595367432e-01 8.731247186660766602e-01 -2.963185012340545654e-01
-2.381386458873748779e-01 8.138617277145385742e-01 -3.045823872089385986e-01
-2.159486263990402222e-01 7.733038067817687988e-01 -2.875721752643585205e-01
-2.056304216384887695e-01 7.793667912483215332e-01 -3.826107680797576904e-01
-1.915595531463623047e-01 7.486412525177001953e-01 -2.973264157772064209e-01
-2.285335659980773926e-01 7.864755392074584961e-01 -2.987194359302520752e-01
-1.417832523584365845e-01 7.369689345359802246e-01 -3.565047681331634521e-01
-2.042016535997390747e-01 8.520015478134155273e-01 -2.135645449161529541e-01
-1.532885134220123291e-01 8.770954608917236328e-01 -2.857764363288879395e-01
-2.252631485462188721e-01 8.858023881912231445e-01 -3.082718551158905029e-01
-2.354788482189178467e-01 8.080372214317321777e-01 -3.210877776145935059e-01
-2.261945456266403198e-01 8.160826563835144043e-01 -2.525074481964111328e-01
-2.429381906986236572e-01 8.695434927940368652e-01 -2.607699036598205566e-01
-2.073403149843215942e-01 7.864125370979309082e-01 -3.802567124366760254e-01
-1.500161588191986084e-01 8.592624068260192871e-01 -2.582628428936004639e-01
-2.350284308195114136e-01 8.013006448745727539e-01 -3.052076697349548340e-01
-1.709073334932327271e-01 8.894693255424499512e-01 -3.078549504280090332e-01
-1.507876813411712646e-01 8.165198564529418945e-01 -3.656808733940124512e-01
-1.858165115118026733e-01 8.956464529037475586e-01 -2.111787796020507812e-01
-1.778991520404815674e-01 7.784896492958068848e-01 -2.621506154537200928e-01
-1.343287080526351929e-01 7.850243449211120605e-01 -3.516067266464233398e-01
-1.849423348903656006e-01 8.097250461578369141e-01 -3.847898840904235840e-01
-1.756427437067031860e-01 8.787617683410644531e-01 -2.175696790218353271e-01
-2.244915068149566650e-01 7.773081064224243164e-01 -3.445039987564086914e-01
-1.805552840232849121e-01 7.501189112663269043e-01 -3.996559381484985352e-01
-1.990523934364318848e-01 7.429960966110229492e-01 -3.138445913791656494e-01
-2.346169799566268921e-01 8.888281583786010742e-01 -2.886461317539215088e-01
-1.709876358509063721e-01 8.093500137329101562e-01 -3.840888142585754395e-01
-1.511916518211364746e-01 7.253404259681701660e-01 -3.525681495666503906e-01
-1.619461774826049805e-01 7.834657430648803711e-01 -2.656607031822204590e-01
-1.367865800857543945e-01 8.264279365539550781e-01 -3.014867305755615234e-01
-1.944252550601959229e-01 7.308223247528076172e-01 -3.367939591407775879e-01
-2.130818516016006470e-01 9.179567694664001465e-01 -2.123776674270629883e-01
-2.372892946004867554e-01 8.998374342918395996e-01 -2.602591514587402344e-01
-1.969058215618133545e-01 7.371128201484680176e-01 -3.236003518104553223e-01
-1.341619491577148438e-01 7.758193612098693848e-01 -3.540276288986206055e-01
-1.779570281505584717e-01 8.040186762809753418e-01 -3.879122734069824219e-01
-2.129395157098770142e-01 7.529079914093017578e-01 -3.228878378868103027e-01
-1.550211757421493530e-01 7.487467527389526367e-01 -3.048484027385711670e-01
-2.201036810874938965e-01 7.627248764038085938e-01 -3.307262361049652100e-01
-2.359897792339324951e-01 8.484447002410888672e-01 -3.178709447383880615e-01
-2.172620296478271484e-01 8.926033377647399902e-01 -3.093019425868988037e-01
-2.433757483959197998e-01 8.611152172088623047e-01 -2.763073444366455078e-01
-2.148059755563735962e-01 9.213588237762451172e-01 -2.675790786743164062e-01
-1.992389410734176636e-01 7.995371818542480469e-01 -2.452315390110015869e-01
-2.272479087114334106e-01 8.457228541374206543e-01 -2.310859858989715576e-01
-2.111075669527053833e-01 7.475595474243164062e-01 -3.473596572875976562e-01
-2.408025413751602173e-01 8.297807574272155762e-01 -2.820797860622406006e-01
-1.426020413637161255e-01 7.666733860969543457e-01 -3.037531375885009766e-01
-1.775432825088500977e-01 8.061125874519348145e-01 -2.411425709724426270e-01
-2.176267653703689575e-01 7.595353126525878906e-01 -3.465590476989746094e-01
-2.054378092288970947e-01 7.856726646423339844e-01 -2.608812451362609863e-01
-2.305444180965423584e-01 7.884712219238281250e-01 -3.060817122459411621e-01
-1.576191633939743042e-01 7.848891615867614746e-01 -3.902004063129425049e-01
-1.809602826833724976e-01 8.910944461822509766e-01 -2.142544686794281006e-01
-1.650682240724563599e-01 8.520634770393371582e-01 -2.300738692283630371e-01
-1.396032571792602539e-01 8.396535515785217285e-01 -3.037379980087280273e-01
-2.222402542829513550e-01 8.182262182235717773e-01 -2.453322857618331909e-01
-1.511064767837524414e-01 8.399757742881774902e-01 -2.521300613880157471e-01
-1.566536724567413330e-01 8.812164664268493652e-01 -2.917436063289642334e-01
-2.341535091400146484e-01 8.627508878707885742e-01 -2.320841848850250244e-01
-1.829152107238769531e-01 9.162701368331909180e-01 -2.317145913839340210e-01
-2.151669859886169434e-01 9.090282917022705078e-01 -2.083704471588134766e-01
-2.238849997520446777e-01 9.207316040992736816e-01 -2.270150184631347656e-01
-1.384800374507904053e-01 7.452415227890014648e-01 -3.592408895492553711e-01
-2.421980500221252441e-01 8.742524385452270508e-01 -2.759420275688171387e-01
-2.067783176898956299e-01 7.430666089057922363e-01 -3.322937488555908203e-01
-1.461865305900573730e-01 7.922754883766174316e-01 -2.776991724967956543e-01
-2.192943990230560303e-01 8.871089220046997070e-01 -2.086762636899948120e-01
-1.661843657493591309e-01 7.993624210357666016e-01 -3.878378570079803467e-01
-1.486949026584625244e-01 8.622295856475830078e-01 -2.659770250320434570e-01
-2.395405322313308716e-01 8.300160169601440430e-01 -3.095365464687347412e-01
-2.432945966720581055e-01 8.603836894035339355e-01 -2.671549916267395020e-01
-1.421077400445938110e-01 7.378454208374023438e-01 -3.687453866004943848e-01
-1.647178828716278076e-01 8.976882696151733398e-01 -2.714987993240356445e-01
-1.942756474018096924e-01 9.208785295486450195e-01 -2.206883132457733154e-01
-1.821371912956237793e-01 7.883945703506469727e-01 -2.529768049716949463e-01
-1.907368302345275879e-01 7.249407172203063965e-01 -3.552490174770355225e-01
-1.428529024124145508e-01 7.878279089927673340e-01 -3.729793429374694824e-01
-1.676892042160034180e-01 7.164825201034545898e-01 -3.710141479969024658e-01
-1.977992355823516846e-01 8.232135176658630371e-01 -2.278635352849960327e-01
-1.693578958511352539e-01 9.048546552658081055e-01 -2.571275532245635986e-01
-2.262246310710906982e-01 7.772113084793090820e-01 -3.337419033050537109e-01
-1.689122915267944336e-01 7.780215144157409668e-01 -3.972495794296264648e-01
-2.186707705259323120e-01 8.654540777206420898e-01 -2.137417346239089966e-01
-2.320522516965866089e-01 8.080614209175109863e-01 -3.357914984226226807e-01
-2.258275151252746582e-01 8.474161624908447266e-01 -3.374502658843994141e-01
-2.062184363603591919e-01 7.578921318054199219e-01 -2.967964112758636475e-01
-2.097192704677581787e-01 7.712992429733276367e-01 -3.769691884517669678e-01
-1.826635003089904785e-01 9.057238698005676270e-01 -2.187834382057189941e-01
-1.815508455038070679e-01 7.380670309066772461e-01 -3.092609941959381104e-01
-1.968474686145782471e-01 7.743791341781616211e-01 -2.679606676101684570e-01
-2.094326913356781006e-01 8.397930860519409180e-01 -2.210640311241149902e-01
-1.597761958837509155e-01 8.892173171043395996e-01 -2.795131802558898926e-01
-1.542913764715194702e-01 8.794112205505371094e-01 -2.674211561679840088e-01
-2.405635416507720947e-01 8.265775442123413086e-01 -2.973649501800537109e-01
-1.622211039066314697e-01 8.682175874710083008e-01 -3.274800181388854980e-01
-2.238669991493225098e-01 8.175704479217529297e-01 -3.529534637928009033e-01
-1.796963661909103394e-01 9.098364114761352539e-01 -2.275075614452362061e-01
-1.907257139682769775e-01 8.478068709373474121e-01 -2.155340611934661865e-01
-1.682918071746826172e-01 8.274010419845581055e-01 -3.716183900833129883e-01
-2.297359406948089600e-01 9.164099097251892090e-01 -2.459490895271301270e-01
-1.994980573654174805e-01 7.869696617126464844e-01 -2.564256489276885986e-01
-1.489451378583908081e-01 8.632080554962158203e-01 -3.048788905143737793e-01
-2.257519066333770752e-01 8.767961263656616211e-01 -3.162553310394287109e-01
-1.512350440025329590e-01 8.681524395942687988e-01 -2.614144682884216309e-01
-1.987879276275634766e-01 8.900651931762695312e-01 -3.203671276569366455e-01
-2.247884720563888550e-01 7.728773355484008789e-01 -3.205286264419555664e-01
-1.850814670324325562e-01 8.551400899887084961e-01 -2.146384119987487793e-01
-2.291453182697296143e-01 7.891656756401062012e-01 -3.366034030914306641e-01
-1.579581797122955322e-01 8.522995114326477051e-01 -3.411940038204193115e-01
-1.681980788707733154e-01 7.200345396995544434e-01 -3.455407917499542236e-01
-1.661165952682495117e-01 8.930754065513610840e-01 -2.924849390983581543e-01
-2.432744801044464111e-01 8.522595167160034180e-01 -2.750338912010192871e-01
-1.993707120418548584e-01 8.984768986701965332e-01 -2.049676775932312012e-01
-1.624589562416076660e-01 8.279976248741149902e-01 -2.395196259021759033e-01
-1.872017532587051392e-01 7.386642694473266602e-01 -3.921742439270019531e-01
-2.229297459125518799e-01 9.098957180976867676e-01 -2.805200219154357910e-01
-1.727437376976013184e-01 8.963420987129211426e-01 -2.984009683132171631e-01
-1.330878138542175293e-01 7.947412133216857910e-01 -3.362560868263244629e-01
-2.080607861280441284e-01 7.503728866577148438e-01 -3.686000704765319824e-01
-1.467552036046981812e-01 7.592176795005798340e-01 -3.037395179271697998e-01
-1.730270534753799438e-01 7.293012738227844238e-01 -3.944879770278930664e-01
-2.160048335790634155e-01 8.635040521621704102e-01 -3.373885154724121094e-01
-2.057557851076126099e-01 8.912528753280639648e-01 -2.039976418018341064e-01
-1.619716584682464600e-01 7.274272441864013672e-01 -3.923045992851257324e-01
-1.927892416715621948e-01 7.778861522674560547e-01 -2.629617750644683838e-01
-1.511874645948410034e-01 7.337623834609985352e-01 -3.315940201282501221e-01
-1.523199081420898438e-01 8.291649818420410156e-01 -2.519166469573974609e-01
-1.459235548973083496e-01 8.593388199806213379e-01 -2.797042727470397949e-01
-1.519658118486404419e-01 7.878163456916809082e-01 -2.722907364368438721e-01
-2.382910996675491333e-01 8.664048314094543457e-01 -2.396083772182464600e-01
-1.327900886535644531e-01 7.871565818786621094e-01 -3.239835202693939209e-01
-1.994960904121398926e-01 8.453295230865478516e-01 -2.159993648529052734e-01
-1.952245831489562988e-01 8.756767511367797852e-01 -3.360074758529663086e-01
-2.127563357353210449e-01 9.021334648132324219e-01 -3.009968996047973633e-01
-2.293483018875122070e-01 8.310460448265075684e-01 -3.393728137016296387e-01
-2.144331783056259155e-01 8.819487690925598145e-01 -3.225793838500976562e-01
-1.547382324934005737e-01 7.386032938957214355e-01 -3.187570571899414062e-01
-1.787115037441253662e-01 8.487457036972045898e-01 -3.588313460350036621e-01
-1.524215638637542725e-01 8.516339063644409180e-01 -3.335162997245788574e-01
-2.072355449199676514e-01 8.414378762245178223e-01 -3.589802682399749756e-01
-1.412366330623626709e-01 8.340878486633300781e-01 -3.284139931201934814e-01
-2.122801095247268677e-01 7.790014743804931641e-01 -3.742709159851074219e-01
-2.223224043846130371e-01 7.926087975502014160e-01 -2.718881666660308838e-01
-1.336046159267425537e-01 7.925015687942504883e-01 -3.142203688621520996e-01
-1.909190267324447632e-01 7.441998124122619629e-01 -3.037301301956176758e-01
-2.180844843387603760e-01 8.761405944824218750e-01 -3.250968754291534424e-01
-1.188420206308364868e-01 3.036499023437500000e-02 2.735624909400939941e-01
-1.241096854209899902e-01 9.495019912719726562e-05 2.755575478076934814e-01
-2.682729363441467285e-01 2.552957236766815186e-01 1.170245558023452759e-01
-2.414112240076065063e-01 2.638994157314300537e-01 2.725940942764282227e-01
-2.734844088554382324e-01 2.053069621324539185e-01 7.459790259599685669e-02
-1.880993992090225220e-01 -5.247057974338531494e-02 3.227266669273376465e-01
-2.485845685005187988e-01 -3.969837725162506104e-02 -2.033294588327407837e-01
-1.276817470788955688e-01 3.779869079589843750e-01 -2.955417633056640625e-01
-1.103482991456985474e-01 4.856682121753692627e-01 -5.569257587194442749e-02
-2.475833445787429810e-01 -6.608505547046661377e-02 1.681711971759796143e-01
-2.557904124259948730e-01 3.613715767860412598e-01 -1.699749529361724854e-01
-2.693624198436737061e-01 2.023493051528930664e-01 1.291576176881790161e-01
-2.348849326372146606e-01 3.670141696929931641e-01 -2.749954760074615479e-01
-2.192858010530471802e-01 2.122717201709747314e-01 3.420912325382232666e-01
-2.300474196672439575e-01 -5.676124989986419678e-02 2.525750994682312012e-01
-2.335214614868164062e-01 5.134906768798828125e-01 -4.978014156222343445e-03
-1.567792147397994995e-01 4.565721750259399414e-01 -2.956227660179138184e-01
-2.762678563594818115e-01 1.368998587131500244e-01 -2.806120924651622772e-02
-2.693402171134948730e-01 4.996678233146667480e-02 9.380204230546951294e-02
-2.594632208347320557e-01 3.817656040191650391e-01 -9.969534724950790405e-02
-1.547589749097824097e-01 3.943536281585693359e-01 3.090251088142395020e-01
-2.476426959037780762e-01 2.540568709373474121e-01 -2.777779400348663330e-01
-1.064156368374824524e-01 2.986635863780975342e-01 2.362451255321502686e-01
-2.733592987060546875e-01 2.667160034179687500e-01 -1.033559627830982208e-02
-2.518943548202514648e-01 4.724603891372680664e-02 -2.443702816963195801e-01
-2.508634924888610840e-01 1.201703250408172607e-01 -2.712756395339965820e-01
-1.415502727031707764e-01 3.393653631210327148e-01 3.197947740554809570e-01
-1.179349943995475769e-01 1.345396041870117188e-03 -2.655009627342224121e-01
-2.405699342489242554e-01 -1.540465056896209717e-01 4.591113701462745667e-02
-2.397454231977462769e-01 4.729234576225280762e-01 8.861106634140014648e-02
-2.421012073755264282e-01 3.239202499389648438e-01 2.441138029098510742e-01
-2.632007896900177002e-01 2.760709822177886963e-01 -1.800068914890289307e-01
-9.307570755481719971e-02 3.796178102493286133e-02 1.366880685091018677e-01
-1.036011502146720886e-01 4.441243708133697510e-01 -9.889510273933410645e-02
-2.458664923906326294e-01 3.540917336940765381e-01 -2.380369901657104492e-01
-1.835343837738037109e-01 3.192132115364074707e-01 3.541993498802185059e-01
-1.024790704250335693e-01 -4.621410369873046875e-02 -1.329497545957565308e-01
-8.987773209810256958e-02 3.151869773864746094e-01 1.162149757146835327e-01
-1.155082955956459045e-01 4.918279945850372314e-01 7.824090868234634399e-02
-1.895315498113632202e-01 5.862680077552795410e-01 3.333174064755439758e-02
-2.222948819398880005e-01 5.435094833374023438e-01 -1.524111814796924591e-02
-1.112808138132095337e-01 4.923348128795623779e-01 -2.213508822023868561e-02
-8.763629943132400513e-02 1.148334741592407227e-01 1.334899514913558960e-01
-1.456714868545532227e-01 3.848779797554016113e-01 -3.299861252307891846e-01
-2.366491705179214478e-01 -1.688796281814575195e-02 -2.721008658409118652e-01
-1.461136639118194580e-01 4.917525351047515869e-01 -2.442400604486465454e-01
-8.710282295942306519e-02 1.779132187366485596e-01 1.423150300979614258e-01
-9.884553402662277222e-02 2.816334962844848633e-01 2.047675997018814087e-01
-2.418898940086364746e-01 3.708206117153167725e-01 2.135863453149795532e-01
-1.534660458564758301e-01 -1.886974275112152100e-01 1.623941361904144287e-01
-2.536975741386413574e-01 4.257349669933319092e-01 4.057670384645462036e-02
-8.819485455751419067e-02 3.412234783172607422e-02 -7.885243743658065796e-02
-1.062852293252944946e-01 4.434871077537536621e-01 1.028976961970329285e-01
-1.254538893699645996e-01 4.392825961112976074e-01 -2.423387169837951660e-01
-2.357363700866699219e-01 4.543483257293701172e-01 -1.864703893661499023e-01
-1.014093458652496338e-01 5.550955981016159058e-02 2.087396979331970215e-01
-2.489132136106491089e-01 4.299401044845581055e-01 9.629669785499572754e-02
-2.502562403678894043e-01 4.478110969066619873e-01 1.591888628900051117e-02
-1.098088175058364868e-01 2.588571906089782715e-01 -2.840758860111236572e-01
-9.120573848485946655e-02 1.472221612930297852e-01 1.738876551389694214e-01
-2.689278423786163330e-01 2.965657711029052734e-01 6.902651488780975342e-02
-1.035434529185295105e-01 -7.354187965393066406e-02 8.397895842790603638e-02
-2.607365548610687256e-01 4.077862203121185303e-02 -1.889130622148513794e-01
-2.720534503459930420e-01 2.397769093513488770e-01 7.754534482955932617e-02
-1.123638674616813660e-01 -8.037298917770385742e-02 1.537031531333923340e-01
-1.068791747093200684e-01 -1.009301841259002686e-01 4.777095839381217957e-02
-9.769441187381744385e-02 -2.961347997188568115e-02 -1.091584786772727966e-01
-8.488038927316665649e-02 2.879305481910705566e-01 -9.580571949481964111e-02
-9.546990692615509033e-02 -1.265977323055267334e-02 1.020341068506240845e-01
-1.794805228710174561e-01 -1.801728308200836182e-01 2.074113339185714722e-01
-2.360342442989349365e-01 3.911405205726623535e-01 -2.532031834125518799e-01
-1.023435071110725403e-01 -8.270481228828430176e-02 1.880716904997825623e-02
-2.260431051254272461e-01 1.435303986072540283e-01 -3.520995080471038818e-01
-2.183748483657836914e-01 -1.622818410396575928e-01 1.757639646530151367e-01
-9.973726421594619751e-02 3.342186808586120605e-01 1.815336495637893677e-01
-9.228410571813583374e-02 -2.013723552227020264e-02 -6.820801645517349243e-04
-8.160973340272903442e-02 2.701790928840637207e-01 -3.004114702343940735e-02
-1.309825181961059570e-01 6.509941071271896362e-02 -3.337478041648864746e-01
-2.655632495880126953e-01 1.428854763507843018e-01 -1.901625543832778931e-01
-1.998797208070755005e-01 1.239892542362213135e-01 3.703489005565643311e-01
-1.446908861398696899e-01 -7.898283004760742188e-02 -2.835541069507598877e-01
-2.587312459945678711e-01 2.649126648902893066e-01 1.901524066925048828e-01
-2.717561423778533936e-01 2.797078192234039307e-01 -6.249940767884254456e-02
-2.268199026584625244e-01 3.102931082248687744e-01 2.997475266456604004e-01
-2.463295012712478638e-01 -1.168440878391265869e-01 9.707643091678619385e-02
-1.195203661918640137e-01 -2.515447139739990234e-02 -2.533491551876068115e-01
-2.441705167293548584e-01 4.360128343105316162e-01 -1.600900143384933472e-01
-1.325926780700683594e-01 5.214868783950805664e-01 1.248031854629516602e-01
-2.590094804763793945e-01 3.910667598247528076e-01 5.147281661629676819e-02
-1.561000496149063110e-01 -1.648304462432861328e-01 -2.123586386442184448e-01
-1.549107432365417480e-01 5.481861829757690430e-01 -1.769474744796752930e-01
-2.437877655029296875e-01 -2.112355828285217285e-02 -2.418668568134307861e-01
-1.098477691411972046e-01 4.192159175872802734e-01 1.648838371038436890e-01
-1.821020543575286865e-01 5.339777469635009766e-01 1.838930398225784302e-01
-2.499418556690216064e-01 -1.222268044948577881e-01 4.708075895905494690e-03
-1.487004160881042480e-01 5.004500150680541992e-01 2.072376459836959839e-01
-1.147778853774070740e-01 -1.385470330715179443e-01 5.812693387269973755e-03
-2.019918113946914673e-01 5.782201290130615234e-01 -3.312831372022628784e-02
-1.388492733240127563e-01 1.356308758258819580e-01 -3.656717538833618164e-01
-1.099084168672561646e-01 3.659349977970123291e-01 -2.387036234140396118e-01
-2.195005714893341064e-01 5.359492897987365723e-01 7.642231136560440063e-02
-2.554555535316467285e-01 2.814532518386840820e-01 -2.299248427152633667e-01
-2.058129310607910156e-01 5.292752385139465332e-01 -1.892033219337463379e-01
-2.087268829345703125e-01 -1.945278942584991455e-01 -1.544258445501327515e-01
-1.862114071846008301e-01 -1.531243324279785156e-02 -3.551905453205108643e-01
-1.622789353132247925e-01 -1.227316856384277344e-01 -2.714095711708068848e-01
-1.984795033931732178e-01 5.712466239929199219e-01 7.062410563230514526e-02
-2.151233106851577759e-01 2.408182322978973389e-01 3.449410200119018555e-01
-2.610995769500732422e-01 -5.508215725421905518e-02 -6.130931153893470764e-02
-2.174267768859863281e-01 4.823882579803466797e-01 1.916504055261611938e-01
-1.301004588603973389e-01 4.982439577579498291e-01 1.567764878273010254e-01
-1.090602725744247437e-01 1.054259240627288818e-01 -2.770960927009582520e-01
-1.730023026466369629e-01 -1.129296422004699707e-01 2.805598080158233643e-01
-9.318724274635314941e-02 7.713560760021209717e-02 -1.770835965871810913e-01
-1.278964728116989136e-01 1.952984184026718140e-01 -3.464990854263305664e-01
-2.395133376121520996e-01 4.574179947376251221e-01 1.236277073621749878e-01
-1.584899127483367920e-01 -1.609367132186889648e-01 2.164389044046401978e-01
-8.452559262514114380e-02 3.178465366363525391e-01 5.887174978852272034e-03
-2.067122757434844971e-01 -2.310238480567932129e-01 -1.589763164520263672e-02
-8.322962373495101929e-02 2.948052287101745605e-01 -4.511556401848793030e-02
-9.777948260307312012e-02 1.184065490961074829e-01 2.114137113094329834e-01
-1.149937212467193604e-01 -1.095253825187683105e-01 -1.295452117919921875e-01
-2.370623052120208740e-01 4.162356853485107422e-01 -2.261309772729873657e-01
-2.544226646423339844e-01 1.639913916587829590e-01 -2.590250372886657715e-01
-2.717858850955963135e-01 8.508364856243133545e-02 8.626069873571395874e-02
-2.151228934526443481e-01 3.051030039787292480e-01 3.269969820976257324e-01
-2.436709702014923096e-01 8.193911612033843994e-02 -2.914008796215057373e-01
-8.948598802089691162e-02 3.456971645355224609e-01 7.460682094097137451e-02
-2.645367980003356934e-01 -2.211618423461914062e-02 -8.162672072649002075e-02
-1.360049843788146973e-01 -1.884739995002746582e-01 -8.665388822555541992e-02
-9.761490672826766968e-02 3.840726613998413086e-02 -1.852118819952011108e-01
-8.769369870424270630e-02 8.014556020498275757e-02 -1.260370314121246338e-01
-1.734359413385391235e-01 4.243682622909545898e-01 3.001812398433685303e-01
-1.234911307692527771e-01 2.138510495424270630e-01 3.156246244907379150e-01
-9.653031080961227417e-02 3.518389761447906494e-01 -1.677891612052917480e-01
-9.389209747314453125e-02 -3.068694472312927246e-02 -2.700336463749408722e-02
-8.710138499736785889e-02 4.431422054767608643e-02 6.467927992343902588e-02
-2.389882206916809082e-01 3.375743627548217773e-01 -2.777456939220428467e-01
-1.050490513443946838e-01 3.797774314880371094e-01 -2.023484855890274048e-01
-1.290028989315032959e-01 2.551086246967315674e-02 3.015708327293395996e-01
-1.192377358675003052e-01 -1.495864391326904297e-01 -5.458911135792732239e-02
-2.695689797401428223e-01 3.159373104572296143e-01 5.341414362192153931e-05
-2.591674625873565674e-01 -1.735445857048034668e-02 -1.527942419052124023e-01
-1.771679818630218506e-01 -2.110366523265838623e-01 1.531077325344085693e-01
-2.626876235008239746e-01 4.992350935935974121e-03 1.273457556962966919e-01
-8.303178846836090088e-02 1.355272531509399414e-01 -9.804522991180419922e-02
-1.165824234485626221e-01 -1.283194422721862793e-01 -9.950938820838928223e-02
-2.332640290260314941e-01 1.996532678604125977e-01 -3.349774181842803955e-01
-2.417632341384887695e-01 -1.451575756072998047e-01 -7.684683799743652344e-02
-1.385118961334228516e-01 -2.041494548320770264e-01 1.845154352486133575e-02
-8.663359284400939941e-02 2.564797103404998779e-01 -1.402874439954757690e-01
-9.631377458572387695e-02 2.800977826118469238e-01 -2.105000168085098267e-01
-2.073635160923004150e-01 -2.272355258464813232e-01 -5.035321786999702454e-02
-1.991817355155944824e-01 3.602494001388549805e-01 -3.542551398277282715e-01
-2.337994277477264404e-01 -1.664196550846099854e-01 8.331892639398574829e-02
-9.125936776399612427e-02 1.227204650640487671e-01 -1.825143992900848389e-01
-1.450414955615997314e-01 9.653604775667190552e-02 3.537147939205169678e-01
-2.591714859008789062e-01 1.563029140233993530e-01 2.107034623622894287e-01
-1.946205496788024902e-01 1.762634515762329102e-01 -3.969179689884185791e-01
-1.060175299644470215e-01 -9.903520345687866211e-02 -4.131842404603958130e-02
-2.700653970241546631e-01 2.663609385490417480e-01 -1.136649250984191895e-01
-2.194889783859252930e-01 3.715370297431945801e-01 -3.160100281238555908e-01
-2.047078758478164673e-01 4.281186461448669434e-01 -3.068227469921112061e-01
-2.116447985172271729e-01 7.210567593574523926e-02 3.484542071819305420e-01
-1.370530128479003906e-01 5.215489864349365234e-01 -1.757240742444992065e-01
-1.177388951182365417e-01 3.766721487045288086e-01 -2.643488049507141113e-01
-1.066788360476493835e-01 -1.169404387474060059e-02 1.942402422428131104e-01
-8.458390086889266968e-02 1.575945466756820679e-01 -1.279700696468353271e-01
-8.516336232423782349e-02 2.910259664058685303e-01 7.710117846727371216e-02
-9.519290179014205933e-02 1.487723439931869507e-01 -2.167081087827682495e-01
-2.487749159336090088e-01 3.780140876770019531e-01 -2.021293938159942627e-01
-2.125478386878967285e-01 3.368067145347595215e-01 -3.465139269828796387e-01
-2.429005801677703857e-01 1.491755396127700806e-01 2.837308347225189209e-01
-1.417701989412307739e-01 -1.994670033454895020e-01 8.627958595752716064e-02
-1.424897760152816772e-01 -2.144813537597656250e-03 3.184540867805480957e-01
-1.649645864963531494e-01 1.879475563764572144e-01 -3.984666168689727783e-01
-1.509463191032409668e-01 1.538302004337310791e-02 -3.511556386947631836e-01
-1.309836357831954956e-01 4.739668667316436768e-01 1.944156140089035034e-01
-8.018139749765396118e-02 1.696114093065261841e-01 3.285332396626472473e-02
-2.626976072788238525e-01 3.135829269886016846e-01 1.277683079242706299e-01
-1.136581599712371826e-01 4.767277836799621582e-01 -1.286615729331970215e-01
-1.127123013138771057e-01 1.904540210962295532e-01 -3.021681010723114014e-01
-2.306230217218399048e-01 5.196400880813598633e-01 -5.853470787405967712e-02
-8.853760361671447754e-02 1.321893930435180664e-02 -2.661458402872085571e-02
-1.133514493703842163e-01 2.199126631021499634e-01 2.843075096607208252e-01
-2.405975461006164551e-01 1.145492494106292725e-01 2.888487279415130615e-01
-1.851229965686798096e-01 -2.344523072242736816e-01 -9.077682346105575562e-02
-1.420051753520965576e-01 -1.493579149246215820e-01 1.946872025728225708e-01
-2.267053723335266113e-01 1.009593084454536438e-01 -3.447750508785247803e-01
-9.148254245519638062e-02 3.581690192222595215e-01 -1.079201400279998779e-01
-2.609996795654296875e-01 1.432704478502273560e-01 -2.217339575290679932e-01
-1.122052669525146484e-01 -5.367550253868103027e-02 -1.935797631740570068e-01
-1.934643834829330444e-01 -1.903386712074279785e-01 -1.909589469432830811e-01
-9.489850699901580811e-02 1.832970678806304932e-01 -2.184002250432968140e-01
-8.720851689577102661e-02 2.659538388252258301e-02 1.794785074889659882e-02
-2.240027636289596558e-01 -1.241951882839202881e-01 -2.189947515726089478e-01
-2.704205811023712158e-01 2.197825610637664795e-01 -1.375353485345840454e-01
-1.345437020063400269e-01 -2.195651829242706299e-02 2.917167544364929199e-01
-1.783588230609893799e-01 2.655556201934814453e-01 -3.946110904216766357e-01
-2.549795210361480713e-01 3.442257344722747803e-01 -1.927329748868942261e-01
-1.024890765547752380e-01 2.240719050168991089e-01 2.396304756402969360e-01
-1.275284886360168457e-01 5.411124825477600098e-01 -3.933550417423248291e-02
-1.331859529018402100e-01 -7.794469594955444336e-02 -2.560063004493713379e-01
-2.125503718852996826e-01 -2.068205773830413818e-01 1.031859293580055237e-01
-2.417565882205963135e-01 -7.413056492805480957e-02 -2.046025246381759644e-01
-1.705186963081359863e-01 1.423323601484298706e-01 -3.989277482032775879e-01
-8.906706422567367554e-02 1.029987931251525879e-01 -1.552942544221878052e-01
-2.011446654796600342e-01 5.590710639953613281e-01 -1.373716294765472412e-01
-1.832713037729263306e-01 2.645422220230102539e-01 3.704029321670532227e-01
-2.699027657508850098e-01 1.495788842439651489e-01 1.292553246021270752e-01
-8.097812533378601074e-02 1.232145726680755615e-01 2.068637125194072723e-02
-8.474182337522506714e-02 2.508126795291900635e-01 1.012897267937660217e-01
-1.076059788465499878e-01 4.996219277381896973e-02 -2.495922148227691650e-01
-1.605555862188339233e-01 1.069563478231430054e-01 -3.885697424411773682e-01
-2.427750974893569946e-01 1.962500363588333130e-01 -3.060081899166107178e-01
-2.686750292778015137e-01 7.871240377426147461e-04 2.100837230682373047e-02
-2.489871978759765625e-01 2.220186591148376465e-01 2.540782988071441650e-01
-2.545616328716278076e-01 5.970612168312072754e-03 1.896091401576995850e-01
-1.260856688022613525e-01 -1.751225292682647705e-01 -5.002730060368776321e-03
-1.782792508602142334e-01 1.155389845371246338e-02 -3.681578338146209717e-01
-2.639065384864807129e-01 1.925125718116760254e-01 1.776505708694458008e-01
-2.050989270210266113e-01 -7.004785537719726562e-02 2.970230877399444580e-01
-2.752617001533508301e-01 1.573926955461502075e-01 -7.417854666709899902e-02
-1.046067476272583008e-01 1.168362125754356384e-01 2.463884353637695312e-01
-2.225281745195388794e-01 1.239413246512413025e-01 3.374115228652954102e-01
-1.325216740369796753e-01 4.689414203166961670e-01 -2.351101189851760864e-01
-2.392070144414901733e-01 1.380008906126022339e-01 -3.168538510799407959e-01
-1.338340193033218384e-01 5.301014780998229980e-01 -1.436851173639297485e-01
-9.651055932044982910e-02 8.471698313951492310e-02 -2.050093859434127808e-01
-9.844899922609329224e-02 4.017350971698760986e-01 -1.247486770153045654e-01
-9.007258713245391846e-02 3.265239298343658447e-02 -1.071403399109840393e-01
-2.286607474088668823e-01 7.693395018577575684e-03 -3.092566728591918945e-01
-2.470858097076416016e-01 -1.330918371677398682e-01 -3.276088088750839233e-02
-2.712938189506530762e-01 3.344866633415222168e-02 -4.885733127593994141e-02
-8.146330714225769043e-02 1.094224154949188232e-01 -2.944876812398433685e-02
-2.635603249073028564e-01 3.707674145698547363e-01 -9.661884047091007233e-03
-8.075243979692459106e-02 2.088534533977508545e-01 -6.602953374385833740e-02
-2.660138905048370361e-01 -2.346818149089813232e-02 -3.904643654823303223e-02
-2.149280458688735962e-01 1.131507009267807007e-01 -3.693713843822479248e-01
-1.258804500102996826e-01 -1.514718532562255859e-01 1.155932545661926270e-01
-1.163301169872283936e-01 -1.140396595001220703e-01 1.256092935800552368e-01
-1.128133460879325867e-01 3.952619433403015137e-01 -2.301978021860122681e-01
-2.615509331226348877e-01 -3.055989742279052734e-02 -1.104792729020118713e-01
-1.546628773212432861e-01 -1.984274685382843018e-01 -1.495099663734436035e-01
-8.423414081335067749e-02 5.968011915683746338e-02 -6.899572908878326416e-04
-2.732379734516143799e-01 7.888416945934295654e-02 5.416540056467056274e-02
-1.851079612970352173e-01 5.636563301086425781e-01 -1.602955609560012817e-01
-2.525750696659088135e-01 4.106128215789794922e-01 -1.292522251605987549e-01
-2.594669759273529053e-01 4.555495083332061768e-02 1.819879114627838135e-01
-8.150935173034667969e-02 1.048428192734718323e-01 -1.193397678434848785e-03
-1.475243866443634033e-01 -1.263601183891296387e-01 -2.438282817602157593e-01
-2.626237273216247559e-01 3.554464876651763916e-01 7.369221746921539307e-02
-2.736611068248748779e-01 6.088998913764953613e-02 -6.969491951167583466e-03
-8.759488165378570557e-02 2.295806556940078735e-01 -1.589555442333221436e-01
-9.157545864582061768e-02 1.190780997276306152e-01 1.699944883584976196e-01
-2.216758430004119873e-01 -2.054643630981445312e-01 3.789715096354484558e-02
-1.264099478721618652e-01 -1.498442590236663818e-01 -1.277168393135070801e-01
-8.832255750894546509e-02 3.528577685356140137e-01 3.456551581621170044e-02
-2.435677945613861084e-01 -5.083185434341430664e-02 2.050030082464218140e-01
-2.465105354785919189e-01 4.476280212402343750e-01 -1.159959584474563599e-01
-1.585193723440170288e-01 5.582927465438842773e-01 1.279768645763397217e-01
-2.689565420150756836e-01 3.165522217750549316e-01 -5.796065926551818848e-02
-2.242576628923416138e-01 3.921891450881958008e-01 -2.912987172603607178e-01
-1.125984340906143188e-01 3.960829377174377441e-01 2.026512175798416138e-01
-2.740826308727264404e-01 1.304238438606262207e-01 -9.304044395685195923e-02
-1.747257411479949951e-01 -5.642387270927429199e-02 -3.322772383689880371e-01
-2.744153141975402832e-01 1.707538068294525146e-01 6.797698885202407837e-02
-2.736373543739318848e-01 7.004319131374359131e-02 -5.017212033271789551e-02
-2.676654458045959473e-01 2.603307366371154785e-01 -1.478624641895294189e-01
-2.130314856767654419e-01 4.264020919799804688e-02 -3.549723923206329346e-01
-1.015468016266822815e-01 3.932946622371673584e-01 1.396464109420776367e-01
-9.232933074235916138e-02 2.183362543582916260e-01 -1.996729373931884766e-01
-9.618715196847915649e-02 4.098590612411499023e-01 4.850760847330093384e-02
-2.353768944740295410e-01 -1.733445823192596436e-01 -3.477577865123748779e-02
-2.674053609371185303e-01 8.231476694345474243e-02 -1.570972055196762085e-01
-2.707436680793762207e-01 1.034797355532646179e-01 -1.313003003597259521e-01
-1.101648956537246704e-01 -1.002544760704040527e-01 9.890336543321609497e-02
-1.906116902828216553e-01 2.250590473413467407e-01 3.745802342891693115e-01
-2.238551378250122070e-01 3.665006458759307861e-01 2.786917984485626221e-01
-1.395734995603561401e-01 5.426525324583053589e-02 3.347717523574829102e-01
-9.385673701763153076e-02 2.457382678985595703e-01 1.862458437681198120e-01
-2.701309919357299805e-01 1.683516800403594971e-01 -1.507384330034255981e-01
-1.703743636608123779e-01 -1.991501748561859131e-01 -1.768075078725814819e-01
-1.977936327457427979e-01 5.799489021301269531e-01 -6.656698882579803467e-02
-2.681595683097839355e-01 9.382963180541992188e-04 -5.727288499474525452e-02
-2.433789074420928955e-01 -1.487660706043243408e-01 -8.093823678791522980e-03
-2.238855808973312378e-01 3.137435019016265869e-01 -3.331385850906372070e-01
-1.298055350780487061e-01 -1.416513621807098389e-01 -1.639261990785598755e-01
-2.247876077890396118e-01 -1.674163341522216797e-01 1.408675312995910645e-01
-1.078336834907531738e-01 3.646377921104431152e-01 2.051322311162948608e-01
-9.091871976852416992e-02 1.549063175916671753e-01 -1.880176812410354614e-01
-2.339671701192855835e-01 3.647384047508239746e-01 2.494918406009674072e-01
-1.145972982048988342e-01 4.947040677070617676e-01 -8.824701607227325439e-02
-1.296501904726028442e-01 -1.740690767765045166e-01 7.964208722114562988e-02
-2.606202661991119385e-01 3.900805413722991943e-01 -4.270517081022262573e-02
-1.101698577404022217e-01 -1.118581891059875488e-01 -6.979848444461822510e-02
-1.527093648910522461e-01 -1.080058515071868896e-02 -3.411382436752319336e-01
-2.165668904781341553e-01 -5.500614643096923828e-04 3.169129490852355957e-01
-2.629134953022003174e-01 3.671033382415771484e-01 -7.179210335016250610e-02
-2.547570466995239258e-01 3.946950435638427734e-01 1.021402031183242798e-01
-1.942107081413269043e-01 5.071840286254882812e-01 -2.446556389331817627e-01
-1.642920076847076416e-01 -1.024099588394165039e-01 -2.922366559505462646e-01
-2.265864759683609009e-01 -9.143695235252380371e-02 2.347517162561416626e-01
-2.521812617778778076e-01 3.526594638824462891e-01 1.735648959875106812e-01
-2.677842974662780762e-01 1.197126507759094238e-01 1.455980688333511353e-01
-1.669125407934188843e-01 -2.228019237518310547e-01 -1.164223551750183105e-01
-1.149620935320854187e-01 2.809812724590301514e-01 2.763012349605560303e-01
-1.810782998800277710e-01 -2.457332611083984375e-01 -1.964420080184936523e-04
-1.010115817189216614e-01 4.293854534626007080e-01 7.425042986869812012e-02
-2.711850404739379883e-01 5.446713417768478394e-02 -8.841091394424438477e-02
-2.725911736488342285e-01 1.872362941503524780e-01 -1.193271353840827942e-01
-2.618748247623443604e-01 2.216326445341110229e-01 1.854510903358459473e-01
-2.297132015228271484e-01 2.401092052459716797e-01 3.143561184406280518e-01
-2.325249463319778442e-01 -1.259849965572357178e-01 -1.837801337242126465e-01
-2.752964496612548828e-01 1.903207153081893921e-01 -6.765601038932800293e-02
-9.863844513893127441e-02 4.326584637165069580e-01 -3.618479520082473755e-02
-1.803852915763854980e-01 4.240809679031372070e-01 -3.300445675849914551e-01
-2.572835683822631836e-01 -7.743608951568603516e-02 5.315402150154113770e-02
-8.082039654254913330e-02 2.157141566276550293e-01 4.830412566661834717e-02
-1.278911978006362915e-01 2.997766733169555664e-01 3.075382113456726074e-01
-2.670176923274993896e-01 1.664115041494369507e-01 1.561416685581207275e-01
-1.490343362092971802e-01 5.257456302642822266e-01 -2.042304724454879761e-01
-7.968217879533767700e-02 1.966570615768432617e-01 -2.591828815639019012e-02
-1.180594414472579956e-01 5.149597525596618652e-01 -3.805194795131683350e-02
-1.114078909158706665e-01 1.540652066469192505e-01 -2.954647243022918701e-01
-2.273041307926177979e-01 4.440721273422241211e-01 -2.371514588594436646e-01
-2.717947959899902344e-01 2.872851192951202393e-01 1.013779267668724060e-02
-2.143303751945495605e-01 -1.747372746467590332e-01 -1.758634895086288452e-01
-1.732360869646072388e-01 5.354014635086059570e-01 -2.177336513996124268e-01
-1.100149825215339661e-01 3.393168151378631592e-01 2.318637520074844360e-01
-9.173195064067840576e-02 2.613724768161773682e-01 -1.851291060447692871e-01
-1.596331000328063965e-01 3.188121616840362549e-01 -3.742186725139617920e-01
-2.709382772445678711e-01 3.003728985786437988e-01 -2.669404447078704834e-02
-1.106328815221786499e-01 6.708305329084396362e-02 2.580460906028747559e-01
-2.492617666721343994e-01 -1.222237944602966309e-01 3.442779555916786194e-02
-2.056535780429840088e-01 -1.632065773010253906e-01 2.071636021137237549e-01
-1.060062497854232788e-01 1.902040094137191772e-01 2.587106227874755859e-01
-2.183990180492401123e-01 -1.139484047889709473e-01 -2.463563978672027588e-01
-8.707592636346817017e-02 2.876691520214080811e-01 1.070788353681564331e-01
-2.332210987806320190e-01 -7.887560129165649414e-02 -2.360469400882720947e-01
-9.002278000116348267e-02 3.701373636722564697e-01 -5.159357935190200806e-02
-1.412710398435592651e-01 2.042253315448760986e-01 -3.727867305278778076e-01
-2.703730463981628418e-01 2.445246279239654541e-02 3.746291995048522949e-02
-1.044083759188652039e-01 4.629029929637908936e-01 -3.143066912889480591e-02
-1.038670167326927185e-01 -4.057738184928894043e-02 1.453631818294525146e-01
-1.310894042253494263e-01 3.094670474529266357e-01 -3.347605764865875244e-01
-2.654201686382293701e-01 2.443402707576751709e-01 1.504760682582855225e-01
-2.575598061084747314e-01 -3.511041402816772461e-03 1.626520007848739624e-01
-1.173453554511070251e-01 3.051291108131408691e-01 -2.981407344341278076e-01
-2.763335704803466797e-01 1.417657732963562012e-01 4.361213184893131256e-03
-2.749060690402984619e-01 1.135689690709114075e-01 4.400590062141418457e-02
-2.506161928176879883e-01 3.944875597953796387e-01 1.392172724008560181e-01
-1.989077776670455933e-01 3.565296530723571777e-02 3.539569675922393799e-01
-2.060294747352600098e-01 -2.301925420761108398e-01 3.370454534888267517e-02
-2.745582163333892822e-01 8.153638243675231934e-02 1.278897561132907867e-02
-8.819542080163955688e-02 2.983024120330810547e-01 -1.327136158943176270e-01
-8.546943962574005127e-02 1.516852378845214844e-01 1.222160905599594116e-01
-1.331924498081207275e-01 -1.152907609939575195e-01 -2.164873480796813965e-01
-1.437309682369232178e-01 2.574413418769836426e-01 3.493957221508026123e-01
-8.358509093523025513e-02 2.052468359470367432e-01 -1.181438565254211426e-01
-1.294761449098587036e-01 1.574469804763793945e-01 3.319158554077148438e-01
-2.655880749225616455e-01 -2.970725297927856445e-02 7.150340825319290161e-04
-1.164810582995414734e-01 -1.325488686561584473e-01 8.067259192466735840e-02
-1.152408346533775330e-01 -3.828503191471099854e-02 -2.244850844144821167e-01
-9.897626936435699463e-02 1.135152876377105713e-01 -2.308912873268127441e-01
-2.558070123195648193e-01 -6.478273868560791016e-02 1.042184308171272278e-01
-2.317079752683639526e-01 4.985513091087341309e-01 -1.285854279994964600e-01
-2.539238631725311279e-01 1.104146838188171387e-01 2.344558984041213989e-01
-1.376645117998123169e-01 -1.030525565147399902e-01 2.374904155731201172e-01
-1.029056832194328308e-01 2.409878373146057129e-01 -2.576177120208740234e-01
-9.259623289108276367e-02 3.944568037986755371e-01 -2.753572352230548859e-02
-8.310897648334503174e-02 1.087512522935867310e-01 -8.040284365415573120e-02
-2.358359247446060181e-01 -4.324977099895477295e-02 -2.568414807319641113e-01
-1.985817104578018188e-01 4.719063341617584229e-01 -2.780938148498535156e-01
