-4.099697470664978027e-01 -6.790270805358886719e-01 -5.303985476493835449e-01
-4.226793646812438965e-01 -6.344302296638488770e-01 -5.690771937370300293e-01
-4.246170222759246826e-01 -6.773954629898071289e-01 -4.860611855983734131e-01
-3.202241659164428711e-01 -5.950937271118164062e-01 -5.819117426872253418e-01
-4.136399030685424805e-01 -6.722906827926635742e-01 -4.753546714782714844e-01
-3.284667134284973145e-01 -5.973641276359558105e-01 -5.838524103164672852e-01
-3.730791509151458740e-01 -6.150247454643249512e-01 -4.796038568019866943e-01
-3.422222733497619629e-01 -6.762496232986450195e-01 -5.061626434326171875e-01
-4.776591658592224121e-01 -6.658322811126708984e-01 -4.957615435123443604e-01
-4.512663781642913818e-01 -6.723499298095703125e-01 -5.221333503723144531e-01
-4.362630844116210938e-01 -6.629773974418640137e-01 -4.659012258052825928e-01
-2.232203036546707153e-01 -6.249551177024841309e-01 -5.881434082984924316e-01
-3.730566799640655518e-01 -5.939188003540039062e-01 -5.253066420555114746e-01
-3.093297779560089111e-01 -6.176868677139282227e-01 -4.918781518936157227e-01
-4.535239636898040771e-01 -6.656306982040405273e-01 -4.712389111518859863e-01
-3.172851800918579102e-01 -6.751742959022521973e-01 -5.343899726867675781e-01
-3.308700919151306152e-01 -6.216701269149780273e-01 -6.014335155487060547e-01
-4.223934113979339600e-01 -6.542730331420898438e-01 -4.614962935447692871e-01
-3.837867975234985352e-01 -6.033554077148437500e-01 -5.688512325286865234e-01
-4.551214277744293213e-01 -6.365619897842407227e-01 -4.686448574066162109e-01
-3.511462509632110596e-01 -6.091474890708923340e-01 -5.903164744377136230e-01
-2.635106146335601807e-01 -6.246290206909179688e-01 -5.105936527252197266e-01
-3.294315934181213379e-01 -6.376711130142211914e-01 -6.001310944557189941e-01
-3.806213736534118652e-01 -6.066447496414184570e-01 -5.753479599952697754e-01
-3.880989551544189453e-01 -5.974036455154418945e-01 -5.502059459686279297e-01
-4.694117903709411621e-01 -6.235424876213073730e-01 -5.098052620887756348e-01
-2.992437183856964111e-01 -6.713339686393737793e-01 -5.421245694160461426e-01
-2.756228446960449219e-01 -6.012990474700927734e-01 -5.237321257591247559e-01
-2.483229637145996094e-01 -6.003724932670593262e-01 -5.880403518676757812e-01
-4.378531277179718018e-01 -6.436858773231506348e-01 -4.620570540428161621e-01
-4.347118735313415527e-01 -6.239591240882873535e-01 -4.738617241382598877e-01
-2.610211670398712158e-01 -5.940471291542053223e-01 -5.763353109359741211e-01
-3.348375856876373291e-01 -6.689450740814208984e-01 -4.935273826122283936e-01
-3.946050405502319336e-01 -6.038489341735839844e-01 -5.625439286231994629e-01
-3.835149407386779785e-01 -5.998701453208923340e-01 -5.049234032630920410e-01
-4.472187459468841553e-01 -6.221503615379333496e-01 -4.806577265262603760e-01
-4.196969568729400635e-01 -6.555767059326171875e-01 -5.638566017150878906e-01
-3.691611289978027344e-01 -6.810739040374755859e-01 -5.280090570449829102e-01
-2.604857087135314941e-01 -6.518261432647705078e-01 -5.825341343879699707e-01
-2.984091043472290039e-01 -5.888873338699340820e-01 -5.576273798942565918e-01
-2.946408390998840332e-01 -6.000236272811889648e-01 -5.167590975761413574e-01
-4.180668592453002930e-01 -6.050805449485778809e-01 -5.041429400444030762e-01
-4.326379299163818359e-01 -6.724444627761840820e-01 -4.760793745517730713e-01
-2.730811238288879395e-01 -6.633119583129882812e-01 -5.374041795730590820e-01
-2.421315014362335205e-01 -6.456841826438903809e-01 -5.810422897338867188e-01
-2.247824221849441528e-01 -6.362732052803039551e-01 -5.526740550994873047e-01
-2.513297796249389648e-01 -6.554591655731201172e-01 -5.584676861763000488e-01
-3.093554973602294922e-01 -6.352292299270629883e-01 -4.854407608509063721e-01
-3.555659949779510498e-01 -6.803812384605407715e-01 -5.264625549316406250e-01
-3.801746964454650879e-01 -6.572933793067932129e-01 -5.772379636764526367e-01
-2.471093088388442993e-01 -6.212739944458007812e-01 -5.231994390487670898e-01
-3.129466772079467773e-01 -6.026272177696228027e-01 -5.061137080192565918e-01
-3.372762501239776611e-01 -6.249519586563110352e-01 -6.004472970962524414e-01
-3.639010190963745117e-01 -6.570135951042175293e-01 -4.711357951164245605e-01
-3.152183890342712402e-01 -6.334353089332580566e-01 -6.033470630645751953e-01
-2.650627791881561279e-01 -6.032125949859619141e-01 -5.971372723579406738e-01
-2.496618926525115967e-01 -6.495439410209655762e-01 -5.796449184417724609e-01
-3.175265789031982422e-01 -6.290957331657409668e-01 -4.834466278553009033e-01
-4.469016194343566895e-01 -6.603356003761291504e-01 -5.447400212287902832e-01
-3.167362213134765625e-01 -6.211320757865905762e-01 -4.871543645858764648e-01
-3.218686282634735107e-01 -6.521666646003723145e-01 -4.835589230060577393e-01
-4.343553483486175537e-01 -6.571534276008605957e-01 -5.551612973213195801e-01
-4.439106285572052002e-01 -6.492170691490173340e-01 -5.542250275611877441e-01
-3.978719711303710938e-01 -6.614846587181091309e-01 -4.664711058139801025e-01
-3.934756219387054443e-01 -6.045585274696350098e-01 -4.954708814620971680e-01
-4.783086776733398438e-01 -6.420569419860839844e-01 -5.246487855911254883e-01
-2.858531475067138672e-01 -6.397502422332763672e-01 -6.016119718551635742e-01
-2.873660922050476074e-01 -6.550834178924560547e-01 -5.867651104927062988e-01
-2.378434240818023682e-01 -6.278482675552368164e-01 -5.299053192138671875e-01
-3.597405552864074707e-01 -6.791286468505859375e-01 -5.059258341789245605e-01
-3.688020110130310059e-01 -6.401724219322204590e-01 -4.668619036674499512e-01
-2.996292710304260254e-01 -6.618323326110839844e-01 -5.781998634338378906e-01
-3.799710571765899658e-01 -6.378197073936462402e-01 -5.875759720802307129e-01
-3.268432319164276123e-01 -6.738475561141967773e-01 -5.098090767860412598e-01
-4.693194627761840820e-01 -6.283571124076843262e-01 -4.862868189811706543e-01
-2.625899314880371094e-01 -5.955647826194763184e-01 -5.454123020172119141e-01
-4.097454249858856201e-01 -6.076444387435913086e-01 -4.928131401538848877e-01
-3.604720234870910645e-01 -6.493081450462341309e-01 -5.883778929710388184e-01
-3.874706625938415527e-01 -6.794091463088989258e-01 -4.949344992637634277e-01
-4.036812484264373779e-01 -6.807314753532409668e-01 -4.977934360504150391e-01
-3.412771224975585938e-01 -6.045583486557006836e-01 -4.964758157730102539e-01
-4.572667479515075684e-01 -6.177235841751098633e-01 -5.218095779418945312e-01
-4.087202250957489014e-01 -6.024987697601318359e-01 -5.071510672569274902e-01
-4.389916658401489258e-01 -6.280066370964050293e-01 -5.569890737533569336e-01
-2.792609333992004395e-01 -5.919935703277587891e-01 -5.764685869216918945e-01
-2.760097980499267578e-01 -5.925745964050292969e-01 -5.452746748924255371e-01
-4.193714857101440430e-01 -6.060394048690795898e-01 -5.450302958488464355e-01
-3.587417602539062500e-01 -6.569592356681823730e-01 -5.827162861824035645e-01
-3.156336545944213867e-01 -5.989103913307189941e-01 -5.894937515258789062e-01
-3.797819614410400391e-01 -6.152858734130859375e-01 -5.835210084915161133e-01
-2.593989968299865723e-01 -6.568526625633239746e-01 -5.686660408973693848e-01
-3.453702628612518311e-01 -6.506818532943725586e-01 -4.740712344646453857e-01
-3.580490648746490479e-01 -6.322606801986694336e-01 -5.951676964759826660e-01
-3.102575242519378662e-01 -5.892656445503234863e-01 -5.643684267997741699e-01
-4.664711654186248779e-01 -6.486938595771789551e-01 -5.372710824012756348e-01
-2.905726730823516846e-01 -6.286607384681701660e-01 -6.060872673988342285e-01
-4.010463058948516846e-01 -6.726487874984741211e-01 -5.506766438484191895e-01
-3.628629446029663086e-01 -5.967977643013000488e-01 -5.681420564651489258e-01
-3.782619535923004150e-01 -6.519125103950500488e-01 -4.657752811908721924e-01
-3.914532065391540527e-01 -6.733758449554443359e-01 -4.799350500106811523e-01
-3.047235906124114990e-01 -6.060017943382263184e-01 -5.043257474899291992e-01
-2.391331493854522705e-01 -5.994297266006469727e-01 -5.635811686515808105e-01
-4.323815405368804932e-01 -6.457672715187072754e-01 -5.623920559883117676e-01
-2.256418913602828979e-01 -6.290116310119628906e-01 -5.445073843002319336e-01
-4.685522317886352539e-01 -6.331518888473510742e-01 -4.782768189907073975e-01
-4.246179461479187012e-01 -6.083711981773376465e-01 -4.977793991565704346e-01
-3.326893746852874756e-01 -6.736384630203247070e-01 -5.046883225440979004e-01
-3.391403257846832275e-01 -5.917035341262817383e-01 -5.266674160957336426e-01
-4.699997305870056152e-01 -6.527889370918273926e-01 -4.700209200382232666e-01
-3.394779562950134277e-01 -6.504715085029602051e-01 -5.915514230728149414e-01
-4.489251375198364258e-01 -6.153491139411926270e-01 -5.308525562286376953e-01
-3.958571553230285645e-01 -6.282881498336791992e-01 -5.815732479095458984e-01
-3.771727979183197021e-01 -6.591160893440246582e-01 -4.689251184463500977e-01
-2.790057063102722168e-01 -6.534888744354248047e-01 -5.871239900588989258e-01
-2.793808579444885254e-01 -6.658478975296020508e-01 -5.401222109794616699e-01
-2.533131837844848633e-01 -6.181899309158325195e-01 -5.200507640838623047e-01
-4.825525283813476562e-01 -6.340787410736083984e-01 -5.032729506492614746e-01
-3.335334658622741699e-01 -6.048477888107299805e-01 -4.975790381431579590e-01
-2.941139936447143555e-01 -6.628168821334838867e-01 -5.100314617156982422e-01
-2.944737374782562256e-01 -5.895527005195617676e-01 -5.490047335624694824e-01
-4.053242206573486328e-01 -5.997467637062072754e-01 -5.187508463859558105e-01
-2.391855865716934204e-01 -6.202448010444641113e-01 -5.302838683128356934e-01
-3.151727318763732910e-01 -6.509174108505249023e-01 -5.934219956398010254e-01
-2.575609683990478516e-01 -6.007638573646545410e-01 -5.364263057708740234e-01
-4.709269404411315918e-01 -6.265637278556823730e-01 -5.195655822753906250e-01
-3.418225646018981934e-01 -5.909739136695861816e-01 -5.607815384864807129e-01
-3.698203265666961670e-01 -5.961363315582275391e-01 -5.618526935577392578e-01
-4.009237289428710938e-01 -6.444200277328491211e-01 -5.779442191123962402e-01
-3.392097353935241699e-01 -6.778866648674011230e-01 -5.168362855911254883e-01
-4.335052967071533203e-01 -6.072307229042053223e-01 -5.225645303726196289e-01
-2.764512896537780762e-01 -6.536568999290466309e-01 -5.112022757530212402e-01
-2.449809908866882324e-01 -6.354572772979736328e-01 -5.245866179466247559e-01
-3.922472894191741943e-01 -6.761233210563659668e-01 -5.458232164382934570e-01
-4.474877715110778809e-01 -6.125384569168090820e-01 -5.193685293197631836e-01
-4.455884397029876709e-01 -6.770678758621215820e-01 -5.079557299613952637e-01
-4.630169272422790527e-01 -6.224387884140014648e-01 -5.253989696502685547e-01
-3.851661086082458496e-01 -6.599680185317993164e-01 -4.677176177501678467e-01
-4.226808249950408936e-01 -6.202829480171203613e-01 -4.755086600780487061e-01
-3.776358664035797119e-01 -6.741353869438171387e-01 -5.540770888328552246e-01
-3.557882905006408691e-01 -6.172140240669250488e-01 -4.798451662063598633e-01
-2.285497188568115234e-01 -6.356523036956787109e-01 -5.442572832107543945e-01
-3.051734864711761475e-01 -6.698072552680969238e-01 -5.167242884635925293e-01
-4.632402062416076660e-01 -6.663851141929626465e-01 -5.235287547111511230e-01
-2.321221530437469482e-01 -6.265603899955749512e-01 -5.358623862266540527e-01
-3.638430237770080566e-01 -6.706030964851379395e-01 -5.636071562767028809e-01
-3.591911792755126953e-01 -5.964735746383666992e-01 -5.109978914260864258e-01
-2.206969112157821655e-01 -6.103083491325378418e-01 -5.702814459800720215e-01
-4.827611446380615234e-01 -6.605580449104309082e-01 -4.877003431320190430e-01
-3.083425760269165039e-01 -5.909431576728820801e-01 -5.732766985893249512e-01
-3.255007266998291016e-01 -6.092606782913208008e-01 -5.976177453994750977e-01
-4.108602702617645264e-01 -6.167323589324951172e-01 -5.683674812316894531e-01
-3.997742533683776855e-01 -6.759327650070190430e-01 -5.439289212226867676e-01
-2.655135989189147949e-01 -5.996851325035095215e-01 -5.327613949775695801e-01
-4.385743737220764160e-01 -6.645206809043884277e-01 -5.453863143920898438e-01
-3.910417854785919189e-01 -6.458658576011657715e-01 -5.811616182327270508e-01
-4.241807460784912109e-01 -6.042709946632385254e-01 -5.193654894828796387e-01
-4.364246129989624023e-01 -6.759783029556274414e-01 -5.243866443634033203e-01
-4.024789035320281982e-01 -6.640605926513671875e-01 -5.630808472633361816e-01
-4.699292778968811035e-01 -6.425352096557617188e-01 -4.716323614120483398e-01
-3.170792758464813232e-01 -5.888135433197021484e-01 -5.461944341659545898e-01
-2.365817576646804810e-01 -6.221608519554138184e-01 -5.982465147972106934e-01
-2.973937392234802246e-01 -6.457527875900268555e-01 -4.924334585666656494e-01
-3.316585421562194824e-01 -5.942041873931884766e-01 -5.185352563858032227e-01
-3.430517911911010742e-01 -6.733444929122924805e-01 -5.586771368980407715e-01
-3.305038809776306152e-01 -6.574264168739318848e-01 -4.830003380775451660e-01
-2.529171705245971680e-01 -6.341168284416198730e-01 -5.997298955917358398e-01
-2.543590068817138672e-01 -6.565907001495361328e-01 -5.469905734062194824e-01
-4.182859361171722412e-01 -6.103530526161193848e-01 -5.555417537689208984e-01
-4.892379641532897949e-01 -6.512733697891235352e-01 -4.953157901763916016e-01
-4.624332785606384277e-01 -6.604093313217163086e-01 -4.698181748390197754e-01
-4.826446771621704102e-01 -6.503857374191284180e-01 -5.176379680633544922e-01
-2.855558991432189941e-01 -5.953703522682189941e-01 -5.303826928138732910e-01
-4.162025451660156250e-01 -6.669663190841674805e-01 -5.538400411605834961e-01
-3.326418995857238770e-01 -6.621713042259216309e-01 -5.799797177314758301e-01
-4.496285617351531982e-01 -6.237793564796447754e-01 -5.449165701866149902e-01
-3.539861142635345459e-01 -6.241232752799987793e-01 -4.753271937370300293e-01
-4.058656096458435059e-01 -6.079567074775695801e-01 -5.614771842956542969e-01
-4.207016825675964355e-01 -6.808907985687255859e-01 -5.077367424964904785e-01
-3.107771277427673340e-01 -6.430906653404235840e-01 -4.852876961231231689e-01
-3.664985895156860352e-01 -6.072111725807189941e-01 -5.826984047889709473e-01
-2.905863523483276367e-01 -6.597200036048889160e-01 -5.799446702003479004e-01
-2.897567152976989746e-01 -5.932500958442687988e-01 -5.819345712661743164e-01
-2.212343364953994751e-01 -6.297310590744018555e-01 -5.527537465095520020e-01
-4.604617357254028320e-01 -6.527096033096313477e-01 -5.406618118286132812e-01
-3.956509232521057129e-01 -6.389030218124389648e-01 -5.815594792366027832e-01
-3.697480559349060059e-01 -6.780890226364135742e-01 -5.442235469818115234e-01
-2.579094469547271729e-01 -6.481935977935791016e-01 -5.214541554450988770e-01
-4.165026545524597168e-01 -6.419479250907897949e-01 -5.717215538024902344e-01
-3.947630524635314941e-01 -5.994789004325866699e-01 -5.103734731674194336e-01
-4.344742894172668457e-01 -6.549928188323974609e-01 -4.620185494422912598e-01
-2.834824025630950928e-01 -6.593669652938842773e-01 -5.783610939979553223e-01
-4.393802583217620850e-01 -6.159963011741638184e-01 -5.449627041816711426e-01
-2.539201676845550537e-01 -6.252256035804748535e-01 -6.035107970237731934e-01
-4.523151516914367676e-01 -6.742039322853088379e-01 -5.146324634552001953e-01
-2.360498011112213135e-01 -6.414207816123962402e-01 -5.392491221427917480e-01
-4.158229827880859375e-01 -6.018968224525451660e-01 -5.219777822494506836e-01
-3.213303685188293457e-01 -6.625298857688903809e-01 -5.795211791992187500e-01
-3.975095450878143311e-01 -6.207778453826904297e-01 -4.729607999324798584e-01
-3.779395520687103271e-01 -6.676424145698547363e-01 -4.755201041698455811e-01
-2.301561385393142700e-01 -6.434267759323120117e-01 -5.611023902893066406e-01
-3.786910772323608398e-01 -6.279920339584350586e-01 -4.690966010093688965e-01
-2.383709549903869629e-01 -6.015520691871643066e-01 -5.549181699752807617e-01
-3.288045823574066162e-01 -5.891892313957214355e-01 -5.563029050827026367e-01
-3.909362852573394775e-01 -6.806346774101257324e-01 -5.303286314010620117e-01
-3.372229933738708496e-01 -6.396856307983398438e-01 -4.750873148441314697e-01
-2.948172986507415771e-01 -6.035179495811462402e-01 -5.979520678520202637e-01
-3.631255328655242920e-01 -6.762857437133789062e-01 -4.945449233055114746e-01
-4.409747719764709473e-01 -6.130887866020202637e-01 -5.368443727493286133e-01
-3.577930033206939697e-01 -6.172370314598083496e-01 -5.929332375526428223e-01
-3.769762217998504639e-01 -6.373734474182128906e-01 -4.658283591270446777e-01
-2.676224708557128906e-01 -6.261690258979797363e-01 -6.055792570114135742e-01
-3.170826435089111328e-01 -6.588045954704284668e-01 -5.847426056861877441e-01
-3.545480966567993164e-01 -5.948303937911987305e-01 -5.677295923233032227e-01
-3.860114812850952148e-01 -5.955164432525634766e-01 -5.411335825920104980e-01
-3.408743143081665039e-01 -6.787384748458862305e-01 -5.316288471221923828e-01
-4.343336224555969238e-01 -6.086309552192687988e-01 -5.318376421928405762e-01
-3.734358549118041992e-01 -6.714042425155639648e-01 -5.604963302612304688e-01
-3.568152189254760742e-01 -5.981493592262268066e-01 -5.742927193641662598e-01
-3.770239055156707764e-01 -6.512674093246459961e-01 -5.827860832214355469e-01
-2.310140132904052734e-01 -6.330202221870422363e-01 -5.897116661071777344e-01
-2.503646016120910645e-01 -5.973920822143554688e-01 -5.815322399139404297e-01
-2.510134577751159668e-01 -5.953207612037658691e-01 -5.681254863739013672e-01
-2.425413131713867188e-01 -5.980972051620483398e-01 -5.736464262008666992e-01
-4.098666608333587646e-01 -6.747094392776489258e-01 -5.429856181144714355e-01
-4.190800786018371582e-01 -6.618327498435974121e-01 -5.586649179458618164e-01
-2.316484451293945312e-01 -6.395985484123229980e-01 -5.815600752830505371e-01
-4.722841978073120117e-01 -6.326342821121215820e-01 -5.272981524467468262e-01
-2.835403084754943848e-01 -6.493375897407531738e-01 -5.023180842399597168e-01
-4.706330597400665283e-01 -6.257475018501281738e-01 -4.952957034111022949e-01
-2.283962368965148926e-01 -6.043365597724914551e-01 -5.735433697700500488e-01
-3.350368440151214600e-01 -5.954570174217224121e-01 -5.780795812606811523e-01
-3.758282363414764404e-01 -5.945991277694702148e-01 -5.502041578292846680e-01
-2.363446056842803955e-01 -6.079123020172119141e-01 -5.438117980957031250e-01
-3.717811703681945801e-01 -5.928912758827209473e-01 -5.389569401741027832e-01
-2.333572655916213989e-01 -6.450219750404357910e-01 -5.534564256668090820e-01
-2.957055568695068359e-01 -6.083399057388305664e-01 -5.050977468490600586e-01
-3.158589303493499756e-01 -6.658705472946166992e-01 -5.732035636901855469e-01
-3.535422384738922119e-01 -6.399322748184204102e-01 -5.946133136749267578e-01
-2.661831378936767578e-01 -6.437717676162719727e-01 -5.956238508224487305e-01
-3.664013445377349854e-01 -6.607763767242431641e-01 -5.772267580032348633e-01
-3.565317392349243164e-01 -5.940907597541809082e-01 -5.184565782546997070e-01
-2.403732538223266602e-01 -6.029067635536193848e-01 -5.880065560340881348e-01
-3.617461323738098145e-01 -5.924944877624511719e-01 -5.531168580055236816e-01
-3.166115880012512207e-01 -6.728214025497436523e-01 -5.538223981857299805e-01
-4.652303457260131836e-01 -6.582123041152954102e-01 -5.325036048889160156e-01
-3.753533363342285156e-01 -6.816274523735046387e-01 -5.231030583381652832e-01
-3.216221630573272705e-01 -5.892310738563537598e-01 -5.607249736785888672e-01
-3.026054501533508301e-01 -6.370053887367248535e-01 -6.031066179275512695e-01
-3.884445428848266602e-01 -6.346262693405151367e-01 -4.650423228740692139e-01
-3.976200520992279053e-01 -6.807501316070556641e-01 -5.276824235916137695e-01
-3.060045838356018066e-01 -6.160534620285034180e-01 -6.042621135711669922e-01
-4.786125421524047852e-01 -6.361169219017028809e-01 -4.841729998588562012e-01
-4.170662462711334229e-01 -6.803646087646484375e-01 -4.971138536930084229e-01
-2.975750565528869629e-01 -6.492351889610290527e-01 -5.948505401611328125e-01
-4.219832420349121094e-01 -6.668773889541625977e-01 -4.686086773872375488e-01
-2.605017423629760742e-01 -6.442197561264038086e-01 -5.156720280647277832e-01
-4.798541963100433350e-01 -6.543856263160705566e-01 -4.771593213081359863e-01
-4.200422763824462891e-01 -6.739189028739929199e-01 -5.400686860084533691e-01
-3.686291873455047607e-01 -5.986453890800476074e-01 -5.058501958847045898e-01
-4.030853807926177979e-01 -6.815997958183288574e-01 -5.189622640609741211e-01
-2.631356120109558105e-01 -6.597843170166015625e-01 -5.409629940986633301e-01
-4.092877209186553955e-01 -6.569588780403137207e-01 -4.629312157630920410e-01
-3.674088716506958008e-01 -6.479939818382263184e-01 -4.673202633857727051e-01
-2.199500650167465210e-01 -6.126583218574523926e-01 -5.632868409156799316e-01
-3.705925643444061279e-01 -6.726192235946655273e-01 -4.842630028724670410e-01
-2.737594246864318848e-01 -6.089503765106201172e-01 -6.026533842086791992e-01
-4.774887263774871826e-01 -6.625032424926757812e-01 -4.822473526000976562e-01
-3.661037385463714600e-01 -5.925916433334350586e-01 -5.301479697227478027e-01
-4.260379672050476074e-01 -6.561684012413024902e-01 -5.603311061859130859e-01
-3.733336329460144043e-01 -6.808677315711975098e-01 -5.073665976524353027e-01
-2.422635406255722046e-01 -6.352686285972595215e-01 -5.948284268379211426e-01
-3.629921674728393555e-01 -6.634268164634704590e-01 -4.757148325443267822e-01
-4.519685506820678711e-01 -6.753671169281005859e-01 -4.927261471748352051e-01
-4.713864326477050781e-01 -6.686981916427612305e-01 -5.043424367904663086e-01
-4.329458475112915039e-01 -6.080538630485534668e-01 -5.073614120483398438e-01
-3.239025771617889404e-01 -6.716779470443725586e-01 -5.605853796005249023e-01
-4.017841815948486328e-01 -6.277445554733276367e-01 -4.675286114215850830e-01
-2.737766802310943604e-01 -6.641488671302795410e-01 -5.511885881423950195e-01
-4.504580795764923096e-01 -6.418932080268859863e-01 -5.515798330307006836e-01
-2.352505922317504883e-01 -6.007556915283203125e-01 -5.721250176429748535e-01
-4.318639039993286133e-01 -6.289032101631164551e-01 -4.686043262481689453e-01
-2.303890883922576904e-01 -6.047443747520446777e-01 -5.591449141502380371e-01
-2.915554344654083252e-01 -6.170296669006347656e-01 -4.994266331195831299e-01
-2.649164795875549316e-01 -6.582580208778381348e-01 -5.312255024909973145e-01
-3.613655865192413330e-01 -6.076835393905639648e-01 -4.893706440925598145e-01
-2.397039234638214111e-01 -6.107240915298461914e-01 -5.368215441703796387e-01
-4.859782159328460693e-01 -6.527764797210693359e-01 -5.097593665122985840e-01
-3.343605697154998779e-01 -6.734749674797058105e-01 -5.573211908340454102e-01
-3.232359290122985840e-01 -6.746957302093505859e-01 -5.487145781517028809e-01
-3.592075109481811523e-01 -6.248056292533874512e-01 -5.946421027183532715e-01
-3.041113615036010742e-01 -5.958275794982910156e-01 -5.865588188171386719e-01
-3.807187080383300781e-01 -6.819327473640441895e-01 -5.151753425598144531e-01
-3.412054777145385742e-01 -5.927547216415405273e-01 -5.684408545494079590e-01
-2.831100523471832275e-01 -6.645220518112182617e-01 -5.642491579055786133e-01
-4.263200163841247559e-01 -6.621083617210388184e-01 -5.548854470252990723e-01
-3.957308530807495117e-01 -5.974078178405761719e-01 -5.383624434471130371e-01
-2.728086113929748535e-01 -6.570940613746643066e-01 -5.784814953804016113e-01
-2.255440354347229004e-01 -6.116316914558410645e-01 -5.527165532112121582e-01
-4.316106736660003662e-01 -6.289725899696350098e-01 -5.625194907188415527e-01
-3.728936612606048584e-01 -6.023248434066772461e-01 -4.978010654449462891e-01
-4.231884479522705078e-01 -6.165335774421691895e-01 -5.598517656326293945e-01
-2.686840593814849854e-01 -6.337183713912963867e-01 -5.062754750251770020e-01
-3.197136223316192627e-01 -6.215776801109313965e-01 -6.035052537918090820e-01
-3.047334551811218262e-01 -6.496684551239013672e-01 -4.903633892536163330e-01
-4.565599262714385986e-01 -6.294861435890197754e-01 -5.431061387062072754e-01
-3.034071922302246094e-01 -6.292873024940490723e-01 -6.053659319877624512e-01
-3.879577219486236572e-01 -6.240870356559753418e-01 -5.840184092521667480e-01
-3.724829852581024170e-01 -6.437960863113403320e-01 -5.881078243255615234e-01
-2.834305763244628906e-01 -6.237186193466186523e-01 -6.066944003105163574e-01
-3.735144734382629395e-01 -6.013128161430358887e-01 -5.713801980018615723e-01
-3.141779005527496338e-01 -6.070809364318847656e-01 -4.998625516891479492e-01
-3.923139572143554688e-01 -6.128351688385009766e-01 -5.756467580795288086e-01
-3.841402232646942139e-01 -6.193948388099670410e-01 -4.746197462081909180e-01
-4.597995281219482422e-01 -6.450865864753723145e-01 -4.663781523704528809e-01
-3.564965128898620605e-01 -6.715914607048034668e-01 -5.625157356262207031e-01
-2.952221930027008057e-01 -6.420531272888183594e-01 -6.004958748817443848e-01
-2.447976469993591309e-01 -6.062692403793334961e-01 -5.950707197189331055e-01
-4.003274738788604736e-01 -6.720506548881530762e-01 -4.763654768466949463e-01
-4.903776571154594421e-02 -3.407378196716308594e-01 2.893989719450473785e-02
1.776124164462089539e-02 -3.865484297275543213e-01 1.041062641888856888e-02
-2.263011038303375244e-02 -3.807748258113861084e-01 3.574731200933456421e-02
3.513166308403015137e-02 2.621025443077087402e-01 -2.300804108381271362e-02
-2.908402308821678162e-02 1.754760295152664185e-01 7.358616590499877930e-02
3.419421240687370300e-02 -7.739048451185226440e-04 -5.414224788546562195e-02
1.895243674516677856e-02 3.238472938537597656e-01 4.127328097820281982e-02
-7.859954982995986938e-02 -2.451714687049388885e-02 3.846832364797592163e-02
1.427477039396762848e-02 -3.597438335418701172e-03 -6.185768172144889832e-02
-3.325387090444564819e-02 -1.446569263935089111e-01 -5.618027970194816589e-02
-6.441236287355422974e-02 1.056970804929733276e-01 5.370658263564109802e-02
5.354334041476249695e-02 2.026719301939010620e-01 4.290965944528579712e-02
-3.134004399180412292e-02 -9.963246434926986694e-02 8.233028650283813477e-02
-7.492608577013015747e-02 1.748231239616870880e-02 4.503485560417175293e-02
-4.705227166414260864e-02 -3.537704646587371826e-01 2.356133610010147095e-02
-6.858931481838226318e-02 -1.053453758358955383e-01 -3.099641576409339905e-02
6.642045080661773682e-02 1.536303311586380005e-01 5.381761584430932999e-03
-7.550540845841169357e-03 3.031931817531585693e-01 -2.573918178677558899e-02
4.633497074246406555e-02 2.827613055706024170e-01 1.278200838714838028e-02
2.314358577132225037e-02 -6.249242275953292847e-02 -5.903658643364906311e-02
-5.268995836377143860e-02 -1.461894959211349487e-01 -4.510992020368576050e-02
3.563996870070695877e-03 3.392499387264251709e-01 -1.105468161404132843e-02
4.316233843564987183e-02 2.209605276584625244e-01 -2.587661892175674438e-02
3.843213990330696106e-02 -3.296341896057128906e-01 1.938953436911106110e-02
-4.106772691011428833e-02 -8.819276839494705200e-02 7.875776290893554688e-02
-6.095420196652412415e-02 -3.050936460494995117e-01 7.452536374330520630e-04
-2.678314037621021271e-02 2.769698500633239746e-01 5.510567128658294678e-02
-2.056693658232688904e-02 -3.491076231002807617e-01 -2.947510778903961182e-02
-2.137322910130023956e-02 9.813416004180908203e-02 -5.731570348143577576e-02
6.020463258028030396e-02 -1.837778240442276001e-01 -1.342345401644706726e-02
-6.857929378747940063e-02 1.762874126434326172e-01 2.577427774667739868e-03
-1.312631741166114807e-02 -7.172668352723121643e-03 -6.359454989433288574e-02
2.920218557119369507e-02 -2.013595849275588989e-01 -4.721359536051750183e-02
2.151368930935859680e-02 -3.626177906990051270e-01 3.138257935643196106e-02
-1.110892929136753082e-02 2.589004039764404297e-01 6.512818485498428345e-02
5.771902203559875488e-02 1.727014221251010895e-02 5.800440162420272827e-02
1.651940122246742249e-02 -3.734007179737091064e-01 -1.121551357209682465e-02
-1.170252449810504913e-02 2.231888622045516968e-01 -4.411133751273155212e-02
3.574511036276817322e-02 -8.140982687473297119e-02 7.545140385627746582e-02
-5.347723141312599182e-02 -1.446532011032104492e-01 6.763670593500137329e-02
-5.253307148814201355e-02 2.619715929031372070e-01 2.701365016400814056e-02
2.267429977655410767e-02 -3.136875927448272705e-01 5.052047222852706909e-02
5.896928161382675171e-02 -2.136937230825424194e-01 -6.364384666085243225e-03
-1.993342675268650055e-02 -3.886671364307403564e-01 -1.293901167809963226e-02
-5.383826047182083130e-02 -2.623887956142425537e-01 5.054184421896934509e-02
-2.592239528894424438e-02 -1.992005296051502228e-02 -6.131595745682716370e-02
-7.694895565509796143e-02 -3.059920296072959900e-02 -1.783682592213153839e-02
4.359387233853340149e-02 -2.666475996375083923e-02 -4.816310107707977295e-02
4.186739772558212280e-02 1.155920326709747314e-01 6.885565817356109619e-02
-5.880646407604217529e-02 1.635815203189849854e-01 -2.469854801893234253e-02
-1.503489539027214050e-02 -1.739999502897262573e-01 8.102421462535858154e-02
6.233796477317810059e-02 -2.044439315795898438e-01 9.426020085811614990e-03
3.888871893286705017e-02 3.013543486595153809e-01 2.737511321902275085e-02
-6.640981882810592651e-05 1.377129703760147095e-01 -5.613239482045173645e-02
4.442649707198143005e-02 -3.052036166191101074e-01 2.066373452544212341e-02
2.609094418585300446e-02 1.213514506816864014e-01 7.767918705940246582e-02
6.394302099943161011e-02 1.666766554117202759e-01 2.745892852544784546e-02
7.225336879491806030e-02 5.392772704362869263e-02 2.823705784976482391e-03
-5.967970192432403564e-02 -2.200072258710861206e-01 -3.032334893941879272e-02
4.278540611267089844e-02 -2.652077376842498779e-01 -2.346078306436538696e-02
1.013448648154735565e-02 -4.937503486871719360e-02 -6.286710500717163086e-02
-7.817060500383377075e-02 8.681893348693847656e-02 2.178852073848247528e-02
2.241814695298671722e-02 -1.157578304409980774e-01 -5.747976526618003845e-02
5.738066881895065308e-02 -7.720497250556945801e-02 5.587665364146232605e-02
7.365012913942337036e-02 1.142566092312335968e-02 1.154166832566261292e-02
-6.950361281633377075e-02 1.625090688467025757e-01 2.902752533555030823e-02
1.443904079496860504e-02 -9.192433208227157593e-02 -6.102030351758003235e-02
3.432665765285491943e-02 3.954792022705078125e-02 7.769952714443206787e-02
-4.110832139849662781e-02 -3.210588172078132629e-02 -5.553274229168891907e-02
-7.466036081314086914e-02 -2.163861393928527832e-01 1.868975348770618439e-02
-3.413311764597892761e-02 -3.063615858554840088e-01 -3.514754399657249451e-02
7.232538610696792603e-02 3.157274425029754639e-02 2.464959956705570221e-02
6.116941571235656738e-02 1.964824944734573364e-01 2.389423176646232605e-02
-4.733299836516380310e-02 2.294240146875381470e-01 5.087368190288543701e-02
-4.307302087545394897e-02 -1.845503598451614380e-01 -4.854467511177062988e-02
-1.763787306845188141e-02 -1.933225244283676147e-01 7.883912324905395508e-02
-3.556462004780769348e-02 -3.237691819667816162e-01 -2.990354970097541809e-02
-5.858242511749267578e-02 2.019636146724224091e-02 -4.181833192706108093e-02
-1.316564902663230896e-02 -1.890079975128173828e-01 -5.770900472998619080e-02
-1.583062345162034035e-03 -7.554960250854492188e-02 8.732108771800994873e-02
-4.358348250389099121e-02 -2.567816376686096191e-01 -3.908183798193931580e-02
-4.675472527742385864e-02 1.441727727651596069e-01 -4.044757410883903503e-02
-5.270101875066757202e-02 -4.479054361581802368e-02 7.273550331592559814e-02
-7.666087895631790161e-02 -1.896594762802124023e-01 2.274140343070030212e-02
5.140391737222671509e-02 -2.700710296630859375e-01 -1.779842190444469452e-03
-4.053977876901626587e-02 2.280648201704025269e-01 -2.999692037701606750e-02
1.768748275935649872e-02 3.246123343706130981e-02 8.484123647212982178e-02
3.172148484736680984e-03 7.699476182460784912e-02 8.613352477550506592e-02
-3.568941727280616760e-02 -2.110172212123870850e-01 7.169491052627563477e-02
1.485629938542842865e-03 2.173802852630615234e-01 -4.582336917519569397e-02
-6.622938066720962524e-02 -2.548311948776245117e-01 3.281675651669502258e-02
3.301035612821578979e-02 -8.145525306463241577e-02 -5.398302897810935974e-02
3.535738959908485413e-02 -6.173242628574371338e-02 7.652658224105834961e-02
6.044223159551620483e-02 8.730590343475341797e-04 5.438615009188652039e-02
-4.064433276653289795e-02 2.620332501828670502e-02 7.952137291431427002e-02
-7.318624854087829590e-02 -1.392295062541961670e-01 4.419004917144775391e-02
-4.710512608289718628e-02 7.110181450843811035e-02 7.371732592582702637e-02
6.853929162025451660e-02 1.335343122482299805e-01 1.537286490201950073e-02
6.767744570970535278e-02 1.302430033683776855e-01 2.233050763607025146e-04
-5.787872150540351868e-02 -2.119061648845672607e-01 5.582423135638237000e-02
-6.586790084838867188e-02 2.015609890222549438e-01 1.431490387767553329e-02
2.032742835581302643e-03 2.559875249862670898e-01 -3.852801024913787842e-02
-6.853412836790084839e-02 1.783383786678314209e-01 2.347098663449287415e-02
2.874550968408584595e-02 -1.779119372367858887e-01 7.186421751976013184e-02
1.252423226833343506e-02 3.564374446868896484e-01 1.144747436046600342e-02
-6.381709873676300049e-02 -1.144652254879474640e-02 -3.767888993024826050e-02
6.928720325231552124e-02 8.738485723733901978e-02 3.026083111763000488e-02
-6.032609194517135620e-02 -1.598090976476669312e-01 -3.709962964057922363e-02
-3.165677189826965332e-02 1.251482069492340088e-01 -5.150501057505607605e-02
4.430853947997093201e-02 -2.558425664901733398e-01 4.459121823310852051e-02
7.314657419919967651e-02 -3.186610341072082520e-02 4.889115225523710251e-03
-3.581866621971130371e-02 6.199563294649124146e-02 -5.481223389506340027e-02
2.695874497294425964e-02 8.572282642126083374e-02 7.958519458770751953e-02
-4.127655923366546631e-02 -2.509410381317138672e-01 6.304968893527984619e-02
-7.591035962104797363e-02 -6.810063868761062622e-02 -2.009520679712295532e-02
-3.320985659956932068e-02 -1.734102517366409302e-01 -5.423253402113914490e-02
2.413457073271274567e-02 7.348509877920150757e-02 -5.612041428685188293e-02
-7.270876318216323853e-02 -6.674744188785552979e-02 5.033879354596138000e-02
2.467584609985351562e-02 -3.262531459331512451e-01 -2.493495494127273560e-02
-3.316016495227813721e-02 -2.777870595455169678e-01 -4.143249243497848511e-02
4.615887999534606934e-02 -1.454290747642517090e-01 -4.038875550031661987e-02
1.472097449004650116e-02 -1.836997717618942261e-01 -5.535718426108360291e-02
-4.055475071072578430e-02 -3.012279272079467773e-01 5.313115194439888000e-02
7.136246562004089355e-02 -7.047565281391143799e-02 2.405636012554168701e-02
-6.680674850940704346e-02 -2.678260505199432373e-01 -3.151198849081993103e-03
4.581313952803611755e-02 2.157656848430633545e-01 5.100835114717483521e-02
7.281085848808288574e-02 2.434630878269672394e-02 1.876666210591793060e-03
4.228490963578224182e-02 -4.052118211984634399e-02 7.256033271551132202e-02
1.252361014485359192e-02 -3.767904639244079590e-01 3.246148303151130676e-02
7.073038071393966675e-02 -9.835675358772277832e-02 1.972013339400291443e-02
6.964761018753051758e-02 -5.853363126516342163e-02 -1.001994498074054718e-02
-8.108486980199813843e-02 -6.326287984848022461e-04 2.880988642573356628e-02
7.639140821993350983e-04 -3.881803452968597412e-01 -1.371835544705390930e-02
1.340312696993350983e-02 -3.542659878730773926e-01 4.292498156428337097e-02
2.297482825815677643e-02 3.823389858007431030e-02 -5.820930376648902893e-02
-6.390868872404098511e-02 1.904434114694595337e-01 -7.166793569922447205e-03
-6.816553324460983276e-02 -1.336426287889480591e-01 -2.973547950387001038e-02
4.064261540770530701e-02 -1.954579949378967285e-01 -3.964968025684356689e-02
-1.146329846233129501e-02 -1.189022809267044067e-01 8.531902730464935303e-02
8.268037810921669006e-03 1.269000954926013947e-02 8.728466928005218506e-02
2.197735384106636047e-02 -2.964190840721130371e-01 5.566238611936569214e-02
-1.241407357156276703e-02 -3.644345998764038086e-01 4.567041248083114624e-02
-3.755360841751098633e-02 -3.569670319557189941e-01 3.658677637577056885e-02
3.235536813735961914e-02 1.021040230989456177e-01 7.599501311779022217e-02
-8.170764148235321045e-02 -1.257197111845016479e-01 1.190630998462438583e-02
6.109607964754104614e-02 7.107321172952651978e-02 5.104411393404006958e-02
-4.108288511633872986e-02 2.938955724239349365e-01 3.347103297710418701e-02
1.106049492955207825e-02 -1.479292213916778564e-01 -5.910914763808250427e-02
6.682944297790527344e-02 1.485854387283325195e-01 2.095642313361167908e-02
-7.568082213401794434e-02 -8.033435791730880737e-02 4.431049898266792297e-02
-5.483379960060119629e-02 3.431739658117294312e-02 -4.442715272307395935e-02
2.639188617467880249e-02 1.551827974617481232e-02 8.200965821743011475e-02
4.517261404544115067e-03 -1.947222352027893066e-01 -5.666016414761543274e-02
-6.267371028661727905e-02 1.417247951030731201e-01 -2.357017621397972107e-02
4.953419044613838196e-02 1.654002666473388672e-01 -2.987374365329742432e-02
-5.440896749496459961e-02 2.457549124956130981e-01 -4.597321152687072754e-03
-8.255460113286972046e-02 1.039246283471584320e-02 1.088797859847545624e-02
-5.943810939788818359e-02 2.366111427545547485e-01 9.045754559338092804e-03
1.717009115964174271e-03 -2.940829396247863770e-01 6.398332118988037109e-02
2.736936882138252258e-02 -1.411118507385253906e-01 -5.381852760910987854e-02
-2.953192405402660370e-02 -1.590064316987991333e-01 -5.659556016325950623e-02
5.081412941217422485e-02 -5.568884313106536865e-02 -4.141702875494956970e-02
5.098337680101394653e-02 -9.111825376749038696e-02 6.251877546310424805e-02
-4.841883108019828796e-02 -3.077210485935211182e-01 -2.342478185892105103e-02
6.544228643178939819e-02 5.890909582376480103e-02 4.402864351868629456e-02
3.325533866882324219e-02 -2.155317068099975586e-01 -4.274097457528114319e-02
-7.204829901456832886e-02 -2.426598072052001953e-01 1.088369451463222504e-02
5.321933701634407043e-02 1.793195605278015137e-01 -2.250009402632713318e-02
3.186373785138130188e-02 3.106911182403564453e-01 -6.539370864629745483e-03
6.329231429845094681e-03 4.207161068916320801e-02 -6.206407025456428528e-02
3.949260339140892029e-02 -2.987713515758514404e-01 -1.694433391094207764e-02
6.338641792535781860e-02 1.222495585680007935e-01 4.100009799003601074e-02
-2.203501760959625244e-02 3.005982935428619385e-01 5.027412250638008118e-02
-5.178279802203178406e-02 2.012389898300170898e-01 5.277556180953979492e-02
-2.249854430556297302e-02 1.183728873729705811e-01 8.157433569431304932e-02
-7.864072173833847046e-02 1.843450777232646942e-02 -1.031477190554141998e-02
5.411776155233383179e-02 2.469797283411026001e-01 1.114451885223388672e-02
2.473486587405204773e-02 1.467934995889663696e-01 7.608920335769653320e-02
-7.218692451715469360e-02 -1.138479113578796387e-01 4.857461899518966675e-02
-6.166323088109493256e-03 -4.096080958843231201e-01 9.946512058377265930e-03
5.691755935549736023e-02 -1.928863301873207092e-02 -3.525988385081291199e-02
1.477238163352012634e-02 -1.292828470468521118e-01 8.190307021141052246e-02
6.924196332693099976e-02 1.111822277307510376e-01 1.212789677083492279e-03
4.623048380017280579e-02 2.466473430395126343e-01 4.173729568719863892e-02
-3.563302755355834961e-02 2.286993116140365601e-01 6.140020862221717834e-02
7.047377526760101318e-02 5.117221921682357788e-02 3.108799085021018982e-02
4.370955284684896469e-03 -1.631040275096893311e-01 -5.930700525641441345e-02
5.140142142772674561e-02 -2.746964991092681885e-01 1.707578450441360474e-02
1.845141872763633728e-02 -2.162378728389739990e-01 -5.064333602786064148e-02
-1.820185780525207520e-02 -2.834951877593994141e-01 -4.518987610936164856e-02
1.215886790305376053e-03 2.146645486354827881e-01 7.359430938959121704e-02
5.536818131804466248e-02 1.125379651784896851e-01 -3.020873293280601501e-02
-4.034086316823959351e-02 2.909293770790100098e-01 -7.915157824754714966e-03
-7.192737609148025513e-02 -2.131158411502838135e-01 3.222377598285675049e-02
-1.186217181384563446e-02 7.081252336502075195e-02 8.636312186717987061e-02
-6.929863989353179932e-02 -1.602321863174438477e-01 -2.539541572332382202e-02
3.401927277445793152e-02 2.392276674509048462e-01 -2.998551726341247559e-02
3.519586846232414246e-02 1.340298503637313843e-01 -4.594906419515609741e-02
-5.952109023928642273e-02 2.575436048209667206e-02 6.598922610282897949e-02
1.243774034082889557e-02 -3.351968526840209961e-01 -3.034676238894462585e-02
2.100291289389133453e-02 2.264422029256820679e-01 6.729786843061447144e-02
3.721681237220764160e-02 1.803458184003829956e-01 6.526717543601989746e-02
3.800315409898757935e-02 -3.145649731159210205e-01 3.223423659801483154e-02
4.730630666017532349e-02 1.290702223777770996e-01 -3.721805661916732788e-02
6.452910602092742920e-02 -1.125229895114898682e-01 3.985191136598587036e-02
-4.476666823029518127e-02 -1.575953513383865356e-01 -4.974851384758949280e-02
5.366989970207214355e-02 2.337025851011276245e-01 3.119267523288726807e-02
-8.013381063938140869e-02 -1.518306434154510498e-01 5.976018961519002914e-03
-3.159233182668685913e-02 2.901917994022369385e-01 4.735702276229858398e-02
-8.311716839671134949e-03 2.778894901275634766e-01 -3.298451378941535950e-02
6.868248432874679565e-02 -1.381816118955612183e-01 8.858831599354743958e-03
5.276442691683769226e-02 1.326368004083633423e-01 5.669679120182991028e-02
7.115105539560317993e-02 6.767173856496810913e-02 2.572479099035263062e-02
6.634997576475143433e-02 -7.404924929141998291e-02 4.051674902439117432e-02
-2.138669230043888092e-02 5.710440129041671753e-02 8.540870249271392822e-02
2.488959766924381256e-02 2.963084578514099121e-01 -2.020562812685966492e-02
2.728211507201194763e-02 2.747871279716491699e-01 5.343900993466377258e-02
-2.443714439868927002e-02 -3.303930461406707764e-01 5.389500781893730164e-02
-4.639293625950813293e-02 -3.407217860221862793e-01 -1.322289556264877319e-02
-5.312028527259826660e-02 2.261250466108322144e-01 -1.600280590355396271e-02
-6.854552030563354492e-02 1.496336162090301514e-01 3.716263175010681152e-02
-4.877439513802528381e-02 2.149046957492828369e-01 -2.521854266524314880e-02
5.365190561860799789e-03 2.586527727544307709e-02 -6.275653839111328125e-02
-5.786798521876335144e-02 -7.380492985248565674e-03 6.846711039543151855e-02
-7.043202221393585205e-02 -1.980851441621780396e-01 -1.735851541161537170e-02
-7.107113301753997803e-02 -2.394727058708667755e-02 5.333900824189186096e-02
-4.063089564442634583e-02 -1.187120154500007629e-01 -5.425022169947624207e-02
6.510609388351440430e-02 -1.325445622205734253e-01 3.467716276645660400e-02
2.804013341665267944e-02 -2.312449365854263306e-01 -4.389401897788047791e-02
-3.498604521155357361e-02 5.682587623596191406e-02 8.104407787322998047e-02
2.240007184445858002e-02 1.716847419738769531e-01 7.444521784782409668e-02
2.415090985596179962e-02 2.567767798900604248e-01 -3.220788389444351196e-02
2.398032229393720627e-03 -2.334979921579360962e-01 -5.275659635663032532e-02
-1.322218216955661774e-02 -2.648709416389465332e-01 6.995108723640441895e-02
1.240720599889755249e-02 2.302063554525375366e-01 -4.205340519547462463e-02
-2.664774842560291290e-02 -3.964158296585083008e-01 2.038630098104476929e-02
6.810516119003295898e-02 9.604072198271751404e-03 4.015950858592987061e-02
5.298689380288124084e-02 -1.307767778635025024e-01 -3.441508114337921143e-02
7.354655861854553223e-02 -1.398077607154846191e-02 1.585709303617477417e-02
4.326681140810251236e-03 -6.765225529670715332e-02 -6.351543962955474854e-02
6.638382375240325928e-02 -5.704545229673385620e-02 4.193880409002304077e-02
4.059620201587677002e-02 -2.999584972858428955e-01 3.458195179700851440e-02
-4.121646285057067871e-02 -1.523372977972030640e-01 7.493238151073455811e-02
5.732547119259834290e-02 1.866539716720581055e-01 3.993580117821693420e-02
-4.772835969924926758e-02 2.800552248954772949e-01 1.267825253307819366e-03
-4.849785193800926208e-02 -5.900179594755172729e-02 -5.126923695206642151e-02
4.939559847116470337e-02 -2.174804955720901489e-01 4.711195081472396851e-02
1.423542574048042297e-02 3.503084778785705566e-01 2.649497240781784058e-02
3.816497325897216797e-02 8.657559007406234741e-02 -4.821201413869857788e-02
9.884368628263473511e-04 3.497046530246734619e-01 3.365296870470046997e-02
-4.806558042764663696e-02 -2.738197445869445801e-01 -3.237079083919525146e-02
-5.450814496725797653e-03 5.528940260410308838e-02 8.734841644763946533e-02
-1.170643512159585953e-02 -3.217366337776184082e-01 -3.832473233342170715e-02
6.158395111560821533e-02 1.977550685405731201e-01 6.710940971970558167e-03
1.069282554090023041e-02 1.126438826322555542e-01 8.305020630359649658e-02
3.655537962913513184e-02 2.449460178613662720e-01 5.385726317763328552e-02
3.590944409370422363e-02 -1.813749223947525024e-01 -4.516995698213577271e-02
-2.741587534546852112e-02 -1.561815589666366577e-01 8.008794486522674561e-02
-8.505722507834434509e-03 -2.444907724857330322e-01 7.330908626317977905e-02
4.195339232683181763e-02 2.779572010040283203e-01 3.598547354340553284e-02
-4.853377491235733032e-02 8.478379249572753906e-02 -4.573856294155120850e-02
-7.887046039104461670e-02 -1.714904606342315674e-01 1.661237701773643494e-02
6.041000038385391235e-02 -1.409977525472640991e-01 -2.191720530390739441e-02
-7.416729629039764404e-02 1.266900449991226196e-01 9.922105818986892700e-04
-3.333699889481067657e-03 -2.683110535144805908e-02 8.841598033905029297e-02
6.681015342473983765e-02 2.722973935306072235e-02 -1.855673082172870636e-02
5.684457719326019287e-02 2.296932488679885864e-01 6.941269617527723312e-03
-5.790475010871887207e-02 -2.302719652652740479e-02 6.859020888805389404e-02
-6.546211242675781250e-02 3.748513013124465942e-02 -3.323967382311820984e-02
-2.812427654862403870e-02 -2.547738254070281982e-01 6.850898265838623047e-02
-8.087345212697982788e-02 -4.467567056417465210e-02 -6.970588117837905884e-03
-3.263966739177703857e-02 2.738459408283233643e-01 -2.365094423294067383e-02
6.177680194377899170e-02 -1.589361429214477539e-01 -1.568057201802730560e-02
5.344551429152488708e-02 9.166037291288375854e-02 -3.466110676527023315e-02
-7.211276143789291382e-02 1.231984049081802368e-01 3.514992818236351013e-02
-7.730022072792053223e-02 -1.459499299526214600e-01 -1.002166792750358582e-02
-3.206866607069969177e-02 1.462015658617019653e-01 7.572378218173980713e-02
-3.670087456703186035e-02 1.055946499109268188e-01 7.729128003120422363e-02
-5.913393199443817139e-02 1.294859796762466431e-01 -3.055106475949287415e-02
5.426767468452453613e-02 1.412075161933898926e-01 -2.785379067063331604e-02
-7.129437476396560669e-02 -8.802689611911773682e-02 -2.777545154094696045e-02
7.046388834714889526e-02 1.057104617357254028e-01 1.563288271427154541e-02
-2.487741643562912941e-03 -1.114151477813720703e-01 -6.279590725898742676e-02
-7.143068313598632812e-02 7.950831204652786255e-02 4.560551047325134277e-02
-3.027335926890373230e-02 -3.938183188438415527e-01 2.289493568241596222e-03
-2.813091315329074860e-02 -8.048269897699356079e-03 8.511111140251159668e-02
-6.066776439547538757e-02 -1.061764582991600037e-01 6.391957402229309082e-02
6.972721219062805176e-02 -2.059714309871196747e-02 3.548024594783782959e-02
6.236039567738771439e-03 -1.067726761102676392e-01 8.514672517776489258e-02
-4.871025681495666504e-02 -1.987560689449310303e-01 -4.343780875205993652e-02
-7.616978138685226440e-03 2.320733815431594849e-01 7.068458199501037598e-02
-4.714350029826164246e-02 1.610541045665740967e-01 -3.764451295137405396e-02
-4.831548035144805908e-02 4.851015657186508179e-02 -4.857550188899040222e-02
-1.861164160072803497e-02 2.892222702503204346e-01 -2.704422920942306519e-02
-6.947594881057739258e-02 -1.557798385620117188e-01 4.867238178849220276e-02
-7.913242280483245850e-02 -9.362753480672836304e-02 3.492075204849243164e-02
-7.745748013257980347e-02 -3.880653530359268188e-02 4.149917885661125183e-02
2.728803083300590515e-02 -1.998760700225830078e-01 7.002450525760650635e-02
4.711021203547716141e-03 -3.130775690078735352e-01 -3.885999694466590881e-02
3.174049034714698792e-02 -2.799369692802429199e-01 5.240955948829650879e-02
4.196215420961380005e-02 6.309315562248229980e-02 7.200424373149871826e-02
1.812296546995639801e-02 2.484467476606369019e-01 6.435671448707580566e-02
2.596352808177471161e-02 2.070926576852798462e-01 -4.121177643537521362e-02
