-7.897431254386901855e-01 1.419784128665924072e-01 8.064838498830795288e-02
-7.906113862991333008e-01 2.478336542844772339e-02 -7.122129201889038086e-02
-8.011264204978942871e-01 1.684533953666687012e-01 -1.439337991178035736e-02
-5.547057390213012695e-01 1.478766202926635742e-01 2.119638398289680481e-02
-6.402187943458557129e-01 1.933431923389434814e-01 3.236271813511848450e-02
-6.800589561462402344e-01 3.831350058317184448e-02 4.793065041303634644e-02
-6.687574982643127441e-01 1.899020969867706299e-01 -4.805392026901245117e-02
-6.846587657928466797e-01 6.833058595657348633e-02 8.856683224439620972e-02
-7.799607515335083008e-01 1.692431271076202393e-01 4.810250177979469299e-02
-7.250988483428955078e-01 1.931432187557220459e-01 -1.169355120509862900e-03
-6.662750244140625000e-01 6.300529837608337402e-02 7.745852321386337280e-02
-5.744431614875793457e-01 1.696537137031555176e-01 2.935090661048889160e-02
-7.939237952232360840e-01 4.447156935930252075e-02 6.697720289230346680e-02
-7.394412159919738770e-01 1.759365648031234741e-01 -6.328915804624557495e-02
-8.521471023559570312e-01 1.364890635013580322e-01 -8.501259610056877136e-03
-5.769228339195251465e-01 1.641803234815597534e-01 4.231954365968704224e-02
-8.187597393989562988e-01 3.203154355287551880e-02 -7.087592780590057373e-02
-7.454041838645935059e-01 1.887214332818984985e-01 -2.318329643458127975e-03
-7.931537032127380371e-01 9.065927565097808838e-02 9.445258975028991699e-02
-7.373211383819580078e-01 7.366205751895904541e-02 9.829127788543701172e-02
-6.533955335617065430e-01 4.323418065905570984e-02 3.945851325988769531e-02
-8.280881047248840332e-01 1.338958740234375000e-01 -6.755372881889343262e-02
-6.089151501655578613e-01 1.790273487567901611e-01 5.035901442170143127e-02
-7.874335050582885742e-01 4.591343179345130920e-02 -1.002214103937149048e-01
-7.199745774269104004e-01 1.402435749769210815e-01 1.031714975833892822e-01
-7.236874103546142578e-01 1.293702721595764160e-01 1.067389473319053650e-01
-8.782793283462524414e-01 5.853699147701263428e-02 -1.358639448881149292e-03
-8.426882028579711914e-01 1.020728275179862976e-01 -8.192212879657745361e-02
-6.588507890701293945e-01 1.831621229648590088e-01 6.333610415458679199e-02
-7.471609115600585938e-01 1.633566766977310181e-01 7.893239706754684448e-02
-8.407708406448364258e-01 1.436409950256347656e-01 -2.425187267363071442e-02
-5.577684044837951660e-01 1.256758421659469604e-01 3.351927176117897034e-02
-8.247715234756469727e-01 7.607632130384445190e-02 -9.904561191797256470e-02
-6.357238292694091797e-01 9.962209314107894897e-02 -1.103968471288681030e-01
-5.775038599967956543e-01 7.541216164827346802e-02 -6.741868797689676285e-03
-8.487236499786376953e-01 9.561453759670257568e-02 6.179156154394149780e-02
-7.278394103050231934e-01 1.888680458068847656e-01 3.503973782062530518e-02
-7.946903109550476074e-01 5.562613531947135925e-02 7.755497097969055176e-02
-8.602713942527770996e-01 8.869605511426925659e-02 -6.905378401279449463e-02
-8.689422011375427246e-01 5.326090380549430847e-02 1.793984510004520416e-02
-7.513082623481750488e-01 4.981765151023864746e-02 7.949130237102508545e-02
-5.799717903137207031e-01 1.490428447723388672e-01 -6.725768744945526123e-02
-8.260686397552490234e-01 2.219267189502716064e-02 -3.679111227393150330e-02
-7.374892234802246094e-01 2.388922125101089478e-02 3.787551447749137878e-02
-7.408278584480285645e-01 1.743602752685546875e-02 1.856422983109951019e-02
-6.767237782478332520e-01 7.102923095226287842e-02 -1.141276285052299500e-01
-7.272005081176757812e-01 1.410180330276489258e-02 -2.185714803636074066e-02
-8.703581690788269043e-01 4.693597927689552307e-02 -3.337023314088582993e-03
-6.380857229232788086e-01 1.540843546390533447e-01 -9.569208323955535889e-02
-6.634330153465270996e-01 1.983945667743682861e-01 5.275106988847255707e-03
-5.723995566368103027e-01 1.649433523416519165e-01 -3.996250778436660767e-02
-7.914773821830749512e-01 1.575664579868316650e-01 -6.457883119583129883e-02
-6.709374189376831055e-01 2.669439464807510376e-02 -3.476341813802719116e-02
-7.511632442474365234e-01 1.439379006624221802e-01 -1.027557551860809326e-01
-7.725188136100769043e-01 1.750442385673522949e-01 -3.984091058373451233e-02
-7.329424023628234863e-01 1.907454729080200195e-01 -1.481060590595006943e-02
-7.594867348670959473e-01 1.842349022626876831e-02 -6.126646324992179871e-02
-6.844946742057800293e-01 3.522980213165283203e-02 -7.776054739952087402e-02
-6.497268676757812500e-01 1.977979540824890137e-01 4.309264943003654480e-03
-6.854293942451477051e-01 7.909004390239715576e-02 -1.199826896190643311e-01
-5.798964500427246094e-01 8.899690210819244385e-02 -6.112368777394294739e-02
-5.732180476188659668e-01 1.239266842603683472e-01 5.524963140487670898e-02
-5.809722542762756348e-01 8.452904224395751953e-02 3.315336629748344421e-02
-5.527938008308410645e-01 1.111338809132575989e-01 -2.590117976069450378e-02
-7.136134505271911621e-01 2.236019074916839600e-02 -6.176012754440307617e-02
-8.048427700996398926e-01 4.803984984755516052e-02 6.712198257446289062e-02
-6.273452043533325195e-01 5.838706716895103455e-02 -7.565127313137054443e-02
-8.022274374961853027e-01 6.972930580377578735e-02 -1.084212511777877808e-01
-7.676519751548767090e-01 1.540438830852508545e-02 -4.983808472752571106e-02
-6.926323771476745605e-01 1.119381785392761230e-01 -1.240953877568244934e-01
-5.875132083892822266e-01 7.889378815889358521e-02 -5.911781266331672668e-02
-6.653859019279479980e-01 8.804249018430709839e-02 -1.180586367845535278e-01
-7.505244016647338867e-01 3.564446419477462769e-02 -9.454014152288436890e-02
-6.624062657356262207e-01 1.766493618488311768e-01 -7.499051839113235474e-02
-8.566669225692749023e-01 3.834514319896697998e-02 9.631924331188201904e-03
-7.186602950096130371e-01 4.338129982352256775e-02 6.972803175449371338e-02
-6.603564023971557617e-01 4.590569064021110535e-02 5.042205750942230225e-02
-5.832301974296569824e-01 1.803375780582427979e-01 -1.248942594975233078e-02
-7.258052229881286621e-01 1.147862151265144348e-01 1.088823378086090088e-01
-7.349295020103454590e-01 1.340416669845581055e-01 -1.138949394226074219e-01
-5.887863636016845703e-01 1.725554168224334717e-01 -4.692500829696655273e-02
-8.156816959381103516e-01 4.415998235344886780e-02 5.813306570053100586e-02
-8.559626936912536621e-01 4.896093159914016724e-02 3.235774114727973938e-02
-6.832747459411621094e-01 1.788413226604461670e-01 -7.212448865175247192e-02
-6.538094282150268555e-01 3.436514735221862793e-02 -4.601567983627319336e-02
-7.014436125755310059e-01 1.412885040044784546e-01 1.037575304508209229e-01
-7.871814370155334473e-01 7.782885432243347168e-02 -1.152519434690475464e-01
-6.001875996589660645e-01 1.668507456779479980e-01 6.118869036436080933e-02
-6.488644480705261230e-01 1.251140981912612915e-01 -1.137166172266006470e-01
-6.711799502372741699e-01 1.005020812153816223e-01 -1.215877756476402283e-01
-7.195176482200622559e-01 1.869005709886550903e-01 -4.521573707461357117e-02
-7.180018424987792969e-01 1.173538491129875183e-01 -1.232842653989791870e-01
-8.369808793067932129e-01 2.477955073118209839e-02 -7.870043627917766571e-03
-8.554429411888122559e-01 5.391193553805351257e-02 -6.608109176158905029e-02
-7.982240915298461914e-01 1.241572052240371704e-01 8.773864805698394775e-02
-6.372559070587158203e-01 7.227660715579986572e-02 7.258438318967819214e-02
-6.172330975532531738e-01 1.756680905818939209e-01 -6.294547021389007568e-02
-5.472005009651184082e-01 1.325714290142059326e-01 -2.559366170316934586e-03
-5.888912677764892578e-01 1.825642436742782593e-01 1.542078889906406403e-02
-7.054721713066101074e-01 1.932836472988128662e-01 -2.790810167789459229e-02
-6.824256777763366699e-01 1.782197356224060059e-01 7.273465394973754883e-02
-7.629636526107788086e-01 4.953082650899887085e-02 7.839500159025192261e-02
-5.869429111480712891e-01 7.373350858688354492e-02 -4.808794707059860229e-02
-8.087422251701354980e-01 1.729997247457504272e-02 -1.540079712867736816e-03
-7.963645458221435547e-01 1.906286180019378662e-02 1.780699193477630615e-02
-6.007097363471984863e-01 6.288290023803710938e-02 -4.863732308149337769e-02
-7.662472128868103027e-01 1.036320924758911133e-01 1.032744422554969788e-01
-7.950426936149597168e-01 3.217020630836486816e-02 -8.253806084394454956e-02
-7.677128314971923828e-01 4.467340931296348572e-02 -1.030828282237052917e-01
-6.759740710258483887e-01 2.961276471614837646e-02 2.168220467865467072e-02
-7.977851629257202148e-01 1.415537297725677490e-01 -8.349280059337615967e-02
-6.836615800857543945e-01 1.547321081161499023e-01 9.633582085371017456e-02
-5.909767746925354004e-01 1.807152032852172852e-01 2.773692831397056580e-02
-5.997222661972045898e-01 5.831110849976539612e-02 -2.230368927121162415e-02
-7.921289205551147461e-01 1.302620768547058105e-01 -9.777066111564636230e-02
-6.949340105056762695e-01 9.449942409992218018e-02 1.051019057631492615e-01
-6.498203873634338379e-01 1.559244990348815918e-01 -9.716194123029708862e-02
-6.883084774017333984e-01 4.611859098076820374e-02 6.518100202083587646e-02
-7.047309279441833496e-01 1.935126483440399170e-01 3.057003393769264221e-02
-6.526207923889160156e-01 1.938436478376388550e-01 -3.268187493085861206e-02
-7.335009574890136719e-01 3.707573562860488892e-02 -9.558205306529998779e-02
-5.820530652999877930e-01 1.645065546035766602e-01 -5.311515182256698608e-02
-7.516645193099975586e-01 3.221090137958526611e-02 5.622469633817672729e-02
-7.587019205093383789e-01 1.201716810464859009e-02 -2.210918813943862915e-02
-6.833778619766235352e-01 5.468839034438133240e-02 7.467108219861984253e-02
-5.583124756813049316e-01 9.962676465511322021e-02 5.301641300320625305e-03
-8.103220462799072266e-01 7.072207331657409668e-02 8.161191642284393311e-02
-7.303041815757751465e-01 3.443954139947891235e-02 5.820593237876892090e-02
-8.463038206100463867e-01 1.413461267948150635e-01 3.058225847780704498e-03
-7.499003410339355469e-01 1.660908907651901245e-01 -7.656684517860412598e-02
-5.662686824798583984e-01 1.097065582871437073e-01 -5.774345248937606812e-02
-7.439680695533752441e-01 1.792060434818267822e-01 5.357938259840011597e-02
-6.657341122627258301e-01 2.742932736873626709e-02 -2.266023680567741394e-02
-7.974793314933776855e-01 2.715896070003509521e-02 3.924629092216491699e-02
-7.783353328704833984e-01 1.378564685583114624e-01 -9.799891710281372070e-02
-8.320796489715576172e-01 1.250301003456115723e-01 6.345311552286148071e-02
-6.994027495384216309e-01 1.869902610778808594e-01 -5.253910645842552185e-02
-7.284120917320251465e-01 5.941703170537948608e-02 -1.157351881265640259e-01
-7.141774296760559082e-01 1.596547216176986694e-01 -9.558628499507904053e-02
-8.660382032394409180e-01 1.211597770452499390e-01 -1.815837994217872620e-02
-6.813609600067138672e-01 1.952808648347854614e-01 -2.764998748898506165e-02
-6.714407205581665039e-01 1.972843855619430542e-01 -1.676698401570320129e-02
-7.813833355903625488e-01 1.664886474609375000e-01 -5.487747862935066223e-02
-5.586253404617309570e-01 1.460357904434204102e-01 3.182227164506912231e-02
-7.273135185241699219e-01 1.733520627021789551e-02 -5.009215697646141052e-02
-6.178115606307983398e-01 1.889383196830749512e-01 -3.183679282665252686e-02
-7.775398492813110352e-01 1.156871393322944641e-01 9.906898438930511475e-02
-7.455245852470397949e-01 1.801142394542694092e-01 -4.938969016075134277e-02
-6.242219209671020508e-01 9.663572907447814941e-02 -1.042173504829406738e-01
-7.870085239410400391e-01 1.731151640415191650e-01 -2.468057535588741302e-02
-7.717027664184570312e-01 3.466244786977767944e-02 -9.162661433219909668e-02
-8.736891746520996094e-01 1.020617112517356873e-01 2.175871096551418304e-02
-7.870126366615295410e-01 1.508755385875701904e-01 -7.871627807617187500e-02
-7.099758386611938477e-01 1.683112829923629761e-01 8.310561627149581909e-02
-8.164794445037841797e-01 1.188362091779708862e-01 -9.205823391675949097e-02
-6.082212924957275391e-01 5.356649681925773621e-02 -1.487854402512311935e-03
-6.845824718475341797e-01 2.245027571916580200e-02 -6.341525353491306305e-03
-7.397233843803405762e-01 6.480732560157775879e-02 -1.187955811619758606e-01
-5.896082520484924316e-01 8.763528615236282349e-02 4.950571805238723755e-02
-8.636056184768676758e-01 1.230119094252586365e-01 1.218167319893836975e-02
-7.027450799942016602e-01 1.809673756361007690e-02 -2.662727795541286469e-02
-8.164033293724060059e-01 1.851789653301239014e-02 -3.016150183975696564e-02
-6.936517357826232910e-01 2.590315043926239014e-02 -6.033534184098243713e-02
-6.144842505455017090e-01 1.577268987894058228e-01 7.733231037855148315e-02
-5.539058446884155273e-01 1.049465835094451904e-01 -8.653127588331699371e-03
-8.581180572509765625e-01 1.247714534401893616e-01 -3.608065471053123474e-02
-8.228900432586669922e-01 1.577103435993194580e-01 -7.473407313227653503e-04
-8.358272314071655273e-01 1.494011133909225464e-01 -1.509877853095531464e-03
-7.194834947586059570e-01 1.590140908956527710e-02 -3.052250016480684280e-03
-8.060074448585510254e-01 1.500529050827026367e-01 5.958789587020874023e-02
-6.906501054763793945e-01 2.074197679758071899e-02 -2.735948003828525543e-02
-6.493780016899108887e-01 3.331020474433898926e-02 -9.195313788950443268e-03
-8.392181396484375000e-01 6.354492902755737305e-02 -8.651527762413024902e-02
-8.448532819747924805e-01 2.910284698009490967e-02 -3.220574557781219482e-02
-8.757292628288269043e-01 1.058306917548179626e-01 -2.243761904537677765e-02
-7.037216424942016602e-01 8.253063261508941650e-02 -1.238296926021575928e-01
-7.655903100967407227e-01 1.322612613439559937e-01 9.738195687532424927e-02
-6.802304983139038086e-01 1.207828074693679810e-01 -1.209426373243331909e-01
-6.919845938682556152e-01 2.461946755647659302e-02 1.819976046681404114e-02
-7.627792358398437500e-01 1.744308173656463623e-01 -5.154225975275039673e-02
-6.396528482437133789e-01 4.998043924570083618e-02 4.173597320914268494e-02
-7.122032046318054199e-01 1.946531683206558228e-01 -1.204650662839412689e-02
-7.417712211608886719e-01 2.262008190155029297e-02 -7.130407541990280151e-02
-8.525363206863403320e-01 1.338600218296051025e-01 -2.468398958444595337e-02
-8.510069251060485840e-01 1.099843531847000122e-01 -6.817892193794250488e-02
-6.961058378219604492e-01 1.546128839254379272e-01 -1.023695915937423706e-01
-6.597984433174133301e-01 1.022980436682701111e-01 -1.189755573868751526e-01
-8.362646102905273438e-01 1.475969105958938599e-01 1.514849811792373657e-02
-8.019771575927734375e-01 1.687499880790710449e-01 2.471319399774074554e-03
-7.802856564521789551e-01 1.255193352699279785e-02 -2.058439701795578003e-02
-8.138588070869445801e-01 5.879671126604080200e-02 7.283668220043182373e-02
-6.286613345146179199e-01 5.212161689996719360e-02 3.477226570248603821e-02
-8.372685909271240234e-01 1.062496751546859741e-01 6.938222050666809082e-02
-8.112416267395019531e-01 7.846487313508987427e-02 -1.062716990709304810e-01
-7.989061474800109863e-01 1.108725219964981079e-01 9.180670976638793945e-02
-6.016881465911865234e-01 1.430426388978958130e-01 7.737042009830474854e-02
-6.416135430335998535e-01 5.697740986943244934e-02 5.607189983129501343e-02
-6.480363011360168457e-01 4.253625869750976562e-02 -6.516172736883163452e-02
-6.941006779670715332e-01 2.169646322727203369e-02 6.100693717598915100e-03
-7.264909744262695312e-01 7.034730166196823120e-02 9.621022641658782959e-02
-6.951456069946289062e-01 1.972194314002990723e-01 6.190839223563671112e-03
-6.562536358833312988e-01 1.473303735256195068e-01 -1.050376892089843750e-01
-6.632280349731445312e-01 4.294746741652488708e-02 -7.899414002895355225e-02
-6.143225431442260742e-01 1.687415540218353271e-01 6.785640865564346313e-02
-6.156626343727111816e-01 6.116990372538566589e-02 -6.786096096038818359e-02
-5.631316900253295898e-01 1.329028159379959106e-01 4.327935352921485901e-02
-6.819761395454406738e-01 1.894439160823822021e-01 -4.892838746309280396e-02
-8.636943101882934570e-01 7.355587929487228394e-02 4.358793422579765320e-02
-5.996388196945190430e-01 1.602972745895385742e-01 -7.277682423591613770e-02
-8.238751292228698730e-01 1.544444113969802856e-01 2.288983762264251709e-02
-5.902833938598632812e-01 1.095054298639297485e-01 6.700579822063446045e-02
-6.737734079360961914e-01 1.926755607128143311e-01 4.209695383906364441e-02
-6.957846283912658691e-01 3.944670408964157104e-02 5.746421962976455688e-02
-8.655664920806884766e-01 1.085251495242118835e-01 3.366702049970626831e-02
-8.560733199119567871e-01 1.040512919425964355e-01 5.129999667406082153e-02
-7.532883882522583008e-01 4.182236641645431519e-02 7.030728459358215332e-02
-6.244882941246032715e-01 9.530234336853027344e-02 8.324591070413589478e-02
-7.310747504234313965e-01 9.081713110208511353e-02 -1.258866190910339355e-01
-6.197405457496643066e-01 1.863452494144439697e-01 4.220421984791755676e-02
-7.421642541885375977e-01 1.429689824581146240e-01 9.815586358308792114e-02
3.470941483974456787e-01 -6.542983651161193848e-02 2.618271112442016602e-01
2.937377393245697021e-01 -1.021628677845001221e-01 4.156681299209594727e-01
3.200961351394653320e-01 -1.175378710031509399e-01 2.259913235902786255e-01
2.354708909988403320e-01 -7.961624860763549805e-02 4.166668355464935303e-01
1.919296532869338989e-01 -7.195162028074264526e-02 1.430739313364028931e-01
3.286560773849487305e-01 -5.473323911428451538e-02 3.245803117752075195e-01
1.711081415414810181e-01 -1.602967828512191772e-01 1.906403303146362305e-01
1.371047645807266235e-01 -8.165599405765533447e-02 3.368990719318389893e-01
1.751123368740081787e-02 -1.274324208498001099e-01 2.990779280662536621e-02
3.481019139289855957e-01 -1.018434315919876099e-01 2.443363219499588013e-01
1.342999637126922607e-01 -7.801397889852523804e-02 1.349899172782897949e-01
1.948233246803283691e-01 -9.732808172702789307e-02 6.830859184265136719e-02
1.111126989126205444e-01 -1.515233516693115234e-01 3.369200229644775391e-02
3.433793783187866211e-01 -1.056637018918991089e-01 3.526319861412048340e-01
-1.017510890960693359e-02 -1.639005839824676514e-01 1.134069263935089111e-01
3.188068866729736328e-01 -1.145839393138885498e-01 3.552919924259185791e-01
1.826411634683609009e-01 -1.288590729236602783e-01 4.851333796977996826e-02
-2.149234712123870850e-02 -1.419396549463272095e-01 5.473704636096954346e-02
3.406475782394409180e-01 -1.113665476441383362e-01 3.064203262329101562e-01
-6.348893046379089355e-03 -1.651682704687118530e-01 9.505383670330047607e-02
2.271586656570434570e-01 -5.793707817792892456e-02 3.245996832847595215e-01
3.281502425670623779e-01 -7.891419529914855957e-02 1.989689767360687256e-01
2.100136131048202515e-01 -1.083096638321876526e-01 4.102879464626312256e-01
3.194561302661895752e-01 -5.915353447198867798e-02 2.550048232078552246e-01
1.488526165485382080e-02 -1.113597750663757324e-01 2.053341269493103027e-01
1.140462160110473633e-01 -7.561726868152618408e-02 2.046561390161514282e-01
1.415121555328369141e-01 -7.288186997175216675e-02 2.977181375026702881e-01
1.578757464885711670e-01 -1.538638472557067871e-01 8.173714578151702881e-02
9.408053755760192871e-02 -1.644804626703262329e-01 7.112072408199310303e-02
2.503952383995056152e-01 -5.451687797904014587e-02 2.824475765228271484e-01
2.652857303619384766e-01 -5.358745157718658447e-02 2.931531965732574463e-01
3.057478070259094238e-01 -7.786137610673904419e-02 4.281682968139648438e-01
3.479727804660797119e-01 -1.068665757775306702e-01 3.235233128070831299e-01
2.701917290687561035e-01 -1.134479790925979614e-01 4.008668661117553711e-01
1.926145553588867188e-01 -1.536898165941238403e-01 1.376521289348602295e-01
2.502323687076568604e-01 -5.813350901007652283e-02 2.262113988399505615e-01
1.757974028587341309e-01 -1.386773884296417236e-01 3.455783128738403320e-01
1.904442906379699707e-02 -1.077981293201446533e-01 1.098722666501998901e-01
2.401190698146820068e-01 -1.320479810237884521e-01 1.132190972566604614e-01
1.376547813415527344e-01 -7.768055796623229980e-02 3.209333419799804688e-01
5.654980987310409546e-02 -1.698481589555740356e-01 9.186632931232452393e-02
7.543267309665679932e-02 -9.168403595685958862e-02 2.701164186000823975e-01
9.006454795598983765e-02 -1.681653261184692383e-01 9.885279834270477295e-02
3.489036858081817627e-02 -1.705100089311599731e-01 1.127659305930137634e-01
1.981276273727416992e-01 -6.236260756850242615e-02 2.095875144004821777e-01
1.252148449420928955e-01 -1.666485220193862915e-01 1.530874222517013550e-01
-1.670445501804351807e-02 -1.268958002328872681e-01 9.264321625232696533e-02
2.278157025575637817e-01 -6.686232239007949829e-02 1.676556169986724854e-01
1.098327785730361938e-01 -1.682093590497970581e-01 1.534553468227386475e-01
3.106752932071685791e-01 -1.227727234363555908e-01 3.125666081905364990e-01
1.300871372222900391e-02 -1.082931980490684509e-01 1.393325626850128174e-01
5.991768836975097656e-02 -1.599828004837036133e-01 2.349243164062500000e-01
8.418115228414535522e-02 -8.418658375740051270e-02 2.344840019941329956e-01
6.183218210935592651e-02 -1.708342283964157104e-01 1.342724561691284180e-01
1.521964371204376221e-01 -1.627005040645599365e-01 1.992678940296173096e-01
2.032279819250106812e-01 -9.004232287406921387e-02 8.476427197456359863e-02
8.662557601928710938e-02 -8.246874064207077026e-02 1.959714144468307495e-01
4.326994717121124268e-02 -9.872791171073913574e-02 2.223349213600158691e-01
1.169792264699935913e-01 -1.660857349634170532e-01 1.128761768341064453e-01
1.676152199506759644e-01 -6.459231674671173096e-02 2.447765469551086426e-01
-3.731027245521545410e-03 -1.195691972970962524e-01 9.211213886737823486e-02
5.433589220046997070e-02 -9.571080654859542847e-02 2.375558614730834961e-01
7.730685174465179443e-02 -9.868325293064117432e-02 3.001555800437927246e-01
6.265228986740112305e-02 -8.985847234725952148e-02 2.058496475219726562e-01
2.809514105319976807e-01 -1.104692071676254272e-01 1.305162459611892700e-01
1.435776352882385254e-01 -1.343432813882827759e-01 2.753667533397674561e-02
-8.971199393272399902e-03 -1.612219363451004028e-01 6.007716059684753418e-02
6.927236169576644897e-02 -9.925202280282974243e-02 7.591639459133148193e-02
2.735072374343872070e-01 -1.229153573513031006e-01 1.400783956050872803e-01
1.965679228305816650e-02 -1.644984781742095947e-01 5.058966577053070068e-02
2.525278031826019287e-01 -1.396438032388687134e-01 1.717561781406402588e-01
2.039931863546371460e-01 -1.541096121072769165e-01 2.178653031587600708e-01
9.157419949769973755e-02 -8.577447384595870972e-02 1.292283236980438232e-01
1.448470652103424072e-01 -1.575348675251007080e-01 8.405534923076629639e-02
1.496496647596359253e-01 -8.182848244905471802e-02 3.535270690917968750e-01
1.640204638242721558e-01 -1.060335263609886169e-01 4.503931105136871338e-02
4.056243598461151123e-02 -1.392679065465927124e-01 7.276073098182678223e-03
9.065353125333786011e-02 -8.139308542013168335e-02 2.116917520761489868e-01
1.350037604570388794e-01 -1.233238652348518372e-01 3.656604290008544922e-01
1.761179417371749878e-01 -6.964079290628433228e-02 1.621759682893753052e-01
1.260145008563995361e-01 -7.404363155364990234e-02 2.655662596225738525e-01
1.919459998607635498e-01 -6.525221467018127441e-02 3.348273634910583496e-01
1.883165985345840454e-01 -1.523903310298919678e-01 1.185840070247650146e-01
6.327312439680099487e-02 -1.449792087078094482e-01 2.851295471191406250e-01
3.363169133663177490e-01 -1.133687347173690796e-01 2.726212739944458008e-01
1.493071764707565308e-01 -6.980053335428237915e-02 1.897811144590377808e-01
1.656963974237442017e-01 -1.574814915657043457e-01 2.504943609237670898e-01
2.691241502761840820e-01 -1.079755499958992004e-01 1.148818805813789368e-01
2.512888312339782715e-01 -1.223863661289215088e-01 1.076145544648170471e-01
2.876651585102081299e-01 -8.353561908006668091e-02 1.477999687194824219e-01
5.537667870521545410e-02 -9.443426132202148438e-02 1.278569996356964111e-01
2.572979331016540527e-01 -6.155230104923248291e-02 2.018408477306365967e-01
1.657715439796447754e-02 -1.534022837877273560e-01 2.190338373184204102e-01
5.586111545562744141e-02 -1.168800443410873413e-01 2.982752323150634766e-01
3.249433636665344238e-01 -1.182014495134353638e-01 2.572304308414459229e-01
-1.243597269058227539e-02 -1.320131272077560425e-01 5.701005458831787109e-02
2.889318168163299561e-01 -6.987528502941131592e-02 1.810394525527954102e-01
9.726126492023468018e-02 -1.672238409519195557e-01 1.940997838973999023e-01
1.225075498223304749e-01 -1.130720898509025574e-01 2.683535218238830566e-02
1.152217835187911987e-01 -1.371500939130783081e-01 3.339493274688720703e-01
-2.497524023056030273e-02 -1.377786695957183838e-01 1.529999971389770508e-01
2.594430446624755859e-01 -8.288691937923431396e-02 1.272865533828735352e-01
3.122555911540985107e-01 -5.610729381442070007e-02 2.707694768905639648e-01
1.529026925563812256e-01 -7.869867235422134399e-02 1.199275180697441101e-01
3.668640553951263428e-02 -1.701627075672149658e-01 9.621977806091308594e-02
1.583393216133117676e-01 -9.674956649541854858e-02 5.955274403095245361e-02
1.549451798200607300e-01 -1.628452390432357788e-01 1.768820285797119141e-01
1.613740026950836182e-01 -1.423143446445465088e-01 3.330873250961303711e-01
2.894532084465026855e-01 -7.695582509040832520e-02 1.620041280984878540e-01
1.125663518905639648e-02 -1.191413179039955139e-01 2.241312414407730103e-01
1.722464710474014282e-01 -1.164763942360877991e-01 3.972601890563964844e-02
2.208187431097030640e-01 -5.716738104820251465e-02 2.679192423820495605e-01
1.806483268737792969e-01 -1.063014343380928040e-01 5.081239342689514160e-02
1.094765141606330872e-01 -1.053979471325874329e-01 3.975361585617065430e-02
3.384014964103698730e-01 -1.067114174365997314e-01 2.313562333583831787e-01
2.479025870561599731e-01 -8.852000534534454346e-02 4.272476434707641602e-01
7.369323819875717163e-02 -1.632140278816223145e-01 5.095100402832031250e-02
4.691277444362640381e-02 -1.666443943977355957e-01 5.983987450599670410e-02
1.847717761993408203e-01 -1.322297304868698120e-01 3.647548854351043701e-01
3.137079477310180664e-01 -8.230894058942794800e-02 1.761343181133270264e-01
2.477854490280151367e-03 -1.222967728972434998e-01 6.235815584659576416e-02
6.832256913185119629e-03 -1.177586093544960022e-01 7.421374320983886719e-02
2.187357395887374878e-01 -1.500556021928787231e-01 1.737169176340103149e-01
3.395358920097351074e-01 -6.011539697647094727e-02 3.815154433250427246e-01
2.626896202564239502e-01 -7.821774482727050781e-02 1.397943049669265747e-01
3.204857707023620605e-01 -5.709594115614891052e-02 3.746647834777832031e-01
3.425136804580688477e-01 -1.029222011566162109e-01 3.688622117042541504e-01
3.094109296798706055e-01 -1.250396817922592163e-01 2.753971517086029053e-01
2.574931085109710693e-02 -1.027070581912994385e-01 1.531407088041305542e-01
3.223320841789245605e-01 -6.168299913406372070e-02 3.972981274127960205e-01
1.163990348577499390e-01 -8.503322303295135498e-02 3.186650276184082031e-01
1.902244836091995239e-01 -1.261142045259475708e-01 3.797748982906341553e-01
3.287971615791320801e-01 -9.775712341070175171e-02 1.917700171470642090e-01
2.552634477615356445e-01 -1.199836879968643188e-01 3.890196681022644043e-01
6.644574552774429321e-02 -9.231131523847579956e-02 2.505361437797546387e-01
7.455547153949737549e-02 -9.080220013856887817e-02 1.179842501878738403e-01
6.103246659040451050e-02 -1.005703881382942200e-01 2.770374417304992676e-01
-3.087282180786132812e-03 -1.162891238927841187e-01 1.300947070121765137e-01
3.681564927101135254e-01 -7.028428465127944946e-02 2.932044565677642822e-01
2.782500088214874268e-01 -1.296866834163665771e-01 1.740097999572753906e-01
3.474882245063781738e-02 -1.080545112490653992e-01 7.417801022529602051e-02
1.823687255382537842e-01 -6.582498550415039062e-02 1.886003315448760986e-01
1.166976466774940491e-01 -1.580149233341217041e-01 5.764678120613098145e-02
2.087527215480804443e-01 -8.062008023262023926e-02 1.102867498993873596e-01
2.895435988903045654e-01 -5.469957739114761353e-02 3.542324900627136230e-01
7.391750067472457886e-02 -1.618506610393524170e-01 2.328443825244903564e-01
4.618883132934570312e-03 -1.675001680850982666e-01 1.044363975524902344e-01
1.959370076656341553e-02 -1.060610860586166382e-01 1.819402128458023071e-01
3.163679838180541992e-01 -1.182887554168701172e-01 3.366194367408752441e-01
-8.887469768524169922e-03 -1.630758792161941528e-01 1.309686005115509033e-01
3.066424131393432617e-01 -1.163615956902503967e-01 3.649166822433471680e-01
1.901969313621520996e-01 -1.484978348016738892e-01 2.994370460510253906e-01
3.706812262535095215e-01 -8.661758899688720703e-02 2.876012623310089111e-01
1.367555558681488037e-01 -7.085443288087844849e-02 2.088197022676467896e-01
1.288676112890243530e-01 -1.367047429084777832e-01 3.409283459186553955e-01
3.401351571083068848e-01 -1.095969974994659424e-01 2.536062598228454590e-01
2.172905653715133667e-01 -1.189165115356445312e-01 3.965541124343872070e-01
2.042676359415054321e-01 -6.039547175168991089e-02 3.105987906455993652e-01
2.177833616733551025e-01 -1.514038443565368652e-01 2.092185020446777344e-01
9.934514760971069336e-02 -1.679196953773498535e-01 1.084961220622062683e-01
5.057618767023086548e-02 -1.573179513216018677e-01 2.427117526531219482e-02
8.454201370477676392e-02 -1.581423878669738770e-01 2.556911110877990723e-01
1.936494708061218262e-01 -1.455810815095901489e-01 9.289011359214782715e-02
1.602855771780014038e-01 -1.618675887584686279e-01 1.614781469106674194e-01
2.786511182785034180e-02 -1.340067535638809204e-01 1.417718827724456787e-02
7.158385217189788818e-02 -1.653760671615600586e-01 2.097535133361816406e-01
2.130721658468246460e-01 -7.110451161861419678e-02 1.461557000875473022e-01
1.739861369132995605e-01 -7.437391579151153564e-02 1.346660554409027100e-01
2.431626319885253906e-01 -1.384579837322235107e-01 3.185220360755920410e-01
1.902533173561096191e-01 -1.568285822868347168e-01 1.797537356615066528e-01
3.510903716087341309e-01 -1.023750603199005127e-01 2.578516304492950439e-01
1.503437310457229614e-01 -1.610418856143951416e-01 2.286948859691619873e-01
1.618974655866622925e-01 -7.091033458709716797e-02 1.627416610717773438e-01
1.504321098327636719e-01 -1.609787493944168091e-01 1.173154711723327637e-01
7.884407788515090942e-02 -1.483286619186401367e-01 2.877414524555206299e-01
4.693016409873962402e-02 -9.507636725902557373e-02 1.948620527982711792e-01
2.404355704784393311e-01 -1.101131960749626160e-01 8.712378144264221191e-02
1.882635056972503662e-01 -1.187213063240051270e-01 3.925170600414276123e-01
1.218412816524505615e-02 -1.683482974767684937e-01 1.217615529894828796e-01
3.405179381370544434e-01 -6.637339293956756592e-02 4.030349850654602051e-01
3.169143199920654297e-01 -6.321381032466888428e-02 2.305053174495697021e-01
2.714020609855651855e-01 -1.370194256305694580e-01 2.158680558204650879e-01
4.072780907154083252e-02 -1.699931025505065918e-01 1.455633044242858887e-01
2.406111955642700195e-01 -1.422640234231948853e-01 1.600102484226226807e-01
3.193660378456115723e-01 -5.407764390110969543e-02 3.110348582267761230e-01
6.690739840269088745e-02 -1.218580454587936401e-01 1.640497148036956787e-02
3.450398743152618408e-01 -1.093387603759765625e-01 2.930798530578613281e-01
2.986600399017333984e-01 -1.019751355051994324e-01 1.481945514678955078e-01
2.010288089513778687e-01 -5.975855141878128052e-02 2.876457571983337402e-01
2.420214712619781494e-01 -6.667192280292510986e-02 1.707941442728042603e-01
3.302400708198547363e-01 -1.139327511191368103e-01 2.410002350807189941e-01
-1.497353613376617432e-02 -1.235297247767448425e-01 1.268406212329864502e-01
2.134881615638732910e-01 -5.982225015759468079e-02 3.226218819618225098e-01
2.264401614665985107e-01 -1.239093393087387085e-01 3.851246833801269531e-01
3.685882687568664551e-01 -9.356342256069183350e-02 3.174475729465484619e-01
1.515609622001647949e-01 -1.212854012846946716e-01 2.862754464149475098e-02
2.298467755317687988e-01 -1.139181554317474365e-01 4.058828353881835938e-01
2.144335210323333740e-01 -6.492084264755249023e-02 3.617721199989318848e-01
1.208261400461196899e-01 -1.453660428524017334e-01 3.156515955924987793e-01
1.206560879945755005e-01 -1.251036673784255981e-01 1.656435430049896240e-02
2.564631402492523193e-02 -1.670240014791488647e-01 6.379233300685882568e-02
2.854121923446655273e-01 -5.294424295425415039e-02 3.145803809165954590e-01
9.670562297105789185e-02 -1.101161763072013855e-01 3.143356740474700928e-02
1.706354767084121704e-01 -1.492131054401397705e-01 3.035492897033691406e-01
1.994516551494598389e-01 -6.790656596422195435e-02 1.640342772006988525e-01
2.657672464847564697e-01 -7.999917864799499512e-02 4.272868931293487549e-01
9.157183766365051270e-02 -9.510846436023712158e-02 7.679678499698638916e-02
3.066912293434143066e-01 -1.253077983856201172e-01 2.403266131877899170e-01
1.662386357784271240e-01 -1.207584813237190247e-01 3.828682899475097656e-01
1.770794093608856201e-01 -1.502349227666854858e-01 8.983512222766876221e-02
1.082976758480072021e-01 -1.676729023456573486e-01 1.787139326333999634e-01
1.057759895920753479e-01 -1.580694913864135742e-01 4.944267868995666504e-02
2.533362805843353271e-02 -1.692761480808258057e-01 1.364971697330474854e-01
9.192731976509094238e-02 -1.661633253097534180e-01 2.065260708332061768e-01
3.482952713966369629e-02 -1.608972400426864624e-01 2.115435004234313965e-01
-2.617651224136352539e-02 -1.522869169712066650e-01 1.363330781459808350e-01
2.214399427175521851e-01 -1.491149514913558960e-01 2.557812035083770752e-01
3.369807600975036621e-01 -5.586510896682739258e-02 3.391111493110656738e-01
6.741343438625335693e-02 -1.676024347543716431e-01 7.404507696628570557e-02
1.658170968294143677e-01 -8.235976845026016235e-02 3.723231852054595947e-01
2.994070053100585938e-01 -5.892068520188331604e-02 2.379936724901199341e-01
3.736784160137176514e-01 -7.522559165954589844e-02 3.660175800323486328e-01
3.724819421768188477e-01 -7.147489488124847412e-02 3.061655759811401367e-01
1.901009231805801392e-01 -8.486333489418029785e-02 9.401103854179382324e-02
9.613484144210815430e-02 -1.421877145767211914e-01 3.131577372550964355e-01
6.972569972276687622e-02 -9.024618566036224365e-02 1.325403600931167603e-01
2.353321313858032227e-01 -1.472005248069763184e-01 2.347209751605987549e-01
9.612809866666793823e-02 -1.631574332714080811e-01 2.306780219078063965e-01
2.086970508098602295e-01 -1.497559398412704468e-01 1.409404128789901733e-01
5.737879872322082520e-02 -1.647256314754486084e-01 5.160926282405853271e-02
1.868580132722854614e-01 -6.165336817502975464e-02 2.760055065155029297e-01
2.252647876739501953e-01 -8.426618576049804688e-02 1.060394421219825745e-01
1.860164105892181396e-02 -1.627266854047775269e-01 1.850238144397735596e-01
8.118182420730590820e-03 -1.643507182598114014e-01 1.598491966724395752e-01
2.458508312702178955e-01 -1.445782482624053955e-01 2.129492312669754028e-01
1.226765662431716919e-01 -1.235181987285614014e-01 3.583870828151702881e-01
2.925082445144653320e-01 -1.295266896486282349e-01 2.984045743942260742e-01
2.335957586765289307e-01 -7.881249487400054932e-02 1.235025525093078613e-01
2.636367082595825195e-01 -5.405001714825630188e-02 2.777250111103057861e-01
6.310056895017623901e-02 -1.045558899641036987e-01 2.914910912513732910e-01
9.255628287792205811e-02 -1.601122468709945679e-01 4.837520420551300049e-02
2.191777825355529785e-01 -1.467350274324417114e-01 2.860303521156311035e-01
1.871457397937774658e-01 -7.912342250347137451e-02 1.123561412096023560e-01
2.566652595996856689e-01 -6.469751894474029541e-02 1.844383180141448975e-01
2.355666607618331909e-01 -1.329227089881896973e-01 3.528490662574768066e-01
3.220311999320983887e-01 -1.197231262922286987e-01 2.965288162231445312e-01
1.507349312305450439e-01 -7.511673867702484131e-02 1.413545012474060059e-01
1.292905211448669434e-01 -8.718933165073394775e-02 9.061260521411895752e-02
2.989601492881774902e-01 -5.315767973661422729e-02 3.303257822990417480e-01
2.220230102539062500e-01 -6.137403100728988647e-02 2.039459198713302612e-01
1.319416463375091553e-01 -1.495300531387329102e-01 3.040310144424438477e-01
2.428055554628372192e-01 -1.283892691135406494e-01 3.670175671577453613e-01
1.281164437532424927e-01 -7.649669051170349121e-02 1.530654579401016235e-01
6.131804734468460083e-02 -1.537732183933258057e-01 2.600381970405578613e-01
2.876008152961730957e-01 -1.097856163978576660e-01 4.024774730205535889e-01
-7.152840495109558105e-03 -1.588731408119201660e-01 1.629864275455474854e-01
2.108551561832427979e-01 -1.446597725152969360e-01 3.091422915458679199e-01
6.237874925136566162e-02 -1.339210569858551025e-01 6.157651543617248535e-03
2.572842836380004883e-01 -1.381993591785430908e-01 2.997458577156066895e-01
1.332249343395233154e-01 -1.448493003845214844e-01 3.401763737201690674e-02
2.591641247272491455e-01 -1.268291920423507690e-01 1.274512112140655518e-01
1.714960634708404541e-01 -9.882473945617675781e-02 3.965687155723571777e-01
8.657187223434448242e-03 -1.556861102581024170e-01 2.016564309597015381e-01
6.535366177558898926e-02 -9.595675766468048096e-02 9.721528738737106323e-02
-7.618859410285949707e-03 -1.249390393495559692e-01 7.247813045978546143e-02
2.280683815479278564e-01 -6.175874546170234680e-02 3.586560487747192383e-01
2.955912351608276367e-01 -5.502736568450927734e-02 2.676037549972534180e-01
5.208789557218551636e-02 -9.293448925018310547e-02 1.766679584980010986e-01
1.444600671529769897e-01 -9.385454654693603516e-02 6.570969521999359131e-02
2.064867317676544189e-01 -6.334478408098220825e-02 1.939217299222946167e-01
2.153997123241424561e-01 -1.423979252576828003e-01 1.115408688783645630e-01
2.269633114337921143e-02 -1.461302042007446289e-01 2.430701255798339844e-01
-1.171104609966278076e-02 -1.543191671371459961e-01 4.239121079444885254e-02
2.245555520057678223e-01 -9.612856805324554443e-02 4.209222197532653809e-01
1.783212423324584961e-01 -1.532248854637145996e-01 1.067953482270240784e-01
2.889881134033203125e-01 -1.316829472780227661e-01 2.798182368278503418e-01
1.650212854146957397e-01 -6.516964733600616455e-02 2.626853287220001221e-01
2.351635545492172241e-01 -1.045103222131729126e-01 4.185684621334075928e-01
1.439078450202941895e-01 -1.399066448211669922e-01 3.378723263740539551e-01
6.451126933097839355e-02 -1.702661514282226562e-01 1.535785496234893799e-01
1.321120262145996094e-01 -1.647600829601287842e-01 1.998494118452072144e-01
2.219889760017395020e-01 -1.502333283424377441e-01 1.953633576631546021e-01
2.966729998588562012e-01 -6.627519428730010986e-02 1.996752321720123291e-01
1.627645492553710938e-01 -1.591901183128356934e-01 2.358137518167495728e-01
5.405589938163757324e-02 -1.666999757289886475e-01 1.916694492101669312e-01
1.415391862392425537e-01 -1.584885716438293457e-01 2.571363151073455811e-01
2.830969095230102539e-01 -1.207315474748611450e-01 3.708730936050415039e-01
2.861783206462860107e-01 -9.531660377979278564e-02 1.340610384941101074e-01
6.032019853591918945e-03 -1.377380341291427612e-01 2.290684580802917480e-01
1.584986746311187744e-01 -9.378847479820251465e-02 3.841577768325805664e-01
1.005879268050193787e-01 -1.688147485256195068e-01 1.308487355709075928e-01
2.399193346500396729e-01 -6.082912907004356384e-02 3.648524880409240723e-01
3.296102583408355713e-02 -1.017931252717971802e-01 2.069472968578338623e-01
2.126613110303878784e-01 -1.386720091104507446e-01 3.388493657112121582e-01
3.144970238208770752e-01 -9.235628694295883179e-02 4.212331771850585938e-01
3.182053565979003906e-01 -6.982088088989257812e-02 2.075298726558685303e-01
-1.850278675556182861e-02 -1.460169553756713867e-01 1.732680052518844604e-01
3.676813542842864990e-01 -8.340544998645782471e-02 3.773338198661804199e-01
2.101147174835205078e-01 -1.527348160743713379e-01 1.856348067522048950e-01
2.106902152299880981e-01 -8.602114021778106689e-02 9.633609652519226074e-02
9.292830526828765869e-02 -1.263835877180099487e-01 3.350729942321777344e-01
3.581954240798950195e-01 -1.015229001641273499e-01 3.015300929546356201e-01
2.377831041812896729e-01 -7.270675897598266602e-02 1.445610225200653076e-01
2.755155861377716064e-01 -5.808796733617782593e-02 2.305139303207397461e-01
3.097572028636932373e-01 -5.847221985459327698e-02 3.850447833538055420e-01
3.540161252021789551e-02 -1.554366052150726318e-01 2.334382981061935425e-01
2.863350808620452881e-01 -1.244384795427322388e-01 3.504662215709686279e-01
1.846505701541900635e-01 -1.547569930553436279e-01 2.563997805118560791e-01
2.799286842346191406e-01 -1.347839832305908203e-01 2.295387089252471924e-01
1.249303221702575684e-01 -8.923621475696563721e-02 3.434566259384155273e-01
2.325667440891265869e-02 -1.196053475141525269e-01 4.383209347724914551e-02
8.366642147302627563e-02 -8.404484391212463379e-02 1.692764610052108765e-01
3.037791252136230469e-01 -1.243191286921501160e-01 2.153114974498748779e-01
-2.309960126876831055e-02 -1.589231491088867188e-01 9.721671789884567261e-02
1.528953760862350464e-01 -6.737475097179412842e-02 2.278348952531814575e-01
4.969225078821182251e-02 -1.709012538194656372e-01 1.172767654061317444e-01
2.549856007099151611e-01 -1.420246958732604980e-01 2.525089681148529053e-01
4.710450768470764160e-02 -1.465303003787994385e-01 2.681070864200592041e-01
2.376137673854827881e-01 -1.277458369731903076e-01 1.000001579523086548e-01
8.182516694068908691e-02 -1.311036050319671631e-01 3.217819929122924805e-01
1.977445185184478760e-01 -1.138264015316963196e-01 5.484704673290252686e-02
1.190864443778991699e-01 -8.146226406097412109e-02 1.260773241519927979e-01
2.225795090198516846e-01 -5.687850341200828552e-02 2.813242673873901367e-01
-2.325983345508575439e-02 -1.578609347343444824e-01 8.008570969104766846e-02
1.402057409286499023e-01 -1.647196561098098755e-01 1.520562171936035156e-01
2.963388860225677490e-01 -1.199456304311752319e-01 1.733432710170745850e-01
1.733484119176864624e-01 -6.483115255832672119e-02 2.131544649600982666e-01
-7.201641798019409180e-03 -1.241836845874786377e-01 1.857686638832092285e-01
8.276862651109695435e-02 -9.092072397470474243e-02 1.054505556821823120e-01
1.769421994686126709e-01 -8.365699648857116699e-02 3.850833475589752197e-01
4.813922941684722900e-02 -1.211912408471107483e-01 2.329896390438079834e-02
2.714598178863525391e-01 -1.373996585607528687e-01 2.620549201965332031e-01
9.674298763275146484e-02 -8.085197955369949341e-02 1.711455285549163818e-01
3.763363957405090332e-01 -8.326960355043411255e-02 3.361230194568634033e-01
2.645103931427001953e-01 -1.275535374879837036e-01 3.572104573249816895e-01
3.303990364074707031e-01 -1.011039018630981445e-01 3.930348753929138184e-01
6.154015660285949707e-02 -1.110561415553092957e-01 3.998002409934997559e-02
2.426353693008422852e-01 -5.843257531523704529e-02 3.510464131832122803e-01
7.887125015258789062e-02 -1.703505218029022217e-01 1.337601393461227417e-01
2.442258745431900024e-01 -5.489129945635795593e-02 2.969237565994262695e-01
3.162443637847900391e-03 -1.148196384310722351e-01 1.785869598388671875e-01
-5.065500736236572266e-03 -1.622592359781265259e-01 1.483193635940551758e-01
1.134616732597351074e-01 -8.595484495162963867e-02 1.046353280544281006e-01
1.067585498094558716e-01 -7.755509018898010254e-02 2.346159517765045166e-01
1.641680300235748291e-01 -1.601506769657135010e-01 2.206623107194900513e-01
3.158381879329681396e-01 -1.155549436807632446e-01 2.025686949491500854e-01
2.606041431427001953e-01 -1.388614177703857422e-01 1.907020807266235352e-01
2.334500551223754883e-01 -1.435679942369461060e-01 2.929565310478210449e-01
-2.087308466434478760e-02 -1.591007411479949951e-01 1.198068410158157349e-01
1.357322484254837036e-01 -1.629415750503540039e-01 1.099678128957748413e-01
5.298042297363281250e-02 -1.013429760932922363e-01 8.339209854602813721e-02
3.051589131355285645e-01 -5.324532091617584229e-02 3.079780340194702148e-01
2.109269201755523682e-01 -6.282479315996170044e-02 3.451210260391235352e-01
3.194005489349365234e-01 -7.909005135297775269e-02 4.257058203220367432e-01
9.063633531332015991e-02 -1.530798524618148804e-01 2.652411162853240967e-02
4.673662781715393066e-02 -1.641229540109634399e-01 2.044979035854339600e-01
2.378046214580535889e-01 -5.578432604670524597e-02 3.092834353446960449e-01
2.028530687093734741e-01 -5.946611985564231873e-02 2.521469891071319580e-01
2.379332184791564941e-01 -1.446008831262588501e-01 1.733051538467407227e-01
3.049252033233642578e-01 -1.102142930030822754e-01 1.656948924064636230e-01
2.598959207534790039e-01 -1.354322731494903564e-01 3.178615570068359375e-01
2.430664002895355225e-02 -1.089256331324577332e-01 8.726270496845245361e-02
2.322393655776977539e-02 -1.694950610399246216e-01 9.560246020555496216e-02
1.252992302179336548e-01 -1.660393774509429932e-01 1.308444887399673462e-01
2.579204142093658447e-01 -1.415362358093261719e-01 2.303598672151565552e-01
6.446561962366104126e-02 -9.056471288204193115e-02 2.281268537044525146e-01
3.035576939582824707e-01 -1.271893084049224854e-01 2.582177817821502686e-01
4.779998958110809326e-02 -9.455826878547668457e-02 1.629520654678344727e-01
2.974921464920043945e-01 -1.255516409873962402e-01 2.026763558387756348e-01
2.131936997175216675e-01 -1.491198241710662842e-01 2.726546227931976318e-01
8.915445953607559204e-02 -1.451908349990844727e-01 3.020442724227905273e-01
2.707363665103912354e-01 -5.612123012542724609e-02 3.573241829872131348e-01
7.223474234342575073e-02 -1.704791039228439331e-01 1.195679530501365662e-01
1.576428711414337158e-01 -1.371021270751953125e-01 3.484185338020324707e-01
1.407768130302429199e-01 -1.321655660867691040e-01 3.548984825611114502e-01
2.562555968761444092e-01 -7.391576468944549561e-02 4.170731902122497559e-01
6.679224222898483276e-02 -8.909202367067337036e-02 1.570891737937927246e-01
2.844595313072204590e-01 -5.727200210094451904e-02 2.405574172735214233e-01
3.588303625583648682e-01 -9.178098291158676147e-02 2.526154816150665283e-01
1.634953767061233521e-01 -1.599804759025573730e-01 1.350884735584259033e-01
1.315068155527114868e-01 -7.456769049167633057e-02 2.880972623825073242e-01
1.380050182342529297e-02 -1.386907398700714111e-01 1.771062612533569336e-02
1.946448832750320435e-01 -1.521264761686325073e-01 2.694017887115478516e-01
2.780365943908691406e-01 -7.173678278923034668e-02 1.675160378217697144e-01
3.095716238021850586e-01 -6.307967752218246460e-02 4.038529098033905029e-01
2.252766042947769165e-01 -1.311045289039611816e-01 3.638715744018554688e-01
9.123817086219787598e-03 -1.573365032672882080e-01 3.082174062728881836e-02
2.877309918403625488e-01 -5.582593008875846863e-02 2.548103034496307373e-01
1.981188952922821045e-01 -1.343509554862976074e-01 6.857091188430786133e-02
8.084113895893096924e-02 -1.669778227806091309e-01 7.809926569461822510e-02
1.424072831869125366e-01 -1.004711240530014038e-01 3.767639398574829102e-01
2.415177375078201294e-01 -5.656146630644798279e-02 2.466171383857727051e-01
7.245632261037826538e-02 -1.675063818693161011e-01 1.922146677970886230e-01
2.679153978824615479e-01 -6.698394566774368286e-02 4.067448973655700684e-01
1.549382507801055908e-01 -1.550087332725524902e-01 2.756770551204681396e-01
1.514676213264465332e-01 -1.456463336944580078e-01 3.207107186317443848e-01
2.638235688209533691e-02 -1.607585102319717407e-01 3.393627703189849854e-02
1.349949240684509277e-01 -1.628523916006088257e-01 2.225304394960403442e-01
3.320175409317016602e-02 -9.970643371343612671e-02 1.657041609287261963e-01
2.407178282737731934e-01 -1.363493055105209351e-01 1.283334195613861084e-01
3.146702349185943604e-01 -1.063954830169677734e-01 1.765548437833786011e-01
8.213094621896743774e-02 -9.880923479795455933e-02 6.799766421318054199e-02
3.464490175247192383e-01 -5.921668186783790588e-02 3.669607639312744141e-01
6.025343388319015503e-02 -1.512248814105987549e-01 1.409836113452911377e-02
3.136527836322784424e-01 -5.430814996361732483e-02 2.946489453315734863e-01
8.852408826351165771e-02 -1.405552178621292114e-01 9.399205446243286133e-03
2.915541827678680420e-02 -1.138275563716888428e-01 5.671858787536621094e-02
3.689916133880615234e-01 -9.012465178966522217e-02 3.523931503295898438e-01
2.027717381715774536e-01 -5.924010649323463440e-02 2.706786096096038818e-01
