5.608047842979431152e-01 -5.164226517081260681e-02 1.049865186214447021e-01
4.062770009040832520e-01 9.554176032543182373e-02 9.417940676212310791e-02
6.944974660873413086e-01 5.664467439055442810e-02 3.529324382543563843e-02
4.138052761554718018e-01 5.310427397489547729e-02 1.179912984371185303e-01
5.249680876731872559e-01 -5.595969781279563904e-02 -2.518365345895290375e-02
4.123900234699249268e-01 2.055814862251281738e-02 1.154019907116889954e-01
6.526409983634948730e-01 -2.926488593220710754e-02 -1.622855104506015778e-02
4.436973333358764648e-01 5.810539424419403076e-02 1.281212121248245239e-01
4.871719181537628174e-01 8.310162276029586792e-02 1.264025121927261353e-01
3.717932701110839844e-01 1.081066727638244629e-01 -7.566234469413757324e-02
5.020291209220886230e-01 7.870147377252578735e-02 1.312896907329559326e-01
5.257492065429687500e-01 -6.676441431045532227e-02 4.332759976387023926e-02
6.974408030509948730e-01 -1.439331099390983582e-02 1.740932837128639221e-02
4.486694037914276123e-01 1.883431337773799896e-02 1.306804418563842773e-01
5.714912414550781250e-01 9.624771773815155029e-04 1.496163308620452881e-01
3.253689408302307129e-01 2.719521522521972656e-03 8.845931850373744965e-03
6.517220735549926758e-01 7.108777761459350586e-02 1.062181293964385986e-01
5.295901298522949219e-01 -4.512093588709831238e-02 -4.638141393661499023e-02
6.457154750823974609e-01 -3.362308815121650696e-02 1.179410070180892944e-01
5.065686106681823730e-01 -6.168231368064880371e-03 1.390828043222427368e-01
4.310847222805023193e-01 1.287754774093627930e-01 5.560122430324554443e-02
3.870381712913513184e-01 6.776639074087142944e-02 1.014587059617042542e-01
3.291147053241729736e-01 3.817122429609298706e-03 2.466534264385700226e-02
3.163942694664001465e-01 7.985977083444595337e-02 3.979090973734855652e-02
3.530516028404235840e-01 9.458079934120178223e-02 6.394291669130325317e-02
5.106496810913085938e-01 6.758429110050201416e-03 -9.557466953992843628e-02
4.421318173408508301e-01 1.395199000835418701e-01 8.520237170159816742e-03
2.981467247009277344e-01 4.503371194005012512e-02 1.424063090234994888e-02
3.749969601631164551e-01 1.309382617473602295e-01 3.960371017456054688e-03
6.980991363525390625e-01 -2.852142974734306335e-02 4.990874603390693665e-02
6.689007878303527832e-01 1.199472695589065552e-02 1.307669430971145630e-01
6.790039539337158203e-01 -4.259804263710975647e-02 6.145066022872924805e-02
3.188122510910034180e-01 9.681750833988189697e-02 2.485823258757591248e-02
5.375412702560424805e-01 -2.086286246776580811e-02 -7.367511838674545288e-02
7.016759514808654785e-01 8.285116404294967651e-03 1.013863366097211838e-02
5.675325393676757812e-01 1.173927336931228638e-01 7.113082706928253174e-02
6.419242620468139648e-01 -1.007817685604095459e-02 1.367175132036209106e-01
6.835733652114868164e-01 -3.161562606692314148e-02 9.331661462783813477e-02
6.688120961189270020e-01 -1.488478109240531921e-02 1.229771003127098083e-01
6.432675123214721680e-01 -2.397448942065238953e-02 -2.859188057482242584e-02
3.973540067672729492e-01 1.060999035835266113e-01 -8.384499698877334595e-02
4.002873301506042480e-01 -2.884433791041374207e-02 6.234700977802276611e-02
7.119994163513183594e-01 3.384208679199218750e-02 5.400836467742919922e-02
5.564918518066406250e-01 -5.715643987059593201e-02 -1.869633235037326813e-02
4.891351163387298584e-01 1.377443224191665649e-01 2.175944112241268158e-02
5.944834351539611816e-01 1.542578637599945068e-02 1.512055397033691406e-01
2.934404313564300537e-01 7.854440808296203613e-02 -2.158019132912158966e-02
5.154786109924316406e-01 -8.143026381731033325e-03 -8.679279685020446777e-02
6.611910462379455566e-01 -1.723652705550193787e-02 -2.097341232001781464e-02
3.330805301666259766e-01 4.308430477976799011e-02 -8.221250772476196289e-02
5.855107307434082031e-01 -6.518529355525970459e-02 6.601483374834060669e-02
4.962055087089538574e-01 3.453876823186874390e-02 1.453186422586441040e-01
3.940651416778564453e-01 -3.228349611163139343e-02 4.546722769737243652e-02
5.719640254974365234e-01 9.251941740512847900e-02 1.159932464361190796e-01
4.953528046607971191e-01 4.433423280715942383e-03 1.408247649669647217e-01
4.061454534530639648e-01 4.475884139537811279e-03 1.049193069338798523e-01
5.181573629379272461e-01 1.801034994423389435e-02 -9.831825643777847290e-02
5.651034712791442871e-01 1.250908970832824707e-01 2.210550941526889801e-02
4.808714687824249268e-01 1.316041201353073120e-01 5.634765326976776123e-02
4.497720897197723389e-01 1.388573050498962402e-01 -1.190222986042499542e-02
3.313214480876922607e-01 1.111917048692703247e-01 1.463991776108741760e-02
5.891914367675781250e-01 -4.398859664797782898e-02 -3.356643021106719971e-02
3.761143982410430908e-01 9.451401978731155396e-02 -8.961118012666702271e-02
5.966262221336364746e-01 -6.573601067066192627e-02 3.580480441451072693e-02
4.686343669891357422e-01 1.342234313488006592e-01 4.723828285932540894e-02
3.686722517013549805e-01 7.654466480016708374e-02 -9.700164198875427246e-02
6.168988347053527832e-01 -2.050053328275680542e-02 -4.708775877952575684e-02
5.794718265533447266e-01 1.206921935081481934e-01 1.663495227694511414e-02
4.905979037284851074e-01 -5.988636240363121033e-02 -6.089875474572181702e-03
5.558437705039978027e-01 -2.353077381849288940e-02 1.367113888263702393e-01
3.836028873920440674e-01 -3.222024813294410706e-02 -1.165990345180034637e-02
4.327621459960937500e-01 -4.999671503901481628e-02 3.224308788776397705e-02
4.872045814990997314e-01 1.235228478908538818e-01 7.701084762811660767e-02
6.033209562301635742e-01 3.732157126069068909e-02 1.478839367628097534e-01
3.479819595813751221e-01 -1.093989610671997070e-02 -3.037527389824390411e-02
4.176740348339080811e-01 -1.390216499567031860e-02 9.763588756322860718e-02
6.423692703247070312e-01 6.781151145696640015e-02 -3.141936659812927246e-02
3.036445975303649902e-01 9.026658535003662109e-02 4.854409024119377136e-03
4.154154360294342041e-01 -3.549988195300102234e-02 -4.048020392656326294e-02
6.347917318344116211e-01 9.670099616050720215e-02 1.111317332834005356e-02
4.551211595535278320e-01 7.130013778805732727e-03 1.294401437044143677e-01
6.777275800704956055e-01 1.850783824920654297e-03 1.245533451437950134e-01
6.201171278953552246e-01 -6.214715912938117981e-02 3.806827217340469360e-02
6.364811658859252930e-01 3.514697775244712830e-02 -5.237461626529693604e-02
5.738779306411743164e-01 1.072669774293899536e-01 -3.676514327526092529e-02
3.444726169109344482e-01 1.158133894205093384e-01 2.271217852830886841e-02
6.561828851699829102e-01 8.031924068927764893e-02 8.497202396392822266e-02
6.827764511108398438e-01 2.499465085566043854e-02 -1.452237926423549652e-02
6.522823572158813477e-01 6.890794634819030762e-02 -2.023666538298130035e-02
5.214574933052062988e-01 1.323770582675933838e-01 4.058688879013061523e-02
6.610771417617797852e-01 -4.582847282290458679e-02 8.707784861326217651e-02
5.544056892395019531e-01 -6.787173449993133545e-02 2.819680236279964447e-02
3.041482567787170410e-01 9.527069330215454102e-02 -1.214581541717052460e-02
5.109397172927856445e-01 3.920889645814895630e-02 1.474106460809707642e-01
4.135878682136535645e-01 1.280215531587600708e-01 5.023467540740966797e-02
4.292942881584167480e-01 -2.148022502660751343e-02 9.689362347126007080e-02
5.337581038475036621e-01 -6.728065013885498047e-02 2.417498640716075897e-02
4.064094424247741699e-01 1.332172006368637085e-01 2.964024618268013000e-02
3.117842674255371094e-01 9.918241202831268311e-02 -3.833609074354171753e-02
4.756394624710083008e-01 6.083986163139343262e-02 -1.066492646932601929e-01
5.357782840728759766e-01 3.007844835519790649e-02 -9.666409343481063843e-02
6.640779972076416016e-01 3.138308972120285034e-02 1.299770623445510864e-01
5.992555618286132812e-01 9.647864103317260742e-02 1.006475910544395447e-01
6.361080408096313477e-01 8.108481019735336304e-02 -2.227957360446453094e-02
5.594541430473327637e-01 1.019496917724609375e-01 1.062438637018203735e-01
5.892452597618103027e-01 9.051720798015594482e-02 -5.002976953983306885e-02
4.108098447322845459e-01 6.682899594306945801e-02 -1.070070266723632812e-01
5.376359820365905762e-01 1.283700913190841675e-01 -9.841170161962509155e-03
4.483659863471984863e-01 -1.037240028381347656e-02 -8.648435026407241821e-02
7.058594822883605957e-01 1.200452074408531189e-02 9.855008125305175781e-02
5.907790660858154297e-01 5.489824712276458740e-02 -7.371374964714050293e-02
4.473408460617065430e-01 -4.350936040282249451e-02 -3.893491625785827637e-02
4.754218757152557373e-01 1.389125287532806396e-01 1.581902801990509033e-02
5.246368646621704102e-01 2.605114132165908813e-03 1.461149901151657104e-01
4.608509838581085205e-01 1.164037734270095825e-01 -7.120471447706222534e-02
5.443955659866333008e-01 4.330183938145637512e-02 -9.437920153141021729e-02
4.160350859165191650e-01 5.059788376092910767e-02 -1.089721918106079102e-01
6.101518273353576660e-01 -9.853061288595199585e-03 -5.768447369337081909e-02
4.347343742847442627e-01 1.367368102073669434e-01 2.960697934031486511e-02
3.859079182147979736e-01 -2.320614457130432129e-02 -4.657793790102005005e-02
7.097660303115844727e-01 -1.535125449299812317e-02 5.647456645965576172e-02
4.520276188850402832e-01 1.281513124704360962e-01 6.289269775152206421e-02
5.206992030143737793e-01 -6.399036943912506104e-02 2.681670710444450378e-03
5.050196647644042969e-01 -5.727892741560935974e-02 7.723375409841537476e-02
6.245456337928771973e-01 -5.241424962878227234e-02 9.609724581241607666e-02
3.076207935810089111e-01 7.406817376613616943e-02 -6.136239320039749146e-02
6.938198208808898926e-01 -2.460941672325134277e-02 2.563592419028282166e-02
2.976314723491668701e-01 3.410653769969940186e-02 -6.097709760069847107e-03
3.605146706104278564e-01 2.030327916145324707e-03 -6.912999600172042847e-02
6.411122083663940430e-01 -4.270708188414573669e-02 1.076269000768661499e-01
6.509933471679687500e-01 -5.230802670121192932e-02 2.988722175359725952e-02
3.865902721881866455e-01 1.290193200111389160e-01 2.965785562992095947e-02
3.242823183536529541e-01 8.184660971164703369e-02 -7.358095049858093262e-02
4.488646984100341797e-01 1.100652366876602173e-01 9.332696348428726196e-02
4.099613428115844727e-01 2.894317917525768280e-02 -1.046191751956939697e-01
6.251759529113769531e-01 -3.496496751904487610e-02 1.230980083346366882e-01
3.936043977737426758e-01 8.458046615123748779e-02 -9.899116307497024536e-02
3.981561660766601562e-01 6.438782066106796265e-02 1.081880033016204834e-01
3.958940505981445312e-01 3.659301623702049255e-02 -1.043925881385803223e-01
3.423965573310852051e-01 1.082947403192520142e-01 -6.024061143398284912e-02
4.561836719512939453e-01 -5.060919001698493958e-02 6.269177049398422241e-02
5.837172269821166992e-01 1.077957451343536377e-01 -2.749169804155826569e-02
6.124714016914367676e-01 1.027889102697372437e-01 -7.466709241271018982e-03
3.062187433242797852e-01 8.513474464416503906e-02 -5.163914710283279419e-02
3.557022213935852051e-01 -9.713709354400634766e-03 -4.581298679113388062e-02
5.509144663810729980e-01 1.249485611915588379e-01 -1.013682223856449127e-02
5.110175609588623047e-01 -6.153518334031105042e-02 -6.409924477338790894e-03
2.930004596710205078e-01 6.351144611835479736e-02 3.942461684346199036e-03
6.542333960533142090e-01 8.317818492650985718e-02 6.610142067074775696e-03
4.752402305603027344e-01 1.306939870119094849e-01 -4.054411500692367554e-02
3.563143312931060791e-01 6.222147122025489807e-02 8.414252102375030518e-02
5.132715106010437012e-01 1.126452088356018066e-01 -6.209295988082885742e-02
5.393091440200805664e-01 1.239984035491943359e-01 6.631872802972793579e-02
4.009851217269897461e-01 1.361079663038253784e-01 -1.205809600651264191e-02
5.369458198547363281e-01 -5.560680851340293884e-02 9.312591701745986938e-02
5.866959691047668457e-01 -4.804391786456108093e-02 1.116669327020645142e-01
3.622788190841674805e-01 8.427442610263824463e-02 7.870444655418395996e-02
2.946265935897827148e-01 7.246054708957672119e-02 -3.865581005811691284e-02
5.071590542793273926e-01 2.095324546098709106e-02 1.470178365707397461e-01
6.559361219406127930e-01 -5.277042463421821594e-02 4.635466262698173523e-02
4.639834165573120117e-01 1.008616685867309570e-01 -8.802532404661178589e-02
6.785907745361328125e-01 6.078638508915901184e-02 9.382501989603042603e-02
4.768806397914886475e-01 9.421433508396148682e-02 1.159420013427734375e-01
5.010058283805847168e-01 -6.209951266646385193e-02 5.661326646804809570e-02
5.078136920928955078e-01 -4.606385156512260437e-02 -4.582319408655166626e-02
5.686695575714111328e-01 -4.565108194947242737e-02 1.150657832622528076e-01
4.922027289867401123e-01 1.016232222318649292e-01 -8.174199610948562622e-02
5.065518021583557129e-01 1.133070439100265503e-01 9.556397050619125366e-02
5.735808610916137695e-01 4.279523715376853943e-02 1.496405303478240967e-01
4.245008826255798340e-01 -2.710912376642227173e-03 1.106853857636451721e-01
4.598702192306518555e-01 1.562133058905601501e-02 -1.032203137874603271e-01
3.290333747863769531e-01 4.758165776729583740e-02 6.189861148595809937e-02
5.986199378967285156e-01 -6.147610768675804138e-02 7.920464873313903809e-02
5.548410415649414062e-01 1.059428602457046509e-01 -5.164659768342971802e-02
5.483902692794799805e-01 1.181571036577224731e-01 7.888826727867126465e-02
4.893209934234619141e-01 1.115457862615585327e-01 9.775558859109878540e-02
3.141992092132568359e-01 1.046661585569381714e-01 -1.138008199632167816e-02
6.469803452491760254e-01 -5.351540073752403259e-02 7.640730589628219604e-02
4.668248295783996582e-01 7.759521901607513428e-02 -1.024866774678230286e-01
3.124552965164184570e-01 4.174806922674179077e-02 4.011503234505653381e-02
6.920027136802673340e-01 5.355897545814514160e-02 8.462396264076232910e-02
5.943191051483154297e-01 1.155556887388229370e-01 1.528658252209424973e-02
3.956348598003387451e-01 8.509202301502227783e-02 9.720967710018157959e-02
6.441896557807922363e-01 9.057916700839996338e-02 7.366147637367248535e-02
6.924470067024230957e-01 6.080839037895202637e-02 5.479074269533157349e-02
5.944079160690307617e-01 1.117490381002426147e-01 6.678803265094757080e-02
5.613428950309753418e-01 1.243426203727722168e-01 4.720997065305709839e-02
6.570439934730529785e-01 2.500964701175689697e-02 -3.852461278438568115e-02
3.296560049057006836e-01 1.134915649890899658e-01 1.502238214015960693e-03
4.796490371227264404e-01 -6.137227639555931091e-02 1.679058372974395752e-02
5.116011500358581543e-01 -5.605462566018104553e-02 -2.446877397596836090e-02
4.182439148426055908e-01 7.090503722429275513e-02 1.145981773734092712e-01
5.410736799240112305e-01 1.093195378780364990e-01 9.857623279094696045e-02
5.566305518150329590e-01 -6.528046727180480957e-02 8.620371110737323761e-03
5.407316088676452637e-01 -8.538737893104553223e-04 -8.634158223867416382e-02
4.419279396533966064e-01 2.448759973049163818e-03 -9.557629376649856567e-02
3.356907069683074951e-01 -5.390770733356475830e-03 1.131124235689640045e-02
4.515236914157867432e-01 1.221363097429275513e-01 -6.369103491306304932e-02
6.183102130889892578e-01 1.026538759469985962e-01 7.060751318931579590e-02
5.310363173484802246e-01 6.635574623942375183e-03 -9.187602251768112183e-02
3.639831244945526123e-01 1.286123543977737427e-01 -9.679090231657028198e-03
4.460779130458831787e-01 -5.416587367653846741e-02 2.820413932204246521e-02
5.142210721969604492e-01 1.204206049442291260e-01 -4.866788536310195923e-02
4.342112541198730469e-01 1.227108538150787354e-01 -6.403748691082000732e-02
5.282976627349853516e-01 4.769880697131156921e-02 1.477264314889907837e-01
5.597174763679504395e-01 1.220046132802963257e-01 6.065299361944198608e-02
5.247188210487365723e-01 1.236469894647598267e-01 7.255686074495315552e-02
5.037598013877868652e-01 3.265321627259254456e-02 -1.037141680717468262e-01
5.009912848472595215e-01 1.369338482618331909e-01 1.365917641669511795e-02
6.189880967140197754e-01 8.900788426399230957e-02 1.021221727132797241e-01
4.988770782947540283e-01 6.561830639839172363e-02 -1.016662120819091797e-01
4.718586802482604980e-01 -2.023287117481231689e-02 1.192373186349868774e-01
3.425731956958770752e-01 -3.987405449151992798e-03 -4.115502536296844482e-02
4.408514201641082764e-01 6.706139072775840759e-03 1.235744580626487732e-01
4.253866970539093018e-01 6.009845435619354248e-02 1.211484894156455994e-01
3.199641406536102295e-01 4.521060362458229065e-02 5.131855979561805725e-02
5.430400967597961426e-01 -6.424999237060546875e-02 6.906301528215408325e-02
6.771399378776550293e-01 4.484044387936592102e-02 1.137409582734107971e-01
6.313151121139526367e-01 2.240841463208198547e-02 -5.640039592981338501e-02
5.345491766929626465e-01 1.314679384231567383e-01 7.539833895862102509e-03
6.270498633384704590e-01 -2.489937469363212585e-02 1.318224370479583740e-01
4.194298982620239258e-01 -3.847911953926086426e-03 -8.741327375173568726e-02
3.565669059753417969e-01 3.956499323248863220e-02 8.513634651899337769e-02
3.406802713871002197e-01 8.905948698520660400e-02 -7.977365702390670776e-02
5.196878314018249512e-01 -2.871545776724815369e-02 1.266791671514511108e-01
4.307672977447509766e-01 -3.709765151143074036e-02 -4.580848664045333862e-02
4.747961461544036865e-01 -5.816960707306861877e-02 -4.363896325230598450e-03
4.533459246158599854e-01 7.595245540142059326e-02 -1.044673919677734375e-01
6.267610788345336914e-01 1.036441922187805176e-01 3.320395573973655701e-02
4.861689209938049316e-01 1.256396323442459106e-01 -4.927620291709899902e-02
5.805675387382507324e-01 -1.963295042514801025e-03 -7.409878820180892944e-02
4.111496210098266602e-01 8.266864717006683350e-02 -1.018198728561401367e-01
4.885740876197814941e-01 -5.381787195801734924e-02 7.765775918960571289e-02
5.378096103668212891e-01 5.886454507708549500e-02 1.444351524114608765e-01
6.631321310997009277e-01 -3.852542117238044739e-02 1.013628542423248291e-01
6.058153510093688965e-01 7.344622164964675903e-02 -5.519592016935348511e-02
3.228037357330322266e-01 6.790028512477874756e-02 5.332440137863159180e-02
5.417796969413757324e-01 -9.156677871942520142e-03 1.438111066818237305e-01
3.440918922424316406e-01 7.558530569076538086e-02 7.016887515783309937e-02
6.374475955963134766e-01 -5.866790190339088440e-02 4.783184453845024109e-02
5.819501876831054688e-01 6.560421735048294067e-02 -7.360362261533737183e-02
6.384529471397399902e-01 -5.744154378771781921e-02 6.697648018598556519e-02
6.186677217483520508e-01 8.023767173290252686e-02 1.148442924022674561e-01
4.518309235572814941e-01 9.568872302770614624e-02 1.094603613018989563e-01
5.996830463409423828e-01 9.241393208503723145e-02 -4.006454348564147949e-02
3.768263459205627441e-01 6.299963593482971191e-02 -1.021610125899314880e-01
6.049908995628356934e-01 -6.495681405067443848e-02 4.990024492144584656e-02
6.469810605049133301e-01 5.262827873229980469e-02 -3.847663104534149170e-02
6.606687903404235840e-01 6.032200902700424194e-02 1.124599501490592957e-01
4.230590760707855225e-01 -4.418205097317695618e-02 4.660674184560775757e-02
3.604616522789001465e-01 8.715546876192092896e-02 -8.966369181871414185e-02
6.218205690383911133e-01 -4.486123844981193542e-02 1.112070828676223755e-01
6.864869594573974609e-01 6.326763331890106201e-02 7.306211441755294800e-02
6.413877606391906738e-01 -5.036273971199989319e-02 9.204753488302230835e-02
5.855557322502136230e-01 -1.629729196429252625e-02 -6.386494636535644531e-02
5.000981688499450684e-01 -5.835005268454551697e-02 -1.569450832903385162e-02
4.052367210388183594e-01 1.080263108015060425e-01 8.085013180971145630e-02
6.027343273162841797e-01 -4.993155971169471741e-02 1.069822385907173157e-01
6.429636478424072266e-01 2.868957817554473877e-03 1.404946148395538330e-01
3.344861865043640137e-01 9.679883718490600586e-03 4.506386071443557739e-02
4.619864225387573242e-01 -4.723389074206352234e-02 7.660413533449172974e-02
3.431121110916137695e-01 1.327284984290599823e-02 -6.913002580404281616e-02
3.797392845153808594e-01 -1.029293984174728394e-02 -6.517176330089569092e-02
5.598539113998413086e-01 8.360124379396438599e-02 1.275188475847244263e-01
4.470033049583435059e-01 1.348630338907241821e-01 -3.354223817586898804e-02
3.520797491073608398e-01 1.058846563100814819e-01 5.004643648862838745e-02
7.029010653495788574e-01 3.666062280535697937e-02 2.131735347211360931e-02
3.397379815578460693e-01 -9.419586509466171265e-03 -7.629467174410820007e-03
5.657399892807006836e-01 4.531288892030715942e-02 -8.689269423484802246e-02
4.034295082092285156e-01 7.736800611019134521e-02 1.053211539983749390e-01
3.391423523426055908e-01 7.230525836348533630e-03 -5.795392394065856934e-02
3.925788700580596924e-01 1.265591233968734741e-01 -5.092088878154754639e-02
4.490762650966644287e-01 -3.705501183867454529e-02 8.789734542369842529e-02
6.903668045997619629e-01 1.492008566856384277e-03 -3.409281373023986816e-03
6.604340076446533203e-01 4.050868377089500427e-02 -3.245199471712112427e-02
3.996278345584869385e-01 -1.597399637103080750e-02 -6.771690398454666138e-02
6.944837570190429688e-01 -3.008426353335380554e-02 7.646796852350234985e-02
7.092459201812744141e-01 -7.854584604501724243e-03 8.462797105312347412e-02
6.137574911117553711e-01 -6.896778941154479980e-03 1.442767530679702759e-01
5.189639329910278320e-01 1.259606331586837769e-01 -3.346115350723266602e-02
3.898761272430419922e-01 7.489286363124847412e-03 -8.855123817920684814e-02
3.859749734401702881e-01 -2.444141730666160583e-02 5.515646189451217651e-02
5.851491093635559082e-01 -5.132846906781196594e-02 -2.266664989292621613e-02
5.653886198997497559e-01 5.874616652727127075e-02 -8.382901549339294434e-02
6.159934997558593750e-01 7.094936072826385498e-02 1.259074807167053223e-01
4.192858934402465820e-01 1.095334589481353760e-01 8.480177074670791626e-02
6.304597854614257812e-01 -2.614517509937286377e-02 -3.471688181161880493e-02
3.311994969844818115e-01 1.157033592462539673e-01 -1.610757596790790558e-02
2.933421730995178223e-01 4.694560542702674866e-02 -1.279506832361221313e-03
6.962344646453857422e-01 -1.531438156962394714e-02 9.974859654903411865e-02
3.665726780891418457e-01 8.290633559226989746e-03 7.919949293136596680e-02
3.925843834877014160e-01 3.873461857438087463e-02 1.083518490195274353e-01
5.971397161483764648e-01 1.044303923845291138e-01 8.595650643110275269e-02
6.101484298706054688e-01 -5.634441599249839783e-02 9.165109694004058838e-02
5.969376564025878906e-01 -1.889667659997940063e-02 -5.750828236341476440e-02
5.704299807548522949e-01 1.154466122388839722e-01 -2.163619361817836761e-02
5.828416943550109863e-01 1.162294596433639526e-01 -4.383075982332229614e-03
3.139893710613250732e-01 1.302843168377876282e-02 -2.281869389116764069e-02
6.472790241241455078e-01 3.881584852933883667e-02 -4.385020583868026733e-02
3.898499011993408203e-01 1.225834339857101440e-02 9.915653616189956665e-02
6.249433755874633789e-01 -5.237509682774543762e-02 1.349484547972679138e-03
7.153940200805664062e-01 -1.656707376241683960e-03 5.157589167356491089e-02
4.827950596809387207e-01 1.332305073738098145e-01 -2.990155853331089020e-02
6.392959356307983398e-01 -5.404096469283103943e-02 1.993321068584918976e-02
5.171091556549072266e-01 3.618227690458297729e-02 -1.014865636825561523e-01
6.920372247695922852e-01 2.310242503881454468e-02 -3.673875704407691956e-03
5.771316885948181152e-01 1.650868915021419525e-02 -8.165069669485092163e-02
4.063209891319274902e-01 1.333625018596649170e-01 -3.439752012491226196e-02
6.109082698822021484e-01 8.509578555822372437e-02 -4.039042443037033081e-02
2.971980571746826172e-01 6.107399612665176392e-02 -4.827584326267242432e-02
4.263114333152770996e-01 4.010858014225959778e-02 -1.089262068271636963e-01
3.856959640979766846e-01 1.101132482290267944e-03 8.893399685621261597e-02
6.557155847549438477e-01 -3.615429624915122986e-02 -4.474790766835212708e-03
5.968897342681884766e-01 6.283569335937500000e-02 1.376053094863891602e-01
5.211265087127685547e-01 1.326953321695327759e-01 -4.752824082970619202e-03
4.519643187522888184e-01 -2.455427125096321106e-02 1.062155365943908691e-01
3.856770098209381104e-01 -3.319412097334861755e-02 2.335589937865734100e-02
4.593356251716613770e-01 7.713586091995239258e-04 -9.556533396244049072e-02
4.617972373962402344e-01 1.376673132181167603e-01 3.073390945792198181e-02
3.699218630790710449e-01 1.257083863019943237e-01 2.433622069656848907e-02
4.157148599624633789e-01 -2.031191810965538025e-02 -6.834635883569717407e-02
6.561852693557739258e-01 1.113760471343994141e-02 -3.823558241128921509e-02
5.403508543968200684e-01 8.124958723783493042e-02 -8.269253373146057129e-02
6.134222149848937988e-01 -5.011485889554023743e-02 -1.140507496893405914e-02
4.950702488422393799e-01 -5.186962708830833435e-02 -3.302253037691116333e-02
4.200278520584106445e-01 -3.923289105296134949e-02 5.910582095384597778e-02
4.797669351100921631e-01 1.182013452053070068e-01 8.665167540311813354e-02
6.686768531799316406e-01 -4.383921623229980469e-03 -2.294113300740718842e-02
2.964789867401123047e-01 3.977856785058975220e-02 -3.162266314029693604e-02
5.538880825042724609e-01 -4.565544426441192627e-03 1.469912230968475342e-01
5.052425861358642578e-01 -4.154222831130027771e-02 1.080801039934158325e-01
4.735059142112731934e-01 1.239643543958663940e-01 -5.634438991546630859e-02
7.096626758575439453e-01 2.116913348436355591e-02 8.911612629890441895e-02
3.448607921600341797e-01 2.349791675806045532e-02 -7.938908785581588745e-02
5.634754896163940430e-01 -3.679657354950904846e-02 -5.160616338253021240e-02
6.732652783393859863e-01 -2.786323800683021545e-02 1.089225411415100098e-01
4.787302613258361816e-01 1.017313152551651001e-01 -8.469396829605102539e-02
5.406046509742736816e-01 -3.826644644141197205e-02 -5.477067828178405762e-02
5.241697430610656738e-01 -2.561244741082191467e-02 -7.151581346988677979e-02
6.939445137977600098e-01 7.243491709232330322e-04 1.115594282746315002e-01
3.409835100173950195e-01 3.803040087223052979e-02 7.174152135848999023e-02
6.220958232879638672e-01 1.015648245811462402e-01 4.010904580354690552e-03
5.569632053375244141e-01 -4.698826000094413757e-02 -3.884282708168029785e-02
5.527934432029724121e-01 9.680476784706115723e-02 -6.423541903495788574e-02
4.726526141166687012e-01 5.474010109901428223e-02 1.370763629674911499e-01
5.453342199325561523e-01 7.007233798503875732e-02 1.386915594339370728e-01
2.994546294212341309e-01 5.780750513076782227e-02 2.153379470109939575e-02
5.880581140518188477e-01 3.662505373358726501e-02 1.500446051359176636e-01
6.732253432273864746e-01 7.687339186668395996e-02 3.920338675379753113e-02
3.116196990013122559e-01 1.022653281688690186e-01 -2.453578822314739227e-02
4.840674400329589844e-01 -2.668045088648796082e-02 1.179747432470321655e-01
6.982834339141845703e-01 2.848504856228828430e-02 6.964335218071937561e-03
4.353988766670227051e-01 1.392298489809036255e-01 -5.409613251686096191e-03
6.180354952812194824e-01 6.266099959611892700e-02 -5.441753566265106201e-02
4.212445020675659180e-01 1.373703777790069580e-01 -1.890864782035350800e-02
5.043441653251647949e-01 1.348408013582229614e-01 3.689448535442352295e-02
5.553999543190002441e-01 5.718433111906051636e-02 1.452315896749496460e-01
3.297744989395141602e-01 3.172211349010467529e-03 -3.662776947021484375e-02
4.635037481784820557e-01 2.411370165646076202e-02 1.366687119007110596e-01
6.178399920463562012e-01 2.011425420641899109e-02 -6.393823027610778809e-02
6.776251196861267090e-01 2.167272381484508514e-02 1.246011182665824890e-01
5.796741843223571777e-01 -6.638810038566589355e-02 2.435768581926822662e-02
5.063708424568176270e-01 -6.532095372676849365e-02 2.590909041464328766e-02
4.429840743541717529e-01 1.110837310552597046e-01 -8.002465218305587769e-02
3.365717232227325439e-01 1.165686696767807007e-01 -3.212845325469970703e-02
5.203334093093872070e-01 1.028470546007156372e-01 -7.174100726842880249e-02
5.935122370719909668e-01 -2.266214415431022644e-02 1.380381733179092407e-01
4.675514698028564453e-01 -3.972721472382545471e-02 -5.283602327108383179e-02
4.960643947124481201e-01 -2.947882935404777527e-02 -6.955154240131378174e-02
4.287309050559997559e-01 -3.684688732028007507e-02 7.320471853017807007e-02
5.211125612258911133e-01 9.798018634319305420e-02 1.156353950500488281e-01
4.396448135375976562e-01 -4.826701059937477112e-02 -1.974535547196865082e-02
3.050987720489501953e-01 5.095738172531127930e-02 -5.899397283792495728e-02
3.422447443008422852e-01 5.845686048269271851e-02 7.395180314779281616e-02
4.667749404907226562e-01 7.457314431667327881e-02 1.278345882892608643e-01
4.676887392997741699e-01 1.346984505653381348e-01 -2.999746985733509064e-02
6.367547512054443359e-01 -5.408063530921936035e-03 -4.570370912551879883e-02
3.518816828727722168e-01 1.191399693489074707e-01 -4.522375017404556274e-02
5.233047008514404297e-01 1.285812407732009888e-01 5.767043679952621460e-02
4.349737465381622314e-01 -1.276464387774467468e-02 1.086796447634696960e-01
3.903293013572692871e-01 -4.964724183082580566e-03 -7.722271978855133057e-02
5.136014819145202637e-01 1.055669486522674561e-01 1.065932437777519226e-01
3.079482913017272949e-01 8.629906177520751953e-02 2.108333446085453033e-02
6.702109575271606445e-01 1.032229885458946228e-02 -2.660262770950794220e-02
3.625732064247131348e-01 -1.773495227098464966e-02 3.644053265452384949e-02
3.836856186389923096e-01 8.890722692012786865e-02 8.846785128116607666e-02
6.147313117980957031e-01 1.084192395210266113e-01 4.544010013341903687e-02
5.882105231285095215e-01 8.116863667964935303e-02 1.246297657489776611e-01
4.233293533325195312e-01 9.842564165592193604e-02 9.833110123872756958e-02
5.315075516700744629e-01 8.786012232303619385e-02 1.256016343832015991e-01
4.198327958583831787e-01 1.134988218545913696e-01 -7.756040990352630615e-02
4.279234111309051514e-01 1.335575878620147705e-01 -3.836616873741149902e-02
6.406542062759399414e-01 7.872460037469863892e-02 1.036622747778892517e-01
6.254805922508239746e-01 3.022240102291107178e-02 1.449892520904541016e-01
5.107001662254333496e-01 1.198584735393524170e-01 8.365280181169509888e-02
6.266830563545227051e-01 9.452623128890991211e-02 -9.174065664410591125e-03
3.401626944541931152e-01 1.020153760910034180e-01 4.412527382373809814e-02
3.251754641532897949e-01 1.839887350797653198e-03 -1.486388035118579865e-02
6.770170927047729492e-01 6.540397554636001587e-02 9.850641712546348572e-03
5.082241892814636230e-01 -5.214862152934074402e-02 9.114197641611099243e-02
5.133386254310607910e-01 9.584311395883560181e-02 -8.101886510848999023e-02
4.908440709114074707e-01 1.342107653617858887e-01 4.550055786967277527e-02
5.526297092437744141e-01 1.278833746910095215e-01 3.198384121060371399e-02
5.392615795135498047e-01 6.632867455482482910e-02 -9.070373326539993286e-02
4.932405650615692139e-01 -6.260785460472106934e-02 8.598105981945991516e-03
6.781432628631591797e-01 -3.962232545018196106e-02 3.191852197051048279e-02
4.193042814731597900e-01 8.594210445880889893e-02 1.068123281002044678e-01
5.382978916168212891e-01 -4.480934515595436096e-02 1.123742535710334778e-01
3.661001324653625488e-01 1.318421401083469391e-02 -8.337829262018203735e-02
4.396323263645172119e-01 7.051520049571990967e-02 1.224036440253257751e-01
5.381846427917480469e-01 1.295378208160400391e-01 4.283612221479415894e-02
4.289056062698364258e-01 8.825708180665969849e-02 -9.957129508256912231e-02
4.982666671276092529e-01 -1.930442079901695251e-02 1.289031803607940674e-01
6.288273334503173828e-01 -2.299156039953231812e-03 1.430037319660186768e-01
4.557665288448333740e-01 -3.488402441143989563e-02 -5.847918242216110229e-02
3.590587377548217773e-01 1.021055132150650024e-01 -7.751935720443725586e-02
4.788604676723480225e-01 -4.377474263310432434e-02 9.360730648040771484e-02
5.667975544929504395e-01 -6.507526338100433350e-02 6.910867244005203247e-02
5.737486481666564941e-01 -3.781257197260856628e-02 1.250368505716323853e-01
4.355705082416534424e-01 -2.541891112923622131e-02 -6.759596616029739380e-02
3.519111871719360352e-01 -1.421042159199714661e-02 2.464452758431434631e-02
3.633980154991149902e-01 1.243916749954223633e-01 -3.982437402009963989e-02
6.723208427429199219e-01 7.531175762414932251e-02 6.908442825078964233e-02
5.136188864707946777e-01 7.909724116325378418e-02 -9.258303046226501465e-02
4.171214103698730469e-01 9.553284943103790283e-02 -9.466480463743209839e-02
5.556992292404174805e-01 1.113103181123733521e-01 9.139934927225112915e-02
5.016692876815795898e-01 5.398099496960639954e-02 1.428866982460021973e-01
4.865137338638305664e-01 8.741027861833572388e-02 -9.417831152677536011e-02
3.764922916889190674e-01 1.191456019878387451e-01 4.739446938037872314e-02
3.079695403575897217e-01 2.659270167350769043e-02 -4.184072464704513550e-02
3.392590880393981934e-01 9.921190142631530762e-02 -7.010816037654876709e-02
5.951524972915649414e-01 -1.093425601720809937e-02 1.445946693420410156e-01
5.972052812576293945e-01 -4.137784615159034729e-02 1.202730685472488403e-01
5.496796369552612305e-01 3.092677332460880280e-02 1.519199013710021973e-01
6.335369348526000977e-01 4.821360856294631958e-02 1.359873712062835693e-01
5.420894622802734375e-01 -5.810361728072166443e-02 -1.862675882875919342e-02
3.717285394668579102e-01 -2.666575834155082703e-02 2.090073935687541962e-02
5.403726696968078613e-01 -3.491785749793052673e-02 1.247712895274162292e-01
3.478592038154602051e-01 -6.982784718275070190e-03 3.748236596584320068e-02
4.831846058368682861e-01 -1.590777561068534851e-02 1.267287135124206543e-01
4.945535361766815186e-01 1.117332726716995239e-01 -6.976643949747085571e-02
5.893338918685913086e-01 -5.740932747721672058e-02 9.327203780412673950e-02
5.585807561874389648e-01 1.163161247968673706e-01 -2.992954663932323456e-02
5.479207038879394531e-01 1.142454445362091064e-01 -4.198268800973892212e-02
3.154733777046203613e-01 4.797741025686264038e-02 -6.987553089857101440e-02
5.046815872192382812e-01 1.337551623582839966e-01 -1.498360373079776764e-02
6.049293875694274902e-01 1.126221418380737305e-01 3.537245839834213257e-02
5.924953818321228027e-01 3.700601682066917419e-02 -7.667651027441024780e-02
6.576848626136779785e-01 -2.490158751606941223e-02 1.213289648294448853e-01
6.936157941818237305e-01 1.777519099414348602e-02 1.124984100461006165e-01
5.020703673362731934e-01 1.284893602132797241e-01 -3.581795841455459595e-02
4.110056161880493164e-01 -2.188762649893760681e-02 8.376130461692810059e-02
4.716736972332000732e-01 -5.902386829257011414e-02 4.130188003182411194e-02
4.124067425727844238e-01 -4.235909506678581238e-02 -1.334862597286701202e-02
3.724557757377624512e-01 1.077426224946975708e-01 6.314705312252044678e-02
5.184714198112487793e-01 6.433954834938049316e-02 -9.753996133804321289e-02
3.988512754440307617e-01 -2.345757931470870972e-02 -5.540405958890914917e-02
4.803878068923950195e-01 -3.523967787623405457e-02 -6.165838986635208130e-02
5.408640503883361816e-01 1.397262327373027802e-02 1.508003026247024536e-01
4.354656934738159180e-01 3.137045726180076599e-02 1.276874840259552002e-01
6.088314056396484375e-01 -3.450471535325050354e-02 1.266809999942779541e-01
7.040019035339355469e-01 4.718055576086044312e-02 4.959253221750259399e-02
6.916332840919494629e-01 4.476165026426315308e-02 7.251824252307415009e-03
6.889954805374145508e-01 5.727981775999069214e-02 1.969081908464431763e-02
3.897714018821716309e-01 5.332354828715324402e-02 -1.054241508245468140e-01
6.629207134246826172e-01 -4.027001187205314636e-02 1.020868401974439621e-02
4.129226803779602051e-01 1.303012967109680176e-01 -4.640003293752670288e-02
6.589283347129821777e-01 8.671993017196655273e-02 4.002936184406280518e-02
6.998536586761474609e-01 5.001776292920112610e-02 7.191275060176849365e-02
5.230836868286132812e-01 7.121951878070831299e-02 1.376069188117980957e-01
3.073908686637878418e-01 5.359514802694320679e-02 3.547447919845581055e-02
5.062673091888427734e-01 -6.486769020557403564e-02 4.153027385473251343e-02
6.847686767578125000e-01 4.350231215357780457e-02 -4.298074170947074890e-03
1.863146424293518066e-01 -3.021332994103431702e-02 -4.718143343925476074e-01
2.165346890687942505e-01 -7.224788516759872437e-02 -4.244976043701171875e-01
1.575078219175338745e-01 -1.349016278982162476e-02 -2.667089700698852539e-01
2.492492794990539551e-01 -2.525493502616882324e-03 -4.173915982246398926e-01
3.203734159469604492e-01 -6.324157863855361938e-02 -7.348763942718505859e-02
1.918462365865707397e-01 -4.716055095195770264e-02 -1.271337866783142090e-01
4.074645638465881348e-01 -1.041789576411247253e-01 -1.090030595660209656e-01
1.852646023035049438e-01 -1.551071554422378540e-02 -2.390390336513519287e-01
1.267470568418502808e-01 -4.867649450898170471e-02 -1.642315387725830078e-01
2.189740687608718872e-01 -1.433700025081634521e-01 -2.454731464385986328e-01
8.583976328372955322e-02 -5.350442230701446533e-02 -1.929000169038772583e-01
1.087568923830986023e-01 -8.563470840454101562e-02 -9.811680763959884644e-02
1.709148585796356201e-01 -1.618990749120712280e-01 -1.562290191650390625e-01
3.268907666206359863e-01 -1.217157095670700073e-01 -2.468452155590057373e-01
2.835185229778289795e-01 -1.576063334941864014e-01 -1.417793184518814087e-01
1.589947342872619629e-01 -5.246442556381225586e-02 -4.606110751628875732e-01
3.027443289756774902e-01 -1.338931918144226074e-02 -2.489068061113357544e-01
1.686063706874847412e-01 -9.384690970182418823e-02 -4.027444124221801758e-02
3.829564154148101807e-02 -1.046997755765914917e-01 -2.965466976165771484e-01
4.779963195323944092e-02 -1.245040148496627808e-01 -1.990474313497543335e-01
2.785342335700988770e-01 -1.448227763175964355e-01 -2.087135910987854004e-01
2.208673059940338135e-01 -1.681933701038360596e-01 -1.065463274717330933e-01
1.007654964923858643e-01 -3.099326416850090027e-02 -2.489542216062545776e-01
3.206080198287963867e-02 -1.080833077430725098e-01 -2.534545361995697021e-01
1.298644542694091797e-01 -1.325344443321228027e-01 -2.864443063735961914e-01
6.250025331974029541e-02 -3.928178176283836365e-02 -2.778809964656829834e-01
2.227731496095657349e-01 -3.786422312259674072e-03 -2.858532071113586426e-01
3.003857135772705078e-01 -1.169416308403015137e-02 -3.878608942031860352e-01
1.118718832731246948e-01 -9.573712944984436035e-03 -3.532604277133941650e-01
2.344970256090164185e-01 -1.558890640735626221e-01 1.651330292224884033e-02
3.731097579002380371e-01 -3.316576406359672546e-02 -2.660017907619476318e-01
7.943940162658691406e-02 -2.705494686961174011e-02 -4.333971142768859863e-01
2.846167981624603271e-02 -6.321071833372116089e-02 -3.549425005912780762e-01
9.861693531274795532e-02 -4.315767809748649597e-02 -2.084663063287734985e-01
1.827730387449264526e-01 -3.691245242953300476e-02 -1.614817976951599121e-01
2.850342392921447754e-01 -6.128929555416107178e-02 -7.223497331142425537e-02
3.201745748519897461e-01 -9.857889264822006226e-02 -3.137717247009277344e-01
4.700168967247009277e-02 -3.803658857941627502e-02 -3.366694450378417969e-01
3.352004289627075195e-01 -6.222603470087051392e-02 -8.152024447917938232e-02
3.798804283142089844e-01 -6.855826079845428467e-02 -9.925096482038497925e-02
6.573775410652160645e-02 -6.730607897043228149e-02 -1.848708987236022949e-01
1.441322863101959229e-01 -3.086227923631668091e-02 -4.726899862289428711e-01
1.928603053092956543e-01 -8.852854371070861816e-04 -3.171212375164031982e-01
2.716771364212036133e-01 -7.640504837036132812e-02 -3.922445476055145264e-01
2.930722832679748535e-01 -4.174299538135528564e-03 -3.252640366554260254e-01
8.680112659931182861e-02 -4.100112244486808777e-02 -2.303915470838546753e-01
1.744361519813537598e-01 -1.646215021610260010e-01 -1.348327100276947021e-01
8.135509490966796875e-02 -9.084740281105041504e-02 -3.835557699203491211e-01
2.603644430637359619e-01 -1.686619818210601807e-01 -5.132050812244415283e-02
2.475199103355407715e-01 2.572402358055114746e-03 -3.591032028198242188e-01
4.024469852447509766e-01 -7.560307532548904419e-02 -1.209718585014343262e-01
2.513769268989562988e-01 -8.117558062076568604e-02 -3.182499110698699951e-02
3.025252223014831543e-01 -1.184754148125648499e-01 1.972603797912597656e-02
3.208699226379394531e-01 -1.577998995780944824e-01 -3.308603167533874512e-02
2.461202740669250488e-01 -2.767385542392730713e-02 -1.725126951932907104e-01
1.326908469200134277e-01 -3.426968306303024292e-02 -2.035648971796035767e-01
1.164834126830101013e-01 -1.214463189244270325e-01 -5.069227516651153564e-02
2.075040042400360107e-01 2.512872219085693359e-03 -3.420856893062591553e-01
2.558773159980773926e-01 -1.148664206266403198e-02 -2.407678812742233276e-01
9.591427445411682129e-02 -1.879461109638214111e-02 -3.158157765865325928e-01
1.139717474579811096e-01 -4.849028587341308594e-02 -1.762908250093460083e-01
2.819603681564331055e-01 -1.306974142789840698e-02 -2.384819984436035156e-01
8.271318674087524414e-02 -1.415640115737915039e-01 -2.004869580268859863e-01
2.904571592807769775e-01 -1.648790985345840454e-01 -5.214469134807586670e-02
4.203821718692779541e-02 -5.396226048469543457e-02 -2.687437832355499268e-01
2.837922573089599609e-01 -7.008284330368041992e-03 -2.778361439704895020e-01
1.980191022157669067e-01 -2.777426317334175110e-02 -1.848469823598861694e-01
2.234714776277542114e-01 1.032158732414245605e-03 -3.227862417697906494e-01
2.008259147405624390e-01 -3.895842283964157104e-02 -1.470996439456939697e-01
1.261798441410064697e-01 -1.575760692358016968e-01 -1.473984569311141968e-01
7.302470505237579346e-02 -1.099752560257911682e-01 -3.291627168655395508e-01
2.371423840522766113e-01 -1.698717176914215088e-01 -4.702802002429962158e-02
1.578278988599777222e-01 -7.232635468244552612e-02 -8.500438928604125977e-02
3.331761360168457031e-01 -7.038582116365432739e-02 -6.117972731590270996e-02
2.671685218811035156e-01 -1.406893134117126465e-04 -3.333192169666290283e-01
4.897184669971466064e-02 -5.380690097808837891e-02 -2.520053982734680176e-01
3.854636549949645996e-01 -1.294058263301849365e-01 -7.350185513496398926e-02
1.425789743661880493e-01 -8.249757438898086548e-02 -7.562097907066345215e-02
3.983843922615051270e-01 -1.148448735475540161e-01 -7.540217041969299316e-02
2.113240510225296021e-01 -5.693196877837181091e-02 -9.404340386390686035e-02
1.291586756706237793e-01 -1.502078175544738770e-01 -2.079296261072158813e-01
4.103696346282958984e-02 -4.410838708281517029e-02 -3.208578526973724365e-01
8.646482229232788086e-02 -1.381146311759948730e-01 -2.310596257448196411e-01
1.395311057567596436e-01 -1.211626678705215454e-01 -3.260076642036437988e-01
1.965110301971435547e-01 -1.102294772863388062e-01 -4.794731736183166504e-03
1.544775366783142090e-01 -3.732889890670776367e-03 -3.284749686717987061e-01
3.242581784725189209e-01 -2.623546868562698364e-02 -1.968532800674438477e-01
3.506446480751037598e-01 -4.174508154392242432e-02 -1.539329588413238525e-01
1.863838881254196167e-01 -2.230064943432807922e-02 -2.103911340236663818e-01
3.601908683776855469e-02 -5.361842364072799683e-02 -3.771608173847198486e-01
2.374928742647171021e-01 -1.632493436336517334e-01 -1.413819193840026855e-01
1.781372278928756714e-01 -2.931426838040351868e-02 -1.889535486698150635e-01
3.991298079490661621e-01 -9.369460493326187134e-02 -2.072370946407318115e-01
1.085129454731941223e-01 -1.533411443233489990e-01 -1.088986322283744812e-01
1.731982380151748657e-01 -1.316812783479690552e-01 -2.948164045810699463e-01
1.574739813804626465e-01 4.192963242530822754e-04 -4.130564033985137939e-01
1.890435218811035156e-01 -1.368409544229507446e-01 -2.758992910385131836e-01
3.467727899551391602e-01 -1.467392146587371826e-01 -1.080662384629249573e-01
2.853316068649291992e-01 -1.653833389282226562e-01 -3.547570109367370605e-02
9.299877285957336426e-02 -1.361723542213439941e-01 -2.492173463106155396e-01
2.360278964042663574e-01 -4.385280236601829529e-02 -4.497338533401489258e-01
1.671035587787628174e-01 -4.922504350543022156e-02 -1.341452896595001221e-01
1.283214092254638672e-01 -5.859042704105377197e-02 -1.369053423404693604e-01
1.319290995597839355e-01 -1.279074549674987793e-01 -3.350226581096649170e-02
2.271767109632492065e-01 3.874659538269042969e-03 -3.691505789756774902e-01
3.220268785953521729e-01 -1.317251175642013550e-01 -2.189068496227264404e-01
3.695312738418579102e-01 -1.149101108312606812e-01 -2.110201865434646606e-01
1.111748665571212769e-01 -8.193090558052062988e-03 -3.768158555030822754e-01
3.301072120666503906e-01 -1.442206650972366333e-01 -1.565629839897155762e-01
3.307248950004577637e-01 -3.746851533651351929e-02 -1.548317819833755493e-01
1.312057077884674072e-01 -1.100411266088485718e-02 -4.516143798828125000e-01
2.592741250991821289e-01 -1.637796163558959961e-01 -1.228991374373435974e-01
3.606601357460021973e-01 -6.809356063604354858e-02 -3.212272822856903076e-01
3.880423307418823242e-02 -1.102237850427627563e-01 -1.865925341844558716e-01
7.468515634536743164e-02 -1.323410719633102417e-01 -2.443305253982543945e-01
3.310292661190032959e-01 -6.415967643260955811e-02 -3.617293238639831543e-01
9.936039149761199951e-02 -1.463530957698822021e-02 -3.383272886276245117e-01
2.465262115001678467e-01 -1.291081905364990234e-01 2.612951397895812988e-02
1.090211272239685059e-01 -8.664563298225402832e-03 -4.017812013626098633e-01
1.748525798320770264e-01 -4.799941182136535645e-02 -4.636445343494415283e-01
4.039486646652221680e-01 -1.035539060831069946e-01 -1.613315194845199585e-01
1.271529793739318848e-01 -1.942341029644012451e-02 -2.672192454338073730e-01
3.911930918693542480e-01 -6.255224347114562988e-02 -1.342107951641082764e-01
1.139601543545722961e-01 -1.329472810029983521e-01 -2.783847749233245850e-01
1.914826631546020508e-01 -7.662128657102584839e-02 -5.851079523563385010e-02
2.274402529001235962e-01 -4.378295317292213440e-02 -1.242737025022506714e-01
2.569621801376342773e-02 -7.220207154750823975e-02 -3.405614197254180908e-01
1.637066155672073364e-01 -6.411642581224441528e-02 -4.467566907405853271e-01
3.937084674835205078e-01 -1.002070978283882141e-01 -6.065863370895385742e-02
2.288175970315933228e-01 -5.402141809463500977e-02 -9.615100920200347900e-02
3.301669657230377197e-01 -2.379645779728889465e-02 -2.142356932163238525e-01
1.898538321256637573e-01 -1.689578592777252197e-01 -7.885888218879699707e-02
7.775700092315673828e-02 -1.264936178922653198e-01 -2.757755815982818604e-01
1.114937737584114075e-01 -1.655703783035278320e-02 -3.019915819168090820e-01
3.791463375091552734e-01 -9.890617430210113525e-02 -2.388325035572052002e-01
3.114724755287170410e-01 -1.472977101802825928e-01 -1.663921177387237549e-01
1.865819245576858521e-01 -1.605236530303955078e-01 -1.399095356464385986e-02
1.451314836740493774e-01 -1.343066394329071045e-01 -2.838735878467559814e-01
2.738076150417327881e-01 -6.122216582298278809e-04 -3.610771596431732178e-01
2.090694904327392578e-01 -4.609988257288932800e-02 -1.232384592294692993e-01
9.534490853548049927e-02 -1.364807784557342529e-02 -3.617677688598632812e-01
1.827495992183685303e-01 -1.147938072681427002e-01 -3.440496325492858887e-01
3.019190430641174316e-01 -8.676686137914657593e-02 -2.084095776081085205e-02
3.370909094810485840e-01 -1.483049690723419189e-01 -1.204644441604614258e-01
3.236985206604003906e-01 -8.191091567277908325e-02 -3.432653844356536865e-01
1.895942538976669312e-01 -5.644168704748153687e-02 -1.038947999477386475e-01
1.899747550487518311e-01 -7.696053385734558105e-02 -4.239671230316162109e-01
3.100982308387756348e-02 -1.041721627116203308e-01 -2.730974853038787842e-01
3.742736279964447021e-01 -1.364365518093109131e-01 -5.710917711257934570e-02
2.331842780113220215e-01 2.355851233005523682e-03 -4.016784131526947021e-01
2.439102381467819214e-01 -1.293866634368896484e-01 -2.840535640716552734e-01
3.616694808006286621e-01 -1.320878267288208008e-01 -1.601209044456481934e-01
3.530712127685546875e-01 -7.567201554775238037e-02 -5.950196087360382080e-02
1.458491981029510498e-01 -2.707542479038238525e-02 -2.183218002319335938e-01
1.630574464797973633e-01 -3.809535875916481018e-02 -1.688415110111236572e-01
2.144332379102706909e-01 -4.032443836331367493e-02 -1.381224691867828369e-01
3.197029232978820801e-01 -1.576812565326690674e-01 -7.930916547775268555e-02
4.018710851669311523e-01 -1.128059029579162598e-01 -1.236353516578674316e-01
