-2.955088950693607330e-02 -9.552458301186561584e-03 3.796728849411010742e-01
-1.838752813637256622e-02 1.697065308690071106e-03 4.611284136772155762e-01
2.004270255565643311e-02 -2.942712046205997467e-02 4.360896050930023193e-01
-3.451404161751270294e-03 -1.044522318989038467e-02 6.020246744155883789e-01
3.546097874641418457e-02 -3.179298341274261475e-02 3.484664261341094971e-01
-2.564834617078304291e-02 5.812399089336395264e-03 5.724817514419555664e-01
6.165593117475509644e-02 -1.064930763095617294e-02 3.322050273418426514e-01
-2.114768326282501221e-02 4.322422668337821960e-03 5.036627054214477539e-01
1.123892422765493393e-02 6.447829306125640869e-03 5.226151943206787109e-01
-4.103652387857437134e-02 -1.991111785173416138e-03 6.221193671226501465e-01
8.149168640375137329e-02 -2.241369709372520447e-02 3.170419633388519287e-01
8.837295323610305786e-02 -7.204775698482990265e-03 3.982346653938293457e-01
-2.526897378265857697e-02 4.375215619802474976e-03 5.118631720542907715e-01
-6.012096256017684937e-02 5.567548796534538269e-04 5.553771853446960449e-01
-5.947120487689971924e-02 -1.291793771088123322e-02 5.777440667152404785e-01
5.736970901489257812e-02 1.284229569137096405e-03 5.420995354652404785e-01
2.346483059227466583e-02 -1.380153279751539230e-02 3.149194717407226562e-01
4.147646948695182800e-03 -3.129504621028900146e-02 4.071004688739776611e-01
7.179941982030868530e-02 -1.685540378093719482e-02 4.877859652042388916e-01
-2.546925283968448639e-02 -2.981676161289215088e-02 4.165617823600769043e-01
-5.248969048261642456e-02 -2.047212980687618256e-02 5.283433198928833008e-01
3.124581649899482727e-03 -2.866941504180431366e-02 3.098959326744079590e-01
-8.655667304992675781e-03 6.650164723396301270e-03 5.483865737915039062e-01
-6.413223594427108765e-02 -3.290094435214996338e-03 4.976769089698791504e-01
-2.022199518978595734e-02 -7.710708305239677429e-04 4.358833134174346924e-01
1.129951234906911850e-02 -7.913656532764434814e-03 6.033777594566345215e-01
-1.785131916403770447e-02 -2.206944301724433899e-02 5.320399403572082520e-01
-3.356941044330596924e-02 -1.861358061432838440e-02 5.579620599746704102e-01
-6.561484932899475098e-02 -2.401229925453662872e-03 5.164682865142822266e-01
-1.177213527262210846e-02 4.726685583591461182e-04 4.397755265235900879e-01
3.302939981222152710e-02 2.665455453097820282e-03 4.477975666522979736e-01
7.160031795501708984e-02 -1.027564704418182373e-02 3.415075838565826416e-01
5.112867057323455811e-02 -1.159465778619050980e-02 5.497329235076904297e-01
2.372608520090579987e-02 -3.219468891620635986e-02 3.475676774978637695e-01
-5.950547754764556885e-02 -2.325436472892761230e-02 4.733209908008575439e-01
7.604417391121387482e-03 4.716239869594573975e-03 4.821938276290893555e-01
-3.659767098724842072e-03 -3.001128695905208588e-02 4.347502291202545166e-01
7.569015026092529297e-02 -2.563700824975967407e-02 3.879208862781524658e-01
-6.788293272256851196e-02 -1.965736970305442810e-03 5.656340122222900391e-01
4.724555462598800659e-02 2.586090937256813049e-03 4.563675224781036377e-01
3.769618924707174301e-03 5.805648863315582275e-03 5.061632990837097168e-01
3.199373558163642883e-02 -1.005707308650016785e-02 5.786943435668945312e-01
-7.490392029285430908e-02 -1.743780449032783508e-02 4.890796244144439697e-01
5.765493214130401611e-02 -2.816226333379745483e-05 4.266081750392913818e-01
1.023407839238643646e-02 -1.749699749052524567e-02 5.579228401184082031e-01
2.194138243794441223e-03 -5.055470392107963562e-04 4.181376397609710693e-01
8.733210712671279907e-02 -1.428583171218633652e-02 4.626838564872741699e-01
1.796466857194900513e-02 -3.044724464416503906e-02 4.201816320419311523e-01
5.727417021989822388e-02 -2.978510037064552307e-02 3.323203325271606445e-01
-3.123694099485874176e-02 -2.942632138729095459e-02 4.037145972251892090e-01
-5.723372101783752441e-02 -1.819744706153869629e-03 4.928611814975738525e-01
-6.647764146327972412e-02 -1.894607581198215485e-02 4.260856807231903076e-01
6.568917073309421539e-03 3.216154873371124268e-03 6.099458932876586914e-01
1.914053037762641907e-02 -3.205657750368118286e-02 3.765920400619506836e-01
4.281666129827499390e-02 -2.852820418775081635e-02 4.237644970417022705e-01
-3.050321899354457855e-02 5.103368312120437622e-03 5.877659916877746582e-01
-2.082505635917186737e-02 6.151998415589332581e-03 5.589541792869567871e-01
3.580059856176376343e-02 -1.655128225684165955e-02 3.004926145076751709e-01
5.388414114713668823e-02 -2.862424030900001526e-02 4.012385904788970947e-01
-2.972293086349964142e-02 -1.329085882753133774e-02 5.927147865295410156e-01
2.800347097218036652e-02 -6.480277981609106064e-03 3.562012910842895508e-01
2.363154664635658264e-02 -2.155337110161781311e-02 5.190784335136413574e-01
-6.978589296340942383e-02 -2.010076493024826050e-02 4.796851575374603271e-01
-5.443129688501358032e-02 -2.501532435417175293e-02 4.525010287761688232e-01
8.407869376242160797e-03 6.799476221203804016e-03 5.406563878059387207e-01
6.089345365762710571e-02 -2.741618081927299500e-02 4.052974879741668701e-01
6.736320443451404572e-03 -1.105694379657506943e-02 3.368721604347229004e-01
6.836515665054321289e-02 -2.568219415843486786e-02 4.123911559581756592e-01
1.570386253297328949e-02 -2.567768655717372894e-02 4.866769909858703613e-01
-5.076325684785842896e-02 -2.309821173548698425e-02 3.838772475719451904e-01
-2.825866825878620148e-02 -2.189301513135433197e-02 5.321078896522521973e-01
-3.114849887788295746e-02 -2.679471112787723541e-02 4.737007021903991699e-01
-3.181935846805572510e-02 -1.106438040733337402e-02 6.032602787017822266e-01
1.887347921729087830e-02 -1.186555344611406326e-02 3.261331915855407715e-01
6.960355490446090698e-02 -2.445408329367637634e-02 4.255557060241699219e-01
-4.603770375251770020e-02 -2.070348523557186127e-02 5.331073999404907227e-01
-9.373389184474945068e-03 -2.126367762684822083e-03 4.117994606494903564e-01
-4.676698148250579834e-02 3.004647791385650635e-03 5.440523028373718262e-01
8.085504174232482910e-02 -4.899234045296907425e-03 4.031141102313995361e-01
-2.574311383068561554e-02 -2.010133676230907440e-02 3.351332247257232666e-01
-6.136299110949039459e-03 -5.510256160050630569e-03 3.813739717006683350e-01
-4.784151911735534668e-02 -1.401387155055999756e-02 3.864163160324096680e-01
3.910003975033760071e-02 3.568811342120170593e-03 4.663720428943634033e-01
-7.232972979545593262e-02 -3.731305710971355438e-03 5.502387881278991699e-01
-3.218779712915420532e-02 -2.840388566255569458e-02 4.420329332351684570e-01
2.885586023330688477e-02 3.945814445614814758e-03 4.672150015830993652e-01
-3.385393321514129639e-02 5.079949274659156799e-03 5.667188763618469238e-01
-3.082202933728694916e-02 2.707004547119140625e-03 4.931529462337493896e-01
2.551068365573883057e-02 -2.415264025330543518e-04 6.017805337905883789e-01
3.015647269785404205e-02 5.128083750605583191e-03 5.662666559219360352e-01
4.049149900674819946e-02 1.847534440457820892e-03 4.389019906520843506e-01
-6.722790002822875977e-02 -1.351497415453195572e-02 5.622852444648742676e-01
4.038704186677932739e-02 -1.899920403957366943e-02 2.923842072486877441e-01
-1.182055100798606873e-02 -2.858253940939903259e-02 4.576420485973358154e-01
-7.238997519016265869e-02 -9.014766663312911987e-03 4.751608371734619141e-01
-3.700642846524715424e-03 5.845015868544578552e-03 5.940787792205810547e-01
6.007394194602966309e-02 1.206928864121437073e-03 4.513221979141235352e-01
-2.023784071207046509e-02 5.090577527880668640e-03 6.016311645507812500e-01
-3.758633881807327271e-02 4.518931731581687927e-03 5.532793998718261719e-01
3.830921649932861328e-02 -1.871522516012191772e-03 3.943960666656494141e-01
9.847212582826614380e-03 4.363287240266799927e-03 6.010938882827758789e-01
1.983202248811721802e-02 -3.220024332404136658e-02 3.672826886177062988e-01
-1.114860177040100098e-02 6.653262302279472351e-03 5.609263777732849121e-01
7.356341928243637085e-02 -8.016968145966529846e-03 3.597609996795654297e-01
1.692612655460834503e-03 1.440294086933135986e-03 4.395112991333007812e-01
-2.742420323193073273e-02 -1.325711607933044434e-03 4.394412636756896973e-01
-3.949987888336181641e-02 -1.744343526661396027e-02 3.610731661319732666e-01
-5.573447048664093018e-02 -2.448194473981857300e-02 4.615595936775207520e-01
1.994677819311618805e-02 -3.023668378591537476e-02 3.080449104309082031e-01
-3.384048491716384888e-02 -2.727961353957653046e-02 4.624814093112945557e-01
1.885467767715454102e-02 -2.052982524037361145e-02 5.308424234390258789e-01
5.351991206407546997e-02 2.960029989480972290e-03 4.768140017986297607e-01
3.221745789051055908e-02 -7.861783728003501892e-03 3.457571864128112793e-01
-2.575626410543918610e-02 -2.520012483000755310e-02 4.985686540603637695e-01
-1.765846461057662964e-02 6.263043731451034546e-03 5.765016078948974609e-01
-3.156112506985664368e-04 -6.561623420566320419e-03 6.139092445373535156e-01
-5.905572324991226196e-02 -1.588995009660720825e-02 5.593307018280029297e-01
4.345382750034332275e-02 -2.133536338806152344e-02 5.006947517395019531e-01
6.472187489271163940e-02 -1.192997116595506668e-02 5.268192291259765625e-01
8.964388817548751831e-02 -6.757602095603942871e-03 4.111470580101013184e-01
-5.488951504230499268e-02 1.748562790453433990e-03 5.745093822479248047e-01
3.970396518707275391e-02 -1.469856593757867813e-02 5.493287444114685059e-01
8.605555631220340729e-03 -1.756710931658744812e-02 3.079809844493865967e-01
-6.581524014472961426e-02 -2.010680362582206726e-02 5.041599869728088379e-01
-7.530728355050086975e-03 -2.006502822041511536e-02 5.473478436470031738e-01
5.349532514810562134e-02 -7.881809026002883911e-03 5.587409138679504395e-01
-5.403920263051986694e-02 -1.190335489809513092e-02 5.886907577514648438e-01
3.980719484388828278e-03 -3.032793104648590088e-02 3.203395009040832520e-01
1.850133389234542847e-02 -3.188318759202957153e-02 3.321412205696105957e-01
4.721684381365776062e-04 -2.071304619312286377e-02 5.397402048110961914e-01
-3.604222089052200317e-02 -2.488172799348831177e-02 3.536418676376342773e-01
3.742554783821105957e-02 -2.984919585287570953e-02 3.034853339195251465e-01
-4.454516619443893433e-02 -4.303650930523872375e-04 4.778636693954467773e-01
6.154093146324157715e-02 -1.687197573482990265e-02 3.027261495590209961e-01
5.939552560448646545e-03 2.854794263839721680e-03 4.545970559120178223e-01
2.261384949088096619e-02 1.592293381690979004e-03 4.327029287815093994e-01
2.880610339343547821e-02 2.054020762443542480e-03 5.928370952606201172e-01
-2.324859984219074249e-02 -2.952800691127777100e-02 4.306935071945190430e-01
2.307017520070075989e-02 2.388698048889636993e-03 4.428981244564056396e-01
3.181024640798568726e-02 2.137610688805580139e-03 4.399355351924896240e-01
-9.948693215847015381e-03 -2.661623433232307434e-02 3.165886402130126953e-01
-4.789247363805770874e-02 2.977978438138961792e-03 5.820472240447998047e-01
4.056715220212936401e-02 5.000848323106765747e-03 5.119139552116394043e-01
5.177044868469238281e-02 -2.954594045877456665e-02 3.116042613983154297e-01
-2.940135635435581207e-02 -2.588465437293052673e-02 4.880485534667968750e-01
2.393502369523048401e-02 6.107732653617858887e-03 5.184868574142456055e-01
-4.304280132055282593e-02 -2.747501060366630554e-02 4.315117299556732178e-01
-7.276108860969543457e-02 -6.228198297321796417e-03 5.013250708580017090e-01
3.479998558759689331e-02 -3.157579153776168823e-02 3.297235965728759766e-01
-3.931210935115814209e-02 -2.063092589378356934e-02 5.387741327285766602e-01
5.899155884981155396e-02 -1.240348443388938904e-02 5.345224142074584961e-01
7.466212660074234009e-02 -6.450778804719448090e-03 3.745413720607757568e-01
-5.499581247568130493e-02 -1.791436411440372467e-02 3.908141851425170898e-01
-8.888408541679382324e-03 6.228560581803321838e-03 5.296612381935119629e-01
3.833977878093719482e-02 -4.384867846965789795e-03 3.714551925659179688e-01
-3.980005532503128052e-02 -2.817785553634166718e-02 4.069818854331970215e-01
-4.226016253232955933e-02 3.462683409452438354e-03 5.369017124176025391e-01
3.816605545580387115e-03 -1.663270220160484314e-02 5.668718814849853516e-01
6.577133387327194214e-02 -1.183847896754741669e-03 4.217198491096496582e-01
3.890774026513099670e-02 -1.171593926846981049e-02 3.217394948005676270e-01
-2.358904294669628143e-02 -2.689733728766441345e-02 4.778236150741577148e-01
-3.401773422956466675e-02 -2.776962891221046448e-02 3.665478229522705078e-01
1.361420750617980957e-02 -2.849396876990795135e-02 3.009755909442901611e-01
9.372722357511520386e-02 -9.816094301640987396e-03 4.461956620216369629e-01
4.818841069936752319e-02 -4.361328668892383575e-03 5.728726983070373535e-01
7.372355461120605469e-02 -4.084145650267601013e-03 3.976073563098907471e-01
8.230016566812992096e-03 3.523366525769233704e-03 4.627948105335235596e-01
5.419589579105377197e-02 -1.320784911513328552e-03 4.066600203514099121e-01
-2.555750869214534760e-02 -2.998064272105693817e-02 3.793810307979583740e-01
6.786035001277923584e-02 -2.830037102103233337e-02 3.450795710086822510e-01
-4.843665659427642822e-02 -1.026989985257387161e-02 6.003494858741760254e-01
-6.617262959480285645e-03 -3.163004294037818909e-02 3.832364082336425781e-01
-1.720931008458137512e-02 -2.929078415036201477e-02 3.416361808776855469e-01
-3.773131221532821655e-02 -4.043079912662506104e-03 4.297873675823211670e-01
-6.151133775711059570e-02 -1.154894847422838211e-02 4.264274835586547852e-01
8.030410110950469971e-02 -1.341333333402872086e-02 4.872527718544006348e-01
-5.060374736785888672e-02 1.737144775688648224e-03 5.959321260452270508e-01
6.590982526540756226e-02 -2.043519355356693268e-02 4.734758734703063965e-01
2.843586914241313934e-02 -2.300678938627243042e-02 5.025763511657714844e-01
-6.256559863686561584e-04 -3.151753544807434082e-02 3.989397287368774414e-01
6.769058108329772949e-02 -4.593648016452789307e-03 3.837165832519531250e-01
2.587327919900417328e-02 6.358465179800987244e-04 4.209442138671875000e-01
-5.403269082307815552e-02 1.278531737625598907e-03 5.323427319526672363e-01
-1.835963688790798187e-02 -1.727319508790969849e-02 5.691325664520263672e-01
5.336346477270126343e-02 -1.042547728866338730e-02 3.303601741790771484e-01
-4.207517951726913452e-02 -2.027904614806175232e-03 4.555907845497131348e-01
6.624913960695266724e-02 1.329068094491958618e-03 4.867309033870697021e-01
-9.634651243686676025e-03 -9.072815068066120148e-03 3.606707751750946045e-01
7.318789139389991760e-03 -1.061531901359558105e-02 5.960335731506347656e-01
1.775305345654487610e-02 3.470804542303085327e-03 5.992690920829772949e-01
3.799568861722946167e-03 6.139632314443588257e-03 5.147016048431396484e-01
3.215486556291580200e-02 5.787154659628868103e-03 5.256271958351135254e-01
7.339678704738616943e-02 -1.914868131279945374e-02 4.682790338993072510e-01
-6.011173874139785767e-02 -1.824079826474189758e-02 4.038369357585906982e-01
5.813939124345779419e-02 -1.603552699089050293e-02 5.172905325889587402e-01
-5.492341518402099609e-02 1.628318801522254944e-03 5.486190915107727051e-01
6.299470365047454834e-02 1.768063753843307495e-03 4.774364829063415527e-01
3.133843094110488892e-02 -2.902147918939590454e-02 2.970640063285827637e-01
6.122879683971405029e-02 -4.957086872309446335e-03 3.744045495986938477e-01
-3.816859424114227295e-02 -1.213599275797605515e-02 3.782166540622711182e-01
5.662924051284790039e-02 -2.322833426296710968e-02 4.651498496532440186e-01
7.065408676862716675e-02 -2.704166434705257416e-02 3.799713253974914551e-01
-2.461275272071361542e-02 -2.440625801682472229e-02 5.080134272575378418e-01
-5.145836621522903442e-02 1.037816517055034637e-03 5.169703960418701172e-01
-7.371043786406517029e-03 -2.183122187852859497e-02 5.330029726028442383e-01
7.729781791567802429e-04 -1.557730510830879211e-02 5.746562480926513672e-01
3.987500071525573730e-02 4.940466955304145813e-03 5.408430099487304688e-01
-4.444951564073562622e-02 3.720324486494064331e-03 5.652711987495422363e-01
-7.100424170494079590e-02 -1.946409046649932861e-02 4.587288498878479004e-01
4.182543139904737473e-03 -2.893248572945594788e-02 4.519118368625640869e-01
-2.336829714477062225e-02 -2.809641510248184204e-02 4.596440196037292480e-01
-7.121775299310684204e-03 -7.412293925881385803e-04 4.229025244712829590e-01
-1.811655238270759583e-04 -2.893283963203430176e-04 6.215290427207946777e-01
4.657921195030212402e-02 -2.551184594631195068e-02 4.570796489715576172e-01
-1.616957969963550568e-02 -8.652879856526851654e-03 3.695129752159118652e-01
-1.545147784054279327e-02 -2.606172300875186920e-02 4.911910593509674072e-01
-1.058427803218364716e-02 -2.681769989430904388e-02 4.823729097843170166e-01
1.821317151188850403e-02 3.610849380493164062e-03 4.609572887420654297e-01
-3.885224461555480957e-02 -8.732080459594726562e-05 4.706420302391052246e-01
4.028394818305969238e-02 2.554450184106826782e-04 5.821362137794494629e-01
8.622359484434127808e-03 -8.820397779345512390e-03 3.485938906669616699e-01
8.357218652963638306e-02 -6.664370186626911163e-03 3.891899585723876953e-01
4.122292995452880859e-02 -8.927538059651851654e-03 3.380440771579742432e-01
7.492553442716598511e-02 -2.734773792326450348e-03 4.179030358791351318e-01
5.006229132413864136e-02 1.264251768589019775e-04 4.214038550853729248e-01
-3.230661153793334961e-02 -2.012756280601024628e-02 5.463287234306335449e-01
-5.380444228649139404e-02 -2.541939355432987213e-02 4.314239323139190674e-01
9.834175929427146912e-03 -3.128128126263618469e-02 3.260568380355834961e-01
-1.436906494200229645e-02 -2.112353965640068054e-02 5.400544404983520508e-01
4.862905293703079224e-02 -3.052157722413539886e-02 3.246124982833862305e-01
8.336982689797878265e-03 -3.222028911113739014e-02 3.668612539768218994e-01
4.583019018173217773e-02 1.821161247789859772e-03 5.664601325988769531e-01
-3.457655012607574463e-02 -1.561569049954414368e-03 4.475273787975311279e-01
3.734718263149261475e-02 -1.165407430380582809e-02 5.666307210922241211e-01
9.722257964313030243e-03 -2.704465016722679138e-02 4.747301042079925537e-01
1.607047207653522491e-02 5.068130791187286377e-03 4.865036308765411377e-01
-5.087872594594955444e-02 -6.576369050890207291e-03 4.331946969032287598e-01
-7.529082894325256348e-02 -1.650299504399299622e-02 5.073156356811523438e-01
-5.599643290042877197e-02 -1.141976471990346909e-02 4.141013324260711670e-01
7.236629724502563477e-02 -1.390229910612106323e-02 5.032295584678649902e-01
-6.633776426315307617e-02 -1.766656897962093353e-02 5.315104722976684570e-01
1.436270214617252350e-02 -2.483150362968444824e-02 4.962619543075561523e-01
7.879831641912460327e-02 -8.642960339784622192e-03 5.063568949699401855e-01
7.024355232715606689e-02 -1.259021647274494171e-02 3.266733884811401367e-01
-1.031478866934776306e-03 4.691870883107185364e-03 6.055228710174560547e-01
8.248873800039291382e-02 -2.230438962578773499e-02 4.126925468444824219e-01
9.675024077296257019e-03 -3.099887445569038391e-02 4.133804142475128174e-01
-5.410546436905860901e-04 -2.538955770432949066e-03 4.009414315223693848e-01
-1.977516524493694305e-02 -3.060425631701946259e-02 3.998928666114807129e-01
-5.646396428346633911e-02 1.070618629455566406e-03 5.838093161582946777e-01
9.920434094965457916e-03 -1.299478579312562943e-02 5.837292671203613281e-01
-8.496809750795364380e-03 -2.921567298471927643e-02 4.481253325939178467e-01
4.041308909654617310e-02 4.813680425286293030e-03 5.009980797767639160e-01
8.269999921321868896e-02 -3.638197667896747589e-03 4.308773875236511230e-01
7.764586061239242554e-02 -1.961579546332359314e-03 4.422938525676727295e-01
-7.841477170586585999e-03 -2.744354307651519775e-02 4.743917286396026611e-01
6.395952403545379639e-02 -1.291073299944400787e-02 3.207936286926269531e-01
-2.490069717168807983e-03 4.906607791781425476e-03 4.920176565647125244e-01
2.604322880506515503e-02 -9.524974040687084198e-03 5.863611102104187012e-01
3.090572729706764221e-02 -1.515633240342140198e-02 5.560052394866943359e-01
5.638608708977699280e-03 6.653632968664169312e-03 5.717027783393859863e-01
2.887848764657974243e-02 -2.961331047117710114e-03 3.843024969100952148e-01
4.176092892885208130e-02 3.893256187438964844e-03 4.762302041053771973e-01
6.889994442462921143e-02 -6.355814170092344284e-03 3.685598969459533691e-01
2.930744737386703491e-02 -6.599118933081626892e-04 4.064814448356628418e-01
1.612001657485961914e-02 -2.060238644480705261e-02 2.958884835243225098e-01
5.806137342005968094e-03 -1.436542160809040070e-02 3.215982913970947266e-01
-8.082743734121322632e-03 -2.407090179622173309e-02 5.125853419303894043e-01
-1.000600606203079224e-01 3.745022416114807129e-02 -7.382698655128479004e-01
-1.060792133212089539e-01 4.319996386766433716e-02 -7.394767403602600098e-01
-1.184145361185073853e-01 6.237312033772468567e-02 -7.515760064125061035e-01
-1.094850450754165649e-01 3.529976680874824524e-02 -7.414627671241760254e-01
-1.197717189788818359e-01 4.887865111231803894e-02 -7.459893822669982910e-01
-1.201275438070297241e-01 7.438123971223831177e-02 -7.545579075813293457e-01
-1.259876638650894165e-01 6.031590327620506287e-02 -7.493216395378112793e-01
-1.164155080914497375e-01 6.715839356184005737e-02 -7.527840733528137207e-01
-1.210668906569480896e-01 5.204301327466964722e-02 -7.435152530670166016e-01
-1.029638126492500305e-01 4.502604901790618896e-02 -7.404659390449523926e-01
-1.046941503882408142e-01 4.614019766449928284e-02 -7.457334399223327637e-01
-1.235175654292106628e-01 7.813089340925216675e-02 -7.553167343139648438e-01
-1.090524718165397644e-01 4.838540777564048767e-02 -7.468962073326110840e-01
-1.150850579142570496e-01 4.571389779448509216e-02 -7.456042766571044922e-01
-9.926658123731613159e-02 2.695006877183914185e-02 -7.358543276786804199e-01
-1.118994429707527161e-01 6.373801827430725098e-02 -7.469141483306884766e-01
-1.254334151744842529e-01 6.904788315296173096e-02 -7.531003952026367188e-01
-1.097507476806640625e-01 3.359048813581466675e-02 -7.403882145881652832e-01
-1.043305769562721252e-01 2.867730334401130676e-02 -7.384718656539916992e-01
-9.904555976390838623e-02 3.422210365533828735e-02 -7.374362349510192871e-01
-1.028235629200935364e-01 3.576408326625823975e-02 -7.374198436737060547e-01
-1.258491873741149902e-01 7.586391270160675049e-02 -7.518078088760375977e-01
-1.252544969320297241e-01 7.396436482667922974e-02 -7.509070038795471191e-01
-1.047971770167350769e-01 3.945739939808845520e-02 -7.383819818496704102e-01
-1.185345500707626343e-01 6.285209208726882935e-02 -7.461421489715576172e-01
-1.009922623634338379e-01 3.311962634325027466e-02 -7.407062053680419922e-01
-1.141683086752891541e-01 3.795616328716278076e-02 -7.395235300064086914e-01
-1.075584590435028076e-01 4.141880944371223450e-02 -7.389166355133056641e-01
-1.022394597530364990e-01 3.379591926932334900e-02 -7.369308471679687500e-01
-1.166833713650703430e-01 6.147360056638717651e-02 -7.513048648834228516e-01
-9.846623986959457397e-02 4.026759043335914612e-02 -7.424203753471374512e-01
-1.097631901502609253e-01 4.911162704229354858e-02 -7.412835955619812012e-01
-9.962302446365356445e-02 3.613755851984024048e-02 -7.379222512245178223e-01
-1.226348131895065308e-01 6.573172658681869507e-02 -7.474952340126037598e-01
-1.120150610804557800e-01 6.834699958562850952e-02 -7.494925856590270996e-01
-9.875293076038360596e-02 3.842513263225555420e-02 -7.389652729034423828e-01
-1.199550926685333252e-01 5.653996020555496216e-02 -7.494159936904907227e-01
-1.039573624730110168e-01 3.450942039489746094e-02 -7.414829134941101074e-01
-1.125880330801010132e-01 5.369765311479568481e-02 -7.487909197807312012e-01
-1.178476661443710327e-01 5.483874306082725525e-02 -7.490165233612060547e-01
-1.230192705988883972e-01 6.022885814309120178e-02 -7.503349184989929199e-01
-1.086076050996780396e-01 4.075242206454277039e-02 -7.387721538543701172e-01
-1.162222251296043396e-01 4.523647204041481018e-02 -7.451601028442382812e-01
-1.216866374015808105e-01 6.186873838305473328e-02 -7.511802911758422852e-01
-1.159749925136566162e-01 6.797740608453750610e-02 -7.483228445053100586e-01
-1.039429008960723877e-01 3.930427879095077515e-02 -7.433767318725585938e-01
-1.023212373256683350e-01 2.793183736503124237e-02 -7.382211089134216309e-01
-1.050954461097717285e-01 4.683872684836387634e-02 -7.408176660537719727e-01
-1.018347963690757751e-01 3.952517360448837280e-02 -7.431855201721191406e-01
-1.086519286036491394e-01 6.066983938217163086e-02 -7.500175237655639648e-01
-1.150623559951782227e-01 4.610924795269966125e-02 -7.408000230789184570e-01
-1.177815869450569153e-01 6.838178634643554688e-02 -7.483531236648559570e-01
-1.222317591309547424e-01 7.650203257799148560e-02 -7.550598382949829102e-01
-1.141262575984001160e-01 3.720249235630035400e-02 -7.409315705299377441e-01
-1.133763343095779419e-01 4.446259140968322754e-02 -7.452872395515441895e-01
-1.035934463143348694e-01 3.125401213765144348e-02 -7.399872541427612305e-01
-1.167194545269012451e-01 6.583120673894882202e-02 -7.473098635673522949e-01
-1.209883764386177063e-01 7.263554632663726807e-02 -7.543275356292724609e-01
-1.104431375861167908e-01 3.460643813014030457e-02 -7.408301234245300293e-01
-1.220763698220252991e-01 7.940509915351867676e-02 -7.542572021484375000e-01
-1.159882843494415283e-01 4.119966924190521240e-02 -7.403515577316284180e-01
-1.017306745052337646e-01 3.708887845277786255e-02 -7.378953099250793457e-01
-9.727850556373596191e-02 2.729157917201519012e-02 -7.364658713340759277e-01
-1.190875321626663208e-01 4.420900344848632812e-02 -7.429426312446594238e-01
-1.020133495330810547e-01 2.905528433620929718e-02 -7.359778881072998047e-01
-1.226999163627624512e-01 5.183830484747886658e-02 -7.443556785583496094e-01
-1.237307786941528320e-01 7.103162258863449097e-02 -7.539062500000000000e-01
-1.268109977245330811e-01 7.358815521001815796e-02 -7.542383074760437012e-01
-1.010932475328445435e-01 2.573306486010551453e-02 -7.364248037338256836e-01
-1.225092709064483643e-01 7.074382901191711426e-02 -7.538920044898986816e-01
-1.128388643264770508e-01 3.800430893898010254e-02 -7.389325499534606934e-01
-1.196179538965225220e-01 7.052828371524810791e-02 -7.492214441299438477e-01
-9.814457595348358154e-02 4.248405620455741882e-02 -7.412189245223999023e-01
-1.129646226763725281e-01 6.674766540527343750e-02 -7.521120309829711914e-01
-1.106291040778160095e-01 4.973825067281723022e-02 -7.474189400672912598e-01
-1.063013672828674316e-01 5.002369359135627747e-02 -7.418698072433471680e-01
-1.082421094179153442e-01 3.877308219671249390e-02 -7.432531118392944336e-01
-1.020295619964599609e-01 3.691734373569488525e-02 -7.423012852668762207e-01
-1.057442501187324524e-01 3.653667867183685303e-02 -7.423635721206665039e-01
-1.073810905218124390e-01 6.031477451324462891e-02 -7.463818192481994629e-01
-1.185353696346282959e-01 7.269835472106933594e-02 -7.540964484214782715e-01
-1.085457876324653625e-01 5.289983004331588745e-02 -7.482407093048095703e-01
-1.022840738296508789e-01 3.197669237852096558e-02 -7.403151988983154297e-01
-1.100484132766723633e-01 5.819643661379814148e-02 -7.498430609703063965e-01
-1.110268533229827881e-01 3.771676868200302124e-02 -7.384185194969177246e-01
-1.143489405512809753e-01 6.430626660585403442e-02 -7.519005537033081055e-01
-9.901862591505050659e-02 3.978014737367630005e-02 -7.394089698791503906e-01
-1.043590009212493896e-01 3.267168998718261719e-02 -7.366786003112792969e-01
-1.183277741074562073e-01 7.088190317153930664e-02 -7.537632584571838379e-01
-1.083096638321876526e-01 4.950365796685218811e-02 -7.414793372154235840e-01
-1.098848357796669006e-01 3.675663843750953674e-02 -7.380458712577819824e-01
-1.125564426183700562e-01 4.626921936869621277e-02 -7.405154705047607422e-01
-1.108759194612503052e-01 4.679465293884277344e-02 -7.405610084533691406e-01
-1.031074821949005127e-01 4.203927889466285706e-02 -7.393498420715332031e-01
-1.141659915447235107e-01 6.098428741097450256e-02 -7.454566955566406250e-01
-1.042556166648864746e-01 4.786945134401321411e-02 -7.461459636688232422e-01
-1.236500069499015808e-01 5.382030829787254333e-02 -7.469111084938049316e-01
-9.684676676988601685e-02 3.506158292293548584e-02 -7.402242422103881836e-01
-1.140117868781089783e-01 5.271935835480690002e-02 -7.425104379653930664e-01
-9.728228300809860229e-02 3.390011191368103027e-02 -7.378642559051513672e-01
-1.197325214743614197e-01 5.481174215674400330e-02 -7.437617182731628418e-01
-1.205760315060615540e-01 4.886430129408836365e-02 -7.429381012916564941e-01
-1.247705072164535522e-01 7.741611450910568237e-02 -7.524764537811279297e-01
-1.023522168397903442e-01 4.356462508440017700e-02 -7.400227189064025879e-01
-1.186584383249282837e-01 6.664957106113433838e-02 -7.475959062576293945e-01
-1.266426444053649902e-01 6.681791692972183228e-02 -7.520130276679992676e-01
-1.232588291168212891e-01 6.977497041225433350e-02 -7.535864114761352539e-01
-1.075899451971054077e-01 5.920857191085815430e-02 -7.456945180892944336e-01
-1.230227425694465637e-01 7.928224653005599976e-02 -7.552091479301452637e-01
-1.036952137947082520e-01 4.380144178867340088e-02 -7.448629736900329590e-01
-1.107209548354148865e-01 5.571952089667320251e-02 -7.436146140098571777e-01
-1.084393039345741272e-01 5.732759833335876465e-02 -7.445783019065856934e-01
-1.151838973164558411e-01 6.938318163156509399e-02 -7.491426467895507812e-01
-1.106520146131515503e-01 6.416390836238861084e-02 -7.474241256713867188e-01
-1.073984876275062561e-01 4.941242933273315430e-02 -7.470837235450744629e-01
-1.220687106251716614e-01 7.487981766462326050e-02 -7.548112273216247559e-01
-1.169030293822288513e-01 5.889106169342994690e-02 -7.504981756210327148e-01
-1.026590242981910706e-01 2.758629806339740753e-02 -7.359247803688049316e-01
-1.102981120347976685e-01 5.698831006884574890e-02 -7.441586256027221680e-01
-1.173469126224517822e-01 6.863339245319366455e-02 -7.532030940055847168e-01
-1.168295592069625854e-01 5.531449243426322937e-02 -7.435081005096435547e-01
-1.273377686738967896e-01 6.360851973295211792e-02 -7.483540177345275879e-01
-1.088352575898170471e-01 6.537210196256637573e-02 -7.496904134750366211e-01
-1.050037965178489685e-01 3.486337512731552124e-02 -7.371701002120971680e-01
-1.172169595956802368e-01 4.190512001514434814e-02 -7.410842180252075195e-01
-1.173662841320037842e-01 7.296739518642425537e-02 -7.506930232048034668e-01
-1.080838367342948914e-01 5.046860128641128540e-02 -7.474786639213562012e-01
-9.741950780153274536e-02 3.863142430782318115e-02 -7.414456605911254883e-01
-1.187362149357795715e-01 5.325428768992424011e-02 -7.431748509407043457e-01
-1.244041770696640015e-01 7.872498035430908203e-02 -7.532190084457397461e-01
-1.163355484604835510e-01 4.640002548694610596e-02 -7.456942796707153320e-01
-1.067633628845214844e-01 5.284020304679870605e-02 -7.479407787322998047e-01
-1.165389567613601685e-01 4.887082427740097046e-02 -7.467687129974365234e-01
-1.182945519685745239e-01 5.851652473211288452e-02 -7.503144145011901855e-01
-1.123787164688110352e-01 4.123994708061218262e-02 -7.439635396003723145e-01
-1.256794035434722900e-01 6.927078962326049805e-02 -7.492045760154724121e-01
-1.067828088998794556e-01 5.441593751311302185e-02 -7.483227252960205078e-01
-1.178442686796188354e-01 7.454196363687515259e-02 -7.541003227233886719e-01
-1.002069115638732910e-01 4.889363795518875122e-02 -7.443857192993164062e-01
-1.213575154542922974e-01 7.714305073022842407e-02 -7.524933218955993652e-01
-1.048779413104057312e-01 4.504749923944473267e-02 -7.401932477951049805e-01
-1.125944629311561584e-01 3.948437422513961792e-02 -7.390342950820922852e-01
-1.250232607126235962e-01 6.285828351974487305e-02 -7.509081363677978516e-01
-1.111459136009216309e-01 5.734879896044731140e-02 -7.497791647911071777e-01
-1.244475692510604858e-01 5.500579252839088440e-02 -7.470542192459106445e-01
-1.155643761157989502e-01 5.353409796953201294e-02 -7.487025260925292969e-01
-1.193991154432296753e-01 7.310955226421356201e-02 -7.504633069038391113e-01
-1.119962781667709351e-01 3.689429908990859985e-02 -7.417715191841125488e-01
-1.116716861724853516e-01 4.501268267631530762e-02 -7.401029467582702637e-01
-1.072226837277412415e-01 5.738409236073493958e-02 -7.490458488464355469e-01
-1.000892072916030884e-01 2.849258109927177429e-02 -7.385013103485107422e-01
-1.029084175825119019e-01 3.519497811794281006e-02 -7.417212128639221191e-01
-1.245846748352050781e-01 7.566200196743011475e-02 -7.515978217124938965e-01
-1.069703102111816406e-01 3.693075105547904968e-02 -7.425073981285095215e-01
-1.174353957176208496e-01 6.675185263156890869e-02 -7.476658821105957031e-01
-1.009226962924003601e-01 2.828939817845821381e-02 -7.358726859092712402e-01
-1.196607649326324463e-01 5.458349362015724182e-02 -7.486755847930908203e-01
-1.223922297358512878e-01 7.227931171655654907e-02 -7.542787790298461914e-01
-9.682625532150268555e-02 3.068042546510696411e-02 -7.387036085128784180e-01
-1.032165810465812683e-01 3.350706398487091064e-02 -7.410288453102111816e-01
-1.059557944536209106e-01 5.092927441000938416e-02 -7.472957968711853027e-01
-1.050288379192352295e-01 3.838939964771270752e-02 -7.431031465530395508e-01
-1.022256910800933838e-01 3.249988704919815063e-02 -7.366194128990173340e-01
-1.142882555723190308e-01 5.871043354272842407e-02 -7.445777058601379395e-01
-1.184321641921997070e-01 4.451724514365196228e-02 -7.416583895683288574e-01
-1.008267551660537720e-01 3.142683953046798706e-02 -7.364431023597717285e-01
-1.239831745624542236e-01 7.449072599411010742e-02 -7.547557353973388672e-01
-1.175395473837852478e-01 5.748438835144042969e-02 -7.500004172325134277e-01
-1.206563562154769897e-01 6.543718278408050537e-02 -7.524482607841491699e-01
-1.059378758072853088e-01 3.113130666315555573e-02 -7.366086244583129883e-01
-1.101408675312995911e-01 6.516216695308685303e-02 -7.481918334960937500e-01
-1.109954714775085449e-01 3.336666896939277649e-02 -7.395908832550048828e-01
-1.174489855766296387e-01 5.082558840513229370e-02 -7.423335313796997070e-01
-1.095751747488975525e-01 5.074286088347434998e-02 -7.476959228515625000e-01
-1.103440299630165100e-01 4.180078953504562378e-02 -7.391621470451354980e-01
-1.048102304339408875e-01 5.609833449125289917e-02 -7.450476884841918945e-01
-1.206287741661071777e-01 7.570566982030868530e-02 -7.547819018363952637e-01
-1.060370951890945435e-01 4.126884043216705322e-02 -7.442416548728942871e-01
-1.097462326288223267e-01 3.876866027712821960e-02 -7.431418299674987793e-01
-1.062130481004714966e-01 3.869920596480369568e-02 -7.432581186294555664e-01
-1.026528030633926392e-01 2.672818861901760101e-02 -7.372942566871643066e-01
-1.074897050857543945e-01 5.518195778131484985e-02 -7.438057065010070801e-01
-1.133424565196037292e-01 5.990349501371383667e-02 -7.506883740425109863e-01
-1.228957399725914001e-01 6.264120340347290039e-02 -7.512870430946350098e-01
-1.140005812048912048e-01 7.178818434476852417e-02 -7.511643171310424805e-01
-1.018942892551422119e-01 4.824766889214515686e-02 -7.455623149871826172e-01
-1.121491715312004089e-01 3.524616360664367676e-02 -7.405747175216674805e-01
-1.072190478444099426e-01 5.145734548568725586e-02 -7.476529479026794434e-01
-1.169230639934539795e-01 7.076115906238555908e-02 -7.535437345504760742e-01
-1.174250394105911255e-01 7.510021328926086426e-02 -7.521317601203918457e-01
-1.159539446234703064e-01 5.043623223900794983e-02 -7.474937438964843750e-01
-1.046084612607955933e-01 4.944520443677902222e-02 -7.419168949127197266e-01
-1.222998052835464478e-01 5.420514941215515137e-02 -7.443354725837707520e-01
-1.178447753190994263e-01 4.885417968034744263e-02 -7.419662475585937500e-01
-1.021204963326454163e-01 4.020669311285018921e-02 -7.388550043106079102e-01
-1.051006913185119629e-01 3.093003295361995697e-02 -7.397252917289733887e-01
-1.254752278327941895e-01 6.135319918394088745e-02 -7.500976324081420898e-01
-1.136690005660057068e-01 3.642480820417404175e-02 -7.395748496055603027e-01
-1.029658466577529907e-01 4.892536997795104980e-02 -7.420857548713684082e-01
-1.287137866020202637e-01 7.124088704586029053e-02 -7.528910040855407715e-01
-1.081674471497535706e-01 6.362611055374145508e-02 -7.482310533523559570e-01
-1.100973859429359436e-01 6.295059621334075928e-02 -7.469286918640136719e-01
-1.063377857208251953e-01 5.648567900061607361e-02 -7.446835637092590332e-01
-1.210325807332992554e-01 6.092812493443489075e-02 -7.457178235054016113e-01
-1.025810167193412781e-01 4.760664328932762146e-02 -7.416102290153503418e-01
-1.061771959066390991e-01 4.588757455348968506e-02 -7.403646707534790039e-01
-1.123219951987266541e-01 4.791000112891197205e-02 -7.409583330154418945e-01
-1.094794943928718567e-01 4.136649891734123230e-02 -7.442899346351623535e-01
-1.065802648663520813e-01 3.977443277835845947e-02 -7.436904907226562500e-01
-1.124054118990898132e-01 3.844536095857620239e-02 -7.425488829612731934e-01
-1.126135662198066711e-01 4.425175487995147705e-02 -7.400029897689819336e-01
-1.010584980249404907e-01 3.485470265150070190e-02 -7.373077273368835449e-01
-1.224159151315689087e-01 6.294056773185729980e-02 -7.465528845787048340e-01
-1.125431954860687256e-01 6.224240735173225403e-02 -7.511811852455139160e-01
-1.165793314576148987e-01 4.085582122206687927e-02 -7.423341274261474609e-01
-1.098767146468162537e-01 6.567387282848358154e-02 -7.508506774902343750e-01
-1.177863776683807373e-01 4.557198658585548401e-02 -7.448905706405639648e-01
-1.050851643085479736e-01 5.503376573324203491e-02 -7.479475736618041992e-01
-1.255720406770706177e-01 7.055163383483886719e-02 -7.496302723884582520e-01
-1.139351129531860352e-01 4.724722355604171753e-02 -7.409151792526245117e-01
-1.280327588319778442e-01 6.521302461624145508e-02 -7.505695223808288574e-01
-1.106400713324546814e-01 3.420745208859443665e-02 -7.380210757255554199e-01
-1.109762862324714661e-01 4.288937151432037354e-02 -7.394911050796508789e-01
-1.206652224063873291e-01 4.743546992540359497e-02 -7.445147037506103516e-01
-1.254018545150756836e-01 7.987181842327117920e-02 -7.540031075477600098e-01
-1.105254143476486206e-01 3.713893145322799683e-02 -7.422465682029724121e-01
-1.082375720143318176e-01 4.337173327803611755e-02 -7.394878268241882324e-01
-1.041571274399757385e-01 5.611346289515495300e-02 -7.475668787956237793e-01
-1.240700334310531616e-01 6.370452791452407837e-02 -7.471020817756652832e-01
-1.045058518648147583e-01 5.299833044409751892e-02 -7.473987340927124023e-01
-1.000860556960105896e-01 3.889447450637817383e-02 -7.387679219245910645e-01
-1.032038480043411255e-01 4.990237951278686523e-02 -7.463615536689758301e-01
-1.007940322160720825e-01 3.315377607941627502e-02 -7.368692755699157715e-01
-1.006846800446510315e-01 4.999450594186782837e-02 -7.440096735954284668e-01
-1.143753081560134888e-01 6.189075112342834473e-02 -7.513071894645690918e-01
-1.167078912258148193e-01 7.178251445293426514e-02 -7.501499652862548828e-01
-1.238514259457588196e-01 7.082748413085937500e-02 -7.494878768920898438e-01
-1.009171754121780396e-01 4.324730485677719116e-02 -7.402273416519165039e-01
-1.132581830024719238e-01 4.980302602052688599e-02 -7.474359273910522461e-01
-9.938088804483413696e-02 2.923107519745826721e-02 -7.361193895339965820e-01
-1.037982776761054993e-01 4.071765765547752380e-02 -7.388330698013305664e-01
-1.247237026691436768e-01 5.836872756481170654e-02 -7.460604310035705566e-01
-1.089011356234550476e-01 5.931451916694641113e-02 -7.498542070388793945e-01
-1.211755797266960144e-01 5.738476663827896118e-02 -7.447223067283630371e-01
-1.132485717535018921e-01 5.568847805261611938e-02 -7.434950470924377441e-01
-1.144739538431167603e-01 5.167231708765029907e-02 -7.480759620666503906e-01
-1.219919547438621521e-01 5.008229613304138184e-02 -7.439116239547729492e-01
-1.089005097746849060e-01 6.034825742244720459e-02 -7.459071874618530273e-01
-1.192080900073051453e-01 7.520414888858795166e-02 -7.544794678688049316e-01
-1.149182617664337158e-01 4.696312174201011658e-02 -7.461765408515930176e-01
-9.975853562355041504e-02 3.005201742053031921e-02 -7.392292618751525879e-01
-1.199781075119972229e-01 4.581789672374725342e-02 -7.436400651931762695e-01
-1.028276234865188599e-01 4.115504398941993713e-02 -7.438835501670837402e-01
-1.208346784114837646e-01 7.020469009876251221e-02 -7.537689805030822754e-01
-1.077919453382492065e-01 4.308776557445526123e-02 -7.449805140495300293e-01
-1.181445866823196411e-01 5.908048525452613831e-02 -7.448161244392395020e-01
-1.185597777366638184e-01 7.693207263946533203e-02 -7.537540793418884277e-01
-1.288351267576217651e-01 7.698286324739456177e-02 -7.530643939971923828e-01
-1.129358708858489990e-01 6.185324490070343018e-02 -7.459103465080261230e-01
-1.030076369643211365e-01 3.834044188261032104e-02 -7.429345250129699707e-01
-1.017088666558265686e-01 3.506815433502197266e-02 -7.415641546249389648e-01
-1.212510243058204651e-01 5.114939808845520020e-02 -7.466453313827514648e-01
-1.144612580537796021e-01 6.702379882335662842e-02 -7.524796128273010254e-01
-1.206205934286117554e-01 6.677150726318359375e-02 -7.528461813926696777e-01
-1.226471215486526489e-01 7.749657332897186279e-02 -7.525615096092224121e-01
-1.021760925650596619e-01 3.902393579483032227e-02 -7.384542822837829590e-01
-1.239462941884994507e-01 5.722463130950927734e-02 -7.455161809921264648e-01
-1.257910728454589844e-01 7.875377684831619263e-02 -7.532754540443420410e-01
-9.735861420631408691e-02 3.713360056281089783e-02 -7.390559911727905273e-01
-1.077882573008537292e-01 6.272032856941223145e-02 -7.497358322143554688e-01
-1.074402481317520142e-01 5.959277972579002380e-02 -7.494561076164245605e-01
-1.132169365882873535e-01 4.127676784992218018e-02 -7.394667267799377441e-01
-1.282885819673538208e-01 7.388660311698913574e-02 -7.539482712745666504e-01
-1.020202711224555969e-01 3.003614395856857300e-02 -7.393873929977416992e-01
-1.001973375678062439e-01 3.573187440633773804e-02 -7.415876388549804688e-01
-1.079439073801040649e-01 3.610229864716529846e-02 -7.420703768730163574e-01
-1.252326667308807373e-01 7.179398089647293091e-02 -7.500343918800354004e-01
-1.148265525698661804e-01 5.912563204765319824e-02 -7.505558729171752930e-01
-1.125346794724464417e-01 7.005899399518966675e-02 -7.519207596778869629e-01
-1.109427362680435181e-01 5.915712937712669373e-02 -7.449871897697448730e-01
-9.844937175512313843e-02 4.254126921296119690e-02 -7.428073883056640625e-01
-1.051612645387649536e-01 5.327421054244041443e-02 -7.434674501419067383e-01
-1.121598407626152039e-01 4.308217018842697144e-02 -7.396669983863830566e-01
-1.159156560897827148e-01 5.091083049774169922e-02 -7.421294450759887695e-01
-1.074255257844924927e-01 4.712318629026412964e-02 -7.407035827636718750e-01
-1.153853014111518860e-01 6.832697242498397827e-02 -7.528755664825439453e-01
-1.223566755652427673e-01 7.420353591442108154e-02 -7.508495450019836426e-01
-1.176284253597259521e-01 6.499208509922027588e-02 -7.469398379325866699e-01
-1.137795075774192810e-01 4.208062961697578430e-02 -7.441288828849792480e-01
-1.297941654920578003e-01 7.373785227537155151e-02 -7.527178525924682617e-01
-1.114484295248985291e-01 5.942356586456298828e-02 -7.503536939620971680e-01
-1.044904068112373352e-01 5.224586278200149536e-02 -7.431724071502685547e-01
-1.067848950624465942e-01 6.074480339884757996e-02 -7.491989135742187500e-01
-1.274782717227935791e-01 6.868170201778411865e-02 -7.495347261428833008e-01
-1.120635494589805603e-01 5.647978931665420532e-02 -7.496218681335449219e-01
-1.025029718875885010e-01 5.345890298485755920e-02 -7.448170781135559082e-01
-1.293121874332427979e-01 7.106310129165649414e-02 -7.512220144271850586e-01
-1.084356904029846191e-01 5.080655962228775024e-02 -7.419403791427612305e-01
-1.054167822003364563e-01 4.980504885315895081e-02 -7.468959093093872070e-01
-1.119363829493522644e-01 3.409447520971298218e-02 -7.390930056571960449e-01
-1.037899404764175415e-01 5.317899957299232483e-02 -7.438707947731018066e-01
-1.244042739272117615e-01 7.896472513675689697e-02 -7.554087042808532715e-01
-1.162288188934326172e-01 4.665655642747879028e-02 -7.411452531814575195e-01
-9.852040559053421021e-02 3.137357532978057861e-02 -7.367399334907531738e-01
-1.180642619729042053e-01 6.366442143917083740e-02 -7.519666552543640137e-01
-1.214853599667549133e-01 5.233577266335487366e-02 -7.471874356269836426e-01
-1.045402288436889648e-01 4.301755502820014954e-02 -7.395249009132385254e-01
-1.222680360078811646e-01 6.480376422405242920e-02 -7.521278262138366699e-01
-9.631389379501342773e-02 3.296223655343055725e-02 -7.381408214569091797e-01
-1.121100559830665588e-01 6.864547729492187500e-02 -7.519111037254333496e-01
-1.208298280835151672e-01 7.611836493015289307e-02 -7.519403696060180664e-01
-1.098131239414215088e-01 5.484843999147415161e-02 -7.433531284332275391e-01
-1.197714507579803467e-01 5.902528017759323120e-02 -7.503740787506103516e-01
-1.140063852071762085e-01 4.496232047677040100e-02 -7.403644323348999023e-01
-1.107746586203575134e-01 4.235096648335456848e-02 -7.446267604827880859e-01
-1.114397495985031128e-01 6.538478285074234009e-02 -7.515092492103576660e-01
-1.275467872619628906e-01 7.551055401563644409e-02 -7.519602179527282715e-01
-1.062284633517265320e-01 2.849715575575828552e-02 -7.370401620864868164e-01
-1.151887550950050354e-01 7.152365148067474365e-02 -7.503826022148132324e-01
-1.012313961982727051e-01 4.926508292555809021e-02 -7.429586648941040039e-01
-1.184382438659667969e-01 6.028183922171592712e-02 -7.452380061149597168e-01
-1.150899156928062439e-01 4.935067147016525269e-02 -7.471448779106140137e-01
-1.291934549808502197e-01 6.963612884283065796e-02 -7.508322000503540039e-01
-1.201824545860290527e-01 6.857277452945709229e-02 -7.533458471298217773e-01
-1.269127130508422852e-01 6.708763539791107178e-02 -7.488757371902465820e-01
-1.249408870935440063e-01 5.717744305729866028e-02 -7.481675744056701660e-01
-1.004626601934432983e-01 4.766537994146347046e-02 -7.447537183761596680e-01
-1.166863888502120972e-01 5.526840314269065857e-02 -7.492662072181701660e-01
-1.189807653427124023e-01 5.190412700176239014e-02 -7.428947091102600098e-01
-1.032607480883598328e-01 2.951145172119140625e-02 -7.390909790992736816e-01
-1.046344563364982605e-01 4.291784390807151794e-02 -7.447065114974975586e-01
-1.062068194150924683e-01 3.201748058199882507e-02 -7.401935458183288574e-01
-1.152932569384574890e-01 6.448668986558914185e-02 -7.468270659446716309e-01
-1.035323143005371094e-01 4.677309468388557434e-02 -7.410426735877990723e-01
-9.642530232667922974e-02 3.633604198694229126e-02 -7.399005293846130371e-01
-1.106256917119026184e-01 5.286040157079696655e-02 -7.484317421913146973e-01
-1.037606969475746155e-01 3.740866854786872864e-02 -7.378324866294860840e-01
-1.114562526345252991e-01 6.724065542221069336e-02 -7.516360282897949219e-01
-1.160205826163291931e-01 6.263012439012527466e-02 -7.516160607337951660e-01
-1.136899888515472412e-01 7.074930518865585327e-02 -7.525737285614013672e-01
-9.888471662998199463e-02 3.608403727412223816e-02 -7.414005398750305176e-01
-9.733754396438598633e-02 3.911976516246795654e-02 -7.400151491165161133e-01
-1.168216764926910400e-01 4.824089258909225464e-02 -7.416085600852966309e-01
-1.004920303821563721e-01 3.744264692068099976e-02 -7.422397136688232422e-01
-9.776774048805236816e-02 2.974054217338562012e-02 -7.386745810508728027e-01
-9.923899173736572266e-02 3.364385664463043213e-02 -7.406304478645324707e-01
-1.159355565905570984e-01 5.174733698368072510e-02 -7.480104565620422363e-01
-1.061998307704925537e-01 5.668788775801658630e-02 -7.486047148704528809e-01
-1.115934029221534729e-01 4.944170266389846802e-02 -7.413926720619201660e-01
-1.149169728159904480e-01 5.671293660998344421e-02 -7.498062849044799805e-01
-1.264382600784301758e-01 5.921394750475883484e-02 -7.479019165039062500e-01
-1.190954744815826416e-01 4.695118218660354614e-02 -7.420769929885864258e-01
-1.230186223983764648e-01 5.954445153474807739e-02 -7.457094788551330566e-01
-1.141393631696701050e-01 3.848531842231750488e-02 -7.419944405555725098e-01
-1.037913560867309570e-01 5.498663336038589478e-02 -7.449146509170532227e-01
-1.020821481943130493e-01 4.362700134515762329e-02 -7.444992065429687500e-01
-1.218801885843276978e-01 7.545020431280136108e-02 -7.514779567718505859e-01
-1.170266494154930115e-01 4.354365915060043335e-02 -7.440054416656494141e-01
