-4.231015443801879883e-01 -8.168210387229919434e-01 5.317471921443939209e-02
-2.934023141860961914e-01 -7.593825459480285645e-01 1.565054655075073242e-01
-3.399914801120758057e-01 -6.761748194694519043e-01 -5.452506542205810547e-01
-4.252161979675292969e-01 -6.363117694854736328e-01 -2.358221262693405151e-01
-5.367598533630371094e-01 -6.887887716293334961e-01 1.620422899723052979e-01
-6.042507886886596680e-01 -6.672466993331909180e-01 2.716763317584991455e-02
-1.459534317255020142e-01 -7.032381892204284668e-01 -2.056852877140045166e-01
-3.384296894073486328e-01 -8.218543529510498047e-01 -1.452002227306365967e-01
-6.357674598693847656e-01 -7.426872253417968750e-01 -1.837422102689743042e-01
-2.594507336616516113e-01 -7.785354852676391602e-01 1.104183197021484375e-01
-4.254301190376281738e-01 -6.779456734657287598e-01 1.041543483734130859e-01
-6.266841888427734375e-01 -6.708483099937438965e-01 9.860068559646606445e-03
-4.854810237884521484e-01 -6.435240507125854492e-01 -3.457658886909484863e-01
-2.795671224594116211e-01 -7.038603425025939941e-01 6.418839097023010254e-02
-5.338798761367797852e-01 -7.792892456054687500e-01 -2.518676519393920898e-01
-4.393275976181030273e-01 -6.993395090103149414e-01 1.774227023124694824e-01
-4.058918952941894531e-01 -8.190624713897705078e-01 3.141140937805175781e-02
-4.562058746814727783e-01 -7.954023480415344238e-01 1.854289472103118896e-01
-1.321864724159240723e-01 -7.819789648056030273e-01 -1.694662719964981079e-01
-4.684849381446838379e-01 -6.419926881790161133e-01 -1.028123944997787476e-01
-2.873967289924621582e-01 -8.181192874908447266e-01 -1.626427471637725830e-02
-4.970106482505798340e-01 -6.791447401046752930e-01 1.307762861251831055e-01
-2.565157115459442139e-01 -6.969423890113830566e-01 -5.669143199920654297e-01
-1.460046917200088501e-01 -7.802567481994628906e-01 -3.717680871486663818e-01
-2.471723556518554688e-01 -6.786412596702575684e-01 -8.264204859733581543e-02
-4.504711329936981201e-01 -6.441316008567810059e-01 -3.841839730739593506e-01
-6.446745395660400391e-01 -7.613027691841125488e-01 3.163325786590576172e-02
-2.310118377208709717e-01 -6.618123054504394531e-01 -2.860944271087646484e-01
-1.529445499181747437e-01 -7.948281764984130859e-01 -1.767621189355850220e-01
-2.114867717027664185e-01 -7.840130925178527832e-01 -4.285370707511901855e-01
-5.645357370376586914e-01 -7.262575030326843262e-01 -3.694528341293334961e-01
-4.484947025775909424e-01 -8.134572505950927734e-01 -1.321675777435302734e-01
-5.444256067276000977e-01 -7.919508218765258789e-01 1.373310089111328125e-01
-4.286712110042572021e-01 -6.839848160743713379e-01 1.276050209999084473e-01
-2.142793387174606323e-01 -7.324899435043334961e-01 3.833164274692535400e-02
-6.695747375488281250e-01 -7.359332442283630371e-01 -6.767560541629791260e-02
-2.535542845726013184e-01 -7.794843912124633789e-01 -4.596311151981353760e-01
-5.645849704742431641e-01 -6.628514528274536133e-01 4.049144685268402100e-02
-4.139038026332855225e-01 -6.540282368659973145e-01 -2.323183417320251465e-02
-3.317217230796813965e-01 -6.513519287109375000e-01 -4.498266577720642090e-01
-2.273329943418502808e-01 -8.144875764846801758e-01 -1.794715672731399536e-01
-2.201777994632720947e-01 -8.115873336791992188e-01 -2.281856834888458252e-01
-4.152815341949462891e-01 -6.363700628280639648e-01 -2.577646374702453613e-01
-6.207392811775207520e-01 -6.614894866943359375e-01 -1.541005522012710571e-01
-1.575598567724227905e-01 -7.804128527641296387e-01 -3.925263881683349609e-01
-3.740615248680114746e-01 -8.146465420722961426e-01 -2.218659073114395142e-01
-2.661428749561309814e-01 -8.165093660354614258e-01 -2.201336175203323364e-01
-4.883268475532531738e-01 -8.109152317047119141e-01 3.016501665115356445e-02
-5.891479253768920898e-01 -6.654212474822998047e-01 -2.970224022865295410e-01
-4.544847011566162109e-01 -6.406714320182800293e-01 -1.225241422653198242e-01
-5.915046930313110352e-01 -7.287644743919372559e-01 -3.204048871994018555e-01
-4.134280681610107422e-01 -7.921169400215148926e-01 -3.434886336326599121e-01
-5.936960577964782715e-01 -7.613045573234558105e-01 -2.178108543157577515e-01
-3.986349403858184814e-01 -6.372780203819274902e-01 -2.395191639661788940e-01
-6.669729948043823242e-01 -6.860830783843994141e-01 -8.283960819244384766e-02
-5.134859681129455566e-01 -6.728295087814331055e-01 -4.345824718475341797e-01
-4.084617495536804199e-01 -6.669093370437622070e-01 -5.058346986770629883e-01
-5.623234510421752930e-01 -7.950680255889892578e-01 -5.597159266471862793e-03
-4.711440205574035645e-01 -8.022212386131286621e-01 1.492532789707183838e-01
-6.327706575393676758e-01 -7.670322656631469727e-01 6.110472977161407471e-02
-3.260720074176788330e-01 -6.756762862205505371e-01 1.570746302604675293e-02
-5.037047863006591797e-01 -7.688990235328674316e-01 -3.442239165306091309e-01
-4.287713766098022461e-01 -6.598179936408996582e-01 2.155441045761108398e-02
-1.908029168844223022e-01 -8.052679896354675293e-01 -2.514567673206329346e-01
-3.410314917564392090e-01 -6.650828123092651367e-01 -2.134305238723754883e-02
-4.574667513370513916e-01 -7.791400551795959473e-01 -3.593845963478088379e-01
-4.471821486949920654e-01 -6.362373828887939453e-01 -2.246420085430145264e-01
-5.824614167213439941e-01 -6.501304507255554199e-01 -1.718699932098388672e-01
-5.079397559165954590e-01 -7.853491902351379395e-01 -2.631652653217315674e-01
-6.024906039237976074e-01 -6.595678329467773438e-01 -2.261192202568054199e-01
-1.243099570274353027e-01 -7.473247051239013672e-01 -4.403525292873382568e-01
-4.197649359703063965e-01 -6.371172666549682617e-01 -2.087222188711166382e-01
-3.347446918487548828e-01 -8.207661509513854980e-01 -1.689645051956176758e-01
-1.717304587364196777e-01 -7.108536958694458008e-01 -9.403817355632781982e-02
-4.255996942520141602e-01 -6.715094447135925293e-01 7.791329920291900635e-02
-4.436693787574768066e-01 -8.174728155136108398e-01 -5.075411498546600342e-02
-3.894242644309997559e-01 -8.214240074157714844e-01 -9.677720069885253906e-02
-5.940718650817871094e-01 -7.832476496696472168e-01 7.605026662349700928e-02
-4.159468710422515869e-01 -8.118636608123779297e-01 1.064603328704833984e-01
-5.724557638168334961e-01 -6.539273858070373535e-01 -3.730309009552001953e-02
-4.344815015792846680e-01 -6.365102529525756836e-01 -2.885401248931884766e-01
-6.523559093475341797e-01 -6.771824955940246582e-01 -3.058859705924987793e-02
-5.665832161903381348e-01 -6.864383816719055176e-01 -3.822107315063476562e-01
-1.732714176177978516e-01 -6.995980143547058105e-01 -1.372429281473159790e-01
-6.258606910705566406e-01 -6.939630508422851562e-01 -2.754392027854919434e-01
-3.296903371810913086e-01 -6.637098789215087891e-01 -4.269126802682876587e-02
-1.432337760925292969e-01 -7.829701900482177734e-01 -3.476951718330383301e-01
-6.710401773452758789e-01 -7.271715998649597168e-01 -9.935244917869567871e-02
-6.182099580764770508e-01 -7.752873897552490234e-01 2.236089110374450684e-02
-3.108952641487121582e-01 -8.086488842964172363e-01 -3.053834736347198486e-01
-4.339810311794281006e-01 -6.403626799583435059e-01 -1.357603520154953003e-01
-3.943940103054046631e-01 -6.408973336219787598e-01 -3.742431998252868652e-01
-4.607442617416381836e-01 -7.510574460029602051e-01 -4.460797309875488281e-01
-4.234246015548706055e-01 -8.132004737854003906e-01 -1.805188208818435669e-01
-1.298753619194030762e-01 -7.527246475219726562e-01 -1.174110025167465210e-01
-1.025479733943939209e-01 -7.368832826614379883e-01 -2.683210670948028564e-01
-1.744624227285385132e-01 -7.261295318603515625e-01 -4.459822922945022583e-02
-5.344144105911254883e-01 -6.769033074378967285e-01 1.209725141525268555e-01
-2.426005005836486816e-01 -7.620835900306701660e-01 -5.117092132568359375e-01
-1.468172371387481689e-01 -6.980552673339843750e-01 -4.336130023002624512e-01
-5.122902989387512207e-01 -6.407690644264221191e-01 -1.407880485057830811e-01
-5.186055898666381836e-01 -6.968449950218200684e-01 1.862869262695312500e-01
-4.563492536544799805e-01 -6.362536549568176270e-01 -2.486965060234069824e-01
-4.452276527881622314e-01 -8.113611936569213867e-01 9.877192974090576172e-02
-3.450489044189453125e-01 -6.409693360328674316e-01 -3.112307786941528320e-01
-2.247315943241119385e-01 -7.909224033355712891e-01 4.102544486522674561e-02
-3.914769291877746582e-01 -8.028107285499572754e-01 1.537412703037261963e-01
-4.401867091655731201e-01 -7.793476581573486328e-01 -3.763186931610107422e-01
-6.208919286727905273e-01 -7.439968585968017578e-01 -2.201758176088333130e-01
-4.784985184669494629e-01 -7.781612277030944824e-01 -3.392513990402221680e-01
-3.353628814220428467e-01 -6.426546573638916016e-01 -2.538848221302032471e-01
-5.583361387252807617e-01 -6.482905149459838867e-01 -8.339285850524902344e-02
-4.432771503925323486e-01 -6.437295079231262207e-01 -9.079842269420623779e-02
-3.450444936752319336e-01 -8.114741444587707520e-01 -2.706094086170196533e-01
-6.208719611167907715e-01 -7.670803070068359375e-01 1.202304363250732422e-01
-4.785394668579101562e-01 -6.379796266555786133e-01 -1.721991002559661865e-01
-2.479624003171920776e-01 -7.421759366989135742e-01 9.766229987144470215e-02
-5.644126534461975098e-01 -7.402417659759521484e-01 -3.427030444145202637e-01
-2.208157777786254883e-01 -7.988766431808471680e-01 7.793977856636047363e-03
-4.255605041980743408e-01 -8.191142082214355469e-01 -6.903220713138580322e-02
-4.819815158843994141e-01 -6.371974945068359375e-01 -2.372447848320007324e-01
-2.336779534816741943e-01 -7.932508587837219238e-01 -3.944263458251953125e-01
-1.259845495223999023e-01 -7.051428556442260742e-01 -3.291842937469482422e-01
-4.074378609657287598e-01 -7.729508280754089355e-01 -4.283398985862731934e-01
-6.405040621757507324e-01 -7.560655474662780762e-01 -9.853696078062057495e-02
-3.445963561534881592e-01 -6.410603523254394531e-01 -2.775214016437530518e-01
-5.661686062812805176e-01 -7.632942199707031250e-01 -2.671701014041900635e-01
-6.081894636154174805e-01 -7.628480195999145508e-01 -1.725648790597915649e-01
-2.340439110994338989e-01 -7.811654806137084961e-01 7.442913949489593506e-02
-3.735814392566680908e-01 -7.492581009864807129e-01 -5.137019157409667969e-01
-5.253603458404541016e-01 -7.498866319656372070e-01 -3.758280277252197266e-01
-6.046649217605590820e-01 -6.738687157630920410e-01 6.633736193180084229e-02
-4.192370772361755371e-01 -7.147828340530395508e-01 2.020418941974639893e-01
-1.300118267536163330e-01 -7.097515463829040527e-01 -2.356462478637695312e-01
-2.984795272350311279e-01 -8.191970586776733398e-01 -1.969359219074249268e-01
-6.722279787063598633e-01 -6.997565627098083496e-01 3.152558207511901855e-02
-3.576318323612213135e-01 -7.101762890815734863e-01 -5.659103393554687500e-01
-3.176375031471252441e-01 -7.896004915237426758e-01 1.505842804908752441e-01
-4.868068397045135498e-01 -6.392483115196228027e-01 -1.476711779832839966e-01
-4.268696010112762451e-01 -6.499935984611511230e-01 -4.404711723327636719e-02
-5.978938341140747070e-01 -7.028008699417114258e-01 1.735709309577941895e-01
-5.318596363067626953e-01 -6.563102006912231445e-01 -3.629119694232940674e-01
-2.870375514030456543e-01 -6.666592955589294434e-01 -8.508591353893280029e-02
-5.305875539779663086e-01 -7.722023129463195801e-01 2.238336801528930664e-01
-2.157123088836669922e-01 -6.706771254539489746e-01 -2.181361168622970581e-01
-1.096858382225036621e-01 -7.203123569488525391e-01 -3.157696723937988281e-01
-4.816596806049346924e-01 -8.080563545227050781e-01 9.479212760925292969e-02
-3.993088304996490479e-01 -6.537817120552062988e-01 -4.655332565307617188e-01
-6.449612379074096680e-01 -7.560723423957824707e-01 -7.512173056602478027e-02
-2.580201029777526855e-01 -8.189088106155395508e-01 -1.199316754937171936e-01
-6.555964946746826172e-01 -7.318929433822631836e-01 1.273836791515350342e-01
-3.275698423385620117e-01 -8.229068517684936523e-01 -1.128602921962738037e-01
-1.946860700845718384e-01 -6.755146384239196777e-01 -2.469631433486938477e-01
-5.484548211097717285e-01 -6.436848044395446777e-01 -1.854154318571090698e-01
-6.165442466735839844e-01 -7.194876670837402344e-01 -2.859416604042053223e-01
-2.896429896354675293e-01 -8.204535841941833496e-01 -5.093321949243545532e-02
-2.861482501029968262e-01 -6.509281992912292480e-01 -3.896988928318023682e-01
-1.665906310081481934e-01 -7.575741410255432129e-01 -2.385821938514709473e-02
-2.677429616451263428e-01 -6.833567023277282715e-01 -2.513870596885681152e-02
-4.598931670188903809e-01 -7.134671211242675781e-01 2.145090103149414062e-01
-5.397363305091857910e-01 -6.495335102081298828e-01 -4.516740888357162476e-02
-4.329207539558410645e-01 -7.278857231140136719e-01 -5.111649036407470703e-01
-3.009251952171325684e-01 -6.476042866706848145e-01 -3.666704893112182617e-01
-2.827255725860595703e-01 -8.150399923324584961e-01 -2.481047213077545166e-01
-3.625149428844451904e-01 -6.441143751144409180e-01 -1.636244803667068481e-01
-3.111651539802551270e-01 -8.017565608024597168e-01 1.120125949382781982e-01
-3.408774137496948242e-01 -7.911524772644042969e-01 1.643887162208557129e-01
-2.949619293212890625e-01 -6.552699208259582520e-01 -4.518173038959503174e-01
-4.242542684078216553e-01 -6.465571522712707520e-01 -4.168743491172790527e-01
-4.831824302673339844e-01 -8.084347844123840332e-01 -1.205253452062606812e-01
-3.633294701576232910e-01 -6.520979404449462891e-01 -4.624254107475280762e-01
-2.924560904502868652e-01 -6.557207703590393066e-01 -1.622496694326400757e-01
-3.770770728588104248e-01 -6.784199476242065430e-01 7.500170171260833740e-02
-4.136863648891448975e-01 -8.093797564506530762e-01 -2.308637201786041260e-01
-4.198093712329864502e-01 -7.511082887649536133e-01 2.385726869106292725e-01
-6.527044177055358887e-01 -7.207671999931335449e-01 -1.906950175762176514e-01
-1.210300624370574951e-01 -7.481312751770019531e-01 -1.496312022209167480e-01
-1.274007260799407959e-01 -7.681582570075988770e-01 -1.366656273603439331e-01
-5.895911455154418945e-01 -7.856609821319580078e-01 -3.019823133945465088e-02
-1.311309635639190674e-01 -7.850822210311889648e-01 -2.626377940177917480e-01
-1.746661514043807983e-01 -6.934981346130371094e-01 -1.665732562541961670e-01
-1.174080967903137207e-01 -7.355884909629821777e-01 -1.824767589569091797e-01
-2.258766889572143555e-01 -6.892951130867004395e-01 -6.838896125555038452e-02
-4.096372127532958984e-01 -8.187804818153381348e-01 -1.221568286418914795e-01
-5.464839339256286621e-01 -6.444110274314880371e-01 -1.292082518339157104e-01
-6.568945646286010742e-01 -6.851295828819274902e-01 1.941949129104614258e-02
-4.985508620738983154e-01 -7.990405559539794922e-01 -1.866469085216522217e-01
-2.593575716018676758e-01 -6.658623814582824707e-01 -1.427118480205535889e-01
-6.450654268264770508e-01 -6.874237060546875000e-01 6.675255298614501953e-02
-5.493072867393493652e-01 -7.791680693626403809e-01 -2.229479253292083740e-01
-4.239961802959442139e-01 -6.375418901443481445e-01 -3.203778862953186035e-01
-2.465003579854965210e-01 -7.222534418106079102e-01 6.642965972423553467e-02
-3.777852654457092285e-01 -7.959748506546020508e-01 -3.518417477607727051e-01
-5.503432750701904297e-01 -7.946599721908569336e-01 -9.220295399427413940e-02
-2.545384764671325684e-01 -6.612318754196166992e-01 -4.458608925342559814e-01
-1.005542278289794922e-01 -7.534927725791931152e-01 -3.063347339630126953e-01
-6.168066263198852539e-01 -7.739575505256652832e-01 -4.452743381261825562e-02
-1.843107193708419800e-01 -6.754412651062011719e-01 -3.354752659797668457e-01
-3.167628347873687744e-01 -7.428773045539855957e-01 -5.471952557563781738e-01
-3.388520181179046631e-01 -8.232586383819580078e-01 -8.828863501548767090e-02
-2.544832229614257812e-01 -6.583141088485717773e-01 -4.148397147655487061e-01
-2.855527400970458984e-01 -8.115290403366088867e-01 -2.836804091930389404e-01
-3.061147332191467285e-01 -8.225240707397460938e-01 -1.013454794883728027e-01
-4.915500879287719727e-01 -6.864629387855529785e-01 1.552176475524902344e-01
-1.577659249305725098e-01 -6.922951340675354004e-01 -2.380807399749755859e-01
-4.778001904487609863e-01 -6.549825668334960938e-01 1.035004854202270508e-02
-6.097738742828369141e-01 -7.447346448898315430e-01 1.978519260883331299e-01
-1.552186310291290283e-01 -7.534664273262023926e-01 -4.969228059053421021e-02
-2.588354349136352539e-01 -8.185883164405822754e-01 -9.411381185054779053e-02
-3.004037141799926758e-01 -7.870146632194519043e-01 -4.278688728809356689e-01
-5.237595438957214355e-01 -7.933167219161987305e-01 -1.810538619756698608e-01
-3.969291448593139648e-01 -6.477591395378112793e-01 -8.459961414337158203e-02
-2.109435945749282837e-01 -7.714856863021850586e-01 5.119189620018005371e-02
-3.279617726802825928e-01 -6.656022071838378906e-01 -5.179432630538940430e-01
-3.368979096412658691e-01 -8.218563199043273926e-01 -1.623649895191192627e-02
-3.735142648220062256e-01 -6.845620870590209961e-01 -5.503006577491760254e-01
-3.783315122127532959e-01 -6.477942466735839844e-01 -1.028894633054733276e-01
-5.125910639762878418e-01 -6.432374119758605957e-01 -3.026777505874633789e-01
-4.256677031517028809e-01 -6.406427025794982910e-01 -3.665008544921875000e-01
-4.772797226905822754e-01 -7.345423102378845215e-01 -4.634934961795806885e-01
-6.231521368026733398e-01 -7.142053246498107910e-01 1.716859340667724609e-01
-2.050462663173675537e-01 -6.696794629096984863e-01 -3.947988748550415039e-01
-5.562734007835388184e-01 -7.965412735939025879e-01 3.843934834003448486e-02
-4.640002548694610596e-01 -6.893001794815063477e-01 -5.012649297714233398e-01
-1.367421746253967285e-01 -7.855202555656433105e-01 -3.012650012969970703e-01
-1.030109822750091553e-01 -7.329804897308349609e-01 -3.544791936874389648e-01
-5.706650614738464355e-01 -7.453454136848449707e-01 -3.195177912712097168e-01
-4.573452174663543701e-01 -7.852380275726318359e-01 2.150655090808868408e-01
-3.209665715694427490e-01 -7.762465476989746094e-01 1.730133295059204102e-01
-3.653912246227264404e-01 -6.614584922790527344e-01 -1.675227284431457520e-02
-4.070971608161926270e-01 -7.330039143562316895e-01 -5.222420096397399902e-01
-2.589148283004760742e-01 -7.500730752944946289e-01 -5.399493575096130371e-01
-4.714233875274658203e-01 -8.038809895515441895e-01 -1.953967660665512085e-01
-2.433979511260986328e-01 -6.710356473922729492e-01 -4.938541948795318604e-01
-3.196325004100799561e-01 -6.576418876647949219e-01 -4.828397035598754883e-01
-1.241297125816345215e-01 -7.084035277366638184e-01 -2.887198328971862793e-01
-5.561531186103820801e-01 -7.744117975234985352e-01 2.011258006095886230e-01
-3.843534290790557861e-01 -8.190949559211730957e-01 -1.559103727340698242e-01
-4.620271027088165283e-01 -7.590641975402832031e-01 -4.239647686481475830e-01
-4.676547348499298096e-01 -6.370578408241271973e-01 -1.940053105354309082e-01
-3.750772476196289062e-01 -6.446052789688110352e-01 -1.396800130605697632e-01
-3.372194766998291016e-01 -6.421378850936889648e-01 -3.336129188537597656e-01
-5.103979110717773438e-01 -7.980829477310180664e-01 1.427960991859436035e-01
-5.471330881118774414e-01 -7.034365534782409668e-01 1.981433331966400146e-01
-4.470365047454833984e-01 -8.095607757568359375e-01 -1.827378869056701660e-01
-5.507657527923583984e-01 -7.968600988388061523e-01 -5.346461385488510132e-02
-2.011947184801101685e-01 -6.998682618141174316e-01 -7.109601795673370361e-02
-5.904641151428222656e-01 -6.538376212120056152e-01 -7.899238914251327515e-02
-6.322998404502868652e-01 -7.027345299720764160e-01 1.388206481933593750e-01
-5.351606607437133789e-01 -7.275153994560241699e-01 -4.089713990688323975e-01
-1.918263733386993408e-01 -7.780370116233825684e-01 -4.407876431941986084e-01
-6.506483554840087891e-01 -7.482878565788269043e-01 1.098816990852355957e-01
-5.015949606895446777e-01 -7.236048579216003418e-01 -4.541183710098266602e-01
-4.550320506095886230e-01 -7.905883789062500000e-01 -3.081979155540466309e-01
-4.768730998039245605e-01 -6.441247463226318359e-01 -7.795013487339019775e-02
-2.462316453456878662e-01 -7.717208266258239746e-01 -4.850863218307495117e-01
-4.623173773288726807e-01 -7.026339769363403320e-01 1.930692493915557861e-01
-4.515101313591003418e-01 -6.386374831199645996e-01 -1.548574715852737427e-01
-3.662972152233123779e-01 -8.181467652320861816e-01 -1.882018893957138062e-01
-4.291983544826507568e-01 -8.077502250671386719e-01 1.319155097007751465e-01
-3.270135819911956787e-01 -7.301912307739257812e-01 1.661669611930847168e-01
-5.515809655189514160e-01 -7.601868510246276855e-01 2.313254475593566895e-01
-2.016374170780181885e-01 -8.096064329147338867e-01 -1.413084268569946289e-01
-1.732321083545684814e-01 -7.977507710456848145e-01 -1.033814102411270142e-01
-4.861136972904205322e-01 -7.005036473274230957e-01 1.932305097579956055e-01
-6.063219308853149414e-01 -6.675837039947509766e-01 -2.642229795455932617e-01
-1.064040660858154297e-01 -7.510290145874023438e-01 -2.164959311485290527e-01
-3.044304251670837402e-01 -6.499741077423095703e-01 -4.130642414093017578e-01
-2.194300144910812378e-01 -7.571539282798767090e-01 -5.175028443336486816e-01
-5.356866121292114258e-01 -6.446602344512939453e-01 -1.016030237078666687e-01
-5.214935541152954102e-01 -7.130200266838073730e-01 2.203378975391387939e-01
-4.423747956752777100e-01 -8.163429498672485352e-01 -9.481596201658248901e-02
-1.101665794849395752e-01 -7.341834306716918945e-01 -4.056144952774047852e-01
-2.794749140739440918e-01 -7.770681381225585938e-01 1.342056691646575928e-01
-5.797994136810302734e-01 -7.711524963378906250e-01 -2.009186744689941406e-01
-5.185766816139221191e-01 -7.886595726013183594e-01 -2.249703705310821533e-01
-1.510760784149169922e-01 -7.949630022048950195e-01 -2.140138447284698486e-01
-3.690220415592193604e-01 -7.893126606941223145e-01 -3.901885747909545898e-01
-2.608624100685119629e-01 -7.935669422149658203e-01 -3.995885848999023438e-01
-3.252431154251098633e-01 -7.572163939476013184e-01 -5.164437890052795410e-01
-4.400028884410858154e-01 -7.884132266044616699e-01 -3.360967338085174561e-01
-4.749237895011901855e-01 -6.933993101119995117e-01 1.728381216526031494e-01
-2.959705889225006104e-01 -7.794852852821350098e-01 -4.582088291645050049e-01
-6.398829817771911621e-01 -7.453166246414184570e-01 -1.602375060319900513e-01
-2.979701459407806396e-01 -6.580761075019836426e-01 -1.296565830707550049e-01
-1.650160998106002808e-01 -6.939456462860107422e-01 -1.952608823776245117e-01
-3.452775180339813232e-01 -6.423309445381164551e-01 -2.287569642066955566e-01
-5.180653333663940430e-01 -6.398915648460388184e-01 -2.091086804866790771e-01
-3.914078772068023682e-01 -7.957168817520141602e-01 1.781522333621978760e-01
-5.156254768371582031e-01 -6.446425914764404297e-01 -8.202771097421646118e-02
-4.566779434680938721e-01 -8.130556344985961914e-01 6.869898736476898193e-02
-4.404783248901367188e-01 -8.018753528594970703e-01 -2.568954527378082275e-01
-5.597223043441772461e-01 -6.562602519989013672e-01 -3.152965307235717773e-01
-4.764026403427124023e-01 -8.111556768417358398e-01 -9.616721421480178833e-02
-6.214408874511718750e-01 -6.627091765403747559e-01 -6.155724823474884033e-02
-2.627775371074676514e-01 -7.874459028244018555e-01 -4.285206794738769531e-01
-3.697083890438079834e-01 -6.390777826309204102e-01 -2.506192922592163086e-01
-2.087441086769104004e-01 -6.686905026435852051e-01 -2.788643836975097656e-01
-5.967432260513305664e-01 -7.787159085273742676e-01 1.150379180908203125e-01
-5.779858827590942383e-01 -7.065169811248779297e-01 -3.682460486888885498e-01
-1.878696084022521973e-01 -7.908177971839904785e-01 -3.757101893424987793e-01
-1.476510465145111084e-01 -7.205035686492919922e-01 -4.948822557926177979e-01
-5.732419490814208984e-01 -6.545658111572265625e-01 -2.743425369262695312e-01
-1.835459172725677490e-01 -7.613896131515502930e-01 -4.884061217308044434e-01
-4.717029631137847900e-01 -8.133518695831298828e-01 -6.215970963239669800e-02
-3.912935554981231689e-01 -8.181283473968505859e-01 5.131378769874572754e-02
-6.263947486877441406e-01 -6.669336557388305664e-01 -1.918293684720993042e-01
-2.647776603698730469e-01 -6.536102294921875000e-01 -2.871783077716827393e-01
-6.439361572265625000e-01 -6.740377545356750488e-01 -1.608941555023193359e-01
-6.309913396835327148e-01 -7.688159942626953125e-01 -6.336301565170288086e-03
-4.918417930603027344e-01 -7.965614795684814453e-01 1.671251356601715088e-01
-3.680458068847656250e-01 -8.228195309638977051e-01 -4.384694993495941162e-02
-3.694980442523956299e-01 -6.673864126205444336e-01 -5.205252766609191895e-01
-2.801280021667480469e-01 -8.086010813713073730e-01 -3.076446354389190674e-01
-1.936847716569900513e-01 -6.847332715988159180e-01 -4.868808090686798096e-01
-4.121003448963165283e-01 -7.970178127288818359e-01 -3.183159828186035156e-01
-1.885568797588348389e-01 -6.957775950431823730e-01 -1.170011088252067566e-01
-4.224460721015930176e-01 -8.197412490844726562e-01 -2.574108541011810303e-02
-6.164358258247375488e-01 -7.739392518997192383e-01 7.924202084541320801e-02
-3.696412146091461182e-01 -6.406562328338623047e-01 -3.594469130039215088e-01
-4.106948077678680420e-01 -8.048682808876037598e-01 -2.696023285388946533e-01
-1.300277113914489746e-01 -7.241685986518859863e-01 -4.620880186557769775e-01
-2.097045183181762695e-01 -7.657936811447143555e-01 -4.919097721576690674e-01
-1.657703071832656860e-01 -7.980024218559265137e-01 -1.385844349861145020e-01
-3.579313457012176514e-01 -8.202140927314758301e-01 2.199144661426544189e-02
-2.026251703500747681e-01 -8.032013773918151855e-01 -3.020057082176208496e-01
-4.844870567321777344e-01 -6.593641638755798340e-01 3.822475671768188477e-02
-4.881056547164916992e-01 -7.525212168693542480e-01 -4.143635928630828857e-01
-1.397837102413177490e-01 -7.232829928398132324e-01 -1.376509368419647217e-01
-3.124755322933197021e-01 -6.597435474395751953e-01 -9.246783703565597534e-02
-5.783292055130004883e-01 -7.632715106010437012e-01 2.065666019916534424e-01
-2.709781527519226074e-01 -6.755538582801818848e-01 -5.853773653507232666e-02
-1.917033791542053223e-01 -6.802685260772705078e-01 -2.084783613681793213e-01
-5.997709035873413086e-01 -6.583244800567626953e-01 -4.298708587884902954e-02
-2.924160361289978027e-01 -6.924504041671752930e-01 -5.695658922195434570e-01
-5.966095924377441406e-01 -7.717304229736328125e-01 -1.523366123437881470e-01
-2.408758997917175293e-01 -8.167759776115417480e-01 -1.527103334665298462e-01
-2.211839705705642700e-01 -6.758326292037963867e-01 -1.561803370714187622e-01
-4.920573830604553223e-01 -8.108589649200439453e-01 -3.954157233238220215e-03
-4.932582080364227295e-01 -6.826595067977905273e-01 -4.696239233016967773e-01
-4.514287412166595459e-01 -6.719762086868286133e-01 9.155791997909545898e-02
-1.630474776029586792e-01 -6.875861883163452148e-01 -2.604984045028686523e-01
-4.417153298854827881e-01 -6.372587680816650391e-01 -1.875864863395690918e-01
-3.305471837520599365e-01 -6.959909796714782715e-01 -5.708405971527099609e-01
-4.025178253650665283e-01 -8.154144883155822754e-01 7.871890068054199219e-02
-2.259274423122406006e-01 -6.655223369598388672e-01 -2.430859208106994629e-01
-2.001913338899612427e-01 -6.704332232475280762e-01 -3.055418133735656738e-01
-4.563960731029510498e-01 -6.542496085166931152e-01 -3.772974014282226562e-05
-5.114690065383911133e-01 -8.070172667503356934e-01 -2.990674972534179688e-02
-4.344474375247955322e-01 -8.183602094650268555e-01 -2.115711569786071777e-03
-6.444864273071289062e-01 -7.146055698394775391e-01 -2.239292263984680176e-01
-2.475287765264511108e-01 -7.193183302879333496e-01 -5.720729827880859375e-01
-4.134484827518463135e-01 -7.039672136306762695e-01 1.768841743469238281e-01
-3.492288887500762939e-01 -7.514595389366149902e-01 2.011492252349853516e-01
-5.541396141052246094e-01 -6.728430986404418945e-01 9.839984774589538574e-02
-3.405660390853881836e-01 -6.562434434890747070e-01 -7.869613915681838989e-02
-1.360064446926116943e-01 -7.025087475776672363e-01 -2.604733109474182129e-01
-5.025845766067504883e-01 -7.680001258850097656e-01 2.399893701076507568e-01
-4.675444960594177246e-01 -8.090616464614868164e-01 -1.497329771518707275e-01
-5.351567268371582031e-01 -8.020559549331665039e-01 -1.443165540695190430e-02
-3.621248006820678711e-01 -8.217053413391113281e-01 -1.313135623931884766e-01
-5.190063714981079102e-01 -8.057221770286560059e-01 1.159034669399261475e-02
-3.032034933567047119e-01 -6.708242893218994141e-01 -3.641948103904724121e-02
-5.490769147872924805e-01 -6.442631483078002930e-01 -2.144122272729873657e-01
-2.644532322883605957e-01 -8.162277340888977051e-01 -3.319133818149566650e-02
-3.183885812759399414e-01 -6.461640000343322754e-01 -3.827863335609436035e-01
-1.802319288253784180e-01 -6.842143535614013672e-01 -4.547400772571563721e-01
-3.592903316020965576e-01 -7.094751596450805664e-01 1.552492976188659668e-01
-3.652593493461608887e-01 -7.988805770874023438e-01 1.578288078308105469e-01
-2.059382200241088867e-01 -6.681078076362609863e-01 -3.520687818527221680e-01
-3.837072551250457764e-01 -7.672708034515380859e-01 2.200668752193450928e-01
-3.107927739620208740e-01 -8.024032115936279297e-01 -3.475939929485321045e-01
-1.444864422082901001e-01 -6.937900781631469727e-01 -3.153399825096130371e-01
-1.089250743389129639e-01 -7.587555050849914551e-01 -3.607592284679412842e-01
-3.106167018413543701e-01 -6.971315741539001465e-01 7.949042320251464844e-02
-3.097435534000396729e-01 -7.919219136238098145e-01 -4.038930535316467285e-01
-1.415691822767257690e-01 -6.967835426330566406e-01 -3.944477140903472900e-01
-2.408412843942642212e-01 -7.125638127326965332e-01 3.661055862903594971e-02
-2.209805846214294434e-01 -7.118356823921203613e-01 -5.623701810836791992e-01
-2.637267708778381348e-01 -7.020211815834045410e-01 3.867371380329132080e-02
-4.008058011531829834e-01 -6.816686987876892090e-01 1.039873957633972168e-01
-3.236979842185974121e-01 -8.191026449203491211e-01 -1.987661719322204590e-01
-6.040793657302856445e-01 -6.829637885093688965e-01 1.085373163223266602e-01
-6.688401103019714355e-01 -7.203227281570434570e-01 8.888164162635803223e-02
-1.882681399583816528e-01 -6.744322776794433594e-01 -3.742762804031372070e-01
-3.887834846973419189e-01 -6.391065120697021484e-01 -2.036329358816146851e-01
-4.865485131740570068e-01 -6.533081531524658203e-01 -4.057449698448181152e-01
-1.735876351594924927e-01 -7.065309882164001465e-01 -5.176264047622680664e-01
-5.088546276092529297e-01 -6.396099328994750977e-01 -2.478627264499664307e-01
-3.948507606983184814e-01 -6.914582252502441406e-01 1.328307092189788818e-01
-1.674753725528717041e-01 -8.002564311027526855e-01 -2.365101128816604614e-01
-1.440543234348297119e-01 -7.714402079582214355e-01 -4.108875989913940430e-01
-6.533114910125732422e-01 -7.557127475738525391e-01 6.880879402160644531e-03
-6.394734382629394531e-01 -7.603411674499511719e-01 9.165316820144653320e-02
-2.855978608131408691e-01 -7.578107118606567383e-01 -5.232449769973754883e-01
-3.676241636276245117e-01 -8.153670430183410645e-01 7.600533962249755859e-02
-5.190733671188354492e-01 -8.045227527618408203e-01 -5.854047834873199463e-02
-5.513278245925903320e-01 -7.243323922157287598e-01 2.305694818496704102e-01
-3.056246340274810791e-01 -8.166468143463134766e-01 2.319443225860595703e-02
-3.829248249530792236e-01 -8.214397430419921875e-01 -2.517580986022949219e-03
-4.559037685394287109e-01 -6.607004404067993164e-01 3.859908878803253174e-02
-6.196026802062988281e-01 -7.640680670738220215e-01 -1.283517479896545410e-01
-2.672269940376281738e-01 -6.531128287315368652e-01 -3.629810810089111328e-01
-1.707351654767990112e-01 -7.774924635887145996e-01 -4.236361980438232422e-01
-1.251179277896881104e-01 -7.138217687606811523e-01 -4.247299134731292725e-01
-3.324010968208312988e-01 -7.689212560653686523e-01 -4.830294549465179443e-01
-4.997936189174652100e-01 -7.631319165229797363e-01 -3.695427179336547852e-01
-3.351110219955444336e-01 -7.904276251792907715e-01 -4.023947715759277344e-01
-3.337991833686828613e-01 -8.122720718383789062e-01 8.036424219608306885e-02
-5.673025846481323242e-01 -7.812700867652893066e-01 -1.680193394422531128e-01
-2.765872478485107422e-01 -6.523405909538269043e-01 -2.543549537658691406e-01
-2.013465017080307007e-01 -6.951707601547241211e-01 -5.294421911239624023e-01
-3.377415239810943604e-01 -6.492837071418762207e-01 -1.431708186864852905e-01
-3.713532090187072754e-01 -6.739906668663024902e-01 5.196160078048706055e-02
-3.756537139415740967e-01 -6.453043818473815918e-01 -4.169208705425262451e-01
-3.190205097198486328e-01 -8.217706084251403809e-01 -3.169845044612884521e-02
-6.458704471588134766e-01 -6.726298332214355469e-01 -1.302485316991806030e-01
-3.479304611682891846e-01 -8.164204955101013184e-01 5.891069769859313965e-02
-6.008906364440917969e-01 -7.654679417610168457e-01 1.724445223808288574e-01
-3.457126617431640625e-01 -8.231118917465209961e-01 -5.126159638166427612e-02
-2.917916774749755859e-01 -6.624021530151367188e-01 -4.930189251899719238e-01
-2.087003737688064575e-01 -6.885690093040466309e-01 -1.069133430719375610e-01
-2.159763574600219727e-01 -7.945893406867980957e-01 -3.778607845306396484e-01
-1.493014097213745117e-01 -7.511521577835083008e-01 -4.772272109985351562e-01
-3.615356683731079102e-01 -7.279453277587890625e-01 1.896758079528808594e-01
-5.188964009284973145e-01 -6.620751023292541504e-01 5.372425913810729980e-02
-2.658935189247131348e-01 -7.566622495651245117e-01 1.274859309196472168e-01
-3.128263950347900391e-01 -8.154396414756774902e-01 -2.452968358993530273e-01
-4.771091341972351074e-01 -7.155006527900695801e-01 -4.867341518402099609e-01
-4.594618082046508789e-01 -6.508460640907287598e-01 -4.187436699867248535e-01
-5.241178274154663086e-01 -7.584631443023681641e-01 -3.525920510292053223e-01
-4.331696331501007080e-01 -7.611756324768066406e-01 -4.444098770618438721e-01
-2.150657325983047485e-01 -6.833426952362060547e-01 -5.121801495552062988e-01
4.572869837284088135e-02 6.245099902153015137e-01 1.855162680149078369e-01
-5.043889284133911133e-01 2.072292566299438477e-02 7.588895410299301147e-02
1.857119053602218628e-01 6.086766719818115234e-01 -1.461920738220214844e-01
2.121647745370864868e-01 4.237608909606933594e-01 -6.265574693679809570e-02
1.951061040163040161e-01 3.151668310165405273e-01 -1.201682239770889282e-01
-5.981875956058502197e-02 -1.765024811029434204e-01 -3.332915902137756348e-01
-2.122560292482376099e-01 -4.052767753601074219e-01 -3.114887475967407227e-01
-8.677990734577178955e-02 7.058650851249694824e-01 1.595140993595123291e-01
-3.855091333389282227e-01 -3.858056068420410156e-01 8.076169341802597046e-02
-1.959101855754852295e-01 -3.719304800033569336e-01 1.047416850924491882e-01
-2.752162814140319824e-01 5.689454674720764160e-01 -4.347665905952453613e-01
-9.254417568445205688e-02 -3.925669193267822266e-01 -2.848743647336959839e-02
-3.069829344749450684e-01 4.838399887084960938e-01 -4.589855670928955078e-01
-2.551499009132385254e-01 2.636052072048187256e-01 2.324810624122619629e-01
1.854570955038070679e-01 2.010925412178039551e-01 -7.850311696529388428e-03
-2.991579771041870117e-01 3.476676940917968750e-01 -4.953828752040863037e-01
7.139219343662261963e-02 7.323184609413146973e-01 1.274882256984710693e-01
1.618003398180007935e-01 3.289240598678588867e-01 -2.183474153280258179e-01
-1.557011008262634277e-01 -2.937839627265930176e-01 1.441104412078857422e-01
-6.145322322845458984e-01 6.718218326568603516e-02 -2.061131894588470459e-01
-8.064880967140197754e-02 -3.057152032852172852e-01 -2.611573040485382080e-01
-6.037580370903015137e-01 -2.897379994392395020e-01 -1.708931922912597656e-01
-3.369285464286804199e-01 7.389730811119079590e-01 -1.054657921195030212e-01
-2.060183584690093994e-01 5.897027254104614258e-01 1.715530753135681152e-01
-5.653408765792846680e-01 -1.434703916311264038e-01 -3.878805935382843018e-01
8.788703382015228271e-02 -1.057880967855453491e-01 -9.166537970304489136e-02
-1.868700534105300903e-01 7.717177271842956543e-01 7.275138050317764282e-02
9.164981544017791748e-02 7.498750835657119751e-02 1.508907079696655273e-01
1.587544232606887817e-01 9.351962804794311523e-02 -7.910577952861785889e-02
-9.402666240930557251e-02 3.765428066253662109e-01 -4.612353146076202393e-01
-5.032257735729217529e-02 -2.372856885194778442e-01 1.180451437830924988e-01
-3.523554801940917969e-01 6.586999297142028809e-01 -3.280331492424011230e-01
1.548220962285995483e-01 6.673253774642944336e-01 8.615847676992416382e-02
-5.451829731464385986e-02 8.462830781936645508e-01 6.468590348958969116e-02
-4.520047008991241455e-01 5.476618409156799316e-01 -2.830682098865509033e-01
-8.441434800624847412e-02 -3.686243295669555664e-01 9.548775851726531982e-03
-2.596591413021087646e-01 -3.933634757995605469e-01 1.014747247099876404e-01
-3.589151799678802490e-02 -2.684952020645141602e-01 -2.267742753028869629e-01
-2.868314981460571289e-01 7.863732576370239258e-01 -2.362910509109497070e-01
-4.892388582229614258e-01 4.451701045036315918e-01 -3.211388587951660156e-01
-2.766307294368743896e-01 6.129166483879089355e-02 -5.079650282859802246e-01
-2.299638092517852783e-02 7.900491356849670410e-01 1.150778010487556458e-01
2.031702250242233276e-01 5.142024755477905273e-01 -1.174303069710731506e-01
1.145814210176467896e-01 3.796892464160919189e-01 -2.998992800712585449e-01
4.521429538726806641e-03 -1.933646053075790405e-01 -2.301018536090850830e-01
-4.683898091316223145e-01 1.136346533894538879e-01 1.064175292849540710e-01
1.770415455102920532e-01 1.571560502052307129e-01 -3.463473916053771973e-02
-5.105398297309875488e-01 2.646293342113494873e-01 -4.024997353553771973e-01
-3.655796051025390625e-01 -1.435779780149459839e-01 1.731049716472625732e-01
-4.122793674468994141e-03 1.916563957929611206e-01 -4.029662609100341797e-01
-6.148490905761718750e-01 -2.075455039739608765e-01 -1.559025496244430542e-01
6.386260688304901123e-02 4.285244345664978027e-01 -3.556610941886901855e-01
-2.686364352703094482e-01 2.113582789897918701e-01 2.320469915866851807e-01
-6.020978689193725586e-01 -1.954695582389831543e-02 -3.298738002777099609e-01
-5.904031991958618164e-01 1.491461545228958130e-01 -3.004238903522491455e-01
-3.170832693576812744e-01 -3.175573348999023438e-01 1.381153166294097900e-01
-1.557586789131164551e-01 6.416293978691101074e-01 1.706700921058654785e-01
1.645396798849105835e-01 1.416620910167694092e-01 3.981143981218338013e-02
-2.013529837131500244e-02 8.696425557136535645e-01 4.072188585996627808e-02
-4.167573153972625732e-02 -3.380577564239501953e-01 -8.765867352485656738e-02
-5.234635472297668457e-01 2.555071115493774414e-01 -6.317518651485443115e-03
1.644035130739212036e-01 5.089367032051086426e-01 -2.200034260749816895e-01
-2.873855531215667725e-01 5.393255352973937988e-01 1.436415016651153564e-01
-1.069737300276756287e-01 -3.002939820289611816e-01 1.148826703429222107e-01
-5.401610732078552246e-01 2.665585279464721680e-01 -4.718685895204544067e-02
3.851985931396484375e-02 -1.740050166845321655e-01 4.837434738874435425e-02
4.069027304649353027e-02 2.024410963058471680e-01 -3.642706573009490967e-01
-1.044557988643646240e-02 -1.507954448461532593e-01 1.413918137550354004e-01
-3.172321319580078125e-01 1.143137738108634949e-01 2.156634330749511719e-01
-1.380145549774169922e-04 1.267599165439605713e-01 -3.883931338787078857e-01
1.206326335668563843e-01 8.318513631820678711e-01 -6.058000773191452026e-02
-1.899781972169876099e-01 2.297935783863067627e-01 2.548792362213134766e-01
-1.309322416782379150e-01 4.266930222511291504e-01 2.434619069099426270e-01
1.374888867139816284e-01 7.707422971725463867e-02 6.998247653245925903e-02
1.529302746057510376e-01 8.588528633117675781e-02 2.270752936601638794e-02
-5.186981558799743652e-01 3.881135582923889160e-01 -9.069804847240447998e-02
-7.955943048000335693e-02 6.768236756324768066e-01 -3.868531584739685059e-01
-2.117154449224472046e-01 6.412584781646728516e-01 1.442537903785705566e-01
-3.235857486724853516e-01 6.116696596145629883e-01 7.196220010519027710e-02
-1.424282044172286987e-01 -3.614524602890014648e-01 8.701943606138229370e-02
-6.027193665504455566e-01 7.402730733156204224e-02 -1.233110949397087097e-01
-2.790984213352203369e-01 -3.956100344657897949e-01 -3.594938516616821289e-01
-3.776783943176269531e-01 -4.168864488601684570e-01 -3.680764138698577881e-01
-4.063022136688232422e-01 5.257770419120788574e-02 -4.989352226257324219e-01
1.773953288793563843e-01 4.756132960319519043e-01 1.088463142514228821e-01
-1.402487009763717651e-01 -4.492842555046081543e-01 -7.929548621177673340e-02
-9.008125960826873779e-02 3.733399808406829834e-01 2.553783655166625977e-01
-3.985707163810729980e-01 9.945429116487503052e-02 1.681037247180938721e-01
-3.826766014099121094e-01 6.323102712631225586e-01 -3.167574852705001831e-02
-5.900827646255493164e-01 -1.513850837945938110e-01 -5.930119752883911133e-02
-5.650013089179992676e-01 -1.926440447568893433e-01 -3.781855404376983643e-01
-1.755231618881225586e-02 3.177013993263244629e-01 -4.221832454204559326e-01
-1.299888789653778076e-01 2.163789570331573486e-01 2.631286978721618652e-01
-4.483479261398315430e-01 -5.188191533088684082e-01 -2.435901463031768799e-01
7.931560277938842773e-03 6.850745081901550293e-01 -3.441640436649322510e-01
-8.535528928041458130e-02 -3.547554016113281250e-01 -2.084727436304092407e-01
-4.806973934173583984e-01 -4.186636805534362793e-01 -3.420158922672271729e-01
-2.025419324636459351e-01 -3.180716633796691895e-01 1.422125101089477539e-01
2.432234585285186768e-02 -1.960125118494033813e-01 -1.820203363895416260e-01
1.384969502687454224e-01 4.465047121047973633e-01 1.630813777446746826e-01
-1.015243902802467346e-01 2.530279755592346191e-01 2.633268535137176514e-01
-1.397782415151596069e-01 -4.137281179428100586e-01 -2.175405323505401611e-01
-4.833238720893859863e-01 2.565630078315734863e-01 5.660437792539596558e-02
-5.889551043510437012e-01 -5.763092637062072754e-02 -3.602281212806701660e-01
-5.233675837516784668e-01 -4.111699461936950684e-01 -5.677798390388488770e-02
-4.502452909946441650e-02 -2.800099551677703857e-02 2.173976898193359375e-01
-1.492681801319122314e-01 5.474157333374023438e-01 -4.473206698894500732e-01
-4.282651841640472412e-02 5.347581505775451660e-01 2.265098392963409424e-01
-3.571892380714416504e-01 -5.155091881752014160e-01 -2.688764035701751709e-01
-3.366528749465942383e-01 -3.973464965820312500e-01 9.134218841791152954e-02
-5.642657876014709473e-01 -1.484106332063674927e-01 -9.415492415428161621e-03
-5.513127446174621582e-01 -3.737681508064270020e-01 -7.583697885274887085e-02
-2.185029536485671997e-01 4.233821630477905273e-01 2.196045219898223877e-01
-5.965748429298400879e-01 1.737637519836425781e-01 -2.212586700916290283e-01
-1.719410270452499390e-01 6.617395281791687012e-01 -4.071031808853149414e-01
2.834227681159973145e-02 -1.185605376958847046e-01 -2.517700791358947754e-01
-3.415238261222839355e-01 2.247026413679122925e-01 1.938776075839996338e-01
-5.225818753242492676e-01 -1.012324243783950806e-01 5.385964363813400269e-02
-1.677496880292892456e-01 8.170767426490783691e-01 -2.999080419540405273e-01
-2.790098190307617188e-01 7.570192217826843262e-01 -2.974221110343933105e-01
-9.316101670265197754e-02 5.698288679122924805e-01 2.140120565891265869e-01
-1.590992063283920288e-01 8.269676566123962402e-01 3.811953216791152954e-02
-5.399066805839538574e-01 -2.206289917230606079e-01 1.335955411195755005e-02
-3.580603003501892090e-01 3.287492990493774414e-01 -4.865446984767913818e-01
2.020490616559982300e-01 5.897977352142333984e-01 -9.001231193542480469e-02
5.909751355648040771e-02 5.203963518142700195e-01 -3.507112562656402588e-01
1.063284426927566528e-01 -6.079812347888946533e-02 -9.151171892881393433e-02
-1.903645098209381104e-01 7.312931418418884277e-01 1.022564396262168884e-01
1.211094707250595093e-01 3.953228592872619629e-01 1.818186938762664795e-01
-3.261676430702209473e-01 5.076625347137451172e-01 1.270745992660522461e-01
-4.235869646072387695e-01 3.279714584350585938e-01 1.042050495743751526e-01
-5.851348638534545898e-01 -3.614569306373596191e-01 -1.903986036777496338e-01
-4.436607062816619873e-01 -3.972023725509643555e-03 1.361198723316192627e-01
-4.438039958477020264e-01 5.300043225288391113e-01 -3.251837790012359619e-01
-4.388614892959594727e-01 -4.041983485221862793e-01 3.889042884111404419e-02
-2.307754009962081909e-01 1.870198249816894531e-01 2.464673519134521484e-01
-1.707219779491424561e-01 -8.655287325382232666e-02 2.284886538982391357e-01
1.322180777788162231e-01 6.455466747283935547e-01 -2.393196225166320801e-01
1.364331394433975220e-01 3.214637339115142822e-01 -2.629887163639068604e-01
-5.107188224792480469e-02 2.063578963279724121e-01 -4.382856488227844238e-01
-6.249971389770507812e-01 -8.538027107715606689e-02 -1.958280205726623535e-01
1.752358227968215942e-01 2.155421227216720581e-01 6.183267384767532349e-02
3.182098269462585449e-03 7.818871140480041504e-01 -2.974324226379394531e-01
-2.447507232427597046e-01 -4.430025815963745117e-01 5.772737413644790649e-02
1.809736341238021851e-01 7.014964222908020020e-01 -1.716536283493041992e-02
1.268030852079391479e-01 4.372933506965637207e-01 -2.841590642929077148e-01
-5.580996274948120117e-01 -2.603936195373535156e-02 -4.047293365001678467e-01
-6.753456592559814453e-02 -3.701145648956298828e-01 -1.084938421845436096e-01
-3.415573239326477051e-01 -2.285137325525283813e-01 -4.571907222270965576e-01
-6.576320528984069824e-02 9.221643209457397461e-01 -8.579620718955993652e-02
-6.079384684562683105e-01 3.110453486442565918e-02 -3.001165390014648438e-01
7.982324063777923584e-02 7.625648975372314453e-01 -2.468444406986236572e-01
2.099414020776748657e-01 4.646854996681213379e-01 -8.820608258247375488e-02
1.756519079208374023e-02 4.944128990173339844e-01 -3.872934579849243164e-01
-2.896341681480407715e-02 8.876722455024719238e-01 -2.129295766353607178e-01
-1.537948846817016602e-03 -1.082435399293899536e-01 -3.035711348056793213e-01
2.296876907348632812e-02 3.213314414024353027e-01 2.408007085323333740e-01
-2.437673509120941162e-01 7.359514236450195312e-01 -3.450027406215667725e-01
-4.227911829948425293e-01 -1.455137282609939575e-01 1.397184431552886963e-01
1.082051843404769897e-01 6.969693899154663086e-01 1.223161742091178894e-01
-3.980369567871093750e-01 -7.095493376255035400e-02 -4.911885261535644531e-01
-2.485921233892440796e-01 8.341578245162963867e-01 -1.847151219844818115e-01
-1.340994834899902344e-01 9.050095677375793457e-01 -1.525226235389709473e-01
-2.971928119659423828e-01 -5.370895862579345703e-01 -1.919080168008804321e-01
2.090421468019485474e-01 3.757043480873107910e-01 -6.899926066398620605e-02
-3.834276199340820312e-01 3.295218944549560547e-01 1.421369910240173340e-01
-2.916194796562194824e-01 7.757245898246765137e-01 -6.123731285333633423e-02
1.697019189596176147e-01 5.766128897666931152e-01 -1.967797279357910156e-01
-5.923956632614135742e-01 -2.336858659982681274e-01 -8.603733777999877930e-02
2.859242260456085205e-02 -2.215247601270675659e-01 -1.181983202695846558e-02
-4.194583296775817871e-01 6.098218560218811035e-01 -2.696450352668762207e-01
-8.557081222534179688e-03 5.513916909694671631e-02 -3.785302340984344482e-01
-5.537248849868774414e-01 2.965047955513000488e-01 -2.987983822822570801e-01
-3.396085500717163086e-01 7.217974662780761719e-01 -2.599779665470123291e-01
-1.015053093433380127e-01 3.111811876296997070e-01 2.607666254043579102e-01
-2.882527709007263184e-01 -2.885141968727111816e-02 -4.988324940204620361e-01
-2.763370275497436523e-01 -3.506229519844055176e-01 -3.877261579036712646e-01
1.085041314363479614e-01 2.943865060806274414e-01 -3.001433610916137695e-01
7.585774362087249756e-02 8.793183565139770508e-01 -8.211153000593185425e-02
1.124541014432907104e-01 1.221521347761154175e-01 -2.463859319686889648e-01
1.442501693964004517e-01 4.665337502956390381e-02 -8.702576160430908203e-02
-3.561977148056030273e-01 7.224282622337341309e-01 -1.440785676240921021e-01
-5.026429891586303711e-03 4.220954179763793945e-01 2.425202429294586182e-01
2.309234440326690674e-02 -3.750550746917724609e-02 1.721436977386474609e-01
2.137649208307266235e-01 4.787272810935974121e-01 -2.963989973068237305e-02
-4.800761342048645020e-01 -9.273149073123931885e-02 1.000675186514854431e-01
