2.735753655433654785e-01 -8.608196973800659180e-01 -2.595838904380798340e-01
1.998532414436340332e-01 -8.440558910369873047e-01 -2.391412556171417236e-01
2.737287580966949463e-01 -8.011172413825988770e-01 -2.530014514923095703e-01
2.696358263492584229e-01 -7.999292016029357910e-01 -2.417165935039520264e-01
2.022890001535415649e-01 -8.518384695053100586e-01 -2.391434758901596069e-01
1.914555132389068604e-01 -8.069156408309936523e-01 -2.236207574605941772e-01
1.943757236003875732e-01 -8.145495057106018066e-01 -2.387112826108932495e-01
1.985968649387359619e-01 -7.692192792892456055e-01 -2.097115963697433472e-01
2.678056657314300537e-01 -7.814171910285949707e-01 -2.423345893621444702e-01
2.686207294464111328e-01 -8.324750661849975586e-01 -2.721312046051025391e-01
2.209554612636566162e-01 -7.438765764236450195e-01 -2.504881620407104492e-01
2.647856771945953369e-01 -8.000550270080566406e-01 -2.684044539928436279e-01
2.626786828041076660e-01 -8.576417565345764160e-01 -2.408909499645233154e-01
1.897722184658050537e-01 -7.896143794059753418e-01 -2.214198410511016846e-01
1.986650079488754272e-01 -7.871375679969787598e-01 -2.450421154499053955e-01
2.416553050279617310e-01 -7.734138369560241699e-01 -2.168422192335128784e-01
2.394458949565887451e-01 -8.697549700736999512e-01 -2.713396847248077393e-01
1.948218047618865967e-01 -7.725372910499572754e-01 -2.380893379449844360e-01
2.429787814617156982e-01 -8.392135500907897949e-01 -2.238974571228027344e-01
1.974124908447265625e-01 -7.589753270149230957e-01 -2.381697297096252441e-01
2.590642869472503662e-01 -8.624587655067443848e-01 -2.393384873867034912e-01
1.974368244409561157e-01 -7.358582615852355957e-01 -2.272917628288269043e-01
2.495819479227066040e-01 -8.779738545417785645e-01 -2.391505390405654907e-01
2.318899184465408325e-01 -8.934715390205383301e-01 -2.572190761566162109e-01
2.493956685066223145e-01 -7.445858120918273926e-01 -2.525819540023803711e-01
2.465300261974334717e-01 -8.575406074523925781e-01 -2.746057808399200439e-01
2.597592771053314209e-01 -8.030565977096557617e-01 -2.708511948585510254e-01
2.443293184041976929e-01 -8.143971562385559082e-01 -2.727408409118652344e-01
2.344401329755783081e-01 -7.258180975914001465e-01 -2.440641075372695923e-01
1.971238553524017334e-01 -8.318773508071899414e-01 -2.261433303356170654e-01
2.140704095363616943e-01 -8.345580697059631348e-01 -2.602729201316833496e-01
2.118108719587326050e-01 -7.206751704216003418e-01 -2.334589213132858276e-01
2.107379287481307983e-01 -7.766438722610473633e-01 -2.537981271743774414e-01
2.360463291406631470e-01 -8.833558559417724609e-01 -2.665878832340240479e-01
1.915869414806365967e-01 -7.764201760292053223e-01 -2.333458214998245239e-01
2.530966699123382568e-01 -7.503878474235534668e-01 -2.542124986648559570e-01
2.550449669361114502e-01 -8.279581665992736816e-01 -2.285331934690475464e-01
2.511066794395446777e-01 -8.030358552932739258e-01 -2.717303633689880371e-01
2.658637762069702148e-01 -8.120992183685302734e-01 -2.363542616367340088e-01
2.289056181907653809e-01 -8.810347914695739746e-01 -2.629193663597106934e-01
2.099717259407043457e-01 -8.262388706207275391e-01 -2.156049907207489014e-01
2.684733867645263672e-01 -7.954279184341430664e-01 -2.403012216091156006e-01
2.575239837169647217e-01 -7.891513705253601074e-01 -2.681113481521606445e-01
2.671942114830017090e-01 -8.045816421508789062e-01 -2.682129740715026855e-01
2.451228797435760498e-01 -8.924743533134460449e-01 -2.663766741752624512e-01
2.283760905265808105e-01 -7.235193252563476562e-01 -2.423545122146606445e-01
2.264763265848159790e-01 -7.951726317405700684e-01 -2.651166021823883057e-01
2.127040177583694458e-01 -7.857825756072998047e-01 -2.566072046756744385e-01
1.993705630302429199e-01 -8.179001808166503906e-01 -2.465982139110565186e-01
2.482067793607711792e-01 -8.689721822738647461e-01 -2.738407552242279053e-01
2.635671496391296387e-01 -7.644224762916564941e-01 -2.529281675815582275e-01
2.650547921657562256e-01 -8.855208158493041992e-01 -2.611776590347290039e-01
2.561798095703125000e-01 -8.733301758766174316e-01 -2.412007749080657959e-01
2.706699669361114502e-01 -8.719220757484436035e-01 -2.594017088413238525e-01
2.300250232219696045e-01 -7.195288538932800293e-01 -2.389254719018936157e-01
2.678526639938354492e-01 -8.702329397201538086e-01 -2.516478002071380615e-01
2.215246111154556274e-01 -7.969361543655395508e-01 -2.631196975708007812e-01
2.264851331710815430e-01 -7.144374251365661621e-01 -2.254635691642761230e-01
2.628948390483856201e-01 -7.596945762634277344e-01 -2.470785677433013916e-01
2.196699380874633789e-01 -8.153764009475708008e-01 -2.638424634933471680e-01
2.265672385692596436e-01 -7.952463626861572266e-01 -2.115071117877960205e-01
2.023704946041107178e-01 -8.427997827529907227e-01 -2.461658120155334473e-01
2.736473977565765381e-01 -8.524545431137084961e-01 -2.543028891086578369e-01
2.468103468418121338e-01 -8.095850348472595215e-01 -2.211288958787918091e-01
2.414476871490478516e-01 -7.786183953285217285e-01 -2.660503089427947998e-01
2.153337895870208740e-01 -8.087954521179199219e-01 -2.115502506494522095e-01
2.194465845823287964e-01 -7.370752096176147461e-01 -2.471380531787872314e-01
1.992081701755523682e-01 -7.746338844299316406e-01 -2.096805125474929810e-01
2.598453164100646973e-01 -7.650745511054992676e-01 -2.581271529197692871e-01
2.222611904144287109e-01 -7.697675228118896484e-01 -2.586418390274047852e-01
2.270369678735733032e-01 -8.703228235244750977e-01 -2.649032175540924072e-01
2.019129991531372070e-01 -8.127872943878173828e-01 -2.498679012060165405e-01
2.290807664394378662e-01 -8.382242321968078613e-01 -2.692915201187133789e-01
2.570138871669769287e-01 -7.714623212814331055e-01 -2.626053988933563232e-01
1.983710378408432007e-01 -8.089306950569152832e-01 -2.457383126020431519e-01
2.234243750572204590e-01 -8.493756055831909180e-01 -2.216114252805709839e-01
2.289592772722244263e-01 -7.218786478042602539e-01 -2.197944223880767822e-01
2.296095639467239380e-01 -7.159042954444885254e-01 -2.339103817939758301e-01
2.484571039676666260e-01 -7.393437623977661133e-01 -2.493880242109298706e-01
2.708915472030639648e-01 -8.586812019348144531e-01 -2.511552870273590088e-01
2.464754879474639893e-01 -7.573760151863098145e-01 -2.213965356349945068e-01
2.080350071191787720e-01 -8.629109263420104980e-01 -2.458756119012832642e-01
2.048777937889099121e-01 -8.183901906013488770e-01 -2.528445422649383545e-01
2.456522136926651001e-01 -8.751994371414184570e-01 -2.360573709011077881e-01
2.484076023101806641e-01 -8.859664201736450195e-01 -2.700535356998443604e-01
2.695608735084533691e-01 -8.526918888092041016e-01 -2.470559179782867432e-01
2.322763055562973022e-01 -8.887023925781250000e-01 -2.408735901117324829e-01
2.062319219112396240e-01 -7.433978915214538574e-01 -2.091502845287322998e-01
2.706038951873779297e-01 -8.274312615394592285e-01 -2.434687167406082153e-01
2.390715032815933228e-01 -8.816902637481689453e-01 -2.369222342967987061e-01
2.645455002784729004e-01 -8.643844723701477051e-01 -2.449617385864257812e-01
2.152712047100067139e-01 -8.616999387741088867e-01 -2.275418043136596680e-01
2.201137095689773560e-01 -8.357615470886230469e-01 -2.174929082393646240e-01
2.521541118621826172e-01 -7.396279573440551758e-01 -2.349423021078109741e-01
1.942835301160812378e-01 -8.246954083442687988e-01 -2.337556332349777222e-01
2.340201884508132935e-01 -8.379986882209777832e-01 -2.203917652368545532e-01
2.230116575956344604e-01 -8.709952831268310547e-01 -2.617323398590087891e-01
2.015937864780426025e-01 -7.959388494491577148e-01 -2.111702859401702881e-01
2.637017667293548584e-01 -8.700735569000244141e-01 -2.463529706001281738e-01
2.310134172439575195e-01 -7.618073225021362305e-01 -2.120999246835708618e-01
2.459850907325744629e-01 -8.894340991973876953e-01 -2.437850236892700195e-01
2.569040656089782715e-01 -8.813558816909790039e-01 -2.455548197031021118e-01
2.040399909019470215e-01 -7.794367074966430664e-01 -2.492175102233886719e-01
2.200433462858200073e-01 -7.358987331390380859e-01 -2.113877981901168823e-01
2.507666051387786865e-01 -7.600391507148742676e-01 -2.599699795246124268e-01
1.972842365503311157e-01 -7.540548443794250488e-01 -2.364583015441894531e-01
2.678520679473876953e-01 -8.264973759651184082e-01 -2.719102799892425537e-01
2.035457938909530640e-01 -8.318893313407897949e-01 -2.195452898740768433e-01
2.210314869880676270e-01 -8.266870975494384766e-01 -2.650416791439056396e-01
2.521782517433166504e-01 -7.891165614128112793e-01 -2.688819766044616699e-01
2.429139763116836548e-01 -7.840123176574707031e-01 -2.174793779850006104e-01
2.691889703273773193e-01 -8.482136130332946777e-01 -2.724006175994873047e-01
2.249623090028762817e-01 -8.078724145889282227e-01 -2.659825384616851807e-01
2.013858556747436523e-01 -8.232940435409545898e-01 -2.487266212701797485e-01
2.097206711769104004e-01 -7.941853404045104980e-01 -2.094682604074478149e-01
2.097278088331222534e-01 -7.549995779991149902e-01 -2.480686306953430176e-01
2.697189748287200928e-01 -7.812088131904602051e-01 -2.499465197324752808e-01
2.726856470108032227e-01 -8.567477464675903320e-01 -2.682166099548339844e-01
1.891443878412246704e-01 -7.847753167152404785e-01 -2.243659943342208862e-01
1.970650851726531982e-01 -7.978750467300415039e-01 -2.439528703689575195e-01
1.912722587585449219e-01 -7.943745851516723633e-01 -2.188828289508819580e-01
2.078875601291656494e-01 -8.122474551200866699e-01 -2.126508653163909912e-01
2.135380059480667114e-01 -7.681018114089965820e-01 -2.538169324398040771e-01
2.574666738510131836e-01 -8.011724948883056641e-01 -2.278311699628829956e-01
2.344600260257720947e-01 -7.994364500045776367e-01 -2.144099324941635132e-01
2.684375941753387451e-01 -8.387786746025085449e-01 -2.726730704307556152e-01
1.925343424081802368e-01 -8.095268607139587402e-01 -2.352352738380432129e-01
2.555071115493774414e-01 -8.898497223854064941e-01 -2.684477567672729492e-01
2.047301679849624634e-01 -8.040112853050231934e-01 -2.116735726594924927e-01
2.079236060380935669e-01 -8.208832740783691406e-01 -2.556419372558593750e-01
2.001845985651016235e-01 -7.654367685317993164e-01 -2.429136931896209717e-01
2.650457024574279785e-01 -7.995399832725524902e-01 -2.352954596281051636e-01
2.306136339902877808e-01 -7.293497323989868164e-01 -2.173515856266021729e-01
2.036518305540084839e-01 -7.674909234046936035e-01 -2.466094195842742920e-01
2.112017124891281128e-01 -8.492556214332580566e-01 -2.560763657093048096e-01
2.449157536029815674e-01 -8.005690574645996094e-01 -2.193046063184738159e-01
2.673747837543487549e-01 -7.937921881675720215e-01 -2.648568153381347656e-01
2.087259888648986816e-01 -8.606969118118286133e-01 -2.311711758375167847e-01
2.554878592491149902e-01 -8.436983823776245117e-01 -2.757531106472015381e-01
2.138978391885757446e-01 -7.582688927650451660e-01 -2.515885233879089355e-01
1.911069750785827637e-01 -8.082717061042785645e-01 -2.284022569656372070e-01
2.250614762306213379e-01 -8.746298551559448242e-01 -2.321854084730148315e-01
2.575171589851379395e-01 -7.584722042083740234e-01 -2.325470894575119019e-01
2.584702968597412109e-01 -7.686308622360229492e-01 -2.309516519308090210e-01
2.649072408676147461e-01 -7.722300291061401367e-01 -2.570778727531433105e-01
2.081840634346008301e-01 -7.708061933517456055e-01 -2.508869171142578125e-01
2.619654536247253418e-01 -8.204084634780883789e-01 -2.330372929573059082e-01
2.600799798965454102e-01 -8.118246793746948242e-01 -2.724049091339111328e-01
2.017126381397247314e-01 -7.494846582412719727e-01 -2.398386448621749878e-01
2.211419343948364258e-01 -7.886114120483398438e-01 -2.097181379795074463e-01
2.299773246049880981e-01 -7.829552888870239258e-01 -2.643543779850006104e-01
1.967752873897552490e-01 -7.945430278778076172e-01 -2.131562978029251099e-01
1.934834122657775879e-01 -8.210076093673706055e-01 -2.276884019374847412e-01
2.010611295700073242e-01 -8.488672971725463867e-01 -2.350464314222335815e-01
2.381941974163055420e-01 -7.234790325164794922e-01 -2.269092798233032227e-01
2.030794173479080200e-01 -8.296908140182495117e-01 -2.501123249530792236e-01
2.381015121936798096e-01 -8.775439858436584473e-01 -2.345891445875167847e-01
2.735508382320404053e-01 -8.200840353965759277e-01 -2.659038305282592773e-01
2.572462558746337891e-01 -7.983665466308593750e-01 -2.703676521778106689e-01
2.249074280261993408e-01 -8.131442666053771973e-01 -2.664172053337097168e-01
2.441591769456863403e-01 -7.964931130409240723e-01 -2.701126039028167725e-01
2.352092415094375610e-01 -7.190142273902893066e-01 -2.357937544584274292e-01
2.394259572029113770e-01 -8.442282676696777344e-01 -2.732319533824920654e-01
2.298533320426940918e-01 -8.089343309402465820e-01 -2.139568030834197998e-01
2.744652628898620605e-01 -8.455376029014587402e-01 -2.538879215717315674e-01
2.737790942192077637e-01 -8.024573326110839844e-01 -2.579230666160583496e-01
2.721572518348693848e-01 -7.930164933204650879e-01 -2.562779486179351807e-01
2.569973170757293701e-01 -7.486099004745483398e-01 -2.374665588140487671e-01
2.066445499658584595e-01 -7.225774526596069336e-01 -2.301052659749984741e-01
2.469672709703445435e-01 -8.678466081619262695e-01 -2.337456494569778442e-01
2.405398339033126831e-01 -7.517319917678833008e-01 -2.576907277107238770e-01
1.949892342090606689e-01 -7.393125295639038086e-01 -2.235484719276428223e-01
2.300535142421722412e-01 -8.293101191520690918e-01 -2.696155309677124023e-01
2.162386924028396606e-01 -7.860842347145080566e-01 -2.088097333908081055e-01
2.354294657707214355e-01 -7.793154120445251465e-01 -2.136977314949035645e-01
2.719247639179229736e-01 -8.660984039306640625e-01 -2.661354243755340576e-01
2.388335317373275757e-01 -7.875383496284484863e-01 -2.675778269767761230e-01
1.900584548711776733e-01 -7.723896503448486328e-01 -2.182911336421966553e-01
2.628539800643920898e-01 -8.099403977394104004e-01 -2.330726981163024902e-01
2.243116050958633423e-01 -7.856951951980590820e-01 -2.627167999744415283e-01
1.985155642032623291e-01 -8.348416090011596680e-01 -2.416000962257385254e-01
2.096990942955017090e-01 -8.086192011833190918e-01 -2.568505406379699707e-01
2.642382085323333740e-01 -7.856772541999816895e-01 -2.642715573310852051e-01
2.689470648765563965e-01 -8.618522882461547852e-01 -2.714128494262695312e-01
2.451384961605072021e-01 -8.839433789253234863e-01 -2.400794625282287598e-01
2.497086077928543091e-01 -7.344927191734313965e-01 -2.358119934797286987e-01
2.632600367069244385e-01 -8.367850184440612793e-01 -2.365091443061828613e-01
1.958190500736236572e-01 -8.215147852897644043e-01 -2.220908552408218384e-01
2.193277776241302490e-01 -8.427622914314270020e-01 -2.636041343212127686e-01
2.280410379171371460e-01 -7.299875020980834961e-01 -2.464268356561660767e-01
2.159753441810607910e-01 -8.789715170860290527e-01 -2.447117120027542114e-01
2.167399078607559204e-01 -8.531051874160766602e-01 -2.605210542678833008e-01
2.395701557397842407e-01 -8.984075784683227539e-01 -2.523804306983947754e-01
2.620789408683776855e-01 -8.894118666648864746e-01 -2.638907432556152344e-01
1.982495784759521484e-01 -7.409467101097106934e-01 -2.127123922109603882e-01
1.942293196916580200e-01 -7.738985419273376465e-01 -2.124936878681182861e-01
2.333525717258453369e-01 -7.577406764030456543e-01 -2.133783698081970215e-01
2.069555819034576416e-01 -7.886604070663452148e-01 -2.529357373714447021e-01
2.221914231777191162e-01 -8.327528834342956543e-01 -2.657448053359985352e-01
2.491745054721832275e-01 -7.371605634689331055e-01 -2.312406748533248901e-01
2.011259049177169800e-01 -8.406961560249328613e-01 -2.257308512926101685e-01
2.345923483371734619e-01 -7.706435918807983398e-01 -2.628876566886901855e-01
2.031491398811340332e-01 -7.269937396049499512e-01 -2.296027094125747681e-01
2.544551789760589600e-01 -8.508944511413574219e-01 -2.327450811862945557e-01
2.551695108413696289e-01 -7.471519112586975098e-01 -2.498983442783355713e-01
2.756951451301574707e-01 -8.177507519721984863e-01 -2.585498690605163574e-01
2.575834989547729492e-01 -8.640250563621520996e-01 -2.749660611152648926e-01
2.647686600685119629e-01 -8.100235462188720703e-01 -2.706723511219024658e-01
2.349277138710021973e-01 -8.499416708946228027e-01 -2.236932665109634399e-01
2.241783887147903442e-01 -8.660719990730285645e-01 -2.279550731182098389e-01
2.156739830970764160e-01 -8.220530152320861816e-01 -2.616173028945922852e-01
2.121789455413818359e-01 -8.662726879119873047e-01 -2.516172826290130615e-01
2.043402791023254395e-01 -8.271218538284301758e-01 -2.175028324127197266e-01
2.418413907289505005e-01 -7.655661106109619141e-01 -2.173295170068740845e-01
2.170293629169464111e-01 -7.545403242111206055e-01 -2.084360122680664062e-01
2.473635971546173096e-01 -8.963953256607055664e-01 -2.639688551425933838e-01
2.072533667087554932e-01 -8.566012978553771973e-01 -2.486918121576309204e-01
2.133534997701644897e-01 -8.611646294593811035e-01 -2.553665339946746826e-01
1.907393634319305420e-01 -7.984631657600402832e-01 -2.215040475130081177e-01
2.609151005744934082e-01 -7.551092505455017090e-01 -2.471141815185546875e-01
2.040651142597198486e-01 -7.972719669342041016e-01 -2.514069974422454834e-01
2.177416086196899414e-01 -7.706469893455505371e-01 -2.082402408123016357e-01
2.184028476476669312e-01 -8.372758030891418457e-01 -2.632775604724884033e-01
2.268386334180831909e-01 -8.414813280105590820e-01 -2.196587920188903809e-01
2.350313514471054077e-01 -8.904763460159301758e-01 -2.626652121543884277e-01
2.576602399349212646e-01 -8.459184765815734863e-01 -2.337569445371627808e-01
2.157878577709197998e-01 -7.157574295997619629e-01 -2.194695174694061279e-01
2.555353343486785889e-01 -8.248139023780822754e-01 -2.746292948722839355e-01
2.608859539031982422e-01 -7.578360438346862793e-01 -2.515901029109954834e-01
2.630770206451416016e-01 -8.443408608436584473e-01 -2.378331273794174194e-01
2.286840379238128662e-01 -8.545656800270080566e-01 -2.237959057092666626e-01
2.356097996234893799e-01 -8.415321111679077148e-01 -2.719753682613372803e-01
2.424108535051345825e-01 -8.239049911499023438e-01 -2.732818722724914551e-01
2.522070705890655518e-01 -8.606342077255249023e-01 -2.752041518688201904e-01
2.408778071403503418e-01 -8.207154273986816406e-01 -2.195929586887359619e-01
2.079468369483947754e-01 -7.817345261573791504e-01 -2.083119004964828491e-01
2.210813313722610474e-01 -8.842270374298095703e-01 -2.517380714416503906e-01
2.410232871770858765e-01 -7.584258317947387695e-01 -2.601720988750457764e-01
2.050292938947677612e-01 -7.867526412010192871e-01 -2.091245204210281372e-01
2.669673860073089600e-01 -7.862088084220886230e-01 -2.393259704113006592e-01
1.907074749469757080e-01 -7.853313684463500977e-01 -2.179314345121383667e-01
2.507332861423492432e-01 -8.230626583099365234e-01 -2.250316739082336426e-01
2.241048216819763184e-01 -7.581848502159118652e-01 -2.563961148262023926e-01
2.004360556602478027e-01 -7.732564210891723633e-01 -2.448152303695678711e-01
2.192660719156265259e-01 -8.084687590599060059e-01 -2.631364464759826660e-01
2.260048091411590576e-01 -8.869888782501220703e-01 -2.412510365247726440e-01
2.251034826040267944e-01 -8.342496156692504883e-01 -2.175786495208740234e-01
2.113371044397354126e-01 -7.454581260681152344e-01 -2.460659146308898926e-01
2.074009478092193604e-01 -7.283425331115722656e-01 -2.353440970182418823e-01
1.952256560325622559e-01 -7.548570036888122559e-01 -2.122782617807388306e-01
2.437373697757720947e-01 -8.023480772972106934e-01 -2.710280716419219971e-01
1.957209557294845581e-01 -7.427453994750976562e-01 -2.289185971021652222e-01
2.465958297252655029e-01 -7.563862800598144531e-01 -2.592283785343170166e-01
2.212420403957366943e-01 -8.567984104156494141e-01 -2.634434401988983154e-01
2.730789184570312500e-01 -8.332777619361877441e-01 -2.685811817646026611e-01
2.014922052621841431e-01 -8.228434920310974121e-01 -2.175227850675582886e-01
1.939267665147781372e-01 -7.789037227630615234e-01 -2.378725260496139526e-01
2.157201468944549561e-01 -8.730233311653137207e-01 -2.529557645320892334e-01
2.020412236452102661e-01 -7.372984290122985840e-01 -2.114978730678558350e-01
2.192945033311843872e-01 -8.539211750030517578e-01 -2.232595831155776978e-01
2.443913221359252930e-01 -8.315091133117675781e-01 -2.229958772659301758e-01
2.102697342634201050e-01 -8.432981967926025391e-01 -2.561455368995666504e-01
2.177726179361343384e-01 -7.296028137207031250e-01 -2.124202102422714233e-01
2.283274084329605103e-01 -8.035337924957275391e-01 -2.128526866436004639e-01
2.329042255878448486e-01 -7.446562647819519043e-01 -2.147428393363952637e-01
2.451687455177307129e-01 -8.803511857986450195e-01 -2.710298001766204834e-01
2.698723673820495605e-01 -8.703956007957458496e-01 -2.679696083068847656e-01
2.528826594352722168e-01 -7.614361047744750977e-01 -2.263097018003463745e-01
2.336154431104660034e-01 -8.238568305969238281e-01 -2.173965722322463989e-01
2.046353816986083984e-01 -8.578212857246398926e-01 -2.367923855781555176e-01
2.504348456859588623e-01 -8.494526743888854980e-01 -2.299623340368270874e-01
2.646317183971405029e-01 -7.923111915588378906e-01 -2.351629734039306641e-01
2.248342186212539673e-01 -8.600835800170898438e-01 -2.254436165094375610e-01
2.751243114471435547e-01 -8.459861278533935547e-01 -2.649990022182464600e-01
2.462157607078552246e-01 -8.072323203086853027e-01 -2.720836699008941650e-01
2.618549764156341553e-01 -8.010713458061218262e-01 -2.318202108144760132e-01
1.918993443250656128e-01 -7.829841971397399902e-01 -2.348902374505996704e-01
2.034652084112167358e-01 -7.601134777069091797e-01 -2.082324028015136719e-01
2.096865475177764893e-01 -8.676592111587524414e-01 -2.448211759328842163e-01
2.662243545055389404e-01 -7.753804922103881836e-01 -2.412807345390319824e-01
2.419924587011337280e-01 -8.604215979576110840e-01 -2.732846736907958984e-01
2.283964455127716064e-01 -8.486111164093017578e-01 -2.218985855579376221e-01
2.083609402179718018e-01 -8.446142077445983887e-01 -2.222449183464050293e-01
2.754428386688232422e-01 -8.229575157165527344e-01 -2.533850669860839844e-01
2.215160131454467773e-01 -8.208921551704406738e-01 -2.142113894224166870e-01
2.055897265672683716e-01 -8.579171299934387207e-01 -2.441168874502182007e-01
2.122872769832611084e-01 -7.590038776397705078e-01 -2.077127695083618164e-01
2.738066315650939941e-01 -8.093253374099731445e-01 -2.620608806610107422e-01
2.082709372043609619e-01 -7.187554836273193359e-01 -2.275455594062805176e-01
2.496328055858612061e-01 -8.169777393341064453e-01 -2.235747426748275757e-01
2.554724812507629395e-01 -8.166195154190063477e-01 -2.273769825696945190e-01
2.155533134937286377e-01 -7.491538524627685547e-01 -2.086174339056015015e-01
2.678753435611724854e-01 -8.801028132438659668e-01 -2.626294195652008057e-01
2.262655347585678101e-01 -7.410628199577331543e-01 -2.123965620994567871e-01
2.106056809425354004e-01 -7.645335793495178223e-01 -2.075648009777069092e-01
2.559141218662261963e-01 -8.881946802139282227e-01 -2.490389496088027954e-01
2.548004388809204102e-01 -8.057096004486083984e-01 -2.259611487388610840e-01
2.492410987615585327e-01 -7.807349562644958496e-01 -2.214553803205490112e-01
2.012368291616439819e-01 -7.379644513130187988e-01 -2.344804853200912476e-01
2.178070545196533203e-01 -8.253241181373596191e-01 -2.148627638816833496e-01
2.085663229227066040e-01 -8.647172451019287109e-01 -2.357157170772552490e-01
2.517452538013458252e-01 -8.165134191513061523e-01 -2.737241685390472412e-01
2.211747169494628906e-01 -7.479471564292907715e-01 -2.098432779312133789e-01
2.140442132949829102e-01 -8.483766913414001465e-01 -2.219301760196685791e-01
2.553955316543579102e-01 -7.512677311897277832e-01 -2.324483841657638550e-01
2.676233053207397461e-01 -8.539702892303466797e-01 -2.730828225612640381e-01
2.298173010349273682e-01 -8.180459141731262207e-01 -2.689351439476013184e-01
2.145395576953887939e-01 -7.211266160011291504e-01 -2.153321355581283569e-01
1.972357481718063354e-01 -7.822156548500061035e-01 -2.111747264862060547e-01
2.294157743453979492e-01 -8.647838234901428223e-01 -2.275749593973159790e-01
1.999340355396270752e-01 -7.445249557495117188e-01 -2.360404580831527710e-01
2.207819372415542603e-01 -8.703119754791259766e-01 -2.305497676134109497e-01
2.634722888469696045e-01 -7.635106444358825684e-01 -2.417257279157638550e-01
2.241735607385635376e-01 -7.756074666976928711e-01 -2.607311606407165527e-01
2.385804504156112671e-01 -8.959638476371765137e-01 -2.478707283735275269e-01
1.954809129238128662e-01 -8.028445839881896973e-01 -2.417994290590286255e-01
2.737846672534942627e-01 -8.405914306640625000e-01 -2.509358823299407959e-01
2.339693605899810791e-01 -7.478410601615905762e-01 -2.556230723857879639e-01
-2.258683294057846069e-01 -8.162476420402526855e-01 2.179199457168579102e-01
-2.624231576919555664e-01 -8.746052384376525879e-01 3.951441645622253418e-01
-2.864974439144134521e-01 -7.912998199462890625e-01 1.593366861343383789e-01
-2.324239909648895264e-01 -8.776766657829284668e-01 2.262567281723022461e-01
-2.586655318737030029e-01 -9.205743074417114258e-01 2.737613618373870850e-01
-2.242975682020187378e-01 -8.160710930824279785e-01 5.217244476079940796e-02
-2.496288120746612549e-01 -8.903182744979858398e-01 1.626232713460922241e-01
-2.716566026210784912e-01 -7.753928303718566895e-01 2.030788660049438477e-01
-2.510940134525299072e-01 -9.055055379867553711e-01 2.187586426734924316e-01
-2.208528071641921997e-01 -8.186378479003906250e-01 1.394041031599044800e-01
-2.755576968193054199e-01 -8.936319947242736816e-01 1.815079450607299805e-01
-2.889797985553741455e-01 -8.002701997756958008e-01 1.525866389274597168e-01
-2.900301814079284668e-01 -8.797752857208251953e-01 3.141027092933654785e-01
-2.873845696449279785e-01 -8.279311656951904297e-01 9.350785613059997559e-02
-2.506451308727264404e-01 -8.943416476249694824e-01 1.747655868530273438e-01
-2.908862531185150146e-01 -8.354690074920654297e-01 2.437003850936889648e-01
-2.902502417564392090e-01 -8.115743398666381836e-01 1.219270527362823486e-01
-2.403732985258102417e-01 -8.378558754920959473e-01 3.168934881687164307e-01
-2.809068560600280762e-01 -8.516597151756286621e-01 3.402589857578277588e-01
-2.350695729255676270e-01 -8.354098796844482422e-01 2.935555577278137207e-01
-2.312379479408264160e-01 -7.292116284370422363e-01 5.579050630331039429e-02
-2.684398889541625977e-01 -7.269852757453918457e-01 -4.871293902397155762e-02
-2.426498830318450928e-01 -8.610164523124694824e-01 8.714267611503601074e-02
-2.340090721845626831e-01 -8.190926909446716309e-01 6.379827857017517090e-03
-2.704177796840667725e-01 -9.269064664840698242e-01 3.116610646247863770e-01
-2.801558077335357666e-01 -7.702432870864868164e-01 1.427603513002395630e-01
-2.260430455207824707e-01 -7.594357728958129883e-01 -6.446020305156707764e-02
-2.897125780582427979e-01 -8.912968039512634277e-01 2.858071029186248779e-01
-2.255431115627288818e-01 -7.235200405120849609e-01 -4.280690848827362061e-02
-2.352460026741027832e-01 -8.113381862640380859e-01 -1.416128873825073242e-02
-2.305765748023986816e-01 -8.434721231460571289e-01 8.567957580089569092e-02
-2.203002870082855225e-01 -8.081598877906799316e-01 8.456988632678985596e-02
-2.308731228113174438e-01 -8.237992525100708008e-01 2.992124855518341064e-02
-2.383113801479339600e-01 -7.667070031166076660e-01 1.857444941997528076e-01
-2.752443552017211914e-01 -8.883814811706542969e-01 3.975411355495452881e-01
-2.801022231578826904e-01 -8.681869506835937500e-01 1.282035708427429199e-01
-2.912873327732086182e-01 -8.791988492012023926e-01 2.855536639690399170e-01
-2.576013207435607910e-01 -7.577382326126098633e-01 1.796410083770751953e-01
-2.259338498115539551e-01 -7.294248938560485840e-01 1.843558251857757568e-02
-2.264299392700195312e-01 -8.544288277626037598e-01 1.923384964466094971e-01
-2.699726819992065430e-01 -8.609379529953002930e-01 8.153638243675231934e-02
-2.840062677860260010e-01 -8.841974139213562012e-01 1.895686984062194824e-01
-2.198055684566497803e-01 -7.880923748016357422e-01 3.614867478609085083e-02
-2.304600328207015991e-01 -7.461175918579101562e-01 1.062996834516525269e-01
-2.331018745899200439e-01 -7.235631346702575684e-01 -1.125777959823608398e-01
-2.358424514532089233e-01 -7.081984877586364746e-01 -1.958057284355163574e-02
-2.406565546989440918e-01 -8.997998833656311035e-01 2.618352174758911133e-01
-2.223049700260162354e-01 -7.824542522430419922e-01 -5.982801318168640137e-03
-2.795944511890411377e-01 -8.132595419883728027e-01 2.407418191432952881e-02
-2.283686101436614990e-01 -8.624726533889770508e-01 2.290886938571929932e-01
-2.657537162303924561e-01 -7.399258017539978027e-01 1.063396334648132324e-01
-2.904286384582519531e-01 -8.228755593299865723e-01 1.238872557878494263e-01
-2.473800033330917358e-01 -7.429518103599548340e-01 1.377103328704833984e-01
-2.328043729066848755e-01 -7.156788706779479980e-01 6.712943315505981445e-03
-2.421141415834426880e-01 -8.447993397712707520e-01 4.504241049289703369e-02
-2.747011184692382812e-01 -8.199086189270019531e-01 1.387187838554382324e-02
-2.451212406158447266e-01 -9.079566597938537598e-01 2.698153853416442871e-01
-2.921300530433654785e-01 -8.676519989967346191e-01 2.327132225036621094e-01
-2.678592801094055176e-01 -7.663339376449584961e-01 -7.164213061332702637e-02
-2.399293631315231323e-01 -8.217960000038146973e-01 2.942425906658172607e-01
-2.395777702331542969e-01 -8.283244967460632324e-01 1.147758960723876953e-02
-2.296802848577499390e-01 -7.649048566818237305e-01 -7.485508918762207031e-02
-2.922967672348022461e-01 -8.345703482627868652e-01 1.738125234842300415e-01
-2.752201855182647705e-01 -7.498103380203247070e-01 -3.148819506168365479e-02
-2.216866016387939453e-01 -7.995821237564086914e-01 1.582367718219757080e-01
-2.911026775836944580e-01 -8.657839298248291016e-01 2.918665409088134766e-01
-2.775145769119262695e-01 -7.546378374099731445e-01 -1.405732333660125732e-02
-2.491071969270706177e-01 -9.108264446258544922e-01 2.554262876510620117e-01
-2.191028892993927002e-01 -7.696085572242736816e-01 5.927086621522903442e-02
-2.208992987871170044e-01 -7.453690767288208008e-01 -7.779896259307861328e-05
-2.343119382858276367e-01 -7.602985501289367676e-01 1.587356328964233398e-01
-2.920418679714202881e-01 -8.642764091491699219e-01 2.181325852870941162e-01
-2.348508983850479126e-01 -8.593087792396545410e-01 3.093242645263671875e-01
-2.898287177085876465e-01 -8.898998498916625977e-01 3.045608401298522949e-01
-2.372023761272430420e-01 -7.541965842247009277e-01 -1.073564887046813965e-01
-2.478608936071395874e-01 -7.639582157135009766e-01 -1.056571304798126221e-01
-2.747299969196319580e-01 -7.726452350616455078e-01 1.837195754051208496e-01
-2.580757737159729004e-01 -8.240998983383178711e-01 -1.051525771617889404e-02
-2.254019826650619507e-01 -7.760713100433349609e-01 -3.894653916358947754e-02
-2.883979678153991699e-01 -7.984440922737121582e-01 9.236349165439605713e-02
-2.337280362844467163e-01 -8.814845085144042969e-01 2.710088491439819336e-01
-2.440813183784484863e-01 -7.943738102912902832e-01 2.572192549705505371e-01
-2.843473255634307861e-01 -7.752239704132080078e-01 5.103827267885208130e-02
-2.731652855873107910e-01 -7.416760325431823730e-01 -3.865660727024078369e-02
-2.494452595710754395e-01 -7.305247187614440918e-01 9.886384755373001099e-02
-2.732538580894470215e-01 -9.242875576019287109e-01 3.879824876785278320e-01
-2.207917571067810059e-01 -8.035307526588439941e-01 1.488628834486007690e-01
-2.662247717380523682e-01 -8.182052373886108398e-01 -1.089769601821899414e-02
-2.227207422256469727e-01 -8.332640528678894043e-01 1.679175943136215210e-01
-2.337730824947357178e-01 -8.752268552780151367e-01 2.934144735336303711e-01
-2.332865446805953979e-01 -7.120291590690612793e-01 -1.064065098762512207e-02
-2.229215204715728760e-01 -7.793704271316528320e-01 1.389248818159103394e-01
-2.871911823749542236e-01 -7.983522415161132812e-01 1.784331649541854858e-01
-2.919182181358337402e-01 -8.326950073242187500e-01 2.164849787950515747e-01
-2.242571413516998291e-01 -8.219214081764221191e-01 2.073274403810501099e-01
-2.474925369024276733e-01 -8.336434960365295410e-01 3.295510113239288330e-01
-2.787521183490753174e-01 -8.032487034797668457e-01 2.514066398143768311e-01
-2.712157666683197021e-01 -7.826799750328063965e-01 2.242120802402496338e-01
-2.529541850090026855e-01 -7.523288726806640625e-01 1.664094179868698120e-01
-2.211101800203323364e-01 -7.628719210624694824e-01 -2.070595324039459229e-02
-2.813401222229003906e-01 -7.881497740745544434e-01 1.002489030361175537e-02
-2.238742709159851074e-01 -8.045932054519653320e-01 1.875983178615570068e-01
-2.711214423179626465e-01 -8.683453202247619629e-01 1.014942079782485962e-01
-2.436401695013046265e-01 -7.129036784172058105e-01 2.695452421903610229e-02
-2.662802040576934814e-01 -7.242216467857360840e-01 -6.317237019538879395e-02
-2.494316548109054565e-01 -8.983716964721679688e-01 3.814154267311096191e-01
-2.472259700298309326e-01 -8.815597295761108398e-01 1.384950876235961914e-01
-2.235579639673233032e-01 -8.292681574821472168e-01 1.991921514272689819e-01
-2.777619361877441406e-01 -8.061836361885070801e-01 6.340071558952331543e-03
-2.908416092395782471e-01 -8.128166198730468750e-01 1.580264568328857422e-01
-2.834041118621826172e-01 -8.297175168991088867e-01 6.800910830497741699e-02
-2.605208456516265869e-01 -8.962221145629882812e-01 4.075947105884552002e-01
-2.789429724216461182e-01 -8.564892411231994629e-01 9.698244929313659668e-02
-2.601101994514465332e-01 -7.836589217185974121e-01 -7.259912788867950439e-02
-2.459538877010345459e-01 -8.681366443634033203e-01 3.631099462509155273e-01
-2.729870676994323730e-01 -7.468407750129699707e-01 -4.775367677211761475e-02
-2.579561471939086914e-01 -9.156242012977600098e-01 3.963389694690704346e-01
-2.388136386871337891e-01 -7.885742783546447754e-01 2.341087907552719116e-01
-2.904607057571411133e-01 -8.668179512023925781e-01 1.968511343002319336e-01
-2.458759397268295288e-01 -9.114422798156738281e-01 3.155662119388580322e-01
-2.285318374633789062e-01 -8.252355456352233887e-01 4.592564702033996582e-02
-2.670091688632965088e-01 -7.215715646743774414e-01 -2.941793203353881836e-02
-2.412932664155960083e-01 -7.229105830192565918e-01 6.487010419368743896e-02
-2.258664071559906006e-01 -7.227966785430908203e-01 -2.871774137020111084e-02
-2.293173968791961670e-01 -7.805056571960449219e-01 1.833350360393524170e-01
-2.581516504287719727e-01 -7.338812947273254395e-01 1.036605238914489746e-01
-2.698551714420318604e-01 -8.619918227195739746e-01 3.786746859550476074e-01
-2.319080978631973267e-01 -7.204958796501159668e-01 2.448549121618270874e-02
-2.550781667232513428e-01 -9.214645624160766602e-01 2.943846583366394043e-01
-2.229215651750564575e-01 -7.471604347229003906e-01 5.629941076040267944e-02
-2.285752594470977783e-01 -8.614152669906616211e-01 1.812626868486404419e-01
-2.488059103488922119e-01 -8.054154515266418457e-01 2.855079770088195801e-01
-2.903524041175842285e-01 -8.129808902740478516e-01 1.813078671693801880e-01
-2.382732629776000977e-01 -8.327139019966125488e-01 2.491003274917602539e-02
-2.918436527252197266e-01 -8.251023888587951660e-01 1.618261784315109253e-01
-2.252835780382156372e-01 -8.294927477836608887e-01 8.305434137582778931e-02
-2.189676463603973389e-01 -7.774725556373596191e-01 3.683831542730331421e-02
-2.269220352172851562e-01 -8.270566463470458984e-01 2.361394912004470825e-01
-2.286535799503326416e-01 -7.872906327247619629e-01 -3.690807521343231201e-02
-2.587949037551879883e-01 -8.363018035888671875e-01 3.458539247512817383e-01
-2.917582392692565918e-01 -8.430410027503967285e-01 1.670758277177810669e-01
-2.376427054405212402e-01 -8.120589852333068848e-01 2.723586559295654297e-01
-2.910762429237365723e-01 -8.308925032615661621e-01 2.289793491363525391e-01
-2.825709879398345947e-01 -8.050514459609985352e-01 2.375795841217041016e-01
-2.443401068449020386e-01 -8.686587810516357422e-01 1.051551997661590576e-01
-2.841126322746276855e-01 -7.819710969924926758e-01 3.605285286903381348e-02
-2.627562284469604492e-01 -7.171688675880432129e-01 -7.085056602954864502e-02
-2.669690549373626709e-01 -8.116199970245361328e-01 2.986535727977752686e-01
-2.551884055137634277e-01 -8.493856191635131836e-01 4.176382720470428467e-02
-2.463707178831100464e-01 -7.190582752227783203e-01 5.552732199430465698e-02
-2.538977265357971191e-01 -9.221860766410827637e-01 3.519842922687530518e-01
-2.924123406410217285e-01 -8.419701457023620605e-01 2.289279699325561523e-01
-2.246377021074295044e-01 -7.271329760551452637e-01 -1.928427815437316895e-02
-2.802437543869018555e-01 -8.098710179328918457e-01 2.611230611801147461e-01
-2.606706023216247559e-01 -9.090786576271057129e-01 4.073592722415924072e-01
-2.205420136451721191e-01 -7.499564290046691895e-01 -9.889662265777587891e-03
-2.262624651193618774e-01 -7.480752468109130859e-01 -7.571248710155487061e-02
-2.396936714649200439e-01 -8.980470895767211914e-01 3.014380931854248047e-01
-2.716223001480102539e-01 -9.167205691337585449e-01 2.561298012733459473e-01
-2.629562616348266602e-01 -7.187867760658264160e-01 1.601690798997879028e-02
-2.363531589508056641e-01 -7.942007780075073242e-01 -4.969882965087890625e-02
-2.322840392589569092e-01 -7.312333583831787109e-01 6.782925128936767578e-02
-2.842842340469360352e-01 -7.782386541366577148e-01 1.312176883220672607e-01
-2.534784078598022461e-01 -7.957585453987121582e-01 2.708654105663299561e-01
-2.616220116615295410e-01 -7.135020494461059570e-01 -6.092792749404907227e-02
-2.560652196407318115e-01 -8.535217642784118652e-01 5.138102918863296509e-02
-2.252170145511627197e-01 -8.272942900657653809e-01 2.204000204801559448e-01
-2.428957223892211914e-01 -8.866627216339111328e-01 1.713071167469024658e-01
-2.839747667312622070e-01 -8.893530964851379395e-01 2.051296830177307129e-01
-2.244803011417388916e-01 -8.396922945976257324e-01 2.062476575374603271e-01
-2.709612846374511719e-01 -9.086104631423950195e-01 4.100469052791595459e-01
-2.877326011657714844e-01 -8.834353089332580566e-01 3.405460715293884277e-01
-2.329462319612503052e-01 -8.077187538146972656e-01 2.479828745126724243e-01
-2.756662368774414062e-01 -9.209043979644775391e-01 2.909825444221496582e-01
-2.457278519868850708e-01 -7.791032791137695312e-01 2.281919419765472412e-01
-2.896257042884826660e-01 -8.597651720046997070e-01 3.024668097496032715e-01
-2.650187611579895020e-01 -9.298862218856811523e-01 3.619173765182495117e-01
-2.253510504961013794e-01 -8.408262133598327637e-01 1.248884350061416626e-01
-2.613302767276763916e-01 -8.732182979583740234e-01 1.017402559518814087e-01
-2.315698564052581787e-01 -8.495463132858276367e-01 9.873454272747039795e-02
-2.920005917549133301e-01 -8.699424266815185547e-01 2.736320495605468750e-01
-2.206968516111373901e-01 -8.023601770401000977e-01 5.680674314498901367e-02
-2.392539381980895996e-01 -7.038816809654235840e-01 -3.555390238761901855e-02
-2.318554073572158813e-01 -8.743714094161987305e-01 2.080468535423278809e-01
-2.590342760086059570e-01 -8.129996061325073242e-01 -2.984948456287384033e-02
-2.792495787143707275e-01 -7.840170264244079590e-01 -6.496340036392211914e-03
-2.222763299942016602e-01 -8.267843723297119141e-01 1.178359538316726685e-01
-2.817233800888061523e-01 -7.620933055877685547e-01 7.192092388868331909e-02
-2.408917695283889771e-01 -8.492928743362426758e-01 3.309410512447357178e-01
-2.884656190872192383e-01 -8.435587286949157715e-01 2.861630320549011230e-01
-2.548569440841674805e-01 -7.077472209930419922e-01 -1.530417799949645996e-02
-2.246866673231124878e-01 -8.435460925102233887e-01 1.535744667053222656e-01
-2.684296071529388428e-01 -7.565374374389648438e-01 -7.471129298210144043e-02
-2.882235944271087646e-01 -8.553169369697570801e-01 1.469857692718505859e-01
-2.291210889816284180e-01 -8.175048828125000000e-01 2.421063631772994995e-01
-2.189255803823471069e-01 -7.832164764404296875e-01 4.873618483543395996e-02
-2.546329796314239502e-01 -7.322809100151062012e-01 -1.211358904838562012e-01
-2.238279879093170166e-01 -7.774361968040466309e-01 -2.659277617931365967e-02
-2.659472823143005371e-01 -7.247675061225891113e-01 3.284779936075210571e-02
-2.730848193168640137e-01 -8.773086667060852051e-01 3.919414281845092773e-01
-2.715537548065185547e-01 -8.767032623291015625e-01 1.235541850328445435e-01
-2.269524335861206055e-01 -8.492027521133422852e-01 2.377347350120544434e-01
-2.492933571338653564e-01 -7.270101308822631836e-01 -1.287635564804077148e-01
-2.207293361425399780e-01 -7.799867391586303711e-01 1.161011457443237305e-01
-2.270923554897308350e-01 -7.291435599327087402e-01 2.852919697761535645e-02
-2.405674308538436890e-01 -8.936403989791870117e-01 2.175591289997100830e-01
-2.410416603088378906e-01 -8.927406072616577148e-01 3.381695151329040527e-01
-2.446702718734741211e-01 -9.074871540069580078e-01 3.318265676498413086e-01
-2.891847789287567139e-01 -8.653002381324768066e-01 3.135450184345245361e-01
-2.921370267868041992e-01 -8.572977185249328613e-01 2.641076147556304932e-01
-2.749032080173492432e-01 -7.440737485885620117e-01 6.592978537082672119e-02
-2.830477058887481689e-01 -8.568413257598876953e-01 1.160987168550491333e-01
-2.871093451976776123e-01 -7.894365787506103516e-01 1.380091905593872070e-01
-2.760137319564819336e-01 -7.612242102622985840e-01 1.380492001771926880e-01
-2.393183857202529907e-01 -7.770563364028930664e-01 -8.266228437423706055e-02
-2.473842948675155640e-01 -8.436546921730041504e-01 3.341221064329147339e-02
-2.203752994537353516e-01 -7.537421584129333496e-01 3.860661387443542480e-02
-2.236229479312896729e-01 -7.500976324081420898e-01 -5.566318333148956299e-02
-2.578966915607452393e-01 -7.244812250137329102e-01 6.730582565069198608e-02
-2.314081639051437378e-01 -8.707111477851867676e-01 2.692769765853881836e-01
-2.268758118152618408e-01 -7.242444753646850586e-01 -7.494628429412841797e-02
-2.195479273796081543e-01 -8.040008544921875000e-01 1.093287616968154907e-01
-2.659585475921630859e-01 -7.861224412918090820e-01 2.437665760517120361e-01
-2.644630074501037598e-01 -7.175973653793334961e-01 -4.872684180736541748e-02
-2.547089457511901855e-01 -8.920874595642089844e-01 3.972927629947662354e-01
-2.287430465221405029e-01 -8.644584417343139648e-01 2.070717513561248779e-01
-2.766647338867187500e-01 -9.015927910804748535e-01 2.110976874828338623e-01
-2.257490009069442749e-01 -7.696276307106018066e-01 1.401714533567428589e-01
-2.468648701906204224e-01 -8.884859681129455566e-01 3.735677599906921387e-01
-2.799907922744750977e-01 -7.584275007247924805e-01 1.365478336811065674e-02
-2.261932492256164551e-01 -7.337610721588134766e-01 -7.862555980682373047e-02
-2.431103140115737915e-01 -7.421165704727172852e-01 -1.242360770702362061e-01
-2.360996752977371216e-01 -8.797009587287902832e-01 1.836591809988021851e-01
-2.684052586555480957e-01 -7.475242018699645996e-01 1.250267922878265381e-01
-2.702996730804443359e-01 -7.993431687355041504e-01 -2.986238896846771240e-02
-2.279590666294097900e-01 -8.017604351043701172e-01 2.135914862155914307e-01
-2.188130766153335571e-01 -7.785587906837463379e-01 6.990630179643630981e-02
-2.286312580108642578e-01 -8.539472818374633789e-01 1.397108137607574463e-01
-2.344796359539031982e-01 -7.665048837661743164e-01 1.741048097610473633e-01
-2.823078036308288574e-01 -7.641483545303344727e-01 4.859571903944015503e-02
-2.663893699645996094e-01 -7.797809243202209473e-01 -6.413997709751129150e-02
-2.630626857280731201e-01 -7.261980175971984863e-01 5.794524401426315308e-02
-2.384971976280212402e-01 -7.736350297927856445e-01 2.020161598920822144e-01
-2.928183376789093018e-01 -8.457372188568115234e-01 2.181966304779052734e-01
-2.533372342586517334e-01 -7.037106752395629883e-01 -5.953051149845123291e-02
-2.223799824714660645e-01 -7.407059073448181152e-01 2.203791588544845581e-02
-2.905393242835998535e-01 -8.790813684463500977e-01 2.368700206279754639e-01
-2.780613601207733154e-01 -7.881605625152587891e-01 2.147237658500671387e-01
-2.792845070362091064e-01 -8.715114593505859375e-01 3.722278475761413574e-01
-2.844029664993286133e-01 -7.948482036590576172e-01 3.826177865266799927e-02
-2.725608944892883301e-01 -9.187729954719543457e-01 2.681737244129180908e-01
-2.882466316223144531e-01 -8.482362031936645508e-01 2.963369488716125488e-01
-2.459167838096618652e-01 -7.714534997940063477e-01 2.110896557569503784e-01
-2.263301312923431396e-01 -8.515763282775878906e-01 2.204459011554718018e-01
-2.830571234226226807e-01 -9.149547815322875977e-01 3.429620265960693359e-01
-2.476523071527481079e-01 -9.008808135986328125e-01 3.716710507869720459e-01
-2.726336121559143066e-01 -8.329931497573852539e-01 3.306169211864471436e-01
-2.390513569116592407e-01 -7.817247509956359863e-01 2.208281457424163818e-01
-2.658426761627197266e-01 -9.193147420883178711e-01 4.046240448951721191e-01
-2.559380531311035156e-01 -8.437865376472473145e-01 3.551895022392272949e-01
-2.291910052299499512e-01 -7.519276142120361328e-01 -8.708405494689941406e-02
-2.695099115371704102e-01 -8.059697747230529785e-01 2.832016050815582275e-01
-2.865304946899414062e-01 -8.752315640449523926e-01 1.811224818229675293e-01
-2.234531641006469727e-01 -7.400866746902465820e-01 -5.475279688835144043e-02
-2.220669835805892944e-01 -8.087483644485473633e-01 1.721028089523315430e-01
-2.190191894769668579e-01 -7.932663559913635254e-01 7.494328916072845459e-02
-2.783727049827575684e-01 -8.275897502899169922e-01 3.062944412231445312e-01
-2.920454144477844238e-01 -8.599151968955993652e-01 2.059321850538253784e-01
-2.463332116603851318e-01 -9.121093750000000000e-01 3.006574511528015137e-01
-2.310758680105209351e-01 -7.819036841392517090e-01 1.943047791719436646e-01
-2.688186168670654297e-01 -9.116188883781433105e-01 2.294864505529403687e-01
-2.819446027278900146e-01 -8.471540212631225586e-01 9.082381427288055420e-02
-2.595651447772979736e-01 -9.187021851539611816e-01 2.613463401794433594e-01
-2.336500138044357300e-01 -7.375211715698242188e-01 -1.124507784843444824e-01
-2.911706268787384033e-01 -8.520873785018920898e-01 2.733020782470703125e-01
-2.762080430984497070e-01 -7.952996492385864258e-01 -1.325345039367675781e-02
-2.771309316158294678e-01 -9.221532344818115234e-01 3.774827122688293457e-01
-2.213055938482284546e-01 -7.832942008972167969e-01 1.295296400785446167e-01
-2.538829147815704346e-01 -7.051085233688354492e-01 -8.107601106166839600e-02
-2.715329825878143311e-01 -7.313668131828308105e-01 1.026113331317901611e-02
-2.829831242561340332e-01 -7.903195023536682129e-01 2.394186705350875854e-02
-2.819012999534606934e-01 -7.885472774505615234e-01 1.943965256214141846e-01
-2.384935617446899414e-01 -8.958299160003662109e-01 2.724252343177795410e-01
-2.833527326583862305e-01 -8.751761317253112793e-01 1.609365046024322510e-01
-2.465834319591522217e-01 -9.064995050430297852e-01 3.560880720615386963e-01
-2.474361360073089600e-01 -7.016830444335937500e-01 -4.554297029972076416e-02
-2.796963453292846680e-01 -9.214270710945129395e-01 3.345721364021301270e-01
-2.560499310493469238e-01 -9.117519855499267578e-01 2.338271439075469971e-01
-2.279803454875946045e-01 -8.103500008583068848e-01 1.254349946975708008e-02
-2.666391432285308838e-01 -7.311924695968627930e-01 -7.587487995624542236e-02
-2.542189657688140869e-01 -7.608404755592346191e-01 1.895518153905868530e-01
-2.911279499530792236e-01 -8.583433032035827637e-01 1.853607445955276489e-01
-2.432041764259338379e-01 -7.346751689910888672e-01 1.081167459487915039e-01
-2.231554687023162842e-01 -8.333496451377868652e-01 1.861183047294616699e-01
-2.629916369915008545e-01 -8.788142800331115723e-01 1.177535578608512878e-01
-2.870353162288665771e-01 -8.220524191856384277e-01 2.509711682796478271e-01
-2.888491153717041016e-01 -8.238411545753479004e-01 1.030800044536590576e-01
-2.505823671817779541e-01 -7.790695428848266602e-01 -8.682152628898620605e-02
-2.845023274421691895e-01 -8.795117735862731934e-01 3.596099615097045898e-01
-2.345801293849945068e-01 -8.792079687118530273e-01 1.966829597949981689e-01
-2.690438628196716309e-01 -7.398422360420227051e-01 9.137798845767974854e-02
-2.912753224372863770e-01 -8.470379710197448730e-01 2.629142403602600098e-01
-2.801352739334106445e-01 -9.205435514450073242e-01 3.530600666999816895e-01
-2.458232045173645020e-01 -8.515053391456604004e-01 3.480792045593261719e-01
