-5.655968934297561646e-02 -1.603861898183822632e-02 -8.008382320404052734e-01
-1.704627871513366699e-01 1.577866226434707642e-01 -5.254741907119750977e-01
-1.090397834777832031e-01 -7.612094283103942871e-03 -8.631178140640258789e-01
-1.186531409621238708e-01 -2.660810202360153198e-02 -1.988074481487274170e-01
-2.205673158168792725e-01 1.023350730538368225e-01 -4.409751296043395996e-02
9.736512601375579834e-02 1.023738905787467957e-01 -6.220991611480712891e-01
-3.764647841453552246e-01 4.411336779594421387e-02 -4.735554754734039307e-01
-2.383597493171691895e-01 1.531005278229713440e-02 -8.695931434631347656e-01
5.282248556613922119e-02 1.143958196043968201e-01 -1.859090924263000488e-01
-2.765870690345764160e-01 1.363253891468048096e-01 -5.314943194389343262e-01
-1.421774029731750488e-01 -2.872469276189804077e-02 -2.143757492303848267e-01
3.671635687351226807e-02 1.231030970811843872e-01 -6.988854408264160156e-01
-1.828215867280960083e-01 -1.154776662588119507e-02 -1.271915137767791748e-01
-1.293048709630966187e-01 -3.218024224042892456e-02 -7.313592433929443359e-01
-1.463248133659362793e-01 1.551572531461715698e-01 -6.043211221694946289e-01
-1.386631727218627930e-01 4.099998250603675842e-02 2.424064278602600098e-02
-2.896613478660583496e-01 -2.110844850540161133e-02 -5.583592057228088379e-01
-3.116393685340881348e-01 6.513670086860656738e-02 -7.889264822006225586e-01
-1.699670404195785522e-02 1.457638740539550781e-01 -6.330999135971069336e-01
1.249032914638519287e-01 4.233810305595397949e-02 -5.639744997024536133e-01
-3.848905861377716064e-02 7.757835090160369873e-02 -9.201990365982055664e-01
-9.987399727106094360e-02 -1.989265531301498413e-02 -1.603226661682128906e-01
-1.407553404569625854e-01 1.610500365495681763e-01 -3.768757283687591553e-01
-5.845426768064498901e-02 -3.685097396373748779e-02 -3.463592529296875000e-01
-2.760881185531616211e-01 5.570416152477264404e-02 -8.584840893745422363e-01
-2.221928238868713379e-01 -3.868872672319412231e-02 -4.667981266975402832e-01
-8.237987011671066284e-02 1.501711010932922363e-01 -6.630292534828186035e-01
-7.693429291248321533e-02 1.571317017078399658e-01 -5.751447081565856934e-01
-2.341508269309997559e-01 -2.989887446165084839e-02 -6.535740494728088379e-01
-3.234286904335021973e-01 -4.554063081741333008e-03 -3.670727908611297607e-01
-4.425451159477233887e-02 1.427083164453506470e-01 -1.796256005764007568e-01
4.690526425838470459e-02 1.219382137060165405e-02 -7.685557603836059570e-01
7.479138672351837158e-02 3.653448075056076050e-02 -1.721356213092803955e-01
8.947151899337768555e-02 5.486712232232093811e-02 -1.833000481128692627e-01
8.515119552612304688e-02 8.202560245990753174e-02 -1.784847676753997803e-01
-2.203044444322586060e-01 1.352159380912780762e-01 -7.039628028869628906e-01
-2.615851461887359619e-01 1.036160290241241455e-01 -7.975243330001831055e-01
-2.623702585697174072e-01 1.334229260683059692e-01 -6.289954185485839844e-01
7.783539593219757080e-02 7.145676761865615845e-03 -3.047549128532409668e-01
-2.818026542663574219e-01 -7.695697247982025146e-03 -7.203112244606018066e-01
-5.236802250146865845e-02 1.560671031475067139e-01 -3.090333938598632812e-01
1.174242049455642700e-01 8.300867676734924316e-02 -6.056972742080688477e-01
6.404478847980499268e-02 1.134162247180938721e-01 -2.113488018512725830e-01
-9.723226726055145264e-02 1.609522551298141479e-01 -5.108259320259094238e-01
-1.519412547349929810e-01 1.088225096464157104e-01 -8.775005340576171875e-01
-1.014045625925064087e-01 -3.572242707014083862e-02 -2.835845351219177246e-01
-2.446825206279754639e-01 -3.088249266147613525e-02 -3.599396347999572754e-01
2.853223681449890137e-02 1.439363658428192139e-01 -5.035161972045898438e-01
9.648609161376953125e-02 8.761660009622573853e-02 -6.855826377868652344e-01
-2.532768249511718750e-02 1.511144340038299561e-01 -2.875090241432189941e-01
3.934945166110992432e-02 1.332250237464904785e-01 -2.674917280673980713e-01
-2.308777868747711182e-01 4.501894116401672363e-03 -1.006480455398559570e-01
-3.269229531288146973e-01 -6.655916571617126465e-03 -4.449916183948516846e-01
-3.756815195083618164e-01 6.717913597822189331e-02 -4.440040588378906250e-01
-6.986208260059356689e-03 -3.255390375852584839e-02 -5.127021670341491699e-01
-3.143419623374938965e-01 7.983067631721496582e-02 -7.604076862335205078e-01
-3.397389650344848633e-01 1.061420589685440063e-01 -3.583802580833435059e-01
-2.711131870746612549e-01 1.308906227350234985e-01 -2.540230751037597656e-01
-3.112924396991729736e-01 -1.314943283796310425e-02 -5.451654195785522461e-01
-1.889286935329437256e-02 1.372137814760208130e-01 -7.076309919357299805e-01
-1.803437471389770508e-01 1.230378672480583191e-01 -7.383337616920471191e-02
-1.314488500356674194e-01 -3.649584203958511353e-02 -2.838117182254791260e-01
-3.481706231832504272e-02 -3.797913342714309692e-02 -4.935145974159240723e-01
-2.754463553428649902e-01 -2.763144671916961670e-03 -7.593221664428710938e-01
-3.492040634155273438e-01 7.357972860336303711e-02 -6.654911041259765625e-01
-3.468403816223144531e-01 9.517727047204971313e-02 -5.864640474319458008e-01
5.453273653984069824e-02 1.318203359842300415e-01 -3.140836954116821289e-01
1.104787886142730713e-01 8.974544703960418701e-02 -2.897454500198364258e-01
-1.599278450012207031e-01 1.414349526166915894e-01 -1.520538926124572754e-01
1.130430847406387329e-01 1.039240881800651550e-01 -4.463698565959930420e-01
3.406262397766113281e-02 1.274394690990447998e-01 -2.090413570404052734e-01
-3.267434239387512207e-01 1.052082329988479614e-01 -6.237295269966125488e-01
-1.184799745678901672e-01 1.623481363058090210e-01 -4.291154742240905762e-01
3.739163279533386230e-02 7.416914403438568115e-02 -8.437708020210266113e-01
-1.711435914039611816e-01 6.780569255352020264e-02 -9.448421597480773926e-01
-1.373440921306610107e-01 1.321104764938354492e-01 -7.894178628921508789e-01
3.352572023868560791e-02 1.421969830989837646e-01 -3.662824630737304688e-01
-3.724510073661804199e-01 6.588119268417358398e-02 -3.732594251632690430e-01
9.280879795551300049e-02 5.225021392107009888e-03 -4.506696760654449463e-01
-7.553963363170623779e-02 -4.135097563266754150e-02 -3.994879424571990967e-01
-3.034827411174774170e-01 -1.766951382160186768e-02 -4.709611237049102783e-01
-1.541422307491302490e-02 1.544310748577117920e-01 -4.684489369392395020e-01
-9.050914645195007324e-02 1.592895984649658203e-01 -3.200547099113464355e-01
1.814557611942291260e-02 -9.582422673702239990e-03 -2.341969162225723267e-01
1.032224297523498535e-02 1.424156725406646729e-01 -6.071586608886718750e-01
1.112515330314636230e-01 9.507419168949127197e-02 -3.174691200256347656e-01
-2.727596759796142578e-01 -2.349313348531723022e-03 -1.880214214324951172e-01
-1.988659799098968506e-01 1.527843624353408813e-01 -3.106275200843811035e-01
-3.642534464597702026e-02 -4.568815231323242188e-03 -1.249607503414154053e-01
-2.168057262897491455e-01 1.319115757942199707e-01 -7.308908700942993164e-01
2.930749952793121338e-02 1.445637643337249756e-01 -4.075295031070709229e-01
-3.596472144126892090e-01 1.661445572972297668e-02 -4.985400736331939697e-01
-3.617668151855468750e-02 1.116989254951477051e-01 -4.880246520042419434e-02
-2.092175483703613281e-01 8.557849377393722534e-02 -9.009032249450683594e-01
-7.689203321933746338e-02 5.366910994052886963e-02 -9.529970288276672363e-01
-1.186295971274375916e-01 1.228395700454711914e-01 -5.248048901557922363e-02
-2.040540575981140137e-01 1.499380618333816528e-01 -2.797684967517852783e-01
-2.922660708427429199e-01 1.328340470790863037e-01 -4.717358648777008057e-01
-1.365891844034194946e-01 8.331719785928726196e-03 -3.890153765678405762e-02
-2.501013576984405518e-01 1.395793408155441284e-01 -2.754559814929962158e-01
-5.747740715742111206e-02 9.241347014904022217e-02 -9.081875085830688477e-01
-1.648156344890594482e-01 -2.379110455513000488e-02 -7.814658880233764648e-01
-5.534581840038299561e-03 1.491060256958007812e-01 -5.630419254302978516e-01
-3.272525668144226074e-01 8.219679445028305054e-02 -1.862624883651733398e-01
-1.885497570037841797e-01 -3.638553619384765625e-02 -6.588212251663208008e-01
-2.993266880512237549e-01 1.256470680236816406e-01 -5.667036771774291992e-01
-4.738392680883407593e-02 -2.000050991773605347e-02 -1.976755559444427490e-01
-2.815839648246765137e-01 -2.513210475444793701e-02 -4.561976492404937744e-01
-2.382549345493316650e-01 1.404587477445602417e-01 -6.241439580917358398e-01
-1.638892889022827148e-01 1.596530675888061523e-01 -4.835475981235504150e-01
-1.032297983765602112e-01 1.002991572022438049e-02 -3.613826632499694824e-02
-2.904444932937622070e-01 1.205991432070732117e-01 -6.513756513595581055e-01
1.080068498849868774e-01 2.591366693377494812e-02 -3.348205685615539551e-01
-2.982060313224792480e-01 -1.651011407375335693e-02 -3.768004775047302246e-01
8.456592261791229248e-02 9.444151818752288818e-02 -2.019544243812561035e-01
9.362955391407012939e-02 1.184944808483123779e-02 -3.509348630905151367e-01
-1.131419390439987183e-01 -4.265449941158294678e-02 -3.772904276847839355e-01
7.828363776206970215e-02 7.635952532291412354e-02 -7.615059614181518555e-01
6.804196536540985107e-02 1.311252415180206299e-01 -4.164448976516723633e-01
-2.787910997867584229e-01 1.062673628330230713e-01 -7.573653459548950195e-01
-3.168319165706634521e-01 1.165475323796272278e-01 -3.110671639442443848e-01
-2.125984579324722290e-01 1.440772712230682373e-01 -2.312853187322616577e-01
-1.226786151528358459e-01 1.061515808105468750e-01 -5.618631839752197266e-03
1.830475032329559326e-02 -2.619063109159469604e-02 -5.157915353775024414e-01
-1.332756429910659790e-01 1.587660908699035645e-01 -3.099371790885925293e-01
7.217282056808471680e-02 2.491763234138488770e-02 -7.468836307525634766e-01
-4.282518476247787476e-02 -3.289959579706192017e-02 -6.541631817817687988e-01
-5.987338721752166748e-03 1.279690265655517578e-01 -7.467640638351440430e-01
-3.199441730976104736e-02 6.360972672700881958e-02 5.913376808166503906e-03
2.471333742141723633e-02 4.366545751690864563e-02 -8.673411607742309570e-01
-1.237578690052032471e-01 -2.663315832614898682e-02 -7.716751098632812500e-01
-3.386893868446350098e-02 9.502282738685607910e-02 -1.515924930572509766e-02
7.357348501682281494e-02 1.210347190499305725e-02 -2.564297914505004883e-01
2.347174286842346191e-02 -1.295576989650726318e-02 -6.917158961296081543e-01
-1.158332303166389465e-01 1.058432161808013916e-01 -8.916518688201904297e-01
9.171038866043090820e-02 2.786199934780597687e-02 -2.484655082225799561e-01
3.348876535892486572e-02 3.260750323534011841e-03 -1.932587623596191406e-01
-5.773519724607467651e-02 3.823259472846984863e-02 4.304379224777221680e-03
-1.955615431070327759e-01 -3.797944635152816772e-02 -3.488901555538177490e-01
-2.820834219455718994e-01 -1.354299485683441162e-02 -6.808010339736938477e-01
3.013105690479278564e-02 -1.799505203962326050e-02 -6.191567182540893555e-01
-2.107531726360321045e-01 6.719675660133361816e-02 6.205677986145019531e-03
-1.691534221172332764e-01 -4.387345165014266968e-02 -5.426428914070129395e-01
-1.747578084468841553e-01 -4.392002522945404053e-02 -4.595883488655090332e-01
-3.316359519958496094e-01 1.137768626213073730e-01 -4.006931483745574951e-01
-3.397362828254699707e-01 3.523888066411018372e-02 -2.226814180612564087e-01
-2.276767492294311523e-01 1.161790788173675537e-01 -7.971457839012145996e-01
-1.407622098922729492e-01 -2.943530678749084473e-03 -7.674708962440490723e-02
-2.843073010444641113e-01 -1.543219387531280518e-02 -3.032580912113189697e-01
2.077552676200866699e-02 -1.252507418394088745e-02 -2.621193528175354004e-01
-2.123969495296478271e-01 -2.473638206720352173e-02 -7.362815737724304199e-01
9.452368319034576416e-02 3.845198452472686768e-02 -2.254808247089385986e-01
-8.501789718866348267e-02 -9.846664965152740479e-03 -1.141514778137207031e-01
-2.779758572578430176e-01 1.937527954578399658e-02 -8.248333334922790527e-01
-3.483615070581436157e-02 -3.752556443214416504e-02 -5.341851711273193359e-01
-2.347009629011154175e-01 -1.307554543018341064e-02 -1.832643449306488037e-01
-2.076215445995330811e-01 1.139394938945770264e-01 -6.358888745307922363e-02
9.111155569553375244e-02 3.911444172263145447e-02 -7.238959074020385742e-01
-1.157085597515106201e-01 1.564939171075820923e-01 -5.994175672531127930e-01
6.902416050434112549e-02 -4.116483032703399658e-04 -3.279337882995605469e-01
-1.189752221107482910e-01 7.601283490657806396e-02 3.456360101699829102e-02
1.193799078464508057e-02 1.291189640760421753e-01 -7.124247550964355469e-01
-1.592010110616683960e-01 -1.608611643314361572e-02 -1.391350626945495605e-01
-1.882272511720657349e-01 1.464433819055557251e-01 -2.154661566019058228e-01
-1.299563348293304443e-01 -2.197474241256713867e-02 -7.999098300933837891e-01
-2.492415755987167358e-01 1.207743138074874878e-01 -7.450475692749023438e-01
-1.499716788530349731e-01 1.566860377788543701e-01 -5.788326859474182129e-01
-1.689992845058441162e-03 1.499139368534088135e-01 -3.398989439010620117e-01
-3.120749443769454956e-02 2.762453630566596985e-02 -9.105210304260253906e-01
-1.187419518828392029e-01 -4.294107109308242798e-02 -5.987910628318786621e-01
3.902083635330200195e-02 -1.900047808885574341e-02 -4.236488938331604004e-01
-2.967641353607177734e-01 1.128752231597900391e-01 -6.830335259437561035e-01
-3.592125177383422852e-01 9.089344739913940430e-02 -5.160899162292480469e-01
2.169160544872283936e-02 7.995406538248062134e-02 -5.375060439109802246e-02
-2.528793811798095703e-01 8.098053932189941406e-02 -4.306811094284057617e-02
-1.356043219566345215e-01 -3.195288032293319702e-02 -2.398549020290374756e-01
-1.182072609663009644e-02 1.528702229261398315e-01 -5.074421763420104980e-01
7.357497513294219971e-02 2.015829086303710938e-03 -6.293991804122924805e-01
-1.788768470287322998e-01 1.443084478378295898e-01 -6.870508193969726562e-01
-4.807082563638687134e-02 -3.866735100746154785e-02 -4.119846820831298828e-01
-1.354755908250808716e-01 -2.184261381626129150e-02 -1.668248176574707031e-01
6.361211836338043213e-02 1.323378235101699829e-01 -3.891661167144775391e-01
-3.390541672706604004e-01 7.658311724662780762e-02 -6.966975927352905273e-01
2.603851258754730225e-03 1.239626407623291016e-01 -1.325065493583679199e-01
-2.368689626455307007e-01 -6.090208888053894043e-03 -1.501681208610534668e-01
-3.699011206626892090e-01 3.023863211274147034e-02 -4.279517233371734619e-01
-1.893042027950286865e-02 -1.976330578327178955e-02 -2.348990589380264282e-01
-3.285077810287475586e-01 2.671506628394126892e-02 -7.291153669357299805e-01
-2.166751325130462646e-01 1.532998085021972656e-01 -4.488910436630249023e-01
-2.450452446937561035e-01 1.473432481288909912e-01 -4.147341847419738770e-01
-1.834547519683837891e-01 1.344017088413238525e-01 -1.276650428771972656e-01
-1.178915500640869141e-01 -3.997054696083068848e-02 -6.484219431877136230e-01
1.035663485527038574e-01 1.279374584555625916e-02 -5.047674775123596191e-01
5.966763198375701904e-02 1.701798290014266968e-03 -6.842072606086730957e-01
-8.429609239101409912e-03 -2.366407960653305054e-02 -2.898504137992858887e-01
-2.241646498441696167e-01 -3.751367330551147461e-02 -4.226444959640502930e-01
1.518276333808898926e-02 -2.650116384029388428e-02 -4.301215410232543945e-01
-3.076303005218505859e-01 1.186311244964599609e-01 -2.840750217437744141e-01
-3.119544982910156250e-01 1.248446702957153320e-01 -4.465809464454650879e-01
-2.518154978752136230e-01 1.128845214843750000e-01 -1.129599213600158691e-01
-1.684165149927139282e-01 -2.204175293445587158e-02 -1.768423616886138916e-01
-3.267392516136169434e-03 5.171108990907669067e-03 -8.312603831291198730e-01
-1.517004072666168213e-01 8.857876807451248169e-02 1.967221498489379883e-02
-6.630206853151321411e-02 -2.673004567623138428e-02 -2.273496240377426147e-01
-2.978463768959045410e-01 -1.276411116123199463e-02 -6.329089999198913574e-01
-3.306580781936645508e-01 -3.944981843233108521e-03 -5.313373208045959473e-01
-2.239703238010406494e-01 -3.846915066242218018e-02 -5.001909732818603516e-01
-2.092574834823608398e-01 -3.835770487785339355e-02 -3.867277503013610840e-01
-1.153175756335258484e-01 1.588068306446075439e-01 -5.630291700363159180e-01
-1.505785733461380005e-01 -3.929637372493743896e-02 -3.217462301254272461e-01
-2.608233392238616943e-01 -4.082888364791870117e-03 -7.802619934082031250e-01
-1.487189829349517822e-01 2.902574837207794189e-03 -8.959261178970336914e-01
-7.214181870222091675e-02 1.254594177007675171e-01 -8.146995902061462402e-01
-2.881171703338623047e-01 8.841533958911895752e-02 -7.964698672294616699e-01
-2.166855931282043457e-01 4.077482223510742188e-02 -9.433656930923461914e-03
-2.116046398878097534e-01 -3.967221081256866455e-02 -5.425736904144287109e-01
5.122746527194976807e-02 1.379033327102661133e-01 -4.392886161804199219e-01
8.323171734809875488e-02 1.590080559253692627e-03 -3.975636661052703857e-01
2.343975007534027100e-03 1.189608871936798096e-01 -7.791280150413513184e-01
-5.555611103773117065e-02 -1.212615519762039185e-03 -9.480559825897216797e-02
-3.700003027915954590e-01 7.876819372177124023e-02 -4.874970316886901855e-01
1.133183240890502930e-01 4.229938238859176636e-02 -2.928569912910461426e-01
3.196172416210174561e-02 -1.394017040729522705e-02 -3.080903589725494385e-01
-1.924380660057067871e-01 -2.580922096967697144e-02 -2.185127884149551392e-01
-2.269895970821380615e-01 1.504375040531158447e-01 -3.704447150230407715e-01
-2.216778546571731567e-01 1.086153090000152588e-03 -8.495057821273803711e-01
3.726844489574432373e-02 -2.036089450120925903e-02 -4.556925296783447266e-01
-2.521940469741821289e-01 -1.595139503479003906e-02 -7.335881590843200684e-01
-2.582764029502868652e-01 1.440509259700775146e-01 -4.454752802848815918e-01
-1.503413170576095581e-01 1.499402523040771484e-01 -6.604617238044738770e-01
-2.324135303497314453e-01 6.015898287296295166e-02 -9.090240001678466797e-01
-1.421320438385009766e-01 3.141266107559204102e-02 -9.487134218215942383e-01
2.867034077644348145e-02 1.046473830938339233e-01 -1.050182878971099854e-01
-2.732499688863754272e-02 1.284319311380386353e-01 -7.693306207656860352e-01
-6.878069043159484863e-02 -3.532326221466064453e-02 -3.086203336715698242e-01
6.926110386848449707e-02 -6.179988384246826172e-03 -5.536293983459472656e-01
6.339897215366363525e-02 -5.913801491260528564e-03 -3.590581417083740234e-01
-3.713088333606719971e-01 3.722435981035232544e-02 -3.909189403057098389e-01
-3.189455270767211914e-01 -1.838255673646926880e-03 -3.153275251388549805e-01
4.112383723258972168e-02 3.201188892126083374e-02 -8.288262486457824707e-01
-1.109593287110328674e-01 -4.404146969318389893e-02 -4.139191210269927979e-01
-8.716015517711639404e-02 -1.138732582330703735e-02 -8.416813611984252930e-01
1.550915837287902832e-02 5.579639598727226257e-02 -4.274812340736389160e-02
-2.499170899391174316e-01 -1.675231754779815674e-02 -2.300533205270767212e-01
-1.790871471166610718e-01 2.548876777291297913e-02 -9.308527708053588867e-01
6.791158020496368408e-02 9.981478005647659302e-02 -1.707926094532012939e-01
1.142575740814208984e-01 7.214240729808807373e-02 -6.480854749679565430e-01
1.117194741964340210e-01 7.616366446018218994e-02 -2.633810341358184814e-01
-2.944429516792297363e-01 1.076425015926361084e-01 -7.165957689285278320e-01
-2.699314951896667480e-01 1.349202543497085571e-01 -2.914164364337921143e-01
7.419015467166900635e-02 4.176285862922668457e-02 -7.745664119720458984e-01
-2.929670214653015137e-01 1.273005157709121704e-01 -3.030643463134765625e-01
-2.270981669425964355e-01 1.097349077463150024e-01 -8.224948048591613770e-01
-1.591269671916961670e-02 1.103279888629913330e-01 -8.324992656707763672e-01
-3.652177155017852783e-01 6.669529527425765991e-02 -3.150439858436584473e-01
3.355868160724639893e-03 -2.756822109222412109e-02 -5.924711227416992188e-01
-3.526000976562500000e-01 8.867761492729187012e-02 -3.107738196849822998e-01
-7.537655532360076904e-03 -1.003473252058029175e-02 -1.886887550354003906e-01
-1.511083245277404785e-01 9.751702845096588135e-02 -9.074089527130126953e-01
-2.840739488601684570e-01 -1.116120815277099609e-02 -2.666232287883758545e-01
-2.044931054115295410e-01 3.180950880050659180e-03 -8.179143071174621582e-02
-4.862669855356216431e-02 -3.032919764518737793e-02 -2.808231115341186523e-01
-2.064301371574401855e-01 1.496024280786514282e-01 -5.902839899063110352e-01
-1.055593863129615784e-01 1.288028359413146973e-01 -7.565191388130187988e-02
-1.948850750923156738e-01 -4.176163673400878906e-02 -4.367501437664031982e-01
-2.909616827964782715e-01 1.235980615019798279e-01 -6.253995895385742188e-01
-3.085178136825561523e-01 9.585764259099960327e-02 -1.696820557117462158e-01
-2.748293280601501465e-01 1.379698812961578369e-01 -3.701162636280059814e-01
-1.186099052429199219e-01 1.618132144212722778e-01 -4.832139909267425537e-01
-1.717620640993118286e-01 2.239987999200820923e-02 -1.247486472129821777e-02
-1.109725609421730042e-01 -3.061715513467788696e-02 -2.312966883182525635e-01
1.143592596054077148e-01 9.804907441139221191e-02 -5.425787568092346191e-01
-3.353309035301208496e-01 3.651421517133712769e-03 -5.971744060516357422e-01
1.058455407619476318e-01 7.139616459608078003e-02 -2.343071252107620239e-01
1.224531829357147217e-01 9.344553947448730469e-02 -4.252908527851104736e-01
-3.019190430641174316e-01 -1.389303803443908691e-02 -6.008015275001525879e-01
1.341974884271621704e-01 6.439016759395599365e-02 -4.337801635265350342e-01
-2.779842615127563477e-01 8.585005253553390503e-02 -8.201643228530883789e-01
-1.518125534057617188e-01 1.581286489963531494e-01 -5.512236356735229492e-01
-3.541373312473297119e-01 3.033104166388511658e-02 -6.409283280372619629e-01
-1.886666715145111084e-01 -3.517153859138488770e-02 -3.009853959083557129e-01
-2.687615156173706055e-01 1.138286739587783813e-01 -1.458144783973693848e-01
-1.633168756961822510e-01 -2.825210243463516235e-02 -7.530207633972167969e-01
-2.083342671394348145e-01 -2.007140219211578369e-02 -1.940924525260925293e-01
-3.132483959197998047e-01 2.445216476917266846e-02 -1.738469004631042480e-01
-3.588507324457168579e-02 7.848817855119705200e-03 -7.790395617485046387e-02
7.898241281509399414e-03 -2.784948050975799561e-02 -5.603827834129333496e-01
-2.185223102569580078e-01 1.514431834220886230e-01 -5.178823471069335938e-01
-8.580945432186126709e-03 -2.646162360906600952e-02 -3.206961452960968018e-01
-2.333796620368957520e-01 1.313499510288238525e-01 -1.711055338382720947e-01
-2.448176443576812744e-01 -3.357722610235214233e-02 -5.540874004364013672e-01
-3.113914132118225098e-01 -1.253251731395721436e-02 -4.019743502140045166e-01
-1.948083937168121338e-01 -3.754085302352905273e-02 -6.343116164207458496e-01
4.291355609893798828e-02 2.910837531089782715e-03 -7.392426729202270508e-01
-7.871025800704956055e-02 -3.882759809494018555e-02 -6.333132982254028320e-01
8.109460771083831787e-02 1.145818829536437988e-01 -2.782826125621795654e-01
1.825784146785736084e-02 8.162649720907211304e-02 -8.611854314804077148e-01
-2.434720546007156372e-01 1.472228765487670898e-01 -4.859752058982849121e-01
9.217862784862518311e-02 1.107160300016403198e-01 -3.050277233123779297e-01
-2.690294981002807617e-01 -2.421034872531890869e-02 -3.490941524505615234e-01
9.832878410816192627e-02 6.579013913869857788e-02 -2.058584690093994141e-01
-3.538614511489868164e-01 9.831957519054412842e-02 -4.316110610961914062e-01
-3.124400079250335693e-01 6.124078482389450073e-02 -1.281240284442901611e-01
-1.526071876287460327e-01 1.242253780364990234e-01 -6.410020589828491211e-02
-2.422019243240356445e-01 1.338607221841812134e-01 -6.750218272209167480e-01
5.850516259670257568e-02 1.308481544256210327e-01 -5.625905990600585938e-01
-1.784449368715286255e-01 1.130177825689315796e-01 -8.521632552146911621e-01
1.285727769136428833e-01 5.157103762030601501e-02 -3.707007169723510742e-01
-6.061924248933792114e-02 1.592476069927215576e-01 -5.037900209426879883e-01
-9.948477894067764282e-02 1.375993639230728149e-01 -1.178395748138427734e-01
-1.905640214681625366e-01 1.388988941907882690e-01 -7.162163853645324707e-01
-8.033730089664459229e-02 -3.340641409158706665e-02 -6.999752521514892578e-01
-1.320152282714843750e-01 1.479461193084716797e-01 -1.858684718608856201e-01
-2.199694216251373291e-01 -3.416181355714797974e-02 -3.402690589427947998e-01
-8.830073475837707520e-02 1.619599014520645142e-01 -4.379470646381378174e-01
-2.195075452327728271e-01 1.240685060620307922e-01 -7.710777521133422852e-01
-1.798387616872787476e-02 1.528562009334564209e-01 -5.344941616058349609e-01
-3.803271055221557617e-02 -2.704122662544250488e-02 -7.064919471740722656e-01
-1.414697170257568359e-01 1.554983556270599365e-01 -2.653243541717529297e-01
-2.385097593069076538e-01 3.530291095376014709e-02 -3.547048568725585938e-02
3.223875164985656738e-02 5.337569490075111389e-02 -6.699559092521667480e-02
-1.040291860699653625e-01 1.467120349407196045e-01 -6.995091438293457031e-01
8.004942536354064941e-02 1.193862631916999817e-01 -5.795634388923645020e-01
-3.395876884460449219e-01 1.035378873348236084e-01 -3.289075493812561035e-01
-1.114892065525054932e-01 -4.525886476039886475e-02 -4.811103641986846924e-01
5.674242973327636719e-02 6.840869784355163574e-02 -8.160600662231445312e-01
-3.663569092750549316e-01 5.813162401318550110e-02 -6.055958271026611328e-01
-1.048523560166358948e-01 -3.391502052545547485e-02 -7.111363410949707031e-01
-5.813767015933990479e-02 1.600645482540130615e-01 -4.457903504371643066e-01
-2.601777315139770508e-01 1.305648982524871826e-01 -2.205779552459716797e-01
-1.952051520347595215e-01 -2.277211844921112061e-02 -7.674887776374816895e-01
-5.163994431495666504e-02 1.499795913696289062e-01 -2.323615550994873047e-01
-2.591777443885803223e-01 -2.836716175079345703e-02 -5.953956246376037598e-01
-1.593238711357116699e-01 1.456443965435028076e-01 -1.811417341232299805e-01
-6.849802285432815552e-02 1.555871367454528809e-01 -2.790767252445220947e-01
-9.638009965419769287e-02 -3.665443509817123413e-02 -6.787358522415161133e-01
-8.022636175155639648e-02 -4.299825429916381836e-02 -5.380660295486450195e-01
-3.134760558605194092e-01 1.239535287022590637e-01 -4.177768230438232422e-01
2.515575289726257324e-02 1.336306035518646240e-01 -6.531075835227966309e-01
-1.525468230247497559e-01 -4.119925945997238159e-02 -3.515218496322631836e-01
-1.607706099748611450e-01 1.603731811046600342e-01 -4.135120511054992676e-01
-6.353592872619628906e-02 1.388816535472869873e-01 -1.393730640411376953e-01
-5.446480959653854370e-02 1.585012078285217285e-01 -3.579919934272766113e-01
-2.607848048210144043e-01 1.394694149494171143e-01 -5.617067217826843262e-01
-2.545403242111206055e-01 1.282792687416076660e-01 -1.918390989303588867e-01
-2.932577133178710938e-01 -2.136577665805816650e-02 -5.037094354629516602e-01
-1.657549887895584106e-01 2.655915915966033936e-03 -6.272155046463012695e-02
-2.409557253122329712e-02 -1.578214019536972046e-02 -7.663083076477050781e-01
1.084178984165191650e-01 1.985061168670654297e-02 -3.890511989593505859e-01
-3.056339025497436523e-01 1.021911203861236572e-02 -7.438741326332092285e-01
-8.340995013713836670e-02 1.326394975185394287e-01 -9.733566641807556152e-02
-1.917883306741714478e-01 -1.631797105073928833e-02 -1.574164927005767822e-01
-8.224213123321533203e-02 1.158083826303482056e-01 -3.545990586280822754e-02
-2.992977946996688843e-02 -3.655239194631576538e-02 -4.360628426074981689e-01
-3.196980357170104980e-01 1.133775413036346436e-01 -5.928556323051452637e-01
-2.310750931501388550e-01 -1.490528136491775513e-02 -7.729752063751220703e-01
-2.587001025676727295e-01 -1.963031291961669922e-02 -6.941821575164794922e-01
-3.020210266113281250e-01 -5.134157836437225342e-04 -2.463160604238510132e-01
-1.791704744100570679e-01 1.570719480514526367e-01 -3.463719189167022705e-01
-2.130585312843322754e-01 1.301389634609222412e-01 -1.352823674678802490e-01
6.609947979450225830e-02 1.239875704050064087e-01 -6.028119325637817383e-01
-2.913033217191696167e-02 -2.943245321512222290e-02 -3.060783147811889648e-01
3.155398368835449219e-02 9.127637743949890137e-02 -8.252933025360107422e-01
-3.016176223754882812e-01 1.264461278915405273e-01 -3.418221771717071533e-01
-2.594582438468933105e-01 8.789763599634170532e-02 -8.436375856399536133e-01
-2.618474364280700684e-01 7.438816130161285400e-03 -1.291490793228149414e-01
-9.677695482969284058e-02 -2.647524327039718628e-02 -7.658503055572509766e-01
-1.512177586555480957e-01 -4.302820563316345215e-02 -3.861513733863830566e-01
-2.329123616218566895e-01 -2.388676255941390991e-02 -7.124426960945129395e-01
9.749940037727355957e-02 1.150328516960144043e-01 -4.909814596176147461e-01
9.812508523464202881e-02 9.332846850156784058e-02 -2.457215338945388794e-01
1.263190358877182007e-01 3.804204985499382019e-02 -5.160474777221679688e-01
9.824767708778381348e-02 1.146356388926506042e-01 -4.064767658710479736e-01
1.315136700868606567e-01 7.174891233444213867e-02 -5.230466127395629883e-01
-1.824989914894104004e-01 1.575855016708374023e-01 -3.742041885852813721e-01
-8.017694950103759766e-02 7.256253063678741455e-02 2.971190214157104492e-02
-2.722833752632141113e-01 9.719410538673400879e-02 -9.845772385597229004e-02
-3.132315576076507568e-01 1.230915188789367676e-01 -3.816458582878112793e-01
-2.521792054176330566e-01 2.093781158328056335e-02 -7.717171311378479004e-02
-3.315011858940124512e-01 1.087546348571777344e-01 -5.689277648925781250e-01
-1.107963249087333679e-01 1.282770335674285889e-01 -8.109962344169616699e-01
-1.805359870195388794e-01 1.548911631107330322e-01 -5.637031197547912598e-01
5.073976516723632812e-02 1.014699190855026245e-01 -1.365610659122467041e-01
-1.982811391353607178e-01 1.047240421175956726e-01 -3.084614872932434082e-02
-9.159173816442489624e-02 1.319875270128250122e-01 -7.904314994812011719e-01
-1.930839717388153076e-01 1.267252862453460693e-01 -9.849950671195983887e-02
-1.756896078586578369e-01 8.458230644464492798e-02 -9.231729507446289062e-01
4.287362098693847656e-02 1.340067088603973389e-01 -5.951964855194091797e-01
9.743632376194000244e-02 2.214797213673591614e-02 -2.984125912189483643e-01
-7.100960612297058105e-02 1.037436276674270630e-01 -9.809076786041259766e-03
7.940959930419921875e-02 1.103867143392562866e-01 -6.505113840103149414e-01
-1.223839446902275085e-01 1.535611748695373535e-01 -2.349884957075119019e-01
-2.092447280883789062e-01 -3.003831952810287476e-02 -6.976838111877441406e-01
-1.341396719217300415e-01 7.832247018814086914e-02 -9.440106153488159180e-01
-2.399383485317230225e-01 1.068726778030395508e-01 -7.708448171615600586e-02
-6.230045855045318604e-02 1.575592309236526489e-01 -5.492779612541198730e-01
9.421458840370178223e-02 1.137711852788925171e-01 -5.487217307090759277e-01
-9.772933274507522583e-02 -2.215068787336349487e-02 -7.930596470832824707e-01
-3.418983817100524902e-01 6.170249357819557190e-02 -2.068366408348083496e-01
7.845312356948852539e-04 1.840854063630104065e-02 -8.622206449508666992e-01
-2.547115087509155273e-03 -2.459392696619033813e-02 -6.554499864578247070e-01
-3.551868796348571777e-01 9.558191150426864624e-02 -3.924863338470458984e-01
-1.328740417957305908e-01 -4.437296837568283081e-02 -5.661951303482055664e-01
-1.125482469797134399e-02 -3.003986924886703491e-02 -3.637396097183227539e-01
-6.934370100498199463e-02 7.852117717266082764e-02 -9.351657629013061523e-01
-1.504183411598205566e-01 -8.531220257282257080e-03 -1.008844971656799316e-01
-1.590580344200134277e-01 1.113517656922340393e-01 -2.569296956062316895e-02
-1.681537479162216187e-01 -2.591215074062347412e-02 -2.024701535701751709e-01
-1.717321574687957764e-02 1.348381787538528442e-01 -1.606149971485137939e-01
-3.012552857398986816e-01 2.987287007272243500e-02 -1.348346769809722900e-01
4.160673916339874268e-02 1.776064187288284302e-02 -7.971884012222290039e-01
-3.130976557731628418e-01 -1.103357970714569092e-02 -5.704455971717834473e-01
-2.126791328191757202e-01 1.423865854740142822e-01 -6.586360931396484375e-01
-1.067358627915382385e-01 -4.365932941436767578e-02 -5.726639032363891602e-01
-2.820829749107360840e-01 3.032100200653076172e-02 -9.945333003997802734e-02
-1.643114387989044189e-01 -4.396106302738189697e-02 -4.286669492721557617e-01
-6.335255503654479980e-02 4.337113350629806519e-03 -6.949281692504882812e-02
-2.684558033943176270e-01 -2.910573035478591919e-02 -4.868273437023162842e-01
-1.762893199920654297e-01 2.008263021707534790e-03 -8.842651247978210449e-01
-6.413392722606658936e-03 1.034319102764129639e-01 -5.566361546516418457e-02
2.368822693824768066e-02 -2.486470341682434082e-02 -4.850325882434844971e-01
7.891100645065307617e-02 -2.439372241497039795e-03 -5.232326984405517578e-01
7.907333970069885254e-02 1.238657683134078979e-01 -5.280236601829528809e-01
-2.888097763061523438e-01 -2.237220108509063721e-02 -5.307821035385131836e-01
-2.836328148841857910e-01 7.565066218376159668e-03 -1.654143929481506348e-01
-3.547850996255874634e-02 1.102050542831420898e-01 -8.498588204383850098e-01
-3.356282114982604980e-01 1.521663367748260498e-02 -6.684473156929016113e-01
1.284607499837875366e-01 3.975794464349746704e-02 -4.721333682537078857e-01
-6.393508613109588623e-02 1.156296133995056152e-01 -8.494277596473693848e-01
7.814903557300567627e-02 1.803930848836898804e-03 -6.017055511474609375e-01
-2.972444295883178711e-01 1.176779344677925110e-01 -2.367745935916900635e-01
6.951394677162170410e-02 1.283912956714630127e-01 -3.583192825317382812e-01
-4.768195003271102905e-02 1.553031057119369507e-02 -4.603114724159240723e-02
-8.682165294885635376e-02 1.032405197620391846e-01 -8.948646783828735352e-01
-1.880131065845489502e-01 -1.352375745773315430e-02 -8.217552900314331055e-01
-5.491705238819122314e-02 1.329834461212158203e-01 -1.136895716190338135e-01
-6.979884207248687744e-02 -4.186185449361801147e-02 -4.333016872406005859e-01
9.892210364341735840e-03 -4.617407917976379395e-03 -7.720619440078735352e-01
-3.218194842338562012e-01 3.890050947666168213e-02 -7.662115097045898438e-01
1.090651452541351318e-01 5.042113363742828369e-02 -6.749014854431152344e-01
-1.348060816526412964e-01 1.375490576028823853e-01 -1.187076270580291748e-01
5.066081881523132324e-03 7.759859412908554077e-02 -3.167635202407836914e-02
-3.339482545852661133e-01 1.739137992262840271e-02 -2.587648630142211914e-01
-3.571808338165283203e-01 8.793688565492630005e-02 -3.387977182865142822e-01
-2.992537617683410645e-01 -1.375131309032440186e-02 -3.442984521389007568e-01
-1.105811372399330139e-01 -4.496151208877563477e-02 -5.270831584930419922e-01
-2.239357084035873413e-01 -3.696145862340927124e-02 -5.692303180694580078e-01
-1.661947369575500488e-01 -3.299798071384429932e-02 -7.138738632202148438e-01
1.245233267545700073e-01 5.643849819898605347e-02 -3.280065953731536865e-01
-2.574545741081237793e-01 1.116872355341911316e-01 -7.737109661102294922e-01
-2.762846350669860840e-01 1.356486529111862183e-01 -3.316490650177001953e-01
1.062523871660232544e-01 1.780880987644195557e-02 -5.575580000877380371e-01
-5.242228507995605469e-05 -2.152781933546066284e-03 -7.994186878204345703e-01
-2.443358004093170166e-01 1.453630477190017700e-01 -3.396961987018585205e-01
-4.298979043960571289e-02 1.585434973239898682e-01 -4.235630035400390625e-01
-2.849285304546356201e-01 -2.309868484735488892e-02 -4.171441197395324707e-01
-2.186624854803085327e-01 -9.552992880344390869e-03 -8.132036924362182617e-01
1.085583567619323730e-01 9.975972771644592285e-02 -5.755220651626586914e-01
-3.849716484546661377e-02 1.347552686929702759e-01 -1.361699402332305908e-01
-2.923918962478637695e-01 1.317767202854156494e-01 -5.075933337211608887e-01
-1.421497315168380737e-01 1.448499709367752075e-01 -7.083249092102050781e-01
-3.511730432510375977e-01 1.245982944965362549e-02 -3.840878009796142578e-01
-1.146465241909027100e-01 -1.339570432901382446e-02 -1.219109892845153809e-01
-2.780402004718780518e-01 1.379046589136123657e-01 -4.078111648559570312e-01
-5.181734263896942139e-02 1.484310030937194824e-01 -6.562267541885375977e-01
-6.311887502670288086e-02 -1.144117861986160278e-02 -8.279062509536743164e-01
-8.164348453283309937e-02 -3.100527077913284302e-02 -2.502404749393463135e-01
-3.414153307676315308e-02 1.228921189904212952e-01 -8.650922775268554688e-02
-3.348613530397415161e-02 -1.224774122238159180e-02 -1.661551892757415771e-01
-6.885075569152832031e-02 2.070013061165809631e-02 -2.100542187690734863e-02
5.606144666671752930e-03 1.093486323952674866e-01 -8.116377592086791992e-01
-1.275086551904678345e-01 1.496723890304565430e-01 -6.730045080184936523e-01
-1.650906205177307129e-01 -4.463936388492584229e-02 -5.078760385513305664e-01
2.421401441097259521e-02 2.448489889502525330e-02 -1.008106172084808350e-01
-1.423728466033935547e-02 1.453534960746765137e-01 -2.438402920961380005e-01
-6.556630879640579224e-02 -2.936488389968872070e-02 -7.221542000770568848e-01
-2.075622081756591797e-01 1.310246810317039490e-02 -8.928825855255126953e-01
-2.867057323455810547e-01 1.351737827062606812e-01 -4.386544525623321533e-01
-2.385369688272476196e-02 -3.372909873723983765e-02 -5.892228484153747559e-01
9.355098009109497070e-03 1.478192210197448730e-01 -5.278030633926391602e-01
-2.626432180404663086e-01 5.383724719285964966e-02 -4.588803648948669434e-02
-6.473262608051300049e-02 -2.187229692935943604e-02 -7.748591899871826172e-01
6.621694564819335938e-02 -7.923893630504608154e-03 -4.153007268905639648e-01
-1.461997479200363159e-01 -3.795879334211349487e-02 -6.731392145156860352e-01
-3.784169256687164307e-02 2.401374280452728271e-03 -8.598864078521728516e-01
6.912975013256072998e-02 7.540212571620941162e-02 -1.320256292819976807e-01
-2.991393208503723145e-01 4.204038530588150024e-03 -2.136444300413131714e-01
-3.660678267478942871e-01 2.781153470277786255e-02 -5.443288683891296387e-01
-3.429008126258850098e-01 7.983776926994323730e-02 -2.334885299205780029e-01
-9.028506278991699219e-02 -3.921955823898315430e-03 -8.670845627784729004e-02
4.732745885848999023e-02 -1.379253715276718140e-02 -5.892875194549560547e-01
-1.450883150100708008e-01 1.598510742187500000e-01 -5.209904909133911133e-01
-9.782755374908447266e-02 1.529997885227203369e-01 -6.402686834335327148e-01
-4.937574267387390137e-03 -1.667669415473937988e-02 -7.294434309005737305e-01
-7.479502260684967041e-02 1.532250046730041504e-01 -6.264598369598388672e-01
-1.029999405145645142e-01 3.272001817822456360e-02 -9.497915506362915039e-01
2.395292669534683228e-01 -4.373591542243957520e-01 8.117346763610839844e-01
2.743872702121734619e-01 -4.200352430343627930e-01 7.921478152275085449e-01
3.209238052368164062e-01 -3.338698148727416992e-01 8.515064716339111328e-01
2.784232497215270996e-01 -4.458330869674682617e-01 8.096092939376831055e-01
3.060844540596008301e-01 -4.064261019229888916e-01 7.919121384620666504e-01
3.340059220790863037e-01 -3.495938181877136230e-01 8.343369364738464355e-01
3.065041601657867432e-01 -3.346902132034301758e-01 8.408518433570861816e-01
2.352066487073898315e-01 -4.278580844402313232e-01 8.243184089660644531e-01
2.956192195415496826e-01 -3.432775735855102539e-01 8.353879451751708984e-01
2.651929855346679688e-01 -4.304609894752502441e-01 7.930927276611328125e-01
3.237183094024658203e-01 -3.818743526935577393e-01 8.026571869850158691e-01
2.953178882598876953e-01 -4.247546195983886719e-01 8.225701451301574707e-01
2.775163948535919189e-01 -3.545246422290802002e-01 8.377917408943176270e-01
3.208368718624114990e-01 -3.952178359031677246e-01 8.229999542236328125e-01
2.903327047824859619e-01 -3.745967745780944824e-01 8.086766004562377930e-01
2.566619813442230225e-01 -4.469856023788452148e-01 7.959672212600708008e-01
2.441816329956054688e-01 -3.951110541820526123e-01 8.363965749740600586e-01
3.170926272869110107e-01 -3.802112936973571777e-01 8.415994048118591309e-01
2.898358702659606934e-01 -4.094995260238647461e-01 7.911518812179565430e-01
2.575833201408386230e-01 -4.271530807018280029e-01 8.423177599906921387e-01
2.646204829216003418e-01 -3.624826967716217041e-01 8.462597727775573730e-01
2.719870209693908691e-01 -3.612382113933563232e-01 8.352040052413940430e-01
3.080648779869079590e-01 -3.906266093254089355e-01 7.958967685699462891e-01
2.827673852443695068e-01 -4.150392711162567139e-01 8.418552875518798828e-01
3.080142438411712646e-01 -3.919799625873565674e-01 8.415838479995727539e-01
2.679832279682159424e-01 -3.594104349613189697e-01 8.450086116790771484e-01
2.976407110691070557e-01 -4.169604182243347168e-01 8.290361166000366211e-01
2.682307958602905273e-01 -3.726379871368408203e-01 8.259642124176025391e-01
2.930839359760284424e-01 -3.660641908645629883e-01 8.137290477752685547e-01
3.126676976680755615e-01 -3.344702422618865967e-01 8.379229903221130371e-01
2.722349166870117188e-01 -3.532674312591552734e-01 8.570275306701660156e-01
2.825845181941986084e-01 -3.634378612041473389e-01 8.662995100021362305e-01
2.702308595180511475e-01 -4.418236911296844482e-01 8.235872983932495117e-01
3.008229434490203857e-01 -4.294425845146179199e-01 8.017609715461730957e-01
2.901574373245239258e-01 -4.265370368957519531e-01 8.257457613945007324e-01
2.950885295867919922e-01 -4.306550323963165283e-01 8.143165111541748047e-01
2.449654489755630493e-01 -4.469751715660095215e-01 8.046566247940063477e-01
2.813923060894012451e-01 -3.998462259769439697e-01 7.975618839263916016e-01
2.834102213382720947e-01 -4.403170347213745117e-01 7.911509871482849121e-01
3.085539340972900391e-01 -4.016081094741821289e-01 7.931040525436401367e-01
2.819068133831024170e-01 -4.431955218315124512e-01 8.103627562522888184e-01
2.864875793457031250e-01 -4.401099085807800293e-01 8.098214268684387207e-01
2.681147456169128418e-01 -4.451543688774108887e-01 7.917786240577697754e-01
2.562837004661560059e-01 -4.343867003917694092e-01 7.969431281089782715e-01
2.623781859874725342e-01 -4.145252108573913574e-01 8.003593087196350098e-01
3.165470659732818604e-01 -3.650174140930175781e-01 8.081839680671691895e-01
2.404868006706237793e-01 -4.269058704376220703e-01 8.406212329864501953e-01
2.726133167743682861e-01 -3.959412276744842529e-01 8.041351437568664551e-01
3.158564865589141846e-01 -3.356706798076629639e-01 8.563733100891113281e-01
2.491056025028228760e-01 -4.533885121345520020e-01 8.149912357330322266e-01
2.776937186717987061e-01 -3.579224050045013428e-01 8.328886628150939941e-01
2.937583029270172119e-01 -3.849785923957824707e-01 8.555067181587219238e-01
2.936315834522247314e-01 -3.385226428508758545e-01 8.458524346351623535e-01
2.487722635269165039e-01 -3.965528011322021484e-01 8.254479169845581055e-01
2.861948013305664062e-01 -4.126071631908416748e-01 8.417542576789855957e-01
3.133208155632019043e-01 -3.552262485027313232e-01 8.570582866668701172e-01
3.066219389438629150e-01 -4.190181791782379150e-01 7.944458723068237305e-01
2.539309561252593994e-01 -4.383588731288909912e-01 7.976677417755126953e-01
2.480386793613433838e-01 -4.293337464332580566e-01 8.047382831573486328e-01
3.167122304439544678e-01 -4.055073857307434082e-01 7.987773418426513672e-01
2.384570538997650146e-01 -4.282938241958618164e-01 8.166693449020385742e-01
2.995350658893585205e-01 -4.253481328487396240e-01 7.917232513427734375e-01
2.411211431026458740e-01 -4.468573927879333496e-01 8.096854090690612793e-01
2.658822536468505859e-01 -3.652166724205017090e-01 8.381908535957336426e-01
3.059577643871307373e-01 -3.378553092479705811e-01 8.359111547470092773e-01
3.139716386795043945e-01 -4.045905172824859619e-01 8.230074048042297363e-01
2.770867943763732910e-01 -4.314787089824676514e-01 8.306769132614135742e-01
2.605595886707305908e-01 -4.039627611637115479e-01 8.556812405586242676e-01
2.775734066963195801e-01 -3.480299711227416992e-01 8.545470237731933594e-01
3.306843936443328857e-01 -3.505892753601074219e-01 8.416728377342224121e-01
3.029598593711853027e-01 -3.711608350276947021e-01 8.063423633575439453e-01
2.628368735313415527e-01 -4.334537088871002197e-01 8.358455300331115723e-01
3.243595361709594727e-01 -3.364733159542083740e-01 8.339266777038574219e-01
2.665599882602691650e-01 -3.980962932109832764e-01 8.067158460617065430e-01
2.722325026988983154e-01 -4.236224293708801270e-01 8.403806686401367188e-01
2.819272577762603760e-01 -3.958158195018768311e-01 7.993999719619750977e-01
3.097157478332519531e-01 -3.724435269832611084e-01 8.524599671363830566e-01
3.141078352928161621e-01 -3.738105297088623047e-01 8.483589291572570801e-01
2.736436724662780762e-01 -3.545014858245849609e-01 8.437638878822326660e-01
3.039035201072692871e-01 -3.877210915088653564e-01 7.972174882888793945e-01
3.282079994678497314e-01 -3.449088633060455322e-01 8.249839544296264648e-01
3.123442828655242920e-01 -3.502554893493652344e-01 8.196320533752441406e-01
2.469093501567840576e-01 -3.917584419250488281e-01 8.531000614166259766e-01
2.751947343349456787e-01 -3.610837161540985107e-01 8.316342234611511230e-01
2.518148720264434814e-01 -4.189340472221374512e-01 8.480797410011291504e-01
2.630262672901153564e-01 -4.193220436573028564e-01 7.978297472000122070e-01
2.471387535333633423e-01 -4.252738654613494873e-01 8.438580632209777832e-01
3.140609562397003174e-01 -3.507775962352752686e-01 8.577235937118530273e-01
3.157828152179718018e-01 -3.911318778991699219e-01 7.970379590988159180e-01
3.257761597633361816e-01 -3.446820974349975586e-01 8.491863608360290527e-01
2.746669650077819824e-01 -3.922426700592041016e-01 8.052012920379638672e-01
3.282093405723571777e-01 -3.630137145519256592e-01 8.118878602981567383e-01
2.945154309272766113e-01 -4.013479948043823242e-01 7.930552959442138672e-01
3.302884101867675781e-01 -3.645479977130889893e-01 8.356598615646362305e-01
2.542862296104431152e-01 -3.898594975471496582e-01 8.245168328285217285e-01
3.070166110992431641e-01 -3.511396944522857666e-01 8.204053640365600586e-01
2.913594245910644531e-01 -4.368757903575897217e-01 8.081820011138916016e-01
2.854487001895904541e-01 -4.264813065528869629e-01 7.884832024574279785e-01
2.966663539409637451e-01 -4.040417969226837158e-01 8.414453864097595215e-01
2.962799072265625000e-01 -3.842000365257263184e-01 8.004649877548217773e-01
2.756245136260986328e-01 -3.846202492713928223e-01 8.097286224365234375e-01
2.485819756984710693e-01 -4.366636574268341064e-01 8.356768488883972168e-01
2.423774600028991699e-01 -4.167049229145050049e-01 8.466406464576721191e-01
2.673178911209106445e-01 -4.337258934974670410e-01 8.338133692741394043e-01
2.808959782123565674e-01 -3.900727331638336182e-01 8.031421303749084473e-01
2.679582536220550537e-01 -4.260570108890533447e-01 8.402030467987060547e-01
3.280991315841674805e-01 -3.821456134319305420e-01 8.071390986442565918e-01
2.528683245182037354e-01 -3.779147267341613770e-01 8.440697193145751953e-01
2.526152133941650391e-01 -4.535574018955230713e-01 8.014572262763977051e-01
2.834342718124389648e-01 -3.932776451110839844e-01 8.557259440422058105e-01
3.094097077846527100e-01 -4.193481504917144775e-01 8.031850457191467285e-01
2.550202310085296631e-01 -3.935910463333129883e-01 8.202003836631774902e-01
2.945862114429473877e-01 -3.417850732803344727e-01 8.637670874595642090e-01
3.332994282245635986e-01 -3.446098268032073975e-01 8.337678313255310059e-01
2.615146934986114502e-01 -4.226689040660858154e-01 8.447363972663879395e-01
3.124145567417144775e-01 -3.402973711490631104e-01 8.298026323318481445e-01
2.452748119831085205e-01 -4.486561715602874756e-01 8.226472735404968262e-01
2.640263736248016357e-01 -4.062007069587707520e-01 8.542568087577819824e-01
3.340026736259460449e-01 -3.502112329006195068e-01 8.263639211654663086e-01
2.884492874145507812e-01 -4.361630678176879883e-01 8.145031332969665527e-01
2.449984252452850342e-01 -4.079506099224090576e-01 8.510425686836242676e-01
2.830378413200378418e-01 -3.501925766468048096e-01 8.376156687736511230e-01
3.069740831851959229e-01 -3.384208679199218750e-01 8.611885309219360352e-01
3.003173768520355225e-01 -3.749728798866271973e-01 8.046725392341613770e-01
3.146551549434661865e-01 -3.426692187786102295e-01 8.583185672760009766e-01
3.186899423599243164e-01 -4.019879102706909180e-01 8.177462220191955566e-01
3.162876665592193604e-01 -4.076698720455169678e-01 8.133899569511413574e-01
2.895026206970214844e-01 -3.978877961635589600e-01 8.502501845359802246e-01
