-2.072854787111282349e-01 3.438957333564758301e-01 2.890213727951049805e-01
-1.948831677436828613e-01 3.145659863948822021e-01 3.435066342353820801e-01
-2.807875275611877441e-01 4.918827712535858154e-01 2.738367915153503418e-01
-2.000618875026702881e-01 3.694849610328674316e-01 3.424313962459564209e-01
-2.810721099376678467e-01 4.798728823661804199e-01 3.016918599605560303e-01
-2.349683046340942383e-01 3.564260900020599365e-01 2.782007753849029541e-01
-2.166309654712677002e-01 4.136587679386138916e-01 3.640765249729156494e-01
-2.099036127328872681e-01 3.181622028350830078e-01 3.162956535816192627e-01
-2.041532397270202637e-01 3.832960128784179688e-01 3.538018763065338135e-01
-2.449664026498794556e-01 4.700070917606353760e-01 3.525059521198272705e-01
-1.912863999605178833e-01 3.253702223300933838e-01 3.458713591098785400e-01
-2.203218787908554077e-01 3.423573970794677734e-01 2.759638428688049316e-01
-1.976599544286727905e-01 3.183188140392303467e-01 3.100198805332183838e-01
-2.586454749107360840e-01 4.058942794799804688e-01 2.672585844993591309e-01
-2.458245456218719482e-01 4.606474637985229492e-01 2.917408943176269531e-01
-1.957695782184600830e-01 3.461656570434570312e-01 3.273328244686126709e-01
-2.464081048965454102e-01 4.756286442279815674e-01 3.348513543605804443e-01
-2.326697260141372681e-01 4.383927285671234131e-01 3.014256954193115234e-01
-2.621171474456787109e-01 4.182942807674407959e-01 2.604273855686187744e-01
-2.740340530872344971e-01 4.471554756164550781e-01 2.700587809085845947e-01
-2.197735011577606201e-01 4.234064519405364990e-01 3.420079052448272705e-01
-1.981558501720428467e-01 3.534990251064300537e-01 3.679969012737274170e-01
-2.280381172895431519e-01 4.411259889602661133e-01 3.526018857955932617e-01
-2.003367692232131958e-01 3.666087687015533447e-01 3.316299319267272949e-01
-2.093128412961959839e-01 3.976267278194427490e-01 3.556778132915496826e-01
-2.463206499814987183e-01 3.937651515007019043e-01 3.357425928115844727e-01
-2.381846755743026733e-01 4.595499932765960693e-01 3.530878126621246338e-01
-2.432058602571487427e-01 3.837237656116485596e-01 3.320090174674987793e-01
-2.512301206588745117e-01 4.150799512863159180e-01 3.451875150203704834e-01
-2.247517704963684082e-01 3.886077702045440674e-01 2.730312645435333252e-01
-2.572660744190216064e-01 3.999086916446685791e-01 2.850612401962280273e-01
-2.610797882080078125e-01 4.218014776706695557e-01 3.200196921825408936e-01
-2.559862136840820312e-01 4.355310201644897461e-01 3.496972918510437012e-01
-2.535724937915802002e-01 4.078818559646606445e-01 3.296758830547332764e-01
-2.296690642833709717e-01 4.282924532890319824e-01 2.967790067195892334e-01
-2.273852676153182983e-01 3.419860899448394775e-01 3.066316843032836914e-01
-2.342158108949661255e-01 3.912609517574310303e-01 3.633798062801361084e-01
-2.450554519891738892e-01 4.463276565074920654e-01 2.757519781589508057e-01
-2.646364271640777588e-01 4.394270181655883789e-01 3.287622332572937012e-01
-2.071894109249114990e-01 3.515034317970275879e-01 2.915604114532470703e-01
-2.528718411922454834e-01 3.916241228580474854e-01 2.988151907920837402e-01
-2.133832871913909912e-01 3.857239782810211182e-01 3.791700899600982666e-01
-2.711532115936279297e-01 4.385745227336883545e-01 2.683550417423248291e-01
-2.069681137800216675e-01 3.283282518386840820e-01 3.513171374797821045e-01
-2.765578925609588623e-01 4.884881377220153809e-01 2.694799304008483887e-01
-2.577498555183410645e-01 4.238290488719940186e-01 3.349304795265197754e-01
-2.596262991428375244e-01 4.763357639312744141e-01 2.778859734535217285e-01
-2.511424422264099121e-01 4.652204513549804688e-01 2.832600176334381104e-01
-2.246155887842178345e-01 4.155648648738861084e-01 3.777029514312744141e-01
-2.311232686042785645e-01 4.171423316001892090e-01 2.799322605133056641e-01
-2.218192666769027710e-01 4.228715598583221436e-01 3.680874705314636230e-01
-2.425101399421691895e-01 4.223147928714752197e-01 2.618386745452880859e-01
-2.374665588140487671e-01 4.060375094413757324e-01 3.673141598701477051e-01
-2.147075384855270386e-01 4.039868414402008057e-01 3.721918165683746338e-01
-2.168531119823455811e-01 3.623889982700347900e-01 3.697559833526611328e-01
-2.290035188198089600e-01 4.369355738162994385e-01 3.147309422492980957e-01
-2.599338293075561523e-01 4.062552154064178467e-01 2.825414240360260010e-01
-2.677489817142486572e-01 4.459688365459442139e-01 2.545116543769836426e-01
-1.932863891124725342e-01 3.406463265419006348e-01 3.556664884090423584e-01
-2.367639392614364624e-01 3.587264120578765869e-01 3.049836158752441406e-01
-2.441637665033340454e-01 4.412981867790222168e-01 2.727919220924377441e-01
-2.580068707466125488e-01 4.022871255874633789e-01 2.745539546012878418e-01
-2.024455368518829346e-01 3.218550384044647217e-01 2.995237410068511963e-01
-2.513634264469146729e-01 4.721165597438812256e-01 3.582217693328857422e-01
-2.168923169374465942e-01 3.346500992774963379e-01 3.375942409038543701e-01
-2.191355228424072266e-01 3.840057849884033203e-01 2.819490730762481689e-01
-2.026551067829132080e-01 3.120960891246795654e-01 3.162138760089874268e-01
-1.999109685420989990e-01 3.580449223518371582e-01 3.203892409801483154e-01
-2.695092260837554932e-01 4.433486461639404297e-01 3.140999972820281982e-01
-2.587509453296661377e-01 4.929738044738769531e-01 3.329459428787231445e-01
-2.193547040224075317e-01 4.141412079334259033e-01 3.725221157073974609e-01
-2.330018281936645508e-01 3.527536392211914062e-01 3.102948069572448730e-01
-2.464643716812133789e-01 4.023700356483459473e-01 3.455051183700561523e-01
-2.391389757394790649e-01 4.375858604907989502e-01 3.730390965938568115e-01
-2.603634893894195557e-01 4.265962839126586914e-01 3.292802870273590088e-01
-2.458412200212478638e-01 4.741455912590026855e-01 3.423992395401000977e-01
-2.729180753231048584e-01 4.745999276638031006e-01 3.301700651645660400e-01
-2.114669531583786011e-01 3.246288895606994629e-01 3.336842358112335205e-01
-2.678101658821105957e-01 4.975924491882324219e-01 2.925071418285369873e-01
-2.460776567459106445e-01 4.152131378650665283e-01 3.574226498603820801e-01
-2.045953720808029175e-01 3.426153659820556641e-01 2.943738698959350586e-01
-2.797515392303466797e-01 4.692029654979705811e-01 2.720273137092590332e-01
-2.750677764415740967e-01 4.923059940338134766e-01 3.287920355796813965e-01
-2.661006450653076172e-01 4.223253130912780762e-01 2.758170068264007568e-01
-2.639095187187194824e-01 4.975631237030029297e-01 3.335794508457183838e-01
-2.389264851808547974e-01 4.574268162250518799e-01 3.604044020175933838e-01
-2.160401791334152222e-01 4.139889180660247803e-01 3.389963507652282715e-01
-2.039448916912078857e-01 3.763551115989685059e-01 3.271265029907226562e-01
-2.474820315837860107e-01 3.845974802970886230e-01 2.639817595481872559e-01
-2.774606943130493164e-01 4.685727357864379883e-01 3.088249862194061279e-01
-2.227307111024856567e-01 3.607333898544311523e-01 3.589150011539459229e-01
-2.355979382991790771e-01 3.753860592842102051e-01 3.447111546993255615e-01
-2.030237466096878052e-01 3.576392233371734619e-01 3.072575628757476807e-01
-2.431639730930328369e-01 3.716678023338317871e-01 2.741303443908691406e-01
-2.592995464801788330e-01 4.866114854812622070e-01 2.947713136672973633e-01
-2.422617077827453613e-01 4.222527444362640381e-01 3.678033649921417236e-01
-2.578009963035583496e-01 4.922093152999877930e-01 3.216350078582763672e-01
-2.516557872295379639e-01 4.802988767623901367e-01 3.480866849422454834e-01
-2.832977771759033203e-01 4.993675053119659424e-01 2.869035303592681885e-01
-2.534151375293731689e-01 3.912262618541717529e-01 2.888046801090240479e-01
-2.713442742824554443e-01 4.971731305122375488e-01 3.334900140762329102e-01
-2.060533463954925537e-01 3.628906011581420898e-01 3.015525639057159424e-01
-2.635454237461090088e-01 4.213948249816894531e-01 3.067545890808105469e-01
-2.376841455698013306e-01 4.489345550537109375e-01 3.004079163074493408e-01
-2.060438990592956543e-01 3.887107074260711670e-01 3.548858463764190674e-01
-2.047821730375289917e-01 3.695532977581024170e-01 3.749964237213134766e-01
-2.576978802680969238e-01 4.032830297946929932e-01 2.990693747997283936e-01
-2.434500157833099365e-01 4.608114063739776611e-01 3.001903295516967773e-01
-2.373102754354476929e-01 4.307402670383453369e-01 2.779859900474548340e-01
-2.636475563049316406e-01 4.334691762924194336e-01 3.255753517150878906e-01
-2.752015888690948486e-01 4.537940919399261475e-01 2.991995513439178467e-01
-2.471093684434890747e-01 4.323970079421997070e-01 2.610211074352264404e-01
-2.504659891128540039e-01 3.856241703033447266e-01 2.749628424644470215e-01
-2.198605537414550781e-01 3.915819823741912842e-01 3.794499933719635010e-01
-2.683388888835906982e-01 4.917148351669311523e-01 2.811892032623291016e-01
-2.181921899318695068e-01 3.589549064636230469e-01 3.652624785900115967e-01
-2.313142269849777222e-01 4.281246364116668701e-01 3.758872449398040771e-01
-2.248620688915252686e-01 4.345229268074035645e-01 3.384707570075988770e-01
-2.026429772377014160e-01 3.780742883682250977e-01 3.437215387821197510e-01
-2.427890598773956299e-01 3.730834722518920898e-01 3.122767508029937744e-01
-2.699654698371887207e-01 4.379524588584899902e-01 3.019850552082061768e-01
-2.083961069583892822e-01 3.705606162548065186e-01 3.006256520748138428e-01
-2.726424932479858398e-01 5.032767057418823242e-01 2.935383021831512451e-01
-2.644713222980499268e-01 4.209293425083160400e-01 2.656232416629791260e-01
-2.644740939140319824e-01 4.284024536609649658e-01 3.149903416633605957e-01
-2.243858873844146729e-01 3.374902307987213135e-01 3.097134530544281006e-01
-2.163660526275634766e-01 3.932466208934783936e-01 2.974541187286376953e-01
-2.235741168260574341e-01 3.797491490840911865e-01 2.710202038288116455e-01
-2.772885262966156006e-01 4.790144860744476318e-01 3.186939954757690430e-01
-2.080712169408798218e-01 3.941656649112701416e-01 3.451478779315948486e-01
-2.172666490077972412e-01 3.512955307960510254e-01 3.597254455089569092e-01
-2.079129666090011597e-01 3.832410871982574463e-01 3.174946308135986328e-01
-2.608425915241241455e-01 4.426063001155853271e-01 3.428072333335876465e-01
-2.833393216133117676e-01 5.008338689804077148e-01 2.961470484733581543e-01
-2.189310789108276367e-01 3.521690666675567627e-01 2.728508710861206055e-01
-2.607910633087158203e-01 4.569341242313385010e-01 3.506352007389068604e-01
-2.212407290935516357e-01 4.253576993942260742e-01 3.334490656852722168e-01
-2.138320207595825195e-01 3.694967627525329590e-01 2.851496934890747070e-01
-2.539425194263458252e-01 4.864707291126251221e-01 3.370418846607208252e-01
-2.093105167150497437e-01 3.939929902553558350e-01 3.308183848857879639e-01
-2.363972216844558716e-01 4.184300005435943604e-01 3.735941648483276367e-01
-2.126913815736770630e-01 3.983975350856781006e-01 3.728172183036804199e-01
-2.153066992759704590e-01 4.131089150905609131e-01 3.523787558078765869e-01
-1.982225924730300903e-01 3.632142543792724609e-01 3.428573310375213623e-01
-2.649640738964080811e-01 4.900856018066406250e-01 2.856362164020538330e-01
-2.326255291700363159e-01 4.509527683258056641e-01 3.420872390270233154e-01
-2.446003407239913940e-01 3.723341822624206543e-01 2.873070240020751953e-01
-2.410837709903717041e-01 4.444637298583984375e-01 2.833403348922729492e-01
-2.043634206056594849e-01 3.488050699234008789e-01 2.973358929157257080e-01
-2.220541834831237793e-01 3.492859601974487305e-01 3.468556106090545654e-01
-2.486996948719024658e-01 4.578919410705566406e-01 2.800773382186889648e-01
-2.042638957500457764e-01 3.191266059875488281e-01 3.414315581321716309e-01
-2.790427803993225098e-01 4.632715284824371338e-01 2.806161642074584961e-01
-2.418916970491409302e-01 4.154426157474517822e-01 2.592851221561431885e-01
-2.010014355182647705e-01 3.488421440124511719e-01 3.073287904262542725e-01
-2.286909818649291992e-01 3.694266080856323242e-01 3.552741408348083496e-01
-2.262079417705535889e-01 3.469867408275604248e-01 2.747728228569030762e-01
-1.978416591882705688e-01 3.596892952919006348e-01 3.621066510677337646e-01
-1.990715563297271729e-01 3.517027795314788818e-01 3.170709609985351562e-01
-2.176691591739654541e-01 3.392134606838226318e-01 3.433804810047149658e-01
-2.167679667472839355e-01 3.634573817253112793e-01 2.767656445503234863e-01
-2.687629461288452148e-01 4.877413213253021240e-01 2.753279507160186768e-01
-2.712227702140808105e-01 4.618536531925201416e-01 2.569914758205413818e-01
-2.311937510967254639e-01 3.564061224460601807e-01 2.696489691734313965e-01
-2.018983811140060425e-01 3.745359778404235840e-01 3.387741446495056152e-01
-2.266455888748168945e-01 4.022093415260314941e-01 3.779559135437011719e-01
-2.190130949020385742e-01 3.982173204421997070e-01 2.944155037403106689e-01
-2.611025869846343994e-01 4.870802164077758789e-01 3.472267091274261475e-01
-2.347532808780670166e-01 4.451900720596313477e-01 3.682712018489837646e-01
-2.220131754875183105e-01 3.361172080039978027e-01 3.205063045024871826e-01
-2.655045390129089355e-01 4.796330928802490234e-01 3.465107977390289307e-01
-2.672782838344573975e-01 4.489104747772216797e-01 3.292230367660522461e-01
-2.329164296388626099e-01 3.868299126625061035e-01 2.606854140758514404e-01
-2.110889852046966553e-01 3.753311932086944580e-01 2.964650988578796387e-01
-2.287813425064086914e-01 3.465913236141204834e-01 3.162643015384674072e-01
-2.532320618629455566e-01 4.022397100925445557e-01 3.224185109138488770e-01
-2.068132609128952026e-01 3.891582190990447998e-01 3.627195954322814941e-01
-2.156419456005096436e-01 3.798928558826446533e-01 2.875168025493621826e-01
-2.636724710464477539e-01 4.696167707443237305e-01 2.646137773990631104e-01
-2.680817842483520508e-01 4.289595484733581543e-01 2.919717729091644287e-01
-2.821490168571472168e-01 4.778879880905151367e-01 2.854936718940734863e-01
-2.297902107238769531e-01 4.429650902748107910e-01 3.269198536872863770e-01
-1.980497241020202637e-01 3.557983338832855225e-01 3.272998034954071045e-01
-2.559682130813598633e-01 4.145007431507110596e-01 3.298692405223846436e-01
-2.679804861545562744e-01 4.663667082786560059e-01 3.391091823577880859e-01
-2.037308216094970703e-01 3.162451386451721191e-01 3.037388026714324951e-01
-2.277067154645919800e-01 3.567464649677276611e-01 3.419265151023864746e-01
-2.031953334808349609e-01 3.623846173286437988e-01 3.111011087894439697e-01
-2.547509968280792236e-01 4.164847135543823242e-01 3.363765478134155273e-01
-2.545711994171142578e-01 4.874119162559509277e-01 3.204204440116882324e-01
-2.580876946449279785e-01 4.071829915046691895e-01 3.075293600559234619e-01
-2.578090131282806396e-01 4.282786846160888672e-01 2.516782283782958984e-01
-2.563583552837371826e-01 4.106655716896057129e-01 3.228740990161895752e-01
-2.432670146226882935e-01 4.088960886001586914e-01 3.587151765823364258e-01
-2.675608694553375244e-01 4.325906336307525635e-01 2.608860731124877930e-01
-2.353585660457611084e-01 4.388825595378875732e-01 2.928063273429870605e-01
-2.618134915828704834e-01 4.133020937442779541e-01 2.974419593811035156e-01
-2.506414353847503662e-01 4.208223223686218262e-01 3.515306413173675537e-01
-2.159637212753295898e-01 3.877874612808227539e-01 2.931956052780151367e-01
-2.523310184478759766e-01 4.074270129203796387e-01 2.533636689186096191e-01
-2.373442202806472778e-01 4.542972743511199951e-01 3.129990696907043457e-01
-2.479568868875503540e-01 4.764440655708312988e-01 3.192452788352966309e-01
-2.259921580553054810e-01 4.266240000724792480e-01 3.082061707973480225e-01
-2.481950670480728149e-01 4.473721385002136230e-01 2.702583670616149902e-01
-2.339629977941513062e-01 3.656879365444183350e-01 3.359168171882629395e-01
-2.275166213512420654e-01 4.406411349773406982e-01 3.460673987865447998e-01
-2.200046032667160034e-01 3.496423959732055664e-01 3.523094058036804199e-01
-2.420414686203002930e-01 4.682995676994323730e-01 3.365836143493652344e-01
-2.812843322753906250e-01 4.889791607856750488e-01 3.080964088439941406e-01
-2.616242170333862305e-01 4.229346811771392822e-01 2.554528713226318359e-01
-2.222684174776077271e-01 4.250127077102661133e-01 3.241376280784606934e-01
-1.967892944812774658e-01 3.467592895030975342e-01 3.664862513542175293e-01
-2.350826412439346313e-01 3.874778151512145996e-01 3.586610555648803711e-01
-2.581140697002410889e-01 4.387711882591247559e-01 2.531592845916748047e-01
-1.961467415094375610e-01 3.562126457691192627e-01 3.477136492729187012e-01
-2.716425657272338867e-01 4.790637791156768799e-01 3.350720703601837158e-01
-2.436766922473907471e-01 4.513478279113769531e-01 2.848779559135437012e-01
-2.756448984146118164e-01 4.507701098918914795e-01 2.783012986183166504e-01
-2.541851103305816650e-01 3.994835913181304932e-01 3.124993741512298584e-01
-1.988380700349807739e-01 3.214331865310668945e-01 3.528090119361877441e-01
-2.674590051174163818e-01 4.312781691551208496e-01 3.038992285728454590e-01
-2.034147977828979492e-01 3.738641440868377686e-01 3.700948059558868408e-01
-2.400386184453964233e-01 4.013640880584716797e-01 3.597083389759063721e-01
-2.512096166610717773e-01 4.692410826683044434e-01 2.888462841510772705e-01
-2.106213569641113281e-01 3.308334648609161377e-01 2.862695157527923584e-01
-2.629470527172088623e-01 4.642099440097808838e-01 2.614563703536987305e-01
-1.979074776172637939e-01 3.595390319824218750e-01 3.352383077144622803e-01
-2.232877761125564575e-01 3.350147604942321777e-01 3.011616468429565430e-01
-2.282852828502655029e-01 3.503577411174774170e-01 3.285573422908782959e-01
-2.626986503601074219e-01 4.739595949649810791e-01 3.506396710872650146e-01
-2.782167196273803711e-01 5.024874210357666016e-01 2.845781743526458740e-01
-2.244469076395034790e-01 4.100213348865509033e-01 3.789388537406921387e-01
-2.438335418701171875e-01 4.277184605598449707e-01 3.676383197307586670e-01
-2.761805951595306396e-01 4.976078271865844727e-01 3.253445625305175781e-01
-2.383591532707214355e-01 3.659416139125823975e-01 2.692934870719909668e-01
-2.271076738834381104e-01 4.212673604488372803e-01 2.958398163318634033e-01
-2.084054052829742432e-01 3.899012506008148193e-01 3.695274591445922852e-01
-2.336410284042358398e-01 4.179095923900604248e-01 2.748265564441680908e-01
-2.599933743476867676e-01 4.301335513591766357e-01 3.344376385211944580e-01
-2.011840939521789551e-01 3.300802707672119141e-01 3.605153858661651611e-01
-2.352648973464965820e-01 3.930715024471282959e-01 2.595241069793701172e-01
-2.712933421134948730e-01 4.908833205699920654e-01 3.362122774124145508e-01
-2.832238078117370605e-01 4.862051904201507568e-01 2.909275293350219727e-01
-2.687625586986541748e-01 4.526671767234802246e-01 2.549149096012115479e-01
-2.093144059181213379e-01 3.382888436317443848e-01 2.853341698646545410e-01
-2.609239220619201660e-01 4.094916880130767822e-01 2.732473909854888916e-01
-2.591415345668792725e-01 4.024990797042846680e-01 7.830493152141571045e-02
-3.224310576915740967e-01 4.439210295677185059e-01 4.430896788835525513e-02
-2.839429676532745361e-01 4.497236013412475586e-01 5.926819890737533569e-02
-2.022908926010131836e-01 2.950098514556884766e-01 2.086950987577438354e-01
-2.912729084491729736e-01 4.406835734844207764e-01 1.363238543272018433e-01
-2.837539017200469971e-01 4.503315985202789307e-01 6.848671287298202515e-02
-2.191491127014160156e-01 2.889301776885986328e-01 2.796666026115417480e-01
-2.612008154392242432e-01 3.381504714488983154e-01 1.417838782072067261e-01
-2.104143798351287842e-01 3.268760144710540771e-01 2.358707040548324585e-01
-2.321773767471313477e-01 3.052291870117187500e-01 2.585628032684326172e-01
-2.784939408302307129e-01 4.414881765842437744e-01 6.724000722169876099e-02
-1.929607987403869629e-01 2.848214507102966309e-01 2.883127331733703613e-01
-2.914703190326690674e-01 3.941365182399749756e-01 1.411268711090087891e-01
-2.363573908805847168e-01 3.702262043952941895e-01 2.098547816276550293e-01
-2.620707750320434570e-01 4.121576845645904541e-01 1.611940711736679077e-01
-2.147338539361953735e-01 2.768561244010925293e-01 2.214426994323730469e-01
-2.895343005657196045e-01 3.899411559104919434e-01 5.822672694921493530e-02
-2.695098519325256348e-01 3.502834737300872803e-01 1.322619616985321045e-01
-2.944056391716003418e-01 3.962160348892211914e-01 5.579071491956710815e-02
-2.390337437391281128e-01 3.178536295890808105e-01 1.430406421422958374e-01
-3.224942088127136230e-01 4.986255168914794922e-01 2.099181711673736572e-02
-3.114598095417022705e-01 4.422223567962646484e-01 1.056032031774520874e-01
-2.789973318576812744e-01 3.709077239036560059e-01 1.624128371477127075e-01
-2.749054133892059326e-01 3.644388616085052490e-01 1.711834669113159180e-01
-2.624028027057647705e-01 4.030881226062774658e-01 6.631893664598464966e-02
-2.211831063032150269e-01 3.450748622417449951e-01 2.308919727802276611e-01
-3.388216495513916016e-01 4.823061227798461914e-01 -1.711730659008026123e-02
-3.266304731369018555e-01 5.011670589447021484e-01 -2.133502066135406494e-02
-2.924031615257263184e-01 4.609885811805725098e-01 3.996174782514572144e-02
-3.007116615772247314e-01 4.737965762615203857e-01 4.462314397096633911e-02
-2.319042980670928955e-01 3.357675671577453613e-01 2.645097970962524414e-01
-3.079649209976196289e-01 4.265150129795074463e-01 1.081079989671707153e-01
-2.306183725595474243e-01 3.104158341884613037e-01 1.530058979988098145e-01
-2.610227465629577637e-01 4.149386882781982422e-01 1.012747436761856079e-01
-2.550640404224395752e-01 3.347458541393280029e-01 2.124480158090591431e-01
-2.689373195171356201e-01 3.636478781700134277e-01 1.972287893295288086e-01
-2.485491782426834106e-01 3.932746648788452148e-01 1.188961490988731384e-01
-2.226178795099258423e-01 3.504362106323242188e-01 1.890636235475540161e-01
-2.575100064277648926e-01 3.474482595920562744e-01 2.207632064819335938e-01
-2.595091164112091064e-01 4.073517620563507080e-01 8.550377190113067627e-02
-3.439860641956329346e-01 5.098634958267211914e-01 -1.259043812751770020e-02
-2.990477681159973145e-01 4.092342555522918701e-01 1.273982673883438110e-01
-3.261924088001251221e-01 4.516136050224304199e-01 1.861587911844253540e-02
-2.980441153049468994e-01 4.125199913978576660e-01 2.330390363931655884e-02
-2.276003211736679077e-01 3.521785736083984375e-01 1.509616971015930176e-01
-2.554634809494018555e-01 4.073061645030975342e-01 1.235631406307220459e-01
-2.610870897769927979e-01 3.454586267471313477e-01 1.099563986063003540e-01
-3.065611720085144043e-01 4.551476538181304932e-01 -1.547028124332427979e-02
-2.927490174770355225e-01 4.523319005966186523e-01 1.149889305233955383e-01
-2.404180765151977539e-01 3.715068697929382324e-01 2.187112569808959961e-01
-2.663024067878723145e-01 4.073137640953063965e-01 5.702321231365203857e-02
-2.185478508472442627e-01 2.955206632614135742e-01 2.868527173995971680e-01
-2.125393748283386230e-01 3.275430500507354736e-01 2.517405450344085693e-01
-2.725174427032470703e-01 3.898817002773284912e-01 1.956635415554046631e-01
-2.473495602607727051e-01 3.167403936386108398e-01 1.977311968803405762e-01
-2.922160923480987549e-01 3.880997598171234131e-01 8.263107389211654663e-02
-2.949813902378082275e-01 4.576783478260040283e-01 1.503762602806091309e-02
-2.475420236587524414e-01 3.357687592506408691e-01 2.413307428359985352e-01
-2.431108653545379639e-01 3.553082942962646484e-01 2.446717619895935059e-01
-2.871252894401550293e-01 3.856748044490814209e-01 1.483563631772994995e-01
-3.320453166961669922e-01 4.642056226730346680e-01 1.469226181507110596e-02
-2.673973441123962402e-01 3.491021692752838135e-01 1.206471398472785950e-01
-3.406292200088500977e-01 4.864315092563629150e-01 -9.309798479080200195e-04
-2.365552037954330444e-01 3.734079003334045410e-01 1.971054822206497192e-01
-2.662270963191986084e-01 4.209926724433898926e-01 8.131930232048034668e-02
-2.321608662605285645e-01 3.216598033905029297e-01 1.372189521789550781e-01
-3.159813582897186279e-01 4.633059203624725342e-01 -2.627637982368469238e-02
-2.788317799568176270e-01 4.317826628684997559e-01 1.448938995599746704e-01
-2.054863870143890381e-01 2.811967730522155762e-01 3.024831116199493408e-01
-2.053359895944595337e-01 2.724204063415527344e-01 2.971009016036987305e-01
-2.863546013832092285e-01 3.794348239898681641e-01 8.527368307113647461e-02
-2.346849590539932251e-01 2.988345026969909668e-01 2.148048877716064453e-01
-2.406253069639205933e-01 3.802533745765686035e-01 1.366446167230606079e-01
-2.574787437915802002e-01 3.318463265895843506e-01 1.553557366132736206e-01
-2.582454085350036621e-01 4.115901291370391846e-01 1.156273931264877319e-01
-2.907759249210357666e-01 3.851386904716491699e-01 9.045717120170593262e-02
-2.800204753875732422e-01 4.078515172004699707e-01 2.872020006179809570e-02
-2.472004592418670654e-01 3.181230425834655762e-01 1.644878238439559937e-01
-1.990273296833038330e-01 2.880955934524536133e-01 2.191948145627975464e-01
-1.928898394107818604e-01 2.869230806827545166e-01 2.543597817420959473e-01
-2.152822017669677734e-01 3.354564905166625977e-01 1.978526264429092407e-01
-1.979848444461822510e-01 2.777116000652313232e-01 2.248307913541793823e-01
-2.905082702636718750e-01 4.149998426437377930e-01 1.573423594236373901e-01
-2.943256795406341553e-01 3.932790160179138184e-01 6.822171807289123535e-02
-2.071758061647415161e-01 3.024710714817047119e-01 1.933912634849548340e-01
-2.804125845432281494e-01 4.417403638362884521e-01 5.233209580183029175e-02
-2.634240686893463135e-01 3.866322338581085205e-01 2.077672779560089111e-01
-3.241534531116485596e-01 4.470113217830657959e-01 3.025227040052413940e-02
-2.086450457572937012e-01 2.898012399673461914e-01 1.947701573371887207e-01
-2.867351472377777100e-01 3.923549056053161621e-01 4.593482613563537598e-02
-2.724663317203521729e-01 3.741874396800994873e-01 6.400534510612487793e-02
-3.339246511459350586e-01 5.098804235458374023e-01 -7.056698203086853027e-03
-2.160939276218414307e-01 2.761054635047912598e-01 2.580313682556152344e-01
-3.167708516120910645e-01 4.481237530708312988e-01 9.003950655460357666e-02
-3.331253528594970703e-01 5.033893585205078125e-01 -3.676076233386993408e-02
-2.676704227924346924e-01 4.211184382438659668e-01 1.491619199514389038e-01
-3.210239410400390625e-01 4.909611046314239502e-01 4.808472096920013428e-02
-2.048276811838150024e-01 3.020347356796264648e-01 2.017146646976470947e-01
-2.125884294509887695e-01 3.247678875923156738e-01 2.609293162822723389e-01
-3.334780335426330566e-01 4.877616167068481445e-01 3.905716538429260254e-02
-2.187390774488449097e-01 3.227418363094329834e-01 1.610312461853027344e-01
-2.866320908069610596e-01 3.798393309116363525e-01 1.339075416326522827e-01
-2.850304543972015381e-01 3.764331042766571045e-01 9.286246448755264282e-02
-3.292829990386962891e-01 4.587005674839019775e-01 3.002606332302093506e-02
-2.680589854717254639e-01 3.540841341018676758e-01 1.028582900762557983e-01
-1.938341856002807617e-01 2.571999430656433105e-01 2.627359628677368164e-01
-3.076350688934326172e-01 4.644394218921661377e-01 -1.538105309009552002e-02
-2.524229586124420166e-01 3.766039907932281494e-01 2.213989794254302979e-01
-2.450385093688964844e-01 3.875009119510650635e-01 1.264704018831253052e-01
-2.269413471221923828e-01 3.418528139591217041e-01 2.558693587779998779e-01
-3.338714838027954102e-01 4.699388146400451660e-01 2.252694219350814819e-02
-2.439236491918563843e-01 3.812793791294097900e-01 2.014461159706115723e-01
-2.550693750381469727e-01 4.005250632762908936e-01 1.767219901084899902e-01
-2.368718832731246948e-01 3.762615621089935303e-01 1.618542522192001343e-01
-2.916319072246551514e-01 4.537636339664459229e-01 2.210201323032379150e-02
-2.290579080581665039e-01 2.971373796463012695e-01 2.562001943588256836e-01
-1.895411014556884766e-01 2.790552377700805664e-01 2.769920825958251953e-01
-3.086731433868408203e-01 4.752734303474426270e-01 -7.814809679985046387e-03
-3.093830645084381104e-01 4.191266000270843506e-01 7.932357490062713623e-02
-3.349784016609191895e-01 4.715773463249206543e-01 1.407364755868911743e-02
-3.277283906936645508e-01 5.043187737464904785e-01 7.442131638526916504e-03
-1.962983012199401855e-01 2.913643121719360352e-01 2.347605526447296143e-01
-2.437671422958374023e-01 3.186120688915252686e-01 2.338561862707138062e-01
-2.260150909423828125e-01 2.876321673393249512e-01 2.340968251228332520e-01
-2.787042260169982910e-01 3.760004937648773193e-01 6.812031567096710205e-02
-2.759019136428833008e-01 4.355767965316772461e-01 1.245272159576416016e-01
-2.689100205898284912e-01 3.542090356349945068e-01 1.813976615667343140e-01
-2.850326597690582275e-01 4.518466591835021973e-01 8.674190938472747803e-02
-2.432920187711715698e-01 3.610541820526123047e-01 1.009853184223175049e-01
-2.882595360279083252e-01 3.816644251346588135e-01 1.253752410411834717e-01
-2.789777517318725586e-01 4.351703226566314697e-01 4.390240460634231567e-02
-1.985784173011779785e-01 3.020679354667663574e-01 2.513356804847717285e-01
-2.887514531612396240e-01 4.170559644699096680e-01 1.580981910228729248e-02
-3.412006199359893799e-01 5.104085206985473633e-01 -3.785568475723266602e-02
-2.552087903022766113e-01 3.375703394412994385e-01 1.189357265830039978e-01
-3.294685482978820801e-01 4.774867296218872070e-01 5.359288305044174194e-02
-2.742865979671478271e-01 4.251001775264739990e-01 1.538468897342681885e-01
-3.446114361286163330e-01 4.999339878559112549e-01 -1.601970195770263672e-02
-3.144150972366333008e-01 4.276273250579833984e-01 4.728584736585617065e-02
-3.218607306480407715e-01 4.771468639373779297e-01 -3.398108482360839844e-02
-2.342922389507293701e-01 2.986578047275543213e-01 2.225322276353836060e-01
-2.500799596309661865e-01 3.943963050842285156e-01 1.107775270938873291e-01
-2.392545938491821289e-01 3.219431936740875244e-01 2.543496191501617432e-01
-2.873248457908630371e-01 4.308579266071319580e-01 1.504054218530654907e-01
-2.473551034927368164e-01 3.314992189407348633e-01 1.221913471817970276e-01
-2.862095832824707031e-01 3.982553482055664062e-01 3.528752923011779785e-02
-2.273513823747634888e-01 3.595980107784271240e-01 1.904378980398178101e-01
-3.109807968139648438e-01 4.259181618690490723e-01 9.013192355632781982e-02
-2.310763299465179443e-01 3.180365562438964844e-01 2.707510590553283691e-01
-2.950855791568756104e-01 4.249206185340881348e-01 6.769821047782897949e-03
-2.639504969120025635e-01 3.416116237640380859e-01 1.679987162351608276e-01
-3.296298980712890625e-01 4.936951398849487305e-01 -3.953377902507781982e-02
-2.984464168548583984e-01 4.252719283103942871e-01 1.389146298170089722e-01
-2.357728630304336548e-01 3.137453794479370117e-01 2.572008371353149414e-01
-3.089554309844970703e-01 4.299923777580261230e-01 7.664129137992858887e-03
-3.275813758373260498e-01 5.046303272247314453e-01 -7.195785641670227051e-03
-2.232268750667572021e-01 3.072580397129058838e-01 2.821561396121978760e-01
-2.942657768726348877e-01 4.650074243545532227e-01 6.443390250205993652e-02
-2.691514492034912109e-01 4.248700737953186035e-01 7.349119335412979126e-02
-1.991921067237854004e-01 2.940877079963684082e-01 2.908190488815307617e-01
-3.273132741451263428e-01 4.653918147087097168e-01 5.828597396612167358e-02
-2.634387016296386719e-01 3.482506275177001953e-01 1.981393992900848389e-01
-2.200212776660919189e-01 3.460118770599365234e-01 2.023681104183197021e-01
-2.842214703559875488e-01 3.829167783260345459e-01 6.297744810581207275e-02
-2.805950939655303955e-01 3.684777915477752686e-01 1.064933240413665771e-01
-2.495285272598266602e-01 3.910184502601623535e-01 1.891942918300628662e-01
-2.168595939874649048e-01 3.343226313591003418e-01 2.490735650062561035e-01
-3.443085849285125732e-01 4.991364777088165283e-01 -2.611291408538818359e-02
-2.019261866807937622e-01 2.609292864799499512e-01 2.783580422401428223e-01
-2.548310458660125732e-01 3.328652381896972656e-01 1.326519250869750977e-01
-2.726139426231384277e-01 3.667097389698028564e-01 1.866233944892883301e-01
-2.376699447631835938e-01 3.049540221691131592e-01 1.819340884685516357e-01
-2.762711942195892334e-01 3.963748514652252197e-01 3.867865353822708130e-02
-2.884927093982696533e-01 4.243112802505493164e-01 1.561120003461837769e-01
-2.637192606925964355e-01 4.001113474369049072e-01 1.919527500867843628e-01
-1.862364411354064941e-01 2.665433585643768311e-01 2.926249802112579346e-01
-3.034181892871856689e-01 4.701715409755706787e-01 8.355543017387390137e-02
-2.514008581638336182e-01 3.692021369934082031e-01 8.330523222684860229e-02
-2.567127645015716553e-01 3.320757150650024414e-01 1.457431316375732422e-01
-2.531324625015258789e-01 3.263452649116516113e-01 1.969587355852127075e-01
-3.395264148712158203e-01 4.827952980995178223e-01 -8.171468973159790039e-03
-2.805257439613342285e-01 4.439606666564941406e-01 1.069208458065986633e-01
-3.072931468486785889e-01 4.468464851379394531e-01 1.152160316705703735e-01
-3.220370411872863770e-01 4.512210786342620850e-01 6.968192756175994873e-02
-3.096152544021606445e-01 4.816446900367736816e-01 2.599313855171203613e-03
-3.342439532279968262e-01 5.080725550651550293e-01 -2.983972430229187012e-02
-3.311242163181304932e-01 4.702527523040771484e-01 -2.223171293735504150e-02
-2.821439206600189209e-01 3.735274374485015869e-01 1.481724679470062256e-01
-2.163574248552322388e-01 3.301592469215393066e-01 1.758589744567871094e-01
-2.848011553287506104e-01 4.495418965816497803e-01 1.019025966525077820e-01
-2.411557585000991821e-01 3.076958060264587402e-01 1.963078975677490234e-01
-2.164431959390640259e-01 3.362829685211181641e-01 2.393646091222763062e-01
-3.386633098125457764e-01 4.843587279319763184e-01 1.494610309600830078e-02
-2.143369317054748535e-01 3.100650906562805176e-01 2.874290645122528076e-01
-3.048353195190429688e-01 4.140485227108001709e-01 1.030185222625732422e-01
-2.917543649673461914e-01 4.582702517509460449e-01 9.334784746170043945e-02
-3.122082948684692383e-01 4.628294110298156738e-01 9.672810137271881104e-02
-2.268596589565277100e-01 3.563173115253448486e-01 1.676384210586547852e-01
-3.151912689208984375e-01 4.295566976070404053e-01 6.142981350421905518e-02
-2.010005712509155273e-01 2.809649705886840820e-01 2.157672345638275146e-01
-2.728465795516967773e-01 4.308489561080932617e-01 1.313136816024780273e-01
-2.188182324171066284e-01 3.352650105953216553e-01 1.704643815755844116e-01
-2.114605605602264404e-01 2.848191261291503906e-01 2.947874665260314941e-01
-3.064151108264923096e-01 4.144279360771179199e-01 9.038855135440826416e-02
-2.869133949279785156e-01 3.960842490196228027e-01 1.624124348163604736e-01
-2.279290705919265747e-01 3.297215700149536133e-01 1.377795934677124023e-01
-2.606899142265319824e-01 3.480013608932495117e-01 1.025375872850418091e-01
-2.667856812477111816e-01 4.251133799552917480e-01 1.009254530072212219e-01
-2.220615595579147339e-01 3.236360251903533936e-01 1.520370244979858398e-01
-2.873482704162597656e-01 4.311882257461547852e-01 1.462715119123458862e-02
-1.974710226058959961e-01 2.723993360996246338e-01 2.303360998630523682e-01
-2.716273665428161621e-01 4.124093055725097656e-01 1.760514080524444580e-01
-3.226175606250762939e-01 4.940837621688842773e-01 -2.345691621303558350e-02
-2.624657452106475830e-01 3.422400355339050293e-01 1.265040636062622070e-01
-2.643965482711791992e-01 3.873983621597290039e-01 5.695021897554397583e-02
-2.112662196159362793e-01 2.768257856369018555e-01 2.866008281707763672e-01
-2.658431828022003174e-01 3.941957950592041016e-01 1.995283663272857666e-01
-2.552275061607360840e-01 3.930598497390747070e-01 1.968881189823150635e-01
-3.276277482509613037e-01 4.619243144989013672e-01 -1.472854614257812500e-02
-2.102444022893905640e-01 2.947986423969268799e-01 2.974028587341308594e-01
-3.172075450420379639e-01 4.591934382915496826e-01 8.998095244169235229e-02
-2.451817095279693604e-01 3.133084177970886230e-01 1.912390887737274170e-01
-2.541252374649047852e-01 3.423895239830017090e-01 2.271090149879455566e-01
-2.982952892780303955e-01 4.482327103614807129e-01 1.242608278989791870e-01
-3.434234261512756348e-01 5.018771886825561523e-01 -2.678051590919494629e-03
-2.837764024734497070e-01 3.874722421169281006e-01 5.145689100027084351e-02
-2.805771529674530029e-01 4.457462430000305176e-01 7.439492642879486084e-02
-2.753821015357971191e-01 3.597309291362762451e-01 1.195019483566284180e-01
-3.350509405136108398e-01 4.791601896286010742e-01 -2.821786701679229736e-02
-2.528654038906097412e-01 3.761922419071197510e-01 8.009699732065200806e-02
-2.765913605690002441e-01 3.912408351898193359e-01 1.880846321582794189e-01
-2.567545473575592041e-01 4.095848798751831055e-01 1.328240036964416504e-01
-2.838069498538970947e-01 4.328816235065460205e-01 2.387671917676925659e-02
-2.054936289787292480e-01 3.158273994922637939e-01 2.535986304283142090e-01
-2.726433575153350830e-01 4.337202608585357666e-01 8.568397164344787598e-02
-2.383471876382827759e-01 3.507533371448516846e-01 2.499849498271942139e-01
-3.030681312084197998e-01 4.614387750625610352e-01 -6.742641329765319824e-03
-3.288202285766601562e-01 4.985928535461425781e-01 3.200098872184753418e-02
-3.322896063327789307e-01 4.681570827960968018e-01 3.287324309349060059e-02
-2.257384359836578369e-01 2.892232835292816162e-01 2.499045580625534058e-01
-3.356247246265411377e-01 5.112683176994323730e-01 -1.497758924961090088e-02
-2.306263148784637451e-01 2.969196438789367676e-01 1.884897351264953613e-01
-2.912204563617706299e-01 4.456554949283599854e-01 1.279228627681732178e-01
-2.641178965568542480e-01 4.111973941326141357e-01 1.699055731296539307e-01
-2.297207117080688477e-01 3.571543097496032715e-01 2.273940145969390869e-01
-3.104434907436370850e-01 4.306039810180664062e-01 1.014800295233726501e-01
-3.010326623916625977e-01 4.389449954032897949e-01 -5.369454622268676758e-03
-2.948051989078521729e-01 4.043434560298919678e-01 1.402578800916671753e-01
-2.970436215400695801e-01 3.984803557395935059e-01 1.149220168590545654e-01
-2.032893449068069458e-01 3.124547898769378662e-01 2.454835176467895508e-01
-2.299979925155639648e-01 2.932259440422058105e-01 2.078008949756622314e-01
-3.352313935756683350e-01 4.716898500919342041e-01 5.415767431259155273e-03
-3.165752887725830078e-01 4.357469081878662109e-01 7.444845139980316162e-02
-2.010515481233596802e-01 3.045684695243835449e-01 2.707313299179077148e-01
-2.832008302211761475e-01 4.163406491279602051e-01 1.676821410655975342e-01
-3.174027800559997559e-01 4.668486416339874268e-01 8.593635261058807373e-02
-2.934919297695159912e-01 4.500007033348083496e-01 1.002345979213714600e-02
-2.456975132226943970e-01 3.149093985557556152e-01 2.062927782535552979e-01
-2.577556669712066650e-01 3.929431438446044922e-01 7.338547706604003906e-02
-3.230945169925689697e-01 4.896281361579895020e-01 -3.099645674228668213e-02
-3.217556178569793701e-01 4.589962661266326904e-01 7.680688798427581787e-02
-3.124037981033325195e-01 4.796530008316040039e-01 -1.377348601818084717e-02
-2.489407062530517578e-01 3.924617171287536621e-01 1.815364062786102295e-01
-2.306374460458755493e-01 3.146666586399078369e-01 1.465372145175933838e-01
-2.400979250669479370e-01 3.655947744846343994e-01 1.122963577508926392e-01
-2.711144983768463135e-01 4.032973945140838623e-01 4.335857927799224854e-02
-2.364727705717086792e-01 3.020930290222167969e-01 1.930539458990097046e-01
-2.511405050754547119e-01 3.303163647651672363e-01 2.225613296031951904e-01
-2.599695324897766113e-01 3.743994534015655518e-01 6.821744889020919800e-02
-2.400442212820053101e-01 3.072096705436706543e-01 2.185790538787841797e-01
-2.516005635261535645e-01 3.387633562088012695e-01 1.114930957555770874e-01
-2.749273478984832764e-01 4.258339107036590576e-01 4.615481942892074585e-02
-3.091216087341308594e-01 4.187001585960388184e-01 4.603368788957595825e-02
-3.007330298423767090e-01 4.729577898979187012e-01 5.998291075229644775e-02
-2.742982804775238037e-01 3.665762841701507568e-01 8.264939486980438232e-02
-2.656994760036468506e-01 3.465649485588073730e-01 1.788240969181060791e-01
-2.044599056243896484e-01 3.097640275955200195e-01 2.121708691120147705e-01
-2.652812004089355469e-01 4.123641848564147949e-01 6.644285470247268677e-02
-2.998357415199279785e-01 4.028831422328948975e-01 1.065986901521682739e-01
-2.752375602722167969e-01 4.190552830696105957e-01 3.864732384681701660e-02
-2.513067126274108887e-01 3.248883485794067383e-01 1.517375558614730835e-01
-2.653698325157165527e-01 3.479921817779541016e-01 1.863972991704940796e-01
-1.906036734580993652e-01 2.812140285968780518e-01 2.629994750022888184e-01
-2.945251166820526123e-01 4.074684381484985352e-01 2.781791985034942627e-02
-1.916185319423675537e-01 2.532345950603485107e-01 2.866755127906799316e-01
-2.314531356096267700e-01 3.660598397254943848e-01 1.965737640857696533e-01
-2.703767716884613037e-01 4.253445267677307129e-01 1.434670537710189819e-01
-2.796707451343536377e-01 3.693355619907379150e-01 9.329986572265625000e-02
-3.379454612731933594e-01 4.977753460407257080e-01 -4.317982494831085205e-02
-2.298481017351150513e-01 3.622338473796844482e-01 1.635511517524719238e-01
-2.289121001958847046e-01 3.050499260425567627e-01 2.688908278942108154e-01
-3.178179860115051270e-01 4.943560063838958740e-01 6.335467100143432617e-03
-3.054729402065277100e-01 4.798938333988189697e-01 3.466066718101501465e-02
-2.691617608070373535e-01 4.281140267848968506e-01 8.930157870054244995e-02
-2.436925619840621948e-01 3.789017796516418457e-01 1.130265519022941589e-01
-2.904797792434692383e-01 4.596787393093109131e-01 5.414581298828125000e-02
-2.403698861598968506e-01 3.310524225234985352e-01 2.559187114238739014e-01
-2.986011207103729248e-01 4.045464396476745605e-01 1.213096678256988525e-01
-3.013927638530731201e-01 4.607327580451965332e-01 1.041769459843635559e-01
-2.810824513435363770e-01 3.683978617191314697e-01 1.188665330410003662e-01
-3.151232004165649414e-01 4.340428709983825684e-01 1.568958908319473267e-02
-2.249799519777297974e-01 3.552412986755371094e-01 1.972375214099884033e-01
-2.563915550708770752e-01 3.678849339485168457e-01 7.610366493463516235e-02
-3.184358179569244385e-01 4.360298812389373779e-01 5.501537770032882690e-02
-1.947880834341049194e-01 2.597460448741912842e-01 2.548448741436004639e-01
-2.625230550765991211e-01 3.648663163185119629e-01 2.161862850189208984e-01
-2.806157767772674561e-01 3.803376853466033936e-01 1.709884703159332275e-01
-2.999178171157836914e-01 4.514865875244140625e-01 -5.019411444664001465e-03
-1.929796040058135986e-01 2.732475697994232178e-01 3.066253066062927246e-01
-3.076301813125610352e-01 4.781764149665832520e-01 6.607144325971603394e-02
-2.977397441864013672e-01 3.972353935241699219e-01 9.854383766651153564e-02
-1.916177719831466675e-01 2.557927966117858887e-01 3.009687662124633789e-01
-3.245240747928619385e-01 4.664084911346435547e-01 -2.789694070816040039e-02
-2.928545475006103516e-01 3.905746042728424072e-01 1.213712468743324280e-01
-1.909599006175994873e-01 2.831455469131469727e-01 2.705333828926086426e-01
-3.339345157146453857e-01 4.999697804450988770e-01 2.606473863124847412e-02
-3.426212072372436523e-01 4.919644892215728760e-01 -1.338936388492584229e-02
-2.068236470222473145e-01 3.199894428253173828e-01 2.350606620311737061e-01
-2.239094823598861694e-01 3.147003650665283203e-01 2.806934714317321777e-01
-3.287413120269775391e-01 4.643320441246032715e-01 5.015563219785690308e-02
-2.980541288852691650e-01 4.589825272560119629e-01 5.548626184463500977e-03
-3.009715676307678223e-01 4.734070897102355957e-01 3.108228743076324463e-02
-2.453426420688629150e-01 3.900049030780792236e-01 1.686998307704925537e-01
-2.962130606174468994e-01 4.667231738567352295e-01 3.657750040292739868e-02
-2.627896070480346680e-01 3.394871354103088379e-01 1.508314609527587891e-01
-2.872710227966308594e-01 4.413583278656005859e-01 2.078521251678466797e-02
-2.909177541732788086e-01 4.028934836387634277e-01 1.535759419202804565e-01
-3.100291192531585693e-01 4.847877621650695801e-01 4.148084670305252075e-02
-2.718311846256256104e-01 3.994259834289550781e-01 1.911737918853759766e-01
-2.539148926734924316e-01 3.900482356548309326e-01 8.402079343795776367e-02
-3.025286495685577393e-01 4.070802330970764160e-01 9.766367077827453613e-02
-2.495256364345550537e-01 3.233846724033355713e-01 2.140281051397323608e-01
-2.632824480533599854e-01 4.136230647563934326e-01 7.878974080085754395e-02
-3.143189847469329834e-01 4.869448840618133545e-01 -6.020039319992065430e-03
-2.211074829101562500e-01 3.311857581138610840e-01 1.565033048391342163e-01
-2.495415806770324707e-01 3.949895501136779785e-01 1.733181774616241455e-01
-3.108149170875549316e-01 4.860187172889709473e-01 1.613054424524307251e-02
-2.715434432029724121e-01 4.147814512252807617e-01 4.648824036121368408e-02
-2.198231667280197144e-01 3.424260020256042480e-01 1.801565438508987427e-01
-2.895099520683288574e-01 3.862971961498260498e-01 7.141270488500595093e-02
-3.396155238151550293e-01 4.861623644828796387e-01 -2.481992542743682861e-02
-3.186807036399841309e-01 4.955880641937255859e-01 1.399099826812744141e-02
-2.781442403793334961e-01 3.846430182456970215e-01 1.829818338155746460e-01
-2.444646805524826050e-01 3.187220096588134766e-01 1.500115096569061279e-01
-2.795342504978179932e-01 4.221133887767791748e-01 2.906610071659088135e-02
-3.452445268630981445e-01 5.099983215332031250e-01 -2.179153263568878174e-02
-3.243525326251983643e-01 4.862631857395172119e-01 5.676681548357009888e-02
-3.001357018947601318e-01 4.325518608093261719e-01 -9.265094995498657227e-04
-2.484784573316574097e-01 3.614467680454254150e-01 9.031429141759872437e-02
-2.215089052915573120e-01 2.827014923095703125e-01 2.498277276754379272e-01
-1.937229633331298828e-01 2.798690199851989746e-01 2.387063801288604736e-01
-3.265079259872436523e-01 4.578411877155303955e-01 5.370591580867767334e-02
-3.400142788887023926e-01 4.960194528102874756e-01 1.449387520551681519e-02
-2.411834448575973511e-01 3.815626800060272217e-01 1.868297457695007324e-01
-2.524248063564300537e-01 4.025493860244750977e-01 1.330031603574752808e-01
-3.155460059642791748e-01 4.480089843273162842e-01 -1.308052241802215576e-02
-2.980692088603973389e-01 4.683623015880584717e-01 7.295792549848556519e-02
-3.106361329555511475e-01 4.235298633575439453e-01 3.199160099029541016e-02
-3.096536099910736084e-01 4.818811416625976562e-01 5.706633627414703369e-02
-2.123645544052124023e-01 3.214866816997528076e-01 1.847113966941833496e-01
-2.983181476593017578e-01 4.052293300628662109e-01 4.106380045413970947e-02
-2.534124553203582764e-01 3.510928153991699219e-01 2.333299517631530762e-01
-2.234274148941040039e-01 3.519898653030395508e-01 2.080219984054565430e-01
-2.752688527107238770e-01 4.081519842147827148e-01 3.558599203824996948e-02
-2.743062973022460938e-01 3.580657839775085449e-01 1.492940634489059448e-01
-2.935894429683685303e-01 3.903968334197998047e-01 1.112846359610557556e-01
-2.084752619266510010e-01 3.212073445320129395e-01 2.106626331806182861e-01
-2.871376574039459229e-01 4.552332162857055664e-01 7.647684216499328613e-02
-2.018466591835021973e-01 2.895878851413726807e-01 3.006966710090637207e-01
-2.204193621873855591e-01 2.849249243736267090e-01 2.670328021049499512e-01
-2.081167250871658325e-01 3.216780126094818115e-01 2.454138845205307007e-01
-2.995321750640869141e-01 4.093836247920989990e-01 3.316821157932281494e-02
-3.108571767807006836e-01 4.553019404411315918e-01 1.044804155826568604e-01
-3.030886948108673096e-01 4.067557454109191895e-01 6.618325412273406982e-02
-2.352485805749893188e-01 3.060892522335052490e-01 1.679341197013854980e-01
-3.012294769287109375e-01 4.696406126022338867e-01 1.237758994102478027e-02
-1.944173425436019897e-01 2.913000583648681641e-01 2.738472223281860352e-01
-3.354051113128662109e-01 4.731104075908660889e-01 -7.231876254081726074e-03
-2.616911828517913818e-01 3.746138215065002441e-01 2.166877090930938721e-01
-2.125461995601654053e-01 3.026334345340728760e-01 1.791567206382751465e-01
-2.422786355018615723e-01 3.424497842788696289e-01 2.524411380290985107e-01
-3.163064420223236084e-01 4.797092080116271973e-01 -2.444449067115783691e-02
-2.256052047014236450e-01 2.922644615173339844e-01 2.609027624130249023e-01
-2.728122472763061523e-01 3.820050954818725586e-01 1.958351880311965942e-01
-2.811757922172546387e-01 4.464959800243377686e-01 9.184346348047256470e-02
