4.877632260322570801e-01 -5.253734588623046875e-01 -4.398967623710632324e-01
4.470538198947906494e-01 -5.427907109260559082e-01 -4.487031996250152588e-01
5.086748600006103516e-01 -5.451227426528930664e-01 -4.443923234939575195e-01
4.609099626541137695e-01 -4.990575611591339111e-01 -4.664371311664581299e-01
4.984820187091827393e-01 -4.945445656776428223e-01 -4.495978653430938721e-01
4.651859998703002930e-01 -5.291510820388793945e-01 -4.418510496616363525e-01
5.074102282524108887e-01 -5.309585928916931152e-01 -4.395120143890380859e-01
4.932604730129241943e-01 -5.027846693992614746e-01 -4.443978071212768555e-01
4.123911857604980469e-01 -5.202857851982116699e-01 -4.541344344615936279e-01
4.716488420963287354e-01 -5.084375739097595215e-01 -4.646891951560974121e-01
4.915958046913146973e-01 -5.072811841964721680e-01 -4.609631597995758057e-01
4.380920231342315674e-01 -5.171126127243041992e-01 -4.466656744480133057e-01
4.713524878025054932e-01 -4.829322397708892822e-01 -4.564508795738220215e-01
4.384372234344482422e-01 -5.133246183395385742e-01 -4.469403624534606934e-01
4.818803369998931885e-01 -5.263705849647521973e-01 -4.401998519897460938e-01
5.087241530418395996e-01 -5.432876348495483398e-01 -4.478541016578674316e-01
5.141019821166992188e-01 -5.323454141616821289e-01 -4.515522718429565430e-01
4.023548066616058350e-01 -5.151650905609130859e-01 -4.602471888065338135e-01
4.459391236305236816e-01 -5.417429804801940918e-01 -4.561296999454498291e-01
4.726673960685729980e-01 -5.116060972213745117e-01 -4.642791152000427246e-01
5.203172564506530762e-01 -5.373144149780273438e-01 -4.460280537605285645e-01
4.609721899032592773e-01 -5.391604304313659668e-01 -4.435514807701110840e-01
5.153526067733764648e-01 -5.042122006416320801e-01 -4.499936401844024658e-01
5.007484555244445801e-01 -5.001935958862304688e-01 -4.461652338504791260e-01
4.517736136913299561e-01 -5.249850749969482422e-01 -4.438492953777313232e-01
4.269473552703857422e-01 -5.283010601997375488e-01 -4.627226591110229492e-01
4.944332540035247803e-01 -5.436776876449584961e-01 -4.518064260482788086e-01
4.240050613880157471e-01 -4.965102970600128174e-01 -4.690338671207427979e-01
4.902006685733795166e-01 -5.103484392166137695e-01 -4.612094461917877197e-01
4.075701832771301270e-01 -5.202546715736389160e-01 -4.570188522338867188e-01
4.314457178115844727e-01 -5.066910386085510254e-01 -4.684358239173889160e-01
4.143083095550537109e-01 -5.119583606719970703e-01 -4.530814588069915771e-01
4.484910368919372559e-01 -5.208507180213928223e-01 -4.445264041423797607e-01
4.647535979747772217e-01 -5.360569953918457031e-01 -4.423802793025970459e-01
4.391904175281524658e-01 -5.084562301635742188e-01 -4.679610729217529297e-01
4.841949641704559326e-01 -5.458462238311767578e-01 -4.521324038505554199e-01
4.634210169315338135e-01 -5.198382735252380371e-01 -4.642584025859832764e-01
4.313664734363555908e-01 -5.128297805786132812e-01 -4.484352767467498779e-01
5.200994610786437988e-01 -5.345342159271240234e-01 -4.480847716331481934e-01
4.980840981006622314e-01 -5.377354025840759277e-01 -4.397315084934234619e-01
4.653386771678924561e-01 -5.076870918273925781e-01 -4.656356871128082275e-01
5.055545568466186523e-01 -4.998030364513397217e-01 -4.474334120750427246e-01
4.048350751399993896e-01 -5.109317302703857422e-01 -4.570674300193786621e-01
4.172952473163604736e-01 -5.011531114578247070e-01 -4.687480032444000244e-01
4.068042039871215820e-01 -4.980702996253967285e-01 -4.581275880336761475e-01
4.177816808223724365e-01 -4.865489006042480469e-01 -4.593417048454284668e-01
5.018879175186157227e-01 -5.231209397315979004e-01 -4.571970403194427490e-01
5.015166401863098145e-01 -5.393091440200805664e-01 -4.399847984313964844e-01
4.809735119342803955e-01 -5.069874525070190430e-01 -4.431753158569335938e-01
4.989807307720184326e-01 -5.279175043106079102e-01 -4.569008052349090576e-01
5.101633667945861816e-01 -5.115923881530761719e-01 -4.557021558284759521e-01
5.152281522750854492e-01 -5.088587999343872070e-01 -4.448656141757965088e-01
4.966461658477783203e-01 -5.471491217613220215e-01 -4.430535733699798584e-01
4.765171706676483154e-01 -5.074520707130432129e-01 -4.639629721641540527e-01
5.079742670059204102e-01 -5.073966979980468750e-01 -4.561984241008758545e-01
4.163053929805755615e-01 -4.932210743427276611e-01 -4.563893079757690430e-01
4.451783299446105957e-01 -5.387533307075500488e-01 -4.584231674671173096e-01
4.812279343605041504e-01 -5.479525923728942871e-01 -4.505665898323059082e-01
4.034965634346008301e-01 -5.133316516876220703e-01 -4.640472233295440674e-01
4.659689068794250488e-01 -4.921562373638153076e-01 -4.489340782165527344e-01
4.549264907836914062e-01 -4.852684736251831055e-01 -4.532827138900756836e-01
5.136972665786743164e-01 -5.154490470886230469e-01 -4.544351994991302490e-01
4.499068856239318848e-01 -4.896427690982818604e-01 -4.669702947139739990e-01
4.551932215690612793e-01 -4.909971654415130615e-01 -4.665305018424987793e-01
4.674912393093109131e-01 -4.989016056060791016e-01 -4.654645025730133057e-01
4.771668016910552979e-01 -5.344892740249633789e-01 -4.406735002994537354e-01
4.950738549232482910e-01 -5.298708081245422363e-01 -4.572405815124511719e-01
4.645466804504394531e-01 -5.154176354408264160e-01 -4.428102076053619385e-01
4.053974747657775879e-01 -5.197409391403198242e-01 -4.598172903060913086e-01
4.410588741302490234e-01 -5.244049429893493652e-01 -4.458555579185485840e-01
4.484775960445404053e-01 -5.042728781700134277e-01 -4.468052685260772705e-01
4.338800609111785889e-01 -5.243808031082153320e-01 -4.646466374397277832e-01
4.869446456432342529e-01 -5.425286889076232910e-01 -4.538570642471313477e-01
4.916064441204071045e-01 -4.956073760986328125e-01 -4.475548267364501953e-01
4.075883626937866211e-01 -5.092267990112304688e-01 -4.666078984737396240e-01
4.632976949214935303e-01 -5.216305255889892578e-01 -4.423147141933441162e-01
4.368345737457275391e-01 -5.272923111915588379e-01 -4.636887311935424805e-01
4.452524185180664062e-01 -4.931277036666870117e-01 -4.505048990249633789e-01
4.564627110958099365e-01 -5.339952111244201660e-01 -4.607767462730407715e-01
4.545437395572662354e-01 -5.176500678062438965e-01 -4.655223190784454346e-01
5.044460296630859375e-01 -5.357974171638488770e-01 -4.532591402530670166e-01
4.893324375152587891e-01 -5.462819337844848633e-01 -4.509401619434356689e-01
4.540404081344604492e-01 -4.998610913753509521e-01 -4.472082555294036865e-01
4.539003372192382812e-01 -5.430704355239868164e-01 -4.557350575923919678e-01
4.422963559627532959e-01 -5.020880699157714844e-01 -4.482367038726806641e-01
4.525110721588134766e-01 -5.183349847793579102e-01 -4.440536201000213623e-01
4.666074514389038086e-01 -5.078350901603698730e-01 -4.439292252063751221e-01
4.389693439006805420e-01 -4.819471240043640137e-01 -4.575346708297729492e-01
4.667870402336120605e-01 -5.328354835510253906e-01 -4.417813122272491455e-01
4.938080608844757080e-01 -5.177471041679382324e-01 -4.598205983638763428e-01
4.114726185798645020e-01 -5.066560506820678711e-01 -4.676936268806457520e-01
4.771628379821777344e-01 -5.001902580261230469e-01 -4.638313055038452148e-01
4.661373198032379150e-01 -4.843889176845550537e-01 -4.624792039394378662e-01
4.618813991546630859e-01 -4.878844022750854492e-01 -4.648293852806091309e-01
4.719323515892028809e-01 -5.397889614105224609e-01 -4.571373760700225830e-01
4.125304520130157471e-01 -5.245864391326904297e-01 -4.615866243839263916e-01
5.002959370613098145e-01 -5.140731930732727051e-01 -4.586387872695922852e-01
4.335586130619049072e-01 -5.315454006195068359e-01 -4.617461562156677246e-01
5.185544490814208984e-01 -5.082718729972839355e-01 -4.470446109771728516e-01
4.151481688022613525e-01 -5.160210728645324707e-01 -4.660545587539672852e-01
5.016890764236450195e-01 -5.252837538719177246e-01 -4.396165609359741211e-01
4.423955082893371582e-01 -5.332638621330261230e-01 -4.613318443298339844e-01
4.416494965553283691e-01 -5.419458746910095215e-01 -4.547710120677947998e-01
4.946651160717010498e-01 -5.334928631782531738e-01 -4.394669532775878906e-01
4.877233207225799561e-01 -5.096003413200378418e-01 -4.423208236694335938e-01
4.169393181800842285e-01 -4.960627257823944092e-01 -4.687984585762023926e-01
4.362922608852386475e-01 -5.402687788009643555e-01 -4.549658000469207764e-01
4.947297871112823486e-01 -5.078651309013366699e-01 -4.427754580974578857e-01
4.424370527267456055e-01 -5.195093750953674316e-01 -4.456782639026641846e-01
4.673212468624114990e-01 -5.383702516555786133e-01 -4.582059085369110107e-01
4.217690825462341309e-01 -5.048894882202148438e-01 -4.686181545257568359e-01
4.495145976543426514e-01 -5.441156029701232910e-01 -4.540098905563354492e-01
4.327619969844818115e-01 -5.157698392868041992e-01 -4.478755593299865723e-01
4.970317482948303223e-01 -5.002628564834594727e-01 -4.456838667392730713e-01
4.526522457599639893e-01 -4.854236543178558350e-01 -4.655581116676330566e-01
5.136178135871887207e-01 -5.238897204399108887e-01 -4.537120461463928223e-01
4.159259200096130371e-01 -5.006341338157653809e-01 -4.542464613914489746e-01
4.499842822551727295e-01 -5.045588612556457520e-01 -4.675575494766235352e-01
4.425800442695617676e-01 -4.862945973873138428e-01 -4.669917821884155273e-01
4.419787228107452393e-01 -5.110840797424316406e-01 -4.465814232826232910e-01
4.600661993026733398e-01 -4.907031655311584473e-01 -4.499577879905700684e-01
4.243487119674682617e-01 -5.332257747650146484e-01 -4.528109431266784668e-01
4.797128438949584961e-01 -5.235945582389831543e-01 -4.405307471752166748e-01
4.096265137195587158e-01 -4.916071295738220215e-01 -4.674096703529357910e-01
4.968673288822174072e-01 -5.209284424781799316e-01 -4.400754272937774658e-01
4.801498353481292725e-01 -5.419272780418395996e-01 -4.551525115966796875e-01
4.952978491783142090e-01 -4.957256019115447998e-01 -4.479494988918304443e-01
4.471603929996490479e-01 -5.356267690658569336e-01 -4.456472694873809814e-01
3.994837999343872070e-01 -5.005453228950500488e-01 -4.625490009784698486e-01
4.931359291076660156e-01 -5.203267335891723633e-01 -4.402042627334594727e-01
4.325972497463226318e-01 -5.347121357917785645e-01 -4.598067402839660645e-01
5.085318684577941895e-01 -5.150866508483886719e-01 -4.415628314018249512e-01
4.956158995628356934e-01 -5.484170317649841309e-01 -4.462284147739410400e-01
4.644156992435455322e-01 -4.944285750389099121e-01 -4.656182825565338135e-01
4.467304348945617676e-01 -5.053229928016662598e-01 -4.677816033363342285e-01
4.711024165153503418e-01 -5.127753019332885742e-01 -4.425763487815856934e-01
4.063017368316650391e-01 -5.144812464714050293e-01 -4.564509093761444092e-01
4.152300357818603516e-01 -5.250873565673828125e-01 -4.538993239402770996e-01
4.021194875240325928e-01 -4.957843124866485596e-01 -4.655835628509521484e-01
4.657170772552490234e-01 -5.004497766494750977e-01 -4.458985328674316406e-01
4.689362943172454834e-01 -5.301973223686218262e-01 -4.611130356788635254e-01
5.170165300369262695e-01 -5.297091007232666016e-01 -4.404769539833068848e-01
4.506728649139404297e-01 -5.194253325462341309e-01 -4.654602706432342529e-01
5.212608575820922852e-01 -5.147188305854797363e-01 -4.506143927574157715e-01
4.257260859012603760e-01 -4.940801262855529785e-01 -4.536325931549072266e-01
5.182959437370300293e-01 -5.259231925010681152e-01 -4.516034722328186035e-01
4.978891909122467041e-01 -5.033860206604003906e-01 -4.444194138050079346e-01
5.083330273628234863e-01 -5.098456144332885742e-01 -4.430599808692932129e-01
4.967608451843261719e-01 -4.918621778488159180e-01 -4.544189870357513428e-01
5.005376935005187988e-01 -5.055192112922668457e-01 -4.585256278514862061e-01
4.235500097274780273e-01 -4.896382391452789307e-01 -4.684113860130310059e-01
5.125662684440612793e-01 -5.370972156524658203e-01 -4.502630233764648438e-01
5.097070932388305664e-01 -4.998879432678222656e-01 -4.522499442100524902e-01
4.087107181549072266e-01 -5.039860010147094727e-01 -4.676629900932312012e-01
4.907174408435821533e-01 -5.029963254928588867e-01 -4.610334932804107666e-01
5.255351662635803223e-01 -5.253069996833801270e-01 -4.473790228366851807e-01
4.635393917560577393e-01 -5.473413467407226562e-01 -4.472000002861022949e-01
4.248940050601959229e-01 -5.190308690071105957e-01 -4.659948945045471191e-01
5.021508932113647461e-01 -5.313439965248107910e-01 -4.393571317195892334e-01
4.711534380912780762e-01 -5.447385311126708984e-01 -4.435781538486480713e-01
4.940730333328247070e-01 -4.923617243766784668e-01 -4.571931660175323486e-01
5.123180747032165527e-01 -5.218354463577270508e-01 -4.405809640884399414e-01
4.390404522418975830e-01 -4.991379976272583008e-01 -4.495211839675903320e-01
4.745294451713562012e-01 -5.150303244590759277e-01 -4.419254660606384277e-01
5.123308300971984863e-01 -5.058348774909973145e-01 -4.539768099784851074e-01
4.921129941940307617e-01 -5.362661480903625488e-01 -4.557912349700927734e-01
4.691466093063354492e-01 -4.901463091373443604e-01 -4.497952163219451904e-01
4.824376702308654785e-01 -4.992958307266235352e-01 -4.455321729183197021e-01
5.086345672607421875e-01 -5.412877202033996582e-01 -4.409396946430206299e-01
4.631049335002899170e-01 -4.892939031124114990e-01 -4.504643678665161133e-01
5.024511218070983887e-01 -5.335180759429931641e-01 -4.545488953590393066e-01
4.903481602668762207e-01 -5.137309432029724121e-01 -4.609616994857788086e-01
4.721154272556304932e-01 -4.938209950923919678e-01 -4.641660749912261963e-01
4.211085438728332520e-01 -5.295603871345520020e-01 -4.525634348392486572e-01
5.241557955741882324e-01 -5.203166604042053223e-01 -4.437873959541320801e-01
4.692149460315704346e-01 -5.258138775825500488e-01 -4.413955807685852051e-01
5.090521574020385742e-01 -5.312839746475219727e-01 -4.534840583801269531e-01
4.196882843971252441e-01 -5.105106234550476074e-01 -4.515517950057983398e-01
4.771275222301483154e-01 -5.187771320343017578e-01 -4.412040114402770996e-01
4.712426066398620605e-01 -5.334097146987915039e-01 -4.412527382373809814e-01
5.250916481018066406e-01 -5.290698409080505371e-01 -4.467747509479522705e-01
4.741889834403991699e-01 -5.017145276069641113e-01 -4.449635148048400879e-01
4.684279859066009521e-01 -5.031806826591491699e-01 -4.449082911014556885e-01
4.685215055942535400e-01 -4.880868792533874512e-01 -4.635745286941528320e-01
4.410655498504638672e-01 -5.179395675659179688e-01 -4.662877321243286133e-01
4.563232660293579102e-01 -5.082956552505493164e-01 -4.449338018894195557e-01
4.501539468765258789e-01 -4.933733344078063965e-01 -4.497909545898437500e-01
4.701374769210815430e-01 -5.153451561927795410e-01 -4.641960859298706055e-01
4.106969535350799561e-01 -5.005741715431213379e-01 -4.682101905345916748e-01
4.088908135890960693e-01 -5.176973938941955566e-01 -4.554564654827117920e-01
4.845138192176818848e-01 -5.135077238082885742e-01 -4.415803551673889160e-01
4.627872705459594727e-01 -5.145791172981262207e-01 -4.652153849601745605e-01
4.298254251480102539e-01 -4.910880327224731445e-01 -4.538784027099609375e-01
4.329171180725097656e-01 -4.823725223541259766e-01 -4.659585654735565186e-01
4.914976060390472412e-01 -5.076657533645629883e-01 -4.427926540374755859e-01
4.301030933856964111e-01 -5.088259577751159668e-01 -4.492046236991882324e-01
4.266985058784484863e-01 -4.821708202362060547e-01 -4.601977765560150146e-01
4.314413070678710938e-01 -5.384712815284729004e-01 -4.547266066074371338e-01
4.082377552986145020e-01 -5.136656761169433594e-01 -4.655720293521881104e-01
4.087630212306976318e-01 -4.950594007968902588e-01 -4.678152203559875488e-01
5.223807096481323242e-01 -5.277135968208312988e-01 -4.492446184158325195e-01
4.286881089210510254e-01 -5.197510719299316406e-01 -4.659352004528045654e-01
4.236763715744018555e-01 -5.114272832870483398e-01 -4.503935873508453369e-01
4.753640592098236084e-01 -5.140550136566162109e-01 -4.636107981204986572e-01
4.507458508014678955e-01 -5.118666887283325195e-01 -4.667699933052062988e-01
4.748320579528808594e-01 -5.197687149047851562e-01 -4.628530740737915039e-01
4.364430606365203857e-01 -4.921663403511047363e-01 -4.684666395187377930e-01
4.138089418411254883e-01 -5.069978833198547363e-01 -4.537205398082733154e-01
4.986948370933532715e-01 -5.298051834106445312e-01 -4.393662214279174805e-01
5.245283842086791992e-01 -5.309715270996093750e-01 -4.431681632995605469e-01
5.094004869461059570e-01 -5.067759752273559570e-01 -4.444121122360229492e-01
4.868933558464050293e-01 -5.072855353355407715e-01 -4.620046019554138184e-01
4.800199270248413086e-01 -4.908089935779571533e-01 -4.616362750530242920e-01
5.203356146812438965e-01 -5.367718935012817383e-01 -4.424518644809722900e-01
4.109997749328613281e-01 -5.146302580833435059e-01 -4.542422592639923096e-01
4.689492583274841309e-01 -4.941868782043457031e-01 -4.648162424564361572e-01
4.743721187114715576e-01 -4.895337522029876709e-01 -4.501231610774993896e-01
4.807039499282836914e-01 -5.484650135040283203e-01 -4.446834325790405273e-01
4.376005530357360840e-01 -5.208362936973571777e-01 -4.465961754322052002e-01
4.608161449432373047e-01 -5.333014130592346191e-01 -4.426871240139007568e-01
4.480782747268676758e-01 -4.978242516517639160e-01 -4.485470652580261230e-01
4.976902604103088379e-01 -5.107807517051696777e-01 -4.594427049160003662e-01
4.929112493991851807e-01 -5.240225791931152344e-01 -4.398010969161987305e-01
4.276143014430999756e-01 -5.058843493461608887e-01 -4.502219855785369873e-01
4.116690158843994141e-01 -5.247495174407958984e-01 -4.560914337635040283e-01
4.887727499008178711e-01 -5.449690222740173340e-01 -4.417663812637329102e-01
4.181714653968811035e-01 -4.973568022251129150e-01 -4.544702768325805664e-01
4.416522383689880371e-01 -5.371065735816955566e-01 -4.592422246932983398e-01
5.099604725837707520e-01 -5.331127047538757324e-01 -4.397071897983551025e-01
4.294813275337219238e-01 -4.936003088951110840e-01 -4.688631296157836914e-01
5.074602365493774414e-01 -5.236749649047851562e-01 -4.556453824043273926e-01
4.418632686138153076e-01 -4.897912740707397461e-01 -4.677912890911102295e-01
4.791920781135559082e-01 -5.179563760757446289e-01 -4.624937176704406738e-01
4.737494587898254395e-01 -4.889676570892333984e-01 -4.626550674438476562e-01
5.156743526458740234e-01 -5.327051281929016113e-01 -4.403248429298400879e-01
4.789679944515228271e-01 -5.280522108078002930e-01 -4.604699015617370605e-01
4.404428005218505859e-01 -4.947056472301483154e-01 -4.684070646762847900e-01
4.511029124259948730e-01 -5.325531363487243652e-01 -4.615690112113952637e-01
4.024773836135864258e-01 -5.079928636550903320e-01 -4.585059285163879395e-01
4.814897179603576660e-01 -5.027941465377807617e-01 -4.443473815917968750e-01
4.324533343315124512e-01 -5.339492559432983398e-01 -4.494427442550659180e-01
4.870510697364807129e-01 -5.208609700202941895e-01 -4.403441250324249268e-01
4.559075534343719482e-01 -5.243225097656250000e-01 -4.432001113891601562e-01
4.993721246719360352e-01 -5.395374298095703125e-01 -4.529430866241455078e-01
4.622907042503356934e-01 -5.428009033203125000e-01 -4.443946778774261475e-01
4.693260192871093750e-01 -4.833328723907470703e-01 -4.606266319751739502e-01
4.619105160236358643e-01 -5.073071122169494629e-01 -4.444999992847442627e-01
4.246245324611663818e-01 -5.011903047561645508e-01 -4.518536031246185303e-01
4.600120782852172852e-01 -5.177226066589355469e-01 -4.650064110755920410e-01
4.783874750137329102e-01 -4.861754775047302246e-01 -4.597366154193878174e-01
4.385294318199157715e-01 -4.942367374897003174e-01 -4.511134624481201172e-01
4.717216789722442627e-01 -5.266175270080566406e-01 -4.617951810359954834e-01
4.116709530353546143e-01 -5.103672146797180176e-01 -4.541016817092895508e-01
4.000416696071624756e-01 -5.103732943534851074e-01 -4.618144333362579346e-01
4.185803532600402832e-01 -5.269294977188110352e-01 -4.528213143348693848e-01
4.209128320217132568e-01 -4.834395051002502441e-01 -4.657560884952545166e-01
4.791752696037292480e-01 -4.946528077125549316e-01 -4.627991914749145508e-01
4.603852033615112305e-01 -4.866341352462768555e-01 -4.521002173423767090e-01
5.182242393493652344e-01 -5.200411677360534668e-01 -4.417912065982818604e-01
4.651232957839965820e-01 -5.400004982948303223e-01 -4.430273771286010742e-01
4.844617843627929688e-01 -4.904143512248992920e-01 -4.501555562019348145e-01
4.695620536804199219e-01 -5.065117478370666504e-01 -4.439768195152282715e-01
4.721533954143524170e-01 -4.990737736225128174e-01 -4.459175467491149902e-01
4.289219975471496582e-01 -5.244680643081665039e-01 -4.487735033035278320e-01
4.669211804866790771e-01 -5.124701857566833496e-01 -4.430114328861236572e-01
4.852649867534637451e-01 -5.459535717964172363e-01 -4.424370527267456055e-01
5.126250386238098145e-01 -5.024253129959106445e-01 -4.519056677818298340e-01
4.352000951766967773e-01 -4.976618885993957520e-01 -4.506012499332427979e-01
4.360639750957489014e-01 -5.367445945739746094e-01 -4.588838517665863037e-01
5.120697021484375000e-01 -5.115382671356201172e-01 -4.430262744426727295e-01
4.958283007144927979e-01 -5.460796356201171875e-01 -4.497019350528717041e-01
4.195525944232940674e-01 -4.904898703098297119e-01 -4.684088528156280518e-01
5.181702375411987305e-01 -5.316383242607116699e-01 -4.501957297325134277e-01
4.542364180088043213e-01 -5.037521123886108398e-01 -4.671843349933624268e-01
3.992177844047546387e-01 -5.071288943290710449e-01 -4.623475968837738037e-01
4.480770528316497803e-01 -5.395726561546325684e-01 -4.465437829494476318e-01
5.018823146820068359e-01 -5.471884608268737793e-01 -4.456266164779663086e-01
4.464730620384216309e-01 -4.831211268901824951e-01 -4.654293954372406006e-01
4.089902341365814209e-01 -5.232522487640380859e-01 -4.577387571334838867e-01
4.347416758537292480e-01 -5.014701485633850098e-01 -4.687454104423522949e-01
4.500194787979125977e-01 -5.008271932601928711e-01 -4.474386870861053467e-01
4.458653330802917480e-01 -4.956114888191223145e-01 -4.680179059505462646e-01
4.424228370189666748e-01 -5.056091547012329102e-01 -4.474420249462127686e-01
4.851074516773223877e-01 -5.022479891777038574e-01 -4.623011946678161621e-01
4.157263636589050293e-01 -5.212252140045166016e-01 -4.528260231018066406e-01
5.033661723136901855e-01 -5.119082927703857422e-01 -4.578880369663238525e-01
4.846790432929992676e-01 -5.411162376403808594e-01 -4.408850669860839844e-01
5.062564611434936523e-01 -5.226227045059204102e-01 -4.400311112403869629e-01
4.144262969493865967e-01 -4.848254323005676270e-01 -4.631579518318176270e-01
4.260722398757934570e-01 -5.357369780540466309e-01 -4.561306238174438477e-01
4.488767981529235840e-01 -5.366645455360412598e-01 -4.597536325454711914e-01
4.860777556896209717e-01 -5.350204110145568848e-01 -4.572838842868804932e-01
4.766815602779388428e-01 -5.089164972305297852e-01 -4.429301321506500244e-01
4.430260360240936279e-01 -4.795110821723937988e-01 -4.605810344219207764e-01
4.789286255836486816e-01 -5.097260475158691406e-01 -4.634259045124053955e-01
4.483686089515686035e-01 -4.844383597373962402e-01 -4.543940126895904541e-01
4.232646822929382324e-01 -4.862493276596069336e-01 -4.675468504428863525e-01
4.288194179534912109e-01 -4.805785417556762695e-01 -4.628692865371704102e-01
4.381345510482788086e-01 -5.409625172615051270e-01 -4.517164826393127441e-01
4.282032847404479980e-01 -4.960267543792724609e-01 -4.524550139904022217e-01
4.913102984428405762e-01 -5.468732118606567383e-01 -4.426771700382232666e-01
5.056515336036682129e-01 -5.458928346633911133e-01 -4.436061680316925049e-01
4.460186362266540527e-01 -4.898290336132049561e-01 -4.674209654331207275e-01
4.358643591403961182e-01 -4.866012632846832275e-01 -4.548434615135192871e-01
4.527167379856109619e-01 -5.072202682495117188e-01 -4.671094417572021484e-01
4.129920899868011475e-01 -4.974724054336547852e-01 -4.685195684432983398e-01
4.578085541725158691e-01 -5.101255774497985840e-01 -4.663186967372894287e-01
4.599634408950805664e-01 -5.024955272674560547e-01 -4.665660262107849121e-01
4.744716584682464600e-01 -4.840893447399139404e-01 -4.551139473915100098e-01
4.278919100761413574e-01 -5.198214054107666016e-01 -4.488847851753234863e-01
5.061546564102172852e-01 -5.125847458839416504e-01 -4.420042634010314941e-01
5.011274814605712891e-01 -5.305840969085693359e-01 -4.557344615459442139e-01
4.967848658561706543e-01 -5.408264994621276855e-01 -4.402646124362945557e-01
4.734318852424621582e-01 -4.927303194999694824e-01 -4.484120905399322510e-01
4.786527454853057861e-01 -5.494396686553955078e-01 -4.473386704921722412e-01
4.610850214958190918e-01 -5.083609819412231445e-01 -4.661189019680023193e-01
4.324733912944793701e-01 -5.062525272369384766e-01 -4.491271376609802246e-01
4.699662327766418457e-01 -5.200324654579162598e-01 -4.417014420032501221e-01
4.428806304931640625e-01 -5.070613622665405273e-01 -4.679059088230133057e-01
4.371661245822906494e-01 -4.978960156440734863e-01 -4.687053561210632324e-01
4.357382059097290039e-01 -5.086488127708435059e-01 -4.480831325054168701e-01
4.883173108100891113e-01 -4.964877963066101074e-01 -4.608255624771118164e-01
4.588651359081268311e-01 -5.284296870231628418e-01 -4.427335262298583984e-01
4.214679598808288574e-01 -5.214847922325134277e-01 -4.649737179279327393e-01
4.809648692607879639e-01 -5.395411849021911621e-01 -4.409002363681793213e-01
-3.016213476657867432e-01 9.422013759613037109e-01 3.858283162117004395e-03
-2.045035660266876221e-01 7.117484807968139648e-01 -1.239381730556488037e-03
-3.110142350196838379e-01 6.155207753181457520e-01 2.792437970638275146e-01
-2.298402786254882812e-01 5.802213549613952637e-01 -3.894282877445220947e-01
-3.261826634407043457e-01 5.652975440025329590e-01 2.066320478916168213e-01
-3.451128602027893066e-01 6.972928047180175781e-01 -1.034268438816070557e-01
-3.487190604209899902e-01 7.140892744064331055e-01 4.527631402015686035e-02
-3.012047708034515381e-01 7.296331524848937988e-01 2.805255055427551270e-01
-2.630631625652313232e-01 8.856574296951293945e-01 1.141115128993988037e-01
-2.287658900022506714e-01 8.872989416122436523e-01 -1.443151533603668213e-01
-3.247853815555572510e-01 5.095409154891967773e-01 -1.093072444200515747e-01
-2.547096610069274902e-01 5.197083950042724609e-01 2.404564023017883301e-01
-2.129763215780258179e-01 7.685032486915588379e-01 -3.170135617256164551e-01
-2.357779592275619507e-01 4.425859451293945312e-01 -2.598176598548889160e-01
-2.102702856063842773e-01 4.601148962974548340e-01 -1.084939837455749512e-01
-3.481537997722625732e-01 7.033067345619201660e-01 -4.384465515613555908e-02
-3.402120471000671387e-01 7.539764046669006348e-01 -1.586546599864959717e-01
-1.967261731624603271e-01 5.869957208633422852e-01 -6.815658509731292725e-02
-1.962824165821075439e-01 6.110403537750244141e-01 -6.690544635057449341e-02
-1.991153508424758911e-01 5.624386072158813477e-01 -4.166492819786071777e-02
-3.230646550655364990e-01 5.304932594299316406e-01 1.881267130374908447e-01
-2.798720598220825195e-01 6.740185618400573730e-01 2.956694066524505615e-01
-3.396173119544982910e-01 8.330343961715698242e-01 3.992585092782974243e-02
-2.222024202346801758e-01 8.476983308792114258e-01 -4.375807195901870728e-02
-2.981341481208801270e-01 8.047979474067687988e-01 -3.592534363269805908e-01
-3.140068650245666504e-01 4.500035643577575684e-01 -4.155970364809036255e-02
-3.330011963844299316e-01 6.925337314605712891e-01 -2.212881892919540405e-01
-3.311744034290313721e-01 8.739537000656127930e-01 3.851025551557540894e-02
-2.168082594871520996e-01 6.199542284011840820e-01 -3.716025054454803467e-01
-3.117184638977050781e-01 9.304642677307128906e-01 -1.317574083805084229e-01
-2.224662452936172485e-01 7.373325228691101074e-01 -3.831934034824371338e-01
-2.748304605484008789e-01 5.561286807060241699e-01 2.823629677295684814e-01
-3.189923763275146484e-01 7.871627211570739746e-01 2.232381701469421387e-01
-3.461571633815765381e-01 6.485351324081420898e-01 -4.993826150894165039e-02
-2.001665234565734863e-01 7.018902897834777832e-01 -4.845628887414932251e-02
-3.094810247421264648e-01 8.418830633163452148e-01 -2.998586297035217285e-01
-2.374614924192428589e-01 8.948574066162109375e-01 -3.230626136064529419e-02
-2.349352538585662842e-01 4.849077761173248291e-01 1.613935530185699463e-01
-2.099900692701339722e-01 6.576734185218811035e-01 7.881797850131988525e-02
-2.120850831270217896e-01 4.600166976451873779e-01 -3.640914708375930786e-02
-3.434320986270904541e-01 7.568833827972412109e-01 1.154894977807998657e-01
-3.285753726959228516e-01 8.097278475761413574e-01 -2.251017242670059204e-01
-2.031064331531524658e-01 5.036911964416503906e-01 -1.624366641044616699e-01
-2.377079576253890991e-01 5.840479731559753418e-01 2.180668115615844727e-01
-2.552904784679412842e-01 8.247787356376647949e-01 -3.944890499114990234e-01
-3.365617394447326660e-01 8.589473962783813477e-01 -2.724091708660125732e-02
-2.147358208894729614e-01 6.864475607872009277e-01 1.001835316419601440e-01
-2.491954416036605835e-01 3.783947825431823730e-01 -5.357800424098968506e-02
-2.511781752109527588e-01 4.840269982814788818e-01 2.093795239925384521e-01
-2.241509407758712769e-01 7.964259982109069824e-01 6.849040091037750244e-02
-1.972275972366333008e-01 6.272148489952087402e-01 -4.796949028968811035e-02
-3.268193602561950684e-01 6.472297906875610352e-01 -2.466539293527603149e-01
-3.151277005672454834e-01 7.765522599220275879e-01 -3.122835159301757812e-01
-2.826644480228424072e-01 9.602613449096679688e-01 -1.201661229133605957e-01
-3.469116091728210449e-01 6.582252383232116699e-01 7.879605889320373535e-02
-3.347700834274291992e-01 8.646972179412841797e-01 -6.904635578393936157e-02
-2.528997361660003662e-01 9.220021963119506836e-01 -8.123654872179031372e-03
-2.249454259872436523e-01 4.136227667331695557e-01 -1.061681956052780151e-01
-1.951973438262939453e-01 6.101465225219726562e-01 -9.676893055438995361e-02
-3.276360332965850830e-01 5.026279091835021973e-01 8.800777792930603027e-02
-3.234699070453643799e-01 9.082916378974914551e-01 -7.898063212633132935e-02
-2.284148037433624268e-01 5.189648866653442383e-01 -3.438100218772888184e-01
-2.894152700901031494e-01 5.274513363838195801e-01 -3.210187852382659912e-01
-2.443734407424926758e-01 9.037941098213195801e-01 -2.662883102893829346e-01
-3.375386893749237061e-01 8.056719303131103516e-01 1.204947084188461304e-01
-2.105031609535217285e-01 4.715898931026458740e-01 -1.852351725101470947e-01
-3.162393569946289062e-01 4.651297926902770996e-01 -7.953926920890808105e-02
-2.675902247428894043e-01 7.861826419830322266e-01 2.332257628440856934e-01
-2.705193459987640381e-01 3.901323080062866211e-01 8.313986659049987793e-02
-2.637164294719696045e-01 6.770963668823242188e-01 2.768477201461791992e-01
-2.095302790403366089e-01 4.845251441001892090e-01 -2.095881253480911255e-01
-2.310969382524490356e-01 4.020504653453826904e-01 -3.019558638334274292e-02
-1.948391050100326538e-01 6.464861631393432617e-01 -1.828109622001647949e-01
-2.216489166021347046e-01 7.018795013427734375e-01 1.333063691854476929e-01
-2.507094442844390869e-01 8.543863892555236816e-01 1.225157976150512695e-01
-3.428643345832824707e-01 6.383158564567565918e-01 1.317265480756759644e-01
-2.139939963817596436e-01 7.156543731689453125e-01 7.831792533397674561e-02
-3.301744163036346436e-01 7.028889656066894531e-01 -2.420597523450851440e-01
-3.368837833404541016e-01 5.913466215133666992e-01 1.553151607513427734e-01
-3.440796434879302979e-01 7.386397719383239746e-01 -1.176308095455169678e-01
-3.149838447570800781e-01 9.221546053886413574e-01 1.646197587251663208e-02
-3.050594031810760498e-01 5.767989754676818848e-01 -3.098877072334289551e-01
-3.439942896366119385e-01 6.220456361770629883e-01 -5.787615850567817688e-02
-3.400465250015258789e-01 8.091912269592285156e-01 8.995270729064941406e-02
-1.994316130876541138e-01 7.312847971916198730e-01 -1.890770494937896729e-01
-2.106415778398513794e-01 7.598553895950317383e-01 7.973164319992065430e-03
-3.298414349555969238e-01 8.813524246215820312e-01 -1.018858104944229126e-01
-3.252336084842681885e-01 6.676896214485168457e-01 2.479369342327117920e-01
-2.468404024839401245e-01 9.224025011062622070e-01 -2.147192656993865967e-01
-3.198854327201843262e-01 8.672463893890380859e-01 1.323221474885940552e-01
-3.285484015941619873e-01 4.997449517250061035e-01 4.521496593952178955e-03
-2.815214693546295166e-01 7.704141139984130859e-01 2.601945102214813232e-01
-3.368197679519653320e-01 7.372590303421020508e-01 1.816509217023849487e-01
-2.204546481370925903e-01 8.507011532783508301e-01 -8.033021539449691772e-02
-3.308880329132080078e-01 8.512154817581176758e-01 -1.624037027359008789e-01
-2.178950905799865723e-01 4.406476318836212158e-01 -1.655859053134918213e-01
-2.915126085281372070e-01 6.415618658065795898e-01 -3.838653564453125000e-01
-3.339409828186035156e-01 6.667754054069519043e-01 2.105366885662078857e-01
-3.456839919090270996e-01 7.903035879135131836e-01 -1.089916005730628967e-02
-2.046961039304733276e-01 7.764899730682373047e-01 -1.291031241416931152e-01
-2.332537174224853516e-01 3.967432379722595215e-01 -8.879989385604858398e-02
-3.003506958484649658e-01 9.020557403564453125e-01 -2.652542591094970703e-01
-3.383527994155883789e-01 7.001978158950805664e-01 -1.801828145980834961e-01
-3.489311635494232178e-01 7.236191630363464355e-01 2.144490927457809448e-02
-2.083506584167480469e-01 6.916810274124145508e-01 -3.349064290523529053e-01
-2.747294008731842041e-01 4.191817045211791992e-01 -2.060955166816711426e-01
-2.856665849685668945e-01 4.990354180335998535e-01 -3.023349940776824951e-01
-2.836738824844360352e-01 3.868908882141113281e-01 4.047609865665435791e-03
-2.626794874668121338e-01 4.505736231803894043e-01 -2.830596566200256348e-01
-2.160637080669403076e-01 4.377229213714599609e-01 -8.944355696439743042e-02
-2.830190658569335938e-01 8.036978244781494141e-01 2.381940484046936035e-01
-3.476575613021850586e-01 7.222537994384765625e-01 7.416810095310211182e-02
-2.688680887222290039e-01 5.180712342262268066e-01 -3.539587557315826416e-01
-3.434836566448211670e-01 6.176657080650329590e-01 1.016897857189178467e-01
-2.129116952419281006e-01 8.255079984664916992e-01 -1.350066959857940674e-01
-2.012255489826202393e-01 7.500891089439392090e-01 -1.371709108352661133e-01
-3.316648006439208984e-01 8.408672213554382324e-01 1.135060340166091919e-01
-2.093790024518966675e-01 5.274409055709838867e-01 4.922420531511306763e-02
-2.785446643829345703e-01 8.267615437507629395e-01 -3.852275013923645020e-01
-3.051262199878692627e-01 6.200187206268310547e-01 -3.350934684276580811e-01
-2.976336479187011719e-01 6.194456815719604492e-01 -3.590961694717407227e-01
-2.154940366744995117e-01 8.256757259368896484e-01 -2.421958297491073608e-01
-2.837905883789062500e-01 9.268450140953063965e-01 -2.614557743072509766e-01
-2.108560800552368164e-01 7.437315583229064941e-01 -3.244569599628448486e-01
-2.159405499696731567e-01 6.629747748374938965e-01 1.167162805795669556e-01
-2.847890853881835938e-01 5.227078199386596680e-01 2.688001394271850586e-01
-2.009415626525878906e-01 5.175347328186035156e-01 -9.025897830724716187e-02
-2.258603423833847046e-01 5.617137551307678223e-01 1.672415137290954590e-01
-3.122485578060150146e-01 4.703017473220825195e-01 -1.353884637355804443e-01
-2.985234260559082031e-01 5.539560317993164062e-01 -3.159632682800292969e-01
-3.161669373512268066e-01 9.257652759552001953e-01 -9.785810112953186035e-02
-2.924989461898803711e-01 5.820915102958679199e-01 -3.540130853652954102e-01
-3.463008999824523926e-01 7.411434650421142578e-01 8.833976089954376221e-02
-3.162477910518646240e-01 8.076941370964050293e-01 2.135772407054901123e-01
-2.521611452102661133e-01 4.117572307586669922e-01 1.185536086559295654e-01
-2.080968171358108521e-01 6.517243385314941406e-01 -3.381478786468505859e-01
-2.317565232515335083e-01 8.924583196640014648e-01 -9.657689929008483887e-02
-2.276414483785629272e-01 6.536306142807006836e-01 1.788294017314910889e-01
-3.460930287837982178e-01 6.249797940254211426e-01 2.226265519857406616e-02
-3.431665897369384766e-01 5.959842205047607422e-01 -1.215770095586776733e-02
-3.178806304931640625e-01 6.726757287979125977e-01 -3.027891218662261963e-01
-2.445192337036132812e-01 6.148118376731872559e-01 2.414076626300811768e-01
-2.377637922763824463e-01 5.525795221328735352e-01 2.104135453701019287e-01
-2.182834148406982422e-01 8.469083309173583984e-01 -1.081783771514892578e-01
-2.353318184614181519e-01 6.386837363243103027e-01 2.113773524761199951e-01
-1.989637911319732666e-01 6.193171143531799316e-01 -2.615145444869995117e-01
-2.505579590797424316e-01 6.656513214111328125e-01 2.525101900100708008e-01
-2.245215028524398804e-01 5.227395296096801758e-01 1.436191946268081665e-01
-2.653617262840270996e-01 8.108143210411071777e-01 2.095373868942260742e-01
-2.542169392108917236e-01 7.939461469650268555e-01 1.983467340469360352e-01
-2.086238861083984375e-01 7.937922477722167969e-01 -2.277353554964065552e-01
-1.949552744626998901e-01 5.949932336807250977e-01 -1.565610766410827637e-01
-3.405798077583312988e-01 7.151010036468505859e-01 -1.606811881065368652e-01
-3.450796306133270264e-01 6.255334019660949707e-01 7.958899438381195068e-02
-3.385770618915557861e-01 5.704017877578735352e-01 1.023646593093872070e-01
-2.609525918960571289e-01 4.618338346481323242e-01 2.070256769657135010e-01
-2.798362970352172852e-01 7.003468871116638184e-01 -4.172562956809997559e-01
-3.115052580833435059e-01 5.026459097862243652e-01 -2.020635455846786499e-01
-2.361634224653244019e-01 8.989804983139038086e-01 -2.249161899089813232e-01
-3.462937474250793457e-01 6.350713968276977539e-01 -1.976203545928001404e-02
-2.971360385417938232e-01 4.069584608078002930e-01 -2.417376264929771423e-02
-2.478301227092742920e-01 6.417800188064575195e-01 2.491902112960815430e-01
-2.967450022697448730e-01 7.647811770439147949e-01 -3.768337965011596680e-01
-2.156312912702560425e-01 8.028736710548400879e-01 -2.929898500442504883e-01
-2.047625333070755005e-01 5.188318490982055664e-01 -8.782863616943359375e-03
-3.162367939949035645e-01 7.200267910957336426e-01 -3.162126541137695312e-01
-1.994774192571640015e-01 6.769107580184936523e-01 -2.641472816467285156e-01
-2.555298209190368652e-01 9.432788491249084473e-01 -1.383809745311737061e-01
-3.350864052772521973e-01 5.365411043167114258e-01 -1.849617436528205872e-02
-2.150309085845947266e-01 5.222463607788085938e-01 8.855533599853515625e-02
-2.718684673309326172e-01 3.833119869232177734e-01 5.063932389020919800e-02
-3.050663173198699951e-01 4.600368738174438477e-01 -1.638569235801696777e-01
-2.213997691869735718e-01 4.249434769153594971e-01 -3.746527060866355896e-02
-3.079987168312072754e-01 5.439878106117248535e-01 -2.702893614768981934e-01
-3.328771293163299561e-01 6.653804183006286621e-01 -2.141329199075698853e-01
-2.030927836894989014e-01 7.239757776260375977e-01 -3.225913643836975098e-02
-3.380164504051208496e-01 7.802436351776123047e-01 -1.681545972824096680e-01
-3.439908921718597412e-01 8.055877685546875000e-01 -3.653704375028610229e-02
-3.253225386142730713e-01 6.359927058219909668e-01 2.445061802864074707e-01
-2.251484394073486328e-01 8.486571311950683594e-01 -2.824358344078063965e-01
-2.005167901515960693e-01 5.191142559051513672e-01 -1.426372826099395752e-01
-2.491095364093780518e-01 8.658447265625000000e-01 9.954941272735595703e-02
-1.984493732452392578e-01 5.885283946990966797e-01 -3.440720215439796448e-02
-3.302630484104156494e-01 5.164528489112854004e-01 -5.001848936080932617e-02
-2.971745431423187256e-01 9.320048093795776367e-01 5.313686281442642212e-02
-2.056724429130554199e-01 7.671136856079101562e-01 -6.863788515329360962e-02
-2.984390854835510254e-01 4.362486898899078369e-01 1.463641375303268433e-01
-1.975144594907760620e-01 6.605359315872192383e-01 -5.554356798529624939e-02
-3.431870937347412109e-01 8.150956034660339355e-01 -6.187904626131057739e-03
-3.389880657196044922e-01 8.415729999542236328e-01 -5.997566506266593933e-02
-3.082193136215209961e-01 4.369918107986450195e-01 -6.353490054607391357e-02
-2.250749468803405762e-01 7.018159627914428711e-01 -4.009521603584289551e-01
-3.402031064033508301e-01 8.346580266952514648e-01 1.612844318151473999e-02
-2.137991338968276978e-01 6.546818614006042480e-01 -3.659869730472564697e-01
-3.202538192272186279e-01 8.531904220581054688e-01 1.523405313491821289e-01
-3.249012529850006104e-01 9.053620100021362305e-01 -3.654668480157852173e-02
-3.317657411098480225e-01 5.776455402374267578e-01 -1.562679111957550049e-01
-3.479774892330169678e-01 7.445247173309326172e-01 -3.323545679450035095e-02
-2.897709906101226807e-01 9.236992597579956055e-01 8.019010722637176514e-02
-3.257622420787811279e-01 7.391021251678466797e-01 2.310954034328460693e-01
-2.675139904022216797e-01 7.557846903800964355e-01 -4.252650141716003418e-01
-2.939979732036590576e-01 5.726643204689025879e-01 2.885397970676422119e-01
-3.101983070373535156e-01 5.276651382446289062e-01 -2.424638569355010986e-01
-2.268458902835845947e-01 5.947415232658386230e-01 1.783242225646972656e-01
-3.217382729053497314e-01 6.923137903213500977e-01 -2.883659601211547852e-01
-3.348488509654998779e-01 5.351030826568603516e-01 6.614759564399719238e-02
-2.299297302961349487e-01 8.787029981613159180e-01 -5.442785471677780151e-02
-1.957766264677047729e-01 6.489826440811157227e-01 -2.126884162425994873e-01
-3.445388376712799072e-01 6.068342328071594238e-01 8.956402540206909180e-03
-2.040606141090393066e-01 7.284515500068664551e-01 -2.803347110748291016e-01
-3.194525539875030518e-01 4.866424202919006348e-01 -1.097550764679908752e-01
-3.452786505222320557e-01 7.532527446746826172e-01 -9.287713468074798584e-02
-2.531127631664276123e-01 7.004976868629455566e-01 2.491804659366607666e-01
-2.405843436717987061e-01 6.570164561271667480e-01 2.262875437736511230e-01
-3.412437140941619873e-01 8.188236951828002930e-01 -7.936873286962509155e-02
-3.384858965873718262e-01 7.064924836158752441e-01 1.811292171478271484e-01
-1.995568871498107910e-01 7.189304828643798828e-01 -2.259787619113922119e-01
-2.446924149990081787e-01 8.307255506515502930e-01 1.306435167789459229e-01
-3.211870193481445312e-01 5.780237913131713867e-01 -2.339852452278137207e-01
-2.996626198291778564e-01 8.277005553245544434e-01 2.186275422573089600e-01
-2.970511913299560547e-01 4.628576338291168213e-01 1.990386247634887695e-01
-2.570561170578002930e-01 5.567947626113891602e-01 2.605774700641632080e-01
-3.196478784084320068e-01 5.087411403656005859e-01 1.783109456300735474e-01
-3.206301033496856689e-01 8.259261846542358398e-01 1.844916343688964844e-01
-3.311407566070556641e-01 5.143996477127075195e-01 -1.655056700110435486e-02
-2.331968992948532104e-01 4.122890233993530273e-01 3.898508846759796143e-02
-2.165159583091735840e-01 5.881468653678894043e-01 -3.585324883460998535e-01
-2.845382988452911377e-01 9.574574232101440430e-01 -1.506887674331665039e-01
-2.338828444480895996e-01 8.784333467483520508e-01 -1.290364563465118408e-02
-3.077709972858428955e-01 5.568403005599975586e-01 2.636287808418273926e-01
-2.169556617736816406e-01 7.569187879562377930e-01 6.424565613269805908e-02
-2.004578858613967896e-01 5.254361033439636230e-01 -1.722691357135772705e-01
-3.307080268859863281e-01 8.851349949836730957e-01 -4.997634142637252808e-02
-2.892908155918121338e-01 4.190407395362854004e-01 -1.525394022464752197e-01
-2.942669093608856201e-01 8.981711864471435547e-01 -2.892332673072814941e-01
-2.622764706611633301e-01 5.396334528923034668e-01 -3.782619833946228027e-01
-3.076995015144348145e-01 8.469330072402954102e-01 1.903916299343109131e-01
-2.816319167613983154e-01 7.310564517974853516e-01 -4.135587513446807861e-01
-2.120597660541534424e-01 8.158047199249267578e-01 -2.171098440885543823e-01
-3.289875388145446777e-01 7.330423593521118164e-01 -2.502408027648925781e-01
-3.348796963691711426e-01 7.748708128929138184e-01 -1.987650394439697266e-01
-3.140972852706909180e-01 9.162096977233886719e-01 4.621385782957077026e-02
-2.212628126144409180e-01 7.364982962608337402e-01 1.097071468830108643e-01
-3.412862420082092285e-01 5.762614607810974121e-01 8.212111890316009521e-03
-2.549524605274200439e-01 5.792918205261230469e-01 2.623831629753112793e-01
-2.349482476711273193e-01 7.184522747993469238e-01 1.857015192508697510e-01
-2.438547760248184204e-01 8.780513405799865723e-01 -3.185609579086303711e-01
-2.776288092136383057e-01 9.022923111915588379e-01 -3.120311498641967773e-01
-2.110516279935836792e-01 4.581170380115509033e-01 -7.393558323383331299e-02
-3.397125601768493652e-01 5.931155681610107422e-01 1.257177293300628662e-01
-3.258762359619140625e-01 7.142451405525207520e-01 2.394041121006011963e-01
-2.287134975194931030e-01 6.812232136726379395e-01 1.759648919105529785e-01
-3.361987471580505371e-01 6.057556271553039551e-01 -1.456200182437896729e-01
-3.077859580516815186e-01 4.420135021209716797e-01 -9.125170856714248657e-02
-2.782361209392547607e-01 8.809593319892883301e-01 -3.391519188880920410e-01
-3.177551031112670898e-01 4.971305131912231445e-01 -1.493169069290161133e-01
-3.200570940971374512e-01 4.664943218231201172e-01 4.770865291357040405e-02
-2.046638578176498413e-01 5.777985453605651855e-01 -2.923373579978942871e-01
-2.178073376417160034e-01 8.469135165214538574e-01 -1.881924122571945190e-01
-2.885712385177612305e-01 3.961603343486785889e-01 -6.033632159233093262e-02
-2.836421728134155273e-01 9.114416241645812988e-01 1.043405532836914062e-01
-3.399234414100646973e-01 6.770330667495727539e-01 -1.590248197317123413e-01
-2.522041201591491699e-01 8.128428459167480469e-01 1.756821572780609131e-01
-2.838674783706665039e-01 9.498740434646606445e-01 -1.944779753684997559e-01
-2.706171870231628418e-01 5.076410174369812012e-01 2.552296519279479980e-01
-2.104164212942123413e-01 8.126233816146850586e-01 -1.824728995561599731e-01
-3.048285543918609619e-01 7.629086971282958984e-01 -3.539650738239288330e-01
-2.340316325426101685e-01 3.999353051185607910e-01 -4.974402487277984619e-03
-2.165338993072509766e-01 6.193600296974182129e-01 1.276184022426605225e-01
-3.466365933418273926e-01 7.334066629409790039e-01 -7.727578282356262207e-02
-2.155981510877609253e-01 8.135377168655395508e-01 -3.330253437161445618e-02
-3.417106270790100098e-01 6.973581314086914062e-01 -1.465697586536407471e-01
-3.302861750125885010e-01 5.079960227012634277e-01 4.188495874404907227e-02
-3.006685674190521240e-01 8.487406969070434570e-01 -3.246130645275115967e-01
-2.699376940727233887e-01 8.819887042045593262e-01 1.358195692300796509e-01
-3.430681228637695312e-01 6.504927873611450195e-01 -1.072221249341964722e-01
-1.991591304540634155e-01 6.236965656280517578e-01 -1.799854263663291931e-02
-2.649492621421813965e-01 9.101651906967163086e-01 7.343372702598571777e-02
-2.009161710739135742e-01 5.607964396476745605e-01 -1.510553061962127686e-02
-2.076986134052276611e-01 7.139131426811218262e-01 -3.218659162521362305e-01
-2.834038138389587402e-01 4.496394693851470947e-01 -2.409492880105972290e-01
-3.300237357616424561e-01 5.517466664314270020e-01 -1.365172863006591797e-01
-2.819407582283020020e-01 5.781264901161193848e-01 -3.763535022735595703e-01
-3.363083600997924805e-01 5.774125456809997559e-01 -1.072541177272796631e-01
-2.969095408916473389e-01 5.125238299369812012e-01 -2.821793556213378906e-01
-2.316497415304183960e-01 4.704699516296386719e-01 -2.954447567462921143e-01
-2.805907428264617920e-01 5.403252840042114258e-01 -3.531270027160644531e-01
-1.960721164941787720e-01 6.723650693893432617e-01 -1.001196354627609253e-01
-2.551632523536682129e-01 3.785598874092102051e-01 1.110083609819412231e-02
-2.808946073055267334e-01 4.294844269752502441e-01 1.720832735300064087e-01
-3.154211640357971191e-01 6.065145730972290039e-01 -2.856410741806030273e-01
-2.003799974918365479e-01 5.884870886802673340e-01 -6.923384964466094971e-03
-2.339764088392257690e-01 7.829741239547729492e-01 1.362054198980331421e-01
-3.362862169742584229e-01 8.176661729812622070e-01 -1.534659564495086670e-01
-3.078127801418304443e-01 6.011729240417480469e-01 -3.151152133941650391e-01
-3.120354115962982178e-01 4.452203214168548584e-01 7.460190355777740479e-02
-3.174004554748535156e-01 6.036557555198669434e-01 2.612406313419342041e-01
-3.318248987197875977e-01 6.055554151535034180e-01 2.034470736980438232e-01
-2.362144291400909424e-01 8.121997714042663574e-01 -3.766097724437713623e-01
