-8.941296339035034180e-01 -9.073720872402191162e-02 2.684047520160675049e-01
-9.248617291450500488e-01 -4.092211648821830750e-02 2.419439554214477539e-01
-9.035345315933227539e-01 1.376090198755264282e-02 3.002711236476898193e-01
-8.860531449317932129e-01 -1.001591980457305908e-01 2.821859121322631836e-01
-9.398866295814514160e-01 -5.434729903936386108e-02 2.596470415592193604e-01
-9.430806636810302734e-01 -5.332724750041961670e-02 2.520145475864410400e-01
-9.055795073509216309e-01 -5.108288675546646118e-02 3.112956583499908447e-01
-9.058188199996948242e-01 -1.365213096141815186e-01 2.589213252067565918e-01
-8.747329711914062500e-01 -3.379730135202407837e-02 3.389102816581726074e-01
-8.822180628776550293e-01 1.806773245334625244e-03 3.084119558334350586e-01
-9.082384109497070312e-01 -8.110730350017547607e-02 3.038831055164337158e-01
-8.882297873497009277e-01 -1.091177910566329956e-01 2.798829376697540283e-01
-9.309526681900024414e-01 -1.310169994831085205e-01 2.283976078033447266e-01
-8.792055249214172363e-01 -5.073445290327072144e-02 2.948973774909973145e-01
-9.368510246276855469e-01 -1.194967478513717651e-01 2.543559074401855469e-01
-9.243721365928649902e-01 -1.198685169219970703e-01 2.323506921529769897e-01
-8.998289108276367188e-01 -6.420303881168365479e-02 3.159644305706024170e-01
-8.739379644393920898e-01 -5.014222860336303711e-02 3.047456741333007812e-01
-9.137150645256042480e-01 -1.009118556976318359e-02 2.638310790061950684e-01
-8.832851648330688477e-01 -8.749015629291534424e-02 2.858863472938537598e-01
-8.801347613334655762e-01 -3.647868335247039795e-02 3.359723091125488281e-01
-9.084459543228149414e-01 -4.309035837650299072e-02 2.565201818943023682e-01
-9.506232738494873047e-01 -8.739343285560607910e-02 2.307062447071075439e-01
-9.407984614372253418e-01 -1.335343420505523682e-01 2.380707263946533203e-01
-8.748736977577209473e-01 -9.755677729845046997e-02 3.086329400539398193e-01
-9.354184269905090332e-01 -2.169192582368850708e-02 2.580716609954833984e-01
-9.053527712821960449e-01 -1.235606372356414795e-01 2.553497850894927979e-01
-9.243910312652587891e-01 -7.574996352195739746e-02 2.844580411911010742e-01
-8.786507844924926758e-01 -4.797052592039108276e-02 3.357700705528259277e-01
-9.116487503051757812e-01 -2.477000281214714050e-02 3.040072619915008545e-01
-8.931179046630859375e-01 -8.574844896793365479e-02 3.175866901874542236e-01
-8.725064992904663086e-01 -7.489217817783355713e-02 3.310256302356719971e-01
-8.669970035552978516e-01 -4.663407057523727417e-02 3.372040987014770508e-01
-9.174522757530212402e-01 -1.099305152893066406e-01 2.388321161270141602e-01
-8.918804526329040527e-01 -1.005040556192398071e-01 2.722987830638885498e-01
-9.082667827606201172e-01 -5.232378840446472168e-02 2.545356750488281250e-01
-9.351401925086975098e-01 -4.317840188741683960e-02 2.352835834026336670e-01
-8.874187469482421875e-01 -1.210194379091262817e-01 2.864988148212432861e-01
-9.385578036308288574e-01 -3.436440229415893555e-02 2.580314576625823975e-01
-9.229118824005126953e-01 -6.161785125732421875e-02 2.379110604524612427e-01
-8.988215923309326172e-01 -1.033023297786712646e-01 3.071591258049011230e-01
-9.265813827514648438e-01 -1.025879085063934326e-01 2.757811844348907471e-01
-9.380505681037902832e-01 -4.855929687619209290e-02 2.629224658012390137e-01
-9.270451664924621582e-01 -1.963182166218757629e-02 2.788192629814147949e-01
-8.809800148010253906e-01 -8.373067528009414673e-02 2.898969054222106934e-01
-8.713827133178710938e-01 -6.005458161234855652e-02 3.358716368675231934e-01
-8.927512168884277344e-01 -1.070161759853363037e-01 3.103934824466705322e-01
-8.996687531471252441e-01 -1.366081088781356812e-01 2.700039744377136230e-01
-9.005221724510192871e-01 -8.521604537963867188e-02 2.595855891704559326e-01
-9.228853583335876465e-01 -2.869546785950660706e-02 2.879681289196014404e-01
-8.872050046920776367e-01 -7.894028723239898682e-02 3.239935040473937988e-01
-8.967573642730712891e-01 -1.861612498760223389e-02 2.776562869548797607e-01
-9.456977844238281250e-01 -1.012949198484420776e-01 2.432275116443634033e-01
-9.273856878280639648e-01 -7.486086338758468628e-02 2.802538871765136719e-01
-9.121972322463989258e-01 -8.317148685455322266e-02 2.454525232315063477e-01
-9.113485217094421387e-01 -7.034156471490859985e-03 3.014802932739257812e-01
-9.261996746063232422e-01 -1.444326341152191162e-01 2.377707958221435547e-01
-9.175439476966857910e-01 -5.700439214706420898e-05 2.686962485313415527e-01
-8.900486826896667480e-01 -9.157203882932662964e-02 2.746724486351013184e-01
-8.888649940490722656e-01 -3.728319704532623291e-02 2.824575603008270264e-01
-8.866679072380065918e-01 -1.233001500368118286e-01 2.912572026252746582e-01
-8.856129646301269531e-01 -3.628090769052505493e-02 3.320454657077789307e-01
-9.094519019126892090e-01 -3.167753294110298157e-02 3.072389066219329834e-01
-9.230977892875671387e-01 -1.079058125615119934e-01 2.789671719074249268e-01
-9.265166521072387695e-01 -1.020549535751342773e-01 2.297440469264984131e-01
-8.816727399826049805e-01 -6.985753029584884644e-02 2.886922955513000488e-01
-9.218646883964538574e-01 -3.952960669994354248e-02 2.903574109077453613e-01
-9.258837699890136719e-01 -4.052377119660377502e-02 2.841951549053192139e-01
-8.993421792984008789e-01 -9.651741385459899902e-02 2.609954476356506348e-01
-8.852906823158264160e-01 -1.074224710464477539e-04 3.019944131374359131e-01
-9.314661622047424316e-01 -1.494789123535156250e-02 2.550650537014007568e-01
-8.975855708122253418e-01 -4.387995600700378418e-02 2.691353857517242432e-01
-8.723390698432922363e-01 -8.954304456710815430e-02 3.128460347652435303e-01
-8.792275190353393555e-01 -7.582035660743713379e-02 3.295142948627471924e-01
-8.686783313751220703e-01 -7.431665062904357910e-02 3.196196258068084717e-01
-8.984394073486328125e-01 -1.323301196098327637e-01 2.919378876686096191e-01
-8.764483928680419922e-01 -4.988199472427368164e-02 2.999573647975921631e-01
-8.793748021125793457e-01 -4.229734092950820923e-02 3.359920680522918701e-01
-8.953441977500915527e-01 -1.157470792531967163e-01 2.689335048198699951e-01
-9.196569323539733887e-01 -1.493727713823318481e-01 2.492974400520324707e-01
-8.672935962677001953e-01 -2.915438637137413025e-02 3.256879150867462158e-01
-8.947900533676147461e-01 -5.535532906651496887e-02 2.705152034759521484e-01
-9.382561445236206055e-01 -1.281912624835968018e-01 2.233515232801437378e-01
-9.204972982406616211e-01 -7.505139708518981934e-02 2.899208962917327881e-01
-9.123165011405944824e-01 -7.308647781610488892e-02 2.464474439620971680e-01
-8.773932456970214844e-01 -1.043076217174530029e-01 3.135912418365478516e-01
-9.482859969139099121e-01 -1.170282289385795593e-01 2.270359992980957031e-01
-9.016669988632202148e-01 -1.365320384502410889e-02 3.154432177543640137e-01
-8.990085721015930176e-01 -4.089780151844024658e-03 2.814320325851440430e-01
-9.503197073936462402e-01 -9.677999466657638550e-02 2.305892705917358398e-01
-9.462150931358337402e-01 -5.899276211857795715e-02 2.441042661666870117e-01
-9.041290283203125000e-01 -9.310793876647949219e-02 2.546017467975616455e-01
-9.048644900321960449e-01 -1.122757643461227417e-01 2.982589602470397949e-01
-9.262876510620117188e-01 -5.477603524923324585e-03 2.649146318435668945e-01
-9.165980219841003418e-01 4.086278378963470459e-03 2.862671613693237305e-01
-8.796563148498535156e-01 -1.110469251871109009e-01 3.068018853664398193e-01
-8.805748224258422852e-01 -5.981551110744476318e-02 3.327474296092987061e-01
-9.005087018013000488e-01 -3.517787158489227295e-02 3.178323507308959961e-01
-8.849102854728698730e-01 -1.128383725881576538e-01 2.879129052162170410e-01
-8.891783356666564941e-01 -8.578171581029891968e-02 2.759444117546081543e-01
-9.375566840171813965e-01 -2.895205840468406677e-02 2.577534019947052002e-01
-9.005123376846313477e-01 -8.398864418268203735e-03 3.159775435924530029e-01
-8.891767859458923340e-01 -1.003910005092620850e-01 3.154985904693603516e-01
-8.664604425430297852e-01 -3.128879889845848083e-02 3.369833230972290039e-01
-9.056237936019897461e-01 -1.276354044675827026e-01 2.903116643428802490e-01
-8.692742586135864258e-01 -6.630755960941314697e-02 3.150159120559692383e-01
-9.020124077796936035e-01 5.532421171665191650e-03 3.099009394645690918e-01
-9.175187945365905762e-01 -5.901089683175086975e-02 2.434595674276351929e-01
-9.089657664299011230e-01 -1.322656571865081787e-01 2.846073508262634277e-01
-9.313863515853881836e-01 -1.782507449388504028e-02 2.682292759418487549e-01
-9.102150201797485352e-01 -9.762290865182876587e-02 2.976351380348205566e-01
-9.265772104263305664e-01 -1.115735322237014771e-01 2.730606794357299805e-01
-9.366236925125122070e-01 -6.949766725301742554e-02 2.262618690729141235e-01
-9.148169159889221191e-01 -7.229087501764297485e-02 2.976937294006347656e-01
-9.306986331939697266e-01 -7.341362535953521729e-02 2.753980755805969238e-01
-9.114904999732971191e-01 -1.450293660163879395e-01 2.719040513038635254e-01
-8.843401670455932617e-01 -4.561731964349746704e-02 3.323003053665161133e-01
-8.898030519485473633e-01 -1.921495050191879272e-02 3.284011781215667725e-01
-9.263863563537597656e-01 -8.783288300037384033e-03 2.592562437057495117e-01
-9.226498603820800781e-01 -1.431807279586791992e-01 2.621507942676544189e-01
-9.118206501007080078e-01 -4.933733493089675903e-02 2.513734102249145508e-01
-9.137757420539855957e-01 -1.467074155807495117e-01 2.538159787654876709e-01
-9.007489681243896484e-01 -7.087087631225585938e-02 2.604756951332092285e-01
-8.952786326408386230e-01 -2.270044013857841492e-02 3.232616186141967773e-01
-9.149469137191772461e-01 -5.581109970808029175e-02 2.994774878025054932e-01
-8.840563893318176270e-01 -3.457807004451751709e-03 3.308934569358825684e-01
-9.314014315605163574e-01 -4.523577913641929626e-02 2.752489447593688965e-01
-9.216471910476684570e-01 -1.260247230529785156e-01 2.739448249340057373e-01
-8.721942305564880371e-01 -4.600591212511062622e-02 3.089526891708374023e-01
-9.299325942993164062e-01 -6.653150171041488647e-02 2.772892713546752930e-01
-9.376372694969177246e-01 -1.110508441925048828e-01 2.561366558074951172e-01
-9.186815619468688965e-01 -9.552429616451263428e-02 2.881528139114379883e-01
-9.368351101875305176e-01 -8.827516436576843262e-02 2.228893488645553589e-01
-9.173501729965209961e-01 -4.655783623456954956e-02 2.465886473655700684e-01
-8.879878520965576172e-01 -7.464028149843215942e-02 2.781143784523010254e-01
-9.259333014488220215e-01 -1.265056803822517395e-02 2.554931938648223877e-01
-9.068377614021301270e-01 2.803251147270202637e-03 3.045377433300018311e-01
-9.254003167152404785e-01 -6.921492516994476318e-02 2.838607430458068848e-01
-9.282348752021789551e-01 -8.498784154653549194e-02 2.294802069664001465e-01
-9.104509949684143066e-01 -1.175572574138641357e-01 2.905258238315582275e-01
-9.154391884803771973e-01 -5.211401358246803284e-02 2.470324486494064331e-01
-9.202024936676025391e-01 1.932084560394287109e-03 2.789651453495025635e-01
-8.695658445358276367e-01 -8.064513653516769409e-02 3.208279609680175781e-01
-9.191421270370483398e-01 -1.176490634679794312e-02 2.589888274669647217e-01
-9.106143712997436523e-01 5.117133259773254395e-03 2.973453402519226074e-01
-8.943675160408020020e-01 -1.254696696996688843e-01 2.990955412387847900e-01
-9.201747179031372070e-01 -5.146551877260208130e-03 2.631499469280242920e-01
-8.747411966323852539e-01 -8.250702172517776489e-02 3.027783632278442383e-01
-8.855646848678588867e-01 -9.544391930103302002e-02 3.195578753948211670e-01
-9.135291576385498047e-01 -8.793278783559799194e-02 2.435831129550933838e-01
-9.133019447326660156e-01 -1.372663080692291260e-01 2.485015243291854858e-01
-8.675858974456787109e-01 -4.321587085723876953e-02 3.207304775714874268e-01
-9.209812879562377930e-01 -6.692685186862945557e-02 2.386101782321929932e-01
-9.084343314170837402e-01 2.377420663833618164e-03 2.761025130748748779e-01
-9.020971655845642090e-01 -1.077415794134140015e-01 3.026002645492553711e-01
-9.077656865119934082e-01 1.047641783952713013e-02 2.975073158740997314e-01
-9.397369027137756348e-01 -5.673976987600326538e-02 2.286764085292816162e-01
-8.716337084770202637e-01 -3.984574973583221436e-02 3.112941682338714600e-01
-9.479293227195739746e-01 -1.143065392971038818e-01 2.318044155836105347e-01
-8.828810453414916992e-01 -6.192614138126373291e-02 2.872783243656158447e-01
-8.724588155746459961e-01 -4.442468285560607910e-03 3.265984654426574707e-01
-8.998178839683532715e-01 -1.290374398231506348e-01 2.654227316379547119e-01
-9.102748632431030273e-01 -6.118679046630859375e-02 3.047627806663513184e-01
-9.426357746124267578e-01 -1.235331818461418152e-01 2.411203235387802124e-01
-9.322202801704406738e-01 -8.909972757101058960e-02 2.705969214439392090e-01
-9.241198301315307617e-01 -1.113380417227745056e-01 2.320203632116317749e-01
-9.172351360321044922e-01 -1.420336067676544189e-01 2.695242464542388916e-01
-9.044220447540283203e-01 -1.019281148910522461e-02 3.115535378456115723e-01
-9.059472084045410156e-01 -1.432813405990600586e-01 2.637070119380950928e-01
-9.387645125389099121e-01 -6.232558190822601318e-02 2.271576672792434692e-01
-8.771409988403320312e-01 2.071700990200042725e-03 3.193782567977905273e-01
-8.725675940513610840e-01 -9.168668836355209351e-02 3.186732828617095947e-01
-8.773947954177856445e-01 -8.824481070041656494e-02 2.976163923740386963e-01
-8.974125385284423828e-01 -8.584651350975036621e-02 2.637778520584106445e-01
-8.910845518112182617e-01 -7.177199423313140869e-02 2.736383974552154541e-01
-8.863951563835144043e-01 6.043747067451477051e-03 3.046140670776367188e-01
-9.402129054069519043e-01 -1.280106604099273682e-01 2.437682449817657471e-01
-8.728622198104858398e-01 -4.577302187681198120e-02 3.384655714035034180e-01
-8.833549618721008301e-01 -7.515242695808410645e-02 2.856022417545318604e-01
-9.108694195747375488e-01 -1.312820315361022949e-01 2.496932297945022583e-01
-9.285950064659118652e-01 -1.160979717969894409e-01 2.686260640621185303e-01
-9.028295278549194336e-01 1.424381136894226074e-02 2.944489717483520508e-01
-9.068487882614135742e-01 -6.064577400684356689e-02 3.088470995426177979e-01
-9.142735004425048828e-01 -3.987946361303329468e-02 3.010584712028503418e-01
-8.758615851402282715e-01 -6.303381919860839844e-02 3.343120217323303223e-01
-8.963665962219238281e-01 -1.085905432701110840e-01 3.071114420890808105e-01
-9.497949481010437012e-01 -1.018823236227035522e-01 2.311363816261291504e-01
-8.925428986549377441e-01 -7.352186739444732666e-02 3.211076557636260986e-01
-9.271344542503356934e-01 -9.434051811695098877e-02 2.770818769931793213e-01
-8.653777837753295898e-01 -4.829324409365653992e-02 3.316161036491394043e-01
-8.920965194702148438e-01 -1.132814884185791016e-01 2.738798558712005615e-01
-9.099702835083007812e-01 -1.242839321494102478e-01 2.492428869009017944e-01
-9.494504928588867188e-01 -7.867322117090225220e-02 2.238469868898391724e-01
-9.389314651489257812e-01 -1.242081075906753540e-01 2.484512925148010254e-01
-9.148766398429870605e-01 3.016561269760131836e-03 2.727563381195068359e-01
-8.759294152259826660e-01 2.601206302642822266e-03 3.289037942886352539e-01
-9.317120909690856934e-01 -1.313271224498748779e-01 2.571727633476257324e-01
-8.926395177841186523e-01 -6.796336174011230469e-02 3.221620023250579834e-01
-8.726614713668823242e-01 -6.723791360855102539e-02 3.063236773014068604e-01
-9.127781391143798828e-01 -1.061772629618644714e-01 2.440022230148315430e-01
-9.048682451248168945e-01 -2.401966601610183716e-02 3.125943839550018311e-01
-9.041782617568969727e-01 -1.423423588275909424e-01 2.789314687252044678e-01
-9.480296373367309570e-01 -9.273591637611389160e-02 2.196099460124969482e-01
-9.004884958267211914e-01 -2.043218165636062622e-02 2.724967896938323975e-01
-8.793119788169860840e-01 -6.348244845867156982e-03 3.084766864776611328e-01
-9.495624899864196777e-01 -7.047916948795318604e-02 2.329598069190979004e-01
-8.958851099014282227e-01 -6.985790282487869263e-02 2.670237421989440918e-01
-9.083975553512573242e-01 -7.824018597602844238e-03 3.058558702468872070e-01
-8.663470745086669922e-01 -6.098082289099693298e-02 3.300337195396423340e-01
-9.335637092590332031e-01 -9.372694790363311768e-02 2.244833260774612427e-01
-9.397034049034118652e-01 -7.082547247409820557e-02 2.601602673530578613e-01
-8.759196996688842773e-01 -6.174236536026000977e-02 2.996669113636016846e-01
-9.168774485588073730e-01 -1.285380125045776367e-01 2.415919750928878784e-01
-9.086096286773681641e-01 -9.299319982528686523e-02 3.006710708141326904e-01
-9.174182415008544922e-01 -3.636557608842849731e-02 2.495565563440322876e-01
-8.893975615501403809e-01 -5.416862666606903076e-03 3.270202875137329102e-01
-9.140301942825317383e-01 -1.423757374286651611e-01 2.500132918357849121e-01
-9.268336892127990723e-01 -9.890560060739517212e-03 2.743380963802337646e-01
-8.933818936347961426e-01 -6.192764639854431152e-02 3.225617110729217529e-01
-8.828200101852416992e-01 -3.882483392953872681e-02 2.911901772022247314e-01
-9.401781558990478516e-01 -9.860425442457199097e-02 2.201773822307586670e-01
-9.027544260025024414e-01 -4.436157643795013428e-02 2.626701295375823975e-01
-9.244883656501770020e-01 -9.915606677532196045e-02 2.795991301536560059e-01
-9.232181906700134277e-01 -9.467676281929016113e-02 2.824400961399078369e-01
-8.969722390174865723e-01 -3.678800910711288452e-02 3.215604424476623535e-01
-9.328468441963195801e-01 -1.350513100624084473e-01 2.530855834484100342e-01
-9.445092082023620605e-01 -7.979298382997512817e-02 2.496615201234817505e-01
-9.359264373779296875e-01 -7.579742372035980225e-02 2.665713131427764893e-01
-8.888043761253356934e-01 -8.367688953876495361e-02 3.215246498584747314e-01
-9.359605312347412109e-01 -3.606422618031501770e-02 2.651071548461914062e-01
-9.056124091148376465e-01 -9.853328764438629150e-02 2.526576817035675049e-01
-9.397645592689514160e-01 -1.217992305755615234e-01 2.213515341281890869e-01
-8.762819170951843262e-01 -1.001222431659698486e-02 3.365497887134552002e-01
-9.229999184608459473e-01 -1.480314433574676514e-01 2.563445270061492920e-01
-8.738742470741271973e-01 -8.791343122720718384e-02 3.063552379608154297e-01
-9.126000404357910156e-01 -4.242861643433570862e-02 2.523385882377624512e-01
-9.310514330863952637e-01 -8.127748221158981323e-02 2.737780213356018066e-01
-8.918257951736450195e-01 -1.332722604274749756e-02 3.259828686714172363e-01
-8.852510452270507812e-01 -6.838104128837585449e-02 3.279512524604797363e-01
-8.821616172790527344e-01 -3.367927670478820801e-02 2.934888601303100586e-01
-9.342830777168273926e-01 -3.964184969663619995e-02 2.693378031253814697e-01
-8.766726851463317871e-01 -6.669580936431884766e-02 2.979462742805480957e-01
-8.929947018623352051e-01 -1.056100502610206604e-01 2.710546255111694336e-01
-8.860198259353637695e-01 1.299936324357986450e-02 3.182194828987121582e-01
-8.712981343269348145e-01 -7.713576406240463257e-02 3.108205199241638184e-01
-9.276221394538879395e-01 -6.172112748026847839e-02 2.339907288551330566e-01
-9.232355356216430664e-01 -3.014143183827400208e-02 2.471449822187423706e-01
-9.348528981208801270e-01 -1.137249320745468140e-01 2.599009573459625244e-01
-9.480289816856384277e-01 -1.155407205224037170e-01 2.217646241188049316e-01
-9.457598328590393066e-01 -4.987169802188873291e-02 2.388825565576553345e-01
-9.006070494651794434e-01 1.162882149219512939e-02 3.077735602855682373e-01
-9.068134427070617676e-01 -3.960549831390380859e-03 2.733179628849029541e-01
-8.841677904129028320e-01 -9.449105709791183472e-02 2.848890423774719238e-01
-9.238152503967285156e-01 -1.894256845116615295e-02 2.846003472805023193e-01
-9.029127955436706543e-01 -1.331942826509475708e-01 2.888133227825164795e-01
-9.408780932426452637e-01 -3.837788105010986328e-02 2.530019283294677734e-01
-9.180539250373840332e-01 -5.556088313460350037e-02 2.953935563564300537e-01
-8.989153504371643066e-01 -6.581578403711318970e-02 2.634712457656860352e-01
-9.313471317291259766e-01 -3.922891616821289062e-02 2.748295068740844727e-01
-9.037891626358032227e-01 -1.375826746225357056e-01 2.846342623233795166e-01
-8.951066732406616211e-01 -7.959418743848800659e-02 3.174738585948944092e-01
-9.434911608695983887e-01 -4.388497769832611084e-02 2.467141151428222656e-01
-8.809003233909606934e-01 8.866764605045318604e-03 3.242025077342987061e-01
-8.872091174125671387e-01 1.079631596803665161e-02 3.080328106880187988e-01
-8.799407482147216797e-01 -6.615801900625228882e-02 2.919330596923828125e-01
-9.090697765350341797e-01 -1.446745991706848145e-01 2.593669593334197998e-01
-9.143232703208923340e-01 -6.687093526124954224e-02 2.990878224372863770e-01
-9.344572424888610840e-01 -1.232346445322036743e-01 2.243907749652862549e-01
-9.069724678993225098e-01 -1.294753849506378174e-01 2.545246779918670654e-01
-9.450979232788085938e-01 -7.481788843870162964e-02 2.224677503108978271e-01
-9.282114505767822266e-01 -1.184393763542175293e-01 2.286840826272964478e-01
-9.037036895751953125e-01 -9.958181530237197876e-03 2.732977867126464844e-01
-9.395158886909484863e-01 -1.366075277328491211e-01 2.273988425731658936e-01
-9.239208698272705078e-01 -1.260882169008255005e-01 2.336073666810989380e-01
-8.843537569046020508e-01 -7.547505944967269897e-02 3.268397450447082520e-01
-9.502865076065063477e-01 -1.033465415239334106e-01 2.230375558137893677e-01
-8.945490717887878418e-01 -1.234441250562667847e-01 2.725321948528289795e-01
-9.075321555137634277e-01 -4.160231724381446838e-02 3.095638155937194824e-01
-9.059515595436096191e-01 -3.449814394116401672e-02 3.115890622138977051e-01
-9.077387452125549316e-01 -1.117696762084960938e-01 2.504835724830627441e-01
-8.816837072372436523e-01 -8.256910741329193115e-02 3.262432217597961426e-01
-8.693170547485351562e-01 -5.214804038405418396e-02 3.374751210212707520e-01
-8.865333795547485352e-01 -1.237215548753738403e-01 2.986179292201995850e-01
-8.678568601608276367e-01 -2.352553606033325195e-02 3.264973461627960205e-01
-9.428498744964599609e-01 -4.701337963342666626e-02 2.336744964122772217e-01
-9.456216692924499512e-01 -7.245974987745285034e-02 2.473932504653930664e-01
-9.193353652954101562e-01 -1.019318401813507080e-01 2.856089174747467041e-01
-9.189479351043701172e-01 -2.429766207933425903e-02 2.527908682823181152e-01
-8.695060610771179199e-01 -5.043107271194458008e-02 3.145275115966796875e-01
-9.416757822036743164e-01 -3.793054819107055664e-02 2.404688447713851929e-01
-9.043864011764526367e-01 -1.839151233434677124e-02 3.127295970916748047e-01
-8.806852102279663086e-01 -1.538879051804542542e-02 3.352568745613098145e-01
-8.847019672393798828e-01 -4.954079538583755493e-02 2.860913276672363281e-01
-9.270524382591247559e-01 -1.340997517108917236e-01 2.324248105287551880e-01
-8.795443177223205566e-01 -2.910714969038963318e-02 2.990360856056213379e-01
-9.141173362731933594e-01 -1.203060150146484375e-01 2.434693723917007446e-01
-9.147282838821411133e-01 -1.186281964182853699e-01 2.854225635528564453e-01
-8.711232542991638184e-01 -5.425042659044265747e-02 3.102889060974121094e-01
-9.060557484626770020e-01 -1.452334076166152954e-01 2.732968330383300781e-01
-9.238831996917724609e-01 -2.599574625492095947e-03 2.743766903877258301e-01
-9.161778092384338379e-01 -6.539127975702285767e-02 2.435633242130279541e-01
-8.933554291725158691e-01 -3.548129647970199585e-02 2.767091989517211914e-01
-8.661637902259826660e-01 -5.636920779943466187e-02 3.326452970504760742e-01
-9.017405509948730469e-01 -4.965768381953239441e-02 2.626980841159820557e-01
-9.279389381408691406e-01 -4.891211539506912231e-02 2.811478078365325928e-01
-9.297680854797363281e-01 -1.013413965702056885e-01 2.715245485305786133e-01
-8.924019932746887207e-01 7.067047059535980225e-03 2.966489493846893311e-01
-9.171601533889770508e-01 -1.218511313199996948e-01 2.812691926956176758e-01
-9.088059663772583008e-01 -8.033868670463562012e-02 2.496029585599899292e-01
-9.306859970092773438e-01 -7.096007466316223145e-02 2.297302484512329102e-01
-8.699250817298889160e-01 -6.933335959911346436e-02 3.323527276515960693e-01
-8.846081495285034180e-01 -1.049112454056739807e-01 2.858776152133941650e-01
-9.333987832069396973e-01 -1.108833998441696167e-01 2.240986526012420654e-01
-9.126729965209960938e-01 -1.292330324649810791e-01 2.827174365520477295e-01
-9.248803257942199707e-01 -1.286784857511520386e-01 2.684633731842041016e-01
-9.145623445510864258e-01 -2.598959207534790039e-02 2.558115124702453613e-01
-9.037535190582275391e-01 -7.672511041164398193e-02 2.560556232929229736e-01
-9.183750748634338379e-01 -1.832570135593414307e-02 2.934705317020416260e-01
-8.737217783927917480e-01 -8.053313195705413818e-02 3.287853896617889404e-01
-9.450550079345703125e-01 -1.158192306756973267e-01 2.394424974918365479e-01
-8.834316730499267578e-01 -1.041180342435836792e-01 3.162657022476196289e-01
-9.021797776222229004e-01 -7.306445389986038208e-02 3.120196461677551270e-01
-8.852075338363647461e-01 -1.183572262525558472e-01 3.055020868778228760e-01
-8.816169500350952148e-01 -2.888056263327598572e-02 3.352500200271606445e-01
-8.762124180793762207e-01 -3.229655325412750244e-03 3.343114554882049561e-01
-9.484951496124267578e-01 -8.486405014991760254e-02 2.211073935031890869e-01
-9.260099530220031738e-01 -7.498103380203247070e-02 2.327374815940856934e-01
-9.262112379074096680e-01 -6.390637904405593872e-02 2.831940650939941406e-01
-8.793171644210815430e-01 -5.734709277749061584e-02 2.938202321529388428e-01
-9.054948091506958008e-01 -1.197527721524238586e-01 2.944606542587280273e-01
-8.726395368576049805e-01 -5.968991294503211975e-02 3.065222799777984619e-01
-9.028554558753967285e-01 -8.418533205986022949e-02 3.089620769023895264e-01
-9.181527495384216309e-01 -6.764615327119827271e-02 2.940678000450134277e-01
-9.494155645370483398e-01 -9.183119237422943115e-02 2.353463917970657349e-01
-9.313495159149169922e-01 -3.223105892539024353e-02 2.416751384735107422e-01
-9.214872717857360840e-01 -4.026174545288085938e-03 2.826311290264129639e-01
-8.771900534629821777e-01 -2.469477429986000061e-02 3.378712534904479980e-01
-9.228798747062683105e-01 -7.152974605560302734e-02 2.360589802265167236e-01
-8.995231389999389648e-01 -1.201513111591339111e-01 2.992975413799285889e-01
-9.205749630928039551e-01 -1.072625815868377686e-01 2.354479134082794189e-01
-9.477158188819885254e-01 -9.481087327003479004e-02 2.398272603750228882e-01
-9.160714149475097656e-01 -2.801050990819931030e-02 2.981614470481872559e-01
-9.026166796684265137e-01 -2.575236186385154724e-02 2.681556344032287598e-01
-9.441109299659729004e-01 -1.294970810413360596e-01 2.253816425800323486e-01
-8.973129391670227051e-01 -4.526457935571670532e-02 3.207381069660186768e-01
-9.008111953735351562e-01 -1.113115474581718445e-01 2.598528563976287842e-01
-8.682155609130859375e-01 -3.654166311025619507e-02 3.203447759151458740e-01
-9.156309962272644043e-01 -8.023045957088470459e-02 2.420002669095993042e-01
-8.776865005493164062e-01 -1.897257938981056213e-02 3.373011946678161621e-01
-8.870003223419189453e-01 -9.080022573471069336e-03 2.946581840515136719e-01
-9.281409382820129395e-01 -3.607682138681411743e-02 2.801262736320495605e-01
-8.828461170196533203e-01 -5.554733797907829285e-02 2.881027758121490479e-01
-9.036142230033874512e-01 -5.335859209299087524e-02 2.596849799156188965e-01
-8.908352851867675781e-01 -4.039002209901809692e-02 2.789319455623626709e-01
-8.887549638748168945e-01 1.906313002109527588e-03 3.256208002567291260e-01
-9.120868444442749023e-01 -1.506425440311431885e-02 2.626851797103881836e-01
-8.966901302337646484e-01 -2.574370801448822021e-02 2.752497494220733643e-01
-8.751050233840942383e-01 -3.450058773159980774e-02 3.055133521556854248e-01
-8.996658325195312500e-01 -1.136059910058975220e-01 3.023260533809661865e-01
-8.696885108947753906e-01 -2.840571105480194092e-02 3.188976049423217773e-01
-8.681707978248596191e-01 -5.410072207450866699e-02 3.178648948669433594e-01
-9.168559312820434570e-01 -1.273088455200195312e-01 2.791177034378051758e-01
-8.661597967147827148e-01 -4.447312653064727783e-02 3.255215287208557129e-01
-9.354719519615173340e-01 -1.396213918924331665e-01 2.445958852767944336e-01
-9.028160572052001953e-01 -6.024308130145072937e-02 2.593903839588165283e-01
-8.793179392814636230e-01 -9.253205358982086182e-02 2.941786944866180420e-01
-9.187632799148559570e-01 -3.171846270561218262e-03 2.876964807510375977e-01
-8.681482672691345215e-01 -1.684794574975967407e-02 3.317902982234954834e-01
-9.093873500823974609e-01 -3.228553012013435364e-02 2.586367428302764893e-01
-8.899879455566406250e-01 -3.693606704473495483e-02 3.283042311668395996e-01
-8.691057562828063965e-01 -1.796997338533401489e-02 3.255364298820495605e-01
-9.406310319900512695e-01 -9.307917207479476929e-02 2.204023003578186035e-01
-8.773285150527954102e-01 -9.907272458076477051e-02 3.009582161903381348e-01
-8.977212309837341309e-01 1.277443021535873413e-02 2.958383262157440186e-01
-8.688178658485412598e-01 -1.891498267650604248e-02 3.374575078487396240e-01
-8.933639526367187500e-01 -5.447484552860260010e-03 3.232333660125732422e-01
-8.961940407752990723e-01 1.515782624483108521e-02 3.017428517341613770e-01
-9.437339305877685547e-01 -6.348496675491333008e-02 2.516899108886718750e-01
-9.324767589569091797e-01 -1.186299473047256470e-01 2.618668675422668457e-01
-9.079174399375915527e-01 -9.074185043573379517e-03 2.694771587848663330e-01
-8.725108504295349121e-01 -1.757712662220001221e-02 3.165405094623565674e-01
-9.397287368774414062e-01 -1.381705850362777710e-01 2.346750646829605103e-01
-9.074012637138366699e-01 -1.609387993812561035e-02 3.086767196655273438e-01
-9.326907396316528320e-01 -3.508498519659042358e-02 2.716900408267974854e-01
-8.734281063079833984e-01 -3.084228187799453735e-02 3.097749948501586914e-01
-9.092283248901367188e-01 -1.090418100357055664e-01 2.950797677040100098e-01
-9.099510908126831055e-01 -5.708002299070358276e-02 2.516942024230957031e-01
-9.311381578445434570e-01 -1.408895701169967651e-01 2.319951951503753662e-01
-8.914817571640014648e-01 -1.270403116941452026e-01 2.807929813861846924e-01
-9.436881542205810547e-01 -1.022376120090484619e-01 2.187947034835815430e-01
-9.174065589904785156e-01 -4.760956019163131714e-02 2.966907322406768799e-01
-8.930954337120056152e-01 -1.300375908613204956e-02 2.845241427421569824e-01
-9.012179374694824219e-01 -4.051345586776733398e-02 3.168830275535583496e-01
-8.837441802024841309e-01 -1.298544555902481079e-02 2.978762984275817871e-01
-9.047079086303710938e-01 -1.083911061286926270e-01 2.541948854923248291e-01
-8.874907493591308594e-01 -1.451800018548965454e-02 3.300632238388061523e-01
-9.108322262763977051e-01 -7.601375132799148560e-02 3.018971085548400879e-01
-8.924525380134582520e-01 -8.057318627834320068e-02 2.710707783699035645e-01
-9.087854623794555664e-01 -1.034260094165802002e-01 2.974430024623870850e-01
-8.785062432289123535e-01 -7.636177539825439453e-02 2.943177223205566406e-01
-8.939067721366882324e-01 -5.666813254356384277e-02 3.228597640991210938e-01
-9.029282927513122559e-01 -1.167675852775573730e-01 2.575544714927673340e-01
-9.439885020256042480e-01 -4.379271715879440308e-02 2.393805384635925293e-01
-8.803115487098693848e-01 -1.374147459864616394e-02 3.031472265720367432e-01
-8.785888552665710449e-01 -8.419723063707351685e-02 2.945732176303863525e-01
-9.173510074615478516e-01 -6.244617700576782227e-02 2.957235276699066162e-01
-9.176810383796691895e-01 -1.502534747123718262e-01 2.569887042045593262e-01
-9.368948340415954590e-01 -6.765755265951156616e-02 2.655520439147949219e-01
-8.710599541664123535e-01 -8.545079827308654785e-02 3.227127790451049805e-01
-9.126908183097839355e-01 -9.865567088127136230e-02 2.440634518861770630e-01
-8.861396908760070801e-01 -6.955315917730331421e-02 2.813454866409301758e-01
-9.249340295791625977e-01 -2.039411664009094238e-02 2.507326900959014893e-01
-9.063262343406677246e-01 -6.137292459607124329e-02 2.550093233585357666e-01
-8.940593600273132324e-01 -4.112360626459121704e-02 2.743667066097259521e-01
-9.094927310943603516e-01 -1.364737451076507568e-01 2.813319861888885498e-01
-9.351850748062133789e-01 -1.166136413812637329e-01 2.231629192829132080e-01
-8.776564598083496094e-01 -1.353283226490020752e-02 3.079302906990051270e-01
-9.314379096031188965e-01 -2.303106337785720825e-02 2.708975374698638916e-01
-8.910290598869323730e-01 -5.211398005485534668e-02 2.762691676616668701e-01
-9.388195872306823730e-01 -1.103917509317398071e-01 2.206809371709823608e-01
-9.356470108032226562e-01 -2.476684749126434326e-02 2.469615042209625244e-01
-8.866091966629028320e-01 -2.367667108774185181e-02 2.895876467227935791e-01
-8.966670036315917969e-01 4.826158285140991211e-03 3.166940510272979736e-01
-9.204453229904174805e-01 -1.240846216678619385e-01 2.368532866239547729e-01
-9.373284578323364258e-01 -7.739020884037017822e-02 2.242585718631744385e-01
-9.230982661247253418e-01 -8.610431849956512451e-02 2.844717204570770264e-01
-9.022036790847778320e-01 -6.600219011306762695e-02 2.592611908912658691e-01
-9.349737167358398438e-01 -8.630408346652984619e-02 2.666887342929840088e-01
-8.986353278160095215e-01 -4.993049800395965576e-02 3.189798593521118164e-01
-9.184196591377258301e-01 -1.963886991143226624e-02 2.552980184555053711e-01
-9.097212553024291992e-01 -9.001126885414123535e-02 2.478201985359191895e-01
-9.192603826522827148e-01 -9.673715382814407349e-02 2.369423359632492065e-01
-9.477678537368774414e-01 -1.022905856370925903e-01 2.377353310585021973e-01
-8.946169614791870117e-01 -1.355100572109222412e-01 2.851325571537017822e-01
-9.363356828689575195e-01 -1.423702687025070190e-01 2.383385896682739258e-01
-9.042978882789611816e-01 -6.708356738090515137e-02 3.107963502407073975e-01
-9.475890398025512695e-01 -8.719362318515777588e-02 2.414616197347640991e-01
-9.151367545127868652e-01 1.140065491199493408e-03 2.919334769248962402e-01
-8.871845006942749023e-01 -4.287536442279815674e-02 2.836191952228546143e-01
-9.155949950218200684e-01 -1.337714791297912598e-01 2.770501673221588135e-01
-9.367080330848693848e-01 -6.024965271353721619e-02 2.661285400390625000e-01
-8.922531604766845703e-01 -5.711864680051803589e-03 2.889424562454223633e-01
-9.370430111885070801e-01 -4.910123348236083984e-02 2.322531491518020630e-01
-9.263382554054260254e-01 -1.210990846157073975e-01 2.698778510093688965e-01
-9.106829762458801270e-01 -8.589415252208709717e-02 3.000753223896026611e-01
-9.280439615249633789e-01 -4.903592169284820557e-02 2.370488047599792480e-01
-9.197381734848022461e-01 -8.954159170389175415e-02 2.368784397840499878e-01
-8.803008794784545898e-01 -4.425755888223648071e-02 2.941509187221527100e-01
-8.853315711021423340e-01 6.082601845264434814e-03 3.263848125934600830e-01
-8.891112804412841797e-01 -4.734563827514648438e-02 3.282817900180816650e-01
-9.350331425666809082e-01 -1.044600009918212891e-01 2.229196131229400635e-01
-9.481544494628906250e-01 -6.164996698498725891e-02 2.363200187683105469e-01
-8.792130351066589355e-01 -1.060849875211715698e-01 2.993709146976470947e-01
-9.287441372871398926e-01 -1.485472619533538818e-01 2.443344891071319580e-01
-8.975825309753417969e-01 -1.194719225168228149e-01 2.661380767822265625e-01
-8.804320693016052246e-01 -1.006386578083038330e-01 2.936556041240692139e-01
-9.009488224983215332e-01 -1.231877282261848450e-01 2.617495656013488770e-01
-9.426172375679016113e-01 -1.071221381425857544e-01 2.481327205896377563e-01
-9.083912968635559082e-01 -2.006326615810394287e-02 2.640383243560791016e-01
-9.501320719718933105e-01 -7.985860109329223633e-02 2.330575734376907349e-01
-9.321748614311218262e-01 -1.091150343418121338e-01 2.656597197055816650e-01
-9.366762042045593262e-01 -4.382726550102233887e-02 2.651412785053253174e-01
-8.773439526557922363e-01 5.015373229980468750e-03 3.245157003402709961e-01
-8.676260709762573242e-01 -6.949622184038162231e-02 3.226723372936248779e-01
-8.655523657798767090e-01 -3.996255248785018921e-02 3.296999335289001465e-01
-9.080442190170288086e-01 -7.399744540452957153e-02 2.511726021766662598e-01
-8.906987905502319336e-01 1.511959731578826904e-02 3.118781745433807373e-01
-8.710458874702453613e-01 -7.945235818624496460e-03 3.337051272392272949e-01
-9.393674731254577637e-01 -7.818145304918289185e-02 2.601769864559173584e-01
-9.351342320442199707e-01 -1.052595525979995728e-01 2.621266245841979980e-01
-8.888968825340270996e-01 -6.126802787184715271e-02 2.779691517353057861e-01
-9.331277012825012207e-01 -6.855256110429763794e-02 2.719776630401611328e-01
-8.717679381370544434e-01 -2.499897778034210205e-02 3.151648640632629395e-01
-1.145530343055725098e-01 -8.889125287532806396e-02 -3.545587062835693359e-01
1.121602356433868408e-01 2.453135550022125244e-01 -1.778072118759155273e-02
-7.239997386932373047e-02 3.154430985450744629e-01 -1.137708872556686401e-01
-6.749108433723449707e-02 -9.542690217494964600e-02 -4.640029072761535645e-01
1.313796341419219971e-01 4.539883881807327271e-02 3.714916110038757324e-02
-2.584771215915679932e-01 2.750022411346435547e-01 -1.124638020992279053e-01
9.938044548034667969e-01 -1.353974938392639160e-01 -8.258382976055145264e-02
-8.887702226638793945e-02 3.397511839866638184e-01 -3.518717288970947266e-01
-2.122327983379364014e-01 1.873905658721923828e-01 -5.665038526058197021e-02
3.755700588226318359e-01 -8.038507401943206787e-02 2.857711911201477051e-02
-4.102579057216644287e-01 2.620393037796020508e-01 -3.654542565345764160e-01
7.798042297363281250e-01 -4.173237085342407227e-02 -5.635694861412048340e-01
7.034993171691894531e-01 1.011003628373146057e-01 -5.387860536575317383e-02
-4.817450046539306641e-02 3.327766060829162598e-01 -1.589064151048660278e-01
6.901153922080993652e-02 -1.202403753995895386e-01 -1.409387290477752686e-01
-3.497212231159210205e-01 2.832695245742797852e-01 -4.096902906894683838e-01
3.201452791690826416e-01 -2.210306227207183838e-01 -1.702833771705627441e-01
1.528012305498123169e-01 2.790541052818298340e-01 -4.530390799045562744e-01
9.410903453826904297e-01 1.543297339230775833e-02 -1.724045127630233765e-01
-1.022853553295135498e-01 2.403331100940704346e-01 -3.352314233779907227e-02
5.148427486419677734e-01 2.280444949865341187e-01 -2.671682834625244141e-01
2.807474136352539062e-01 -1.373056471347808838e-01 -6.173336505889892578e-01
9.968223571777343750e-01 -7.724935561418533325e-02 -4.304587244987487793e-01
1.162692159414291382e-01 5.130148492753505707e-03 -6.496390104293823242e-01
-1.125631034374237061e-01 -8.405319601297378540e-02 -2.833416461944580078e-01
-2.223272025585174561e-01 3.317738175392150879e-01 -3.708041608333587646e-01
-2.719157636165618896e-01 3.339713215827941895e-01 -3.319995999336242676e-01
-3.392828404903411865e-01 7.122203707695007324e-02 -2.623871564865112305e-01
1.016434133052825928e-01 -3.224034793674945831e-03 7.078379392623901367e-03
-1.382225155830383301e-01 3.414965271949768066e-01 -3.476994335651397705e-01
6.337523460388183594e-01 -3.134135007858276367e-01 -2.702406942844390869e-01
3.337228596210479736e-01 2.459048181772232056e-01 -4.357824027538299561e-01
9.506996870040893555e-01 -1.831794828176498413e-01 -6.896995007991790771e-02
-1.434496641159057617e-01 2.106211632490158081e-01 -3.228920698165893555e-02
5.530301332473754883e-01 -6.247570365667343140e-02 4.809409379959106445e-02
1.062014937400817871e+00 -2.795582413673400879e-01 -3.575779795646667480e-01
8.297618627548217773e-01 -2.958557009696960449e-01 -4.786016345024108887e-01
5.913944244384765625e-01 -9.775396436452865601e-02 -6.383591890335083008e-01
8.656049966812133789e-01 9.325497783720493317e-03 -4.572152793407440186e-01
8.678207397460937500e-01 -3.276986479759216309e-01 -2.825472652912139893e-01
3.278368115425109863e-01 -1.992249935865402222e-01 -5.628641843795776367e-01
1.130201220512390137e-01 2.119727283716201782e-01 1.020961999893188477e-02
-2.791609466075897217e-01 3.598656132817268372e-02 -4.554598331451416016e-01
-2.341463267803192139e-01 -1.838180981576442719e-02 -3.129433393478393555e-01
2.874704599380493164e-01 2.599671483039855957e-01 -4.302794933319091797e-01
6.899504661560058594e-01 2.547882031649351120e-03 -5.776650905609130859e-01
7.784000039100646973e-02 2.529978156089782715e-01 -5.191422700881958008e-01
-8.083304762840270996e-02 -2.969277650117874146e-02 -5.628176927566528320e-01
2.126491218805313110e-01 3.109402060508728027e-01 -2.454725205898284912e-01
-3.534213006496429443e-01 7.344038039445877075e-02 -3.093661665916442871e-01
1.055680155754089355e+00 -2.306827306747436523e-01 -1.610204875469207764e-01
7.014429569244384766e-01 8.528410643339157104e-02 -4.848515689373016357e-01
8.017972111701965332e-01 -1.186147481203079224e-01 -5.819062590599060059e-01
9.744690358638763428e-02 -3.460760787129402161e-02 -6.344463825225830078e-01
2.074771225452423096e-01 2.234953641891479492e-01 -5.313470959663391113e-01
-3.386583626270294189e-01 3.162224292755126953e-01 -2.433940768241882324e-01
-2.045367062091827393e-01 1.937466487288475037e-02 -1.541895866394042969e-01
6.388533115386962891e-02 -1.402768343687057495e-01 -1.913616061210632324e-01
-3.709550797939300537e-01 3.054493069648742676e-01 -2.706173062324523926e-01
2.437679171562194824e-01 2.918325662612915039e-01 -3.599080741405487061e-01
7.770109176635742188e-01 1.198681145906448364e-01 -2.713494300842285156e-01
2.267457246780395508e-01 -2.222763299942016602e-01 -2.815475165843963623e-01
6.513358354568481445e-01 -3.033089637756347656e-01 -2.141079306602478027e-01
1.117700457572937012e+00 -1.836860775947570801e-01 -2.288604378700256348e-01
8.082401156425476074e-01 7.840687781572341919e-02 -1.140111982822418213e-01
-1.449084877967834473e-01 2.230232954025268555e-01 -5.504450798034667969e-01
-1.198406219482421875e-01 2.751491665840148926e-01 -4.995358586311340332e-01
4.005258679389953613e-01 3.301850706338882446e-02 6.441876292228698730e-02
7.854076623916625977e-01 -9.104354679584503174e-02 9.839355945587158203e-03
3.683492541313171387e-01 -2.644932866096496582e-01 -2.924681901931762695e-01
6.622054576873779297e-01 -2.685871124267578125e-01 -5.337502956390380859e-01
8.719887733459472656e-01 -2.054313197731971741e-02 -4.884700775146484375e-01
1.679297238588333130e-01 2.964707612991333008e-01 -4.003777503967285156e-01
5.199178457260131836e-01 2.049642056226730347e-01 -1.091375946998596191e-01
-2.425282299518585205e-01 2.424322813749313354e-01 -5.103846788406372070e-01
5.528959631919860840e-01 1.940265148878097534e-01 -3.853397071361541748e-01
1.530064344406127930e-01 -1.611303538084030151e-03 2.376279234886169434e-02
-1.376475095748901367e-01 -7.386098057031631470e-02 -3.967160880565643311e-01
-4.341409504413604736e-01 1.945434361696243286e-01 -3.340620100498199463e-01
7.931751012802124023e-01 -1.836191713809967041e-01 -2.604705095291137695e-02
1.367153823375701904e-01 -1.880147010087966919e-01 -2.611283659934997559e-01
6.451177000999450684e-01 -1.628689318895339966e-01 -1.990437507629394531e-03
8.396492004394531250e-01 3.561532497406005859e-02 -7.392111420631408691e-02
-3.986573219299316406e-02 1.057830229401588440e-01 4.351109266281127930e-03
3.019063174724578857e-01 -1.590769588947296143e-01 -6.591317057609558105e-02
-3.004123866558074951e-01 2.319694459438323975e-01 -1.127087324857711792e-01
7.705384492874145508e-01 -2.661617994308471680e-01 -1.107259839773178101e-01
-6.759816408157348633e-02 2.961198687553405762e-01 -4.673840403556823730e-01
-1.254714429378509521e-01 9.789485484361648560e-02 -3.297257423400878906e-02
4.379757940769195557e-01 -2.638044357299804688e-01 -2.072913795709609985e-01
4.038612246513366699e-01 1.910455971956253052e-01 -5.043952465057373047e-01
-2.451797425746917725e-01 3.069715201854705811e-02 -1.831485331058502197e-01
1.840293854475021362e-01 -2.012394368648529053e-01 -4.576401114463806152e-01
-1.261957287788391113e-01 -3.928881138563156128e-02 -1.700073778629302979e-01
3.891444206237792969e-01 2.693513594567775726e-02 -6.492950320243835449e-01
9.877029657363891602e-01 -3.103721737861633301e-01 -3.619623780250549316e-01
-3.211542069911956787e-01 6.035277992486953735e-02 -4.280209541320800781e-01
7.093842029571533203e-01 -2.596578001976013184e-01 -1.034040302038192749e-01
3.553605973720550537e-01 -1.589219719171524048e-01 -4.569491744041442871e-02
5.285803079605102539e-01 2.219530791044235229e-01 -2.030304968357086182e-01
7.158679962158203125e-01 -6.308121234178543091e-02 2.854272723197937012e-02
4.984580874443054199e-01 -2.667505741119384766e-01 -1.771457344293594360e-01
1.081800699234008789e+00 -2.632172107696533203e-01 -2.371534854173660278e-01
3.651687502861022949e-02 -1.574116498231887817e-01 -3.850268423557281494e-01
1.089441895484924316e+00 -2.158675491809844971e-01 -3.905983865261077881e-01
4.101888239383697510e-01 -1.189896464347839355e-01 -6.457090377807617188e-01
3.356231749057769775e-01 2.817036509513854980e-01 -2.728753089904785156e-01
5.820015072822570801e-01 -1.847451329231262207e-01 -2.405449748039245605e-02
3.340665698051452637e-01 -1.269835233688354492e-01 -1.737716794013977051e-02
-3.333484828472137451e-01 1.141769140958786011e-01 -1.788016408681869507e-01
4.574716091156005859e-01 -1.043973267078399658e-01 2.525123953819274902e-02
6.560591459274291992e-01 -2.981562614440917969e-01 -4.754336476325988770e-01
-3.623438179492950439e-01 8.506725728511810303e-02 -3.797345757484436035e-01
-2.790643274784088135e-01 6.561441719532012939e-02 -1.714125573635101318e-01
-2.281365692615509033e-01 -3.525241278111934662e-03 -2.312041819095611572e-01
5.925518274307250977e-02 2.983567714691162109e-01 -4.416902661323547363e-01
5.830661058425903320e-01 -3.083468675613403320e-01 -2.862133681774139404e-01
3.803723454475402832e-01 -2.256195545196533203e-01 -5.406965017318725586e-01
-4.048018753528594971e-01 1.397805362939834595e-01 -3.781030178070068359e-01
8.413503170013427734e-01 -2.257654219865798950e-01 -5.492113828659057617e-01
2.572742402553558350e-01 -2.045521885156631470e-01 -1.763047277927398682e-01
5.060867667198181152e-01 1.247336715459823608e-01 1.699474453926086426e-02
2.600973546504974365e-01 2.579072713851928711e-01 -6.414014101028442383e-02
1.101212501525878906e+00 -1.328813433647155762e-01 -2.235141694545745850e-01
7.030587196350097656e-01 1.508352458477020264e-01 -3.066734671592712402e-01
2.996279895305633545e-01 2.814831137657165527e-01 -3.466869592666625977e-01
-3.119993507862091064e-01 1.404502838850021362e-01 -5.085531473159790039e-01
3.061138689517974854e-01 7.327326387166976929e-02 6.222239136695861816e-02
4.545594751834869385e-01 -4.146119952201843262e-02 5.394706130027770996e-02
-2.502979338169097900e-01 1.096699610352516174e-01 -5.439027547836303711e-01
7.313459515571594238e-01 -2.174971252679824829e-01 -4.929880797863006592e-02
7.100028991699218750e-01 -3.268548250198364258e-01 -3.431037366390228271e-01
1.113367199897766113e+00 -2.420356422662734985e-01 -3.041164875030517578e-01
-2.142274379730224609e-02 2.830120325088500977e-01 -5.978009104728698730e-02
1.848313659429550171e-01 3.089980483055114746e-01 -1.702014952898025513e-01
-1.531873643398284912e-01 1.788485944271087646e-01 -5.752385258674621582e-01
7.715071439743041992e-01 7.507818192243576050e-02 -6.971253454685211182e-02
-2.391960918903350830e-01 -1.633584871888160706e-02 -3.649561703205108643e-01
5.197401046752929688e-01 -1.623145639896392822e-01 -1.079806685447692871e-02
1.775447726249694824e-01 1.073979660868644714e-01 -6.362216472625732422e-01
5.190258622169494629e-01 -8.251417428255081177e-03 -6.382036209106445312e-01
-2.875561416149139404e-01 1.735387295484542847e-01 -5.249408483505249023e-01
6.026326417922973633e-01 -2.473719269037246704e-01 -1.000174283981323242e-01
6.916443109512329102e-01 -1.009218767285346985e-01 -6.162786483764648438e-01
5.898565053939819336e-01 2.015397995710372925e-01 -2.366609275341033936e-01
8.244422674179077148e-01 -2.498982399702072144e-01 -9.094323217868804932e-02
4.787964820861816406e-01 -2.768250927329063416e-02 -6.506588459014892578e-01
-4.958555102348327637e-02 2.314553111791610718e-01 -5.529827475547790527e-01
4.139081835746765137e-01 -2.671255469322204590e-01 -2.417884916067123413e-01
3.357166051864624023e-02 -1.446815207600593567e-03 -1.778668165206909180e-02
1.305388063192367554e-01 2.632151842117309570e-01 -4.913381934165954590e-01
