-2.184911817312240601e-01 3.626889288425445557e-01 3.890479356050491333e-02
-3.134935498237609863e-01 3.587929010391235352e-01 -4.034219980239868164e-01
-3.134132921695709229e-01 2.383573651313781738e-01 -2.300187051296234131e-01
-4.089621603488922119e-01 3.540619611740112305e-01 1.064694970846176147e-01
-4.174302220344543457e-01 4.442560374736785889e-01 1.379724591970443726e-01
-3.569750785827636719e-01 5.096563100814819336e-01 4.365158826112747192e-02
-2.683573067188262939e-01 3.643659353256225586e-01 2.010885179042816162e-01
-2.139324694871902466e-01 3.858250379562377930e-01 -3.133190870285034180e-01
-2.262717783451080322e-01 4.029946327209472656e-01 -3.191046118736267090e-01
-3.417774438858032227e-01 5.066148638725280762e-01 -1.368088424205780029e-01
-3.350969552993774414e-01 2.410901784896850586e-01 5.205963551998138428e-02
-2.108269631862640381e-01 2.250702679157257080e-01 -3.151612877845764160e-01
-2.583746612071990967e-01 3.646752834320068359e-01 1.773303449153900146e-01
-3.681134581565856934e-01 2.740006744861602783e-01 3.805587440729141235e-02
-2.062014490365982056e-01 2.111430317163467407e-01 -2.398484945297241211e-01
-3.642235398292541504e-01 3.923250436782836914e-01 -3.038591742515563965e-01
-2.137824594974517822e-01 4.031867384910583496e-01 -1.829861998558044434e-01
-3.874522745609283447e-01 3.222745060920715332e-01 -1.268338561058044434e-01
-3.628085851669311523e-01 4.655792713165283203e-01 -2.511127591133117676e-01
-4.196794033050537109e-01 4.040121436119079590e-01 1.256779283285140991e-01
-3.758922815322875977e-01 3.044672906398773193e-01 1.599904596805572510e-01
-4.184424281120300293e-01 4.266297221183776855e-01 1.453029662370681763e-01
-3.573244810104370117e-01 2.967252731323242188e-01 -2.276616096496582031e-01
-3.581056296825408936e-01 3.317545354366302490e-01 2.537401914596557617e-01
-2.335501015186309814e-01 2.005064785480499268e-01 -5.518769472837448120e-02
-2.581223547458648682e-01 1.944398880004882812e-01 -1.176062822341918945e-01
-2.583435773849487305e-01 4.621290266513824463e-01 -1.582097709178924561e-01
-2.788598537445068359e-01 4.791106581687927246e-01 -5.883226171135902405e-02
-2.624881267547607422e-01 2.971052825450897217e-01 -4.297845661640167236e-01
-3.295960724353790283e-01 5.076389312744140625e-01 -1.084571629762649536e-01
-3.427037000656127930e-01 2.476044148206710815e-01 -1.063379496335983276e-01
-3.512158095836639404e-01 2.550263106822967529e-01 4.428777843713760376e-02
-2.075607478618621826e-01 2.929279804229736328e-01 -3.984771370887756348e-01
-2.481674253940582275e-01 2.589862346649169922e-01 1.338894069194793701e-01
-4.068372249603271484e-01 4.879442453384399414e-01 4.591867327690124512e-03
-1.796220093965530396e-01 2.934530377388000488e-01 -2.590550780296325684e-01
-3.893499076366424561e-01 4.992572665214538574e-01 -7.066127657890319824e-02
-2.362905740737915039e-01 2.185716629028320312e-01 3.110742568969726562e-02
-4.046676158905029297e-01 3.747560083866119385e-01 -1.252020299434661865e-01
-3.725939989089965820e-01 2.814470529556274414e-01 5.932934582233428955e-02
-2.587477266788482666e-01 2.277684360742568970e-01 9.115283191204071045e-02
-2.938499748706817627e-01 4.424505829811096191e-01 1.610316634178161621e-01
-3.603157401084899902e-01 4.477098882198333740e-01 -2.825670838356018066e-01
-2.774992585182189941e-01 3.048835992813110352e-01 2.186704277992248535e-01
-2.173591256141662598e-01 3.842759728431701660e-01 -3.353483080863952637e-01
-1.888966262340545654e-01 2.570777535438537598e-01 -3.158858418464660645e-01
-2.833421528339385986e-01 4.751051068305969238e-01 -2.283303141593933105e-01
-3.823333978652954102e-01 4.062495827674865723e-01 2.590713202953338623e-01
-2.089976072311401367e-01 3.912565708160400391e-01 -2.423485964536666870e-01
-2.338398545980453491e-01 1.975607275962829590e-01 -7.897650450468063354e-02
-2.252773642539978027e-01 4.109578430652618408e-01 -5.386907607316970825e-02
-2.760030329227447510e-01 4.783349037170410156e-01 -1.408068835735321045e-01
-3.882625102996826172e-01 5.038951635360717773e-01 4.593837261199951172e-02
-3.417220711708068848e-01 2.824407219886779785e-01 -2.576146423816680908e-01
-3.332441747188568115e-01 3.300195634365081787e-01 -3.539748787879943848e-01
-3.881814479827880859e-01 3.516956269741058350e-01 -1.882074475288391113e-01
-3.089005053043365479e-01 2.927362322807312012e-01 -3.674114644527435303e-01
-3.691881299018859863e-01 2.909192144870758057e-01 -1.445760875940322876e-01
-2.864333093166351318e-01 4.863203763961791992e-01 -7.849059998989105225e-02
-3.989004194736480713e-01 4.330967962741851807e-01 -1.767501980066299438e-01
-2.127493917942047119e-01 3.976618349552154541e-01 -1.168237477540969849e-01
-4.064127206802368164e-01 3.565977811813354492e-01 -7.186365127563476562e-02
-2.263851016759872437e-01 2.166892588138580322e-01 -3.069368004798889160e-01
-1.862142980098724365e-01 3.132993578910827637e-01 -3.076237142086029053e-01
-2.227615416049957275e-01 4.159227013587951660e-01 -1.211996525526046753e-01
-1.894929260015487671e-01 2.414395511150360107e-01 -1.044749617576599121e-01
-2.993108630180358887e-01 4.384675621986389160e-01 1.817288100719451904e-01
-4.229863882064819336e-01 4.047780334949493408e-01 5.320930480957031250e-02
-2.967895865440368652e-01 2.160375714302062988e-01 3.518870472908020020e-02
-2.129838764667510986e-01 3.335951864719390869e-01 -3.998909294605255127e-01
-2.944798171520233154e-01 2.289473414421081543e-01 -2.589727044105529785e-01
-3.009307980537414551e-01 2.124648541212081909e-01 -1.489596813917160034e-02
-2.924576103687286377e-01 3.753129541873931885e-01 -4.225945174694061279e-01
-2.599159181118011475e-01 4.629340171813964844e-01 -9.194094687700271606e-02
-3.219103217124938965e-01 2.883767485618591309e-01 -3.314093351364135742e-01
-2.753153443336486816e-01 2.294833362102508545e-01 1.071509271860122681e-01
-2.827580273151397705e-01 4.579093158245086670e-01 -3.016039133071899414e-01
-3.525475561618804932e-01 2.674215734004974365e-01 1.193055361509323120e-01
-4.172652363777160645e-01 4.314296841621398926e-01 -6.746034324169158936e-02
-4.064849019050598145e-01 4.638096690177917480e-01 -1.036490350961685181e-01
-2.617716193199157715e-01 3.101806044578552246e-01 1.963354647159576416e-01
-3.295724093914031982e-01 2.333111464977264404e-01 1.719640940427780151e-02
-1.944614946842193604e-01 3.467365801334381104e-01 -3.034172356128692627e-01
-3.231115639209747314e-01 2.316105365753173828e-01 -1.421897709369659424e-01
-3.417711853981018066e-01 5.036985874176025391e-01 -1.573128849267959595e-01
-3.466144502162933350e-01 4.573419094085693359e-01 -2.930946946144104004e-01
-3.688929677009582520e-01 3.537857532501220703e-01 2.606245577335357666e-01
-1.830851733684539795e-01 3.177216947078704834e-01 -2.638900279998779297e-01
-4.059009850025177002e-01 3.416793048381805420e-01 7.467417418956756592e-02
-3.897508382797241211e-01 4.627435803413391113e-01 -1.817988753318786621e-01
-3.880363106727600098e-01 3.874642252922058105e-01 2.489367425441741943e-01
-3.075447976589202881e-01 4.866598248481750488e-01 5.977559089660644531e-02
-2.528484761714935303e-01 3.276737630367279053e-01 -4.426226317882537842e-01
-2.790659964084625244e-01 2.774472534656524658e-01 1.980493962764739990e-01
-4.240790307521820068e-01 4.298507571220397949e-01 6.102246046066284180e-02
-3.232560753822326660e-01 4.147200882434844971e-01 2.521496117115020752e-01
-3.568404614925384521e-01 5.129331350326538086e-01 -1.768767833709716797e-03
-2.590514421463012695e-01 4.490672051906585693e-01 8.704476058483123779e-03
-2.990964353084564209e-01 2.209848165512084961e-01 5.984674394130706787e-02
-2.981731295585632324e-01 2.104691416025161743e-01 -1.227952539920806885e-01
-1.808328926563262939e-01 3.118900358676910400e-01 -1.832300424575805664e-01
-2.230883091688156128e-01 2.964946925640106201e-01 9.823821485042572021e-02
-2.010875791311264038e-01 3.758552670478820801e-01 -1.435443758964538574e-01
-2.069267332553863525e-01 2.183661609888076782e-01 -6.647708266973495483e-02
-4.075356423854827881e-01 3.845452368259429932e-01 1.875433921813964844e-01
-3.198292851448059082e-01 4.882345199584960938e-01 9.170936048030853271e-02
-2.515285313129425049e-01 2.233454138040542603e-01 -3.219644129276275635e-01
-1.978770494461059570e-01 2.746932804584503174e-01 -8.973404765129089355e-03
-3.354038298130035400e-01 3.589153289794921875e-01 -3.658282160758972168e-01
-4.167175889015197754e-01 4.701073765754699707e-01 4.648201167583465576e-02
-2.926912605762481689e-01 4.710346758365631104e-01 7.490944862365722656e-02
-1.822703331708908081e-01 2.889589667320251465e-01 -2.946323752403259277e-01
-1.883934140205383301e-01 2.942622303962707520e-01 -6.458796560764312744e-02
-3.230638504028320312e-01 2.536393105983734131e-01 -2.479924559593200684e-01
-2.955946922302246094e-01 4.653866291046142578e-01 1.055555343627929688e-01
-4.217550754547119141e-01 4.517639577388763428e-01 6.036588549613952637e-02
-3.820585012435913086e-01 4.469099044799804688e-01 -2.280636876821517944e-01
-3.688867390155792236e-01 2.854982018470764160e-01 -1.224049627780914307e-01
-3.605426549911499023e-01 3.474902808666229248e-01 -2.944216430187225342e-01
-2.597943842411041260e-01 2.378801703453063965e-01 1.161896437406539917e-01
-3.624310791492462158e-01 4.063306748867034912e-01 2.738405168056488037e-01
-2.445703446865081787e-01 4.407315552234649658e-01 -2.445394843816757202e-01
-1.840555965900421143e-01 3.174502253532409668e-01 -1.343380808830261230e-01
-2.197952568531036377e-01 4.070624113082885742e-01 -8.832508325576782227e-02
-3.520586192607879639e-01 2.642720341682434082e-01 -1.419740468263626099e-01
-3.570951819419860840e-01 2.593232393264770508e-01 -3.283249214291572571e-02
-3.015880584716796875e-01 3.258164525032043457e-01 -4.094109833240509033e-01
-3.058267533779144287e-01 4.862922430038452148e-01 -2.239940166473388672e-01
-4.081962406635284424e-01 4.123759567737579346e-01 -1.331670731306076050e-01
-2.393485307693481445e-01 3.618985116481781006e-01 -4.217496812343597412e-01
-4.071807861328125000e-01 4.408997297286987305e-01 1.909583806991577148e-01
-2.817190289497375488e-01 3.640811741352081299e-01 2.275327742099761963e-01
-2.328049093484878540e-01 2.662770748138427734e-01 1.089775711297988892e-01
-2.868696451187133789e-01 2.708246111869812012e-01 -3.762517571449279785e-01
-2.026585191488265991e-01 3.489919602870941162e-01 -3.479953408241271973e-01
-2.789316177368164062e-01 4.781230986118316650e-01 -1.813473701477050781e-01
-2.234208881855010986e-01 3.638371527194976807e-01 -3.932526707649230957e-01
-2.949478626251220703e-01 2.559847831726074219e-01 1.740733981132507324e-01
-2.664561867713928223e-01 3.299587070941925049e-01 2.076768577098846436e-01
-3.701941370964050293e-01 4.925352334976196289e-01 -1.685172617435455322e-01
-2.061709165573120117e-01 2.364306747913360596e-01 -3.353049159049987793e-01
-3.277361989021301270e-01 2.536154985427856445e-01 1.412303447723388672e-01
-2.201105952262878418e-01 2.655519247055053711e-01 7.284021377563476562e-02
-3.517929613590240479e-01 5.093489289283752441e-01 -1.113677620887756348e-01
-2.769844830036163330e-01 2.199132889509201050e-01 7.583932578563690186e-02
-3.417430520057678223e-01 2.673462033271789551e-01 -2.144393771886825562e-01
-4.094418287277221680e-01 4.846919775009155273e-01 2.408795058727264404e-02
-2.025280743837356567e-01 2.925075888633728027e-01 1.822304725646972656e-02
-2.138843238353729248e-01 3.866474628448486328e-01 -4.685376957058906555e-02
-2.819440364837646484e-01 4.050123691558837891e-01 1.942668855190277100e-01
-4.018715620040893555e-01 3.549853265285491943e-01 -1.082250699400901794e-01
-2.870701849460601807e-01 2.033322155475616455e-01 -8.365172147750854492e-02
-2.376778572797775269e-01 3.266899287700653076e-01 1.407136321067810059e-01
-2.674385607242584229e-01 4.666891396045684814e-01 -4.210820049047470093e-02
-3.312176167964935303e-01 4.367971718311309814e-01 2.356337904930114746e-01
-2.537248134613037109e-01 3.404876887798309326e-01 1.787254810333251953e-01
-3.070366084575653076e-01 4.052148163318634033e-01 -3.952611386775970459e-01
-1.801695227622985840e-01 2.574203610420227051e-01 -1.834742426872253418e-01
-4.043010771274566650e-01 3.359913825988769531e-01 3.649839758872985840e-02
-3.864419162273406982e-01 3.046696782112121582e-01 8.592182397842407227e-02
-3.529709875583648682e-01 4.088418185710906982e-01 -3.280229270458221436e-01
-3.250471949577331543e-01 2.472058385610580444e-01 1.236433833837509155e-01
-2.447074800729751587e-01 2.102763056755065918e-01 -2.817134857177734375e-01
-3.212897181510925293e-01 2.728275060653686523e-01 1.992714107036590576e-01
-3.616654574871063232e-01 3.713894784450531006e-01 -3.063760697841644287e-01
-2.703353166580200195e-01 2.213744223117828369e-01 -2.899813354015350342e-01
-2.001201361417770386e-01 3.606049120426177979e-01 -7.798673957586288452e-02
-3.236350715160369873e-01 2.619256377220153809e-01 -2.705320417881011963e-01
-1.807920038700103760e-01 3.022232353687286377e-01 -1.523481607437133789e-01
-2.668111622333526611e-01 2.034111469984054565e-01 -2.114107906818389893e-01
-4.199457764625549316e-01 3.857879042625427246e-01 5.113869905471801758e-02
-3.766261935234069824e-01 4.687089025974273682e-01 -2.128058075904846191e-01
-2.106644213199615479e-01 3.874915838241577148e-01 -8.008687943220138550e-02
-2.383764088153839111e-01 1.980372369289398193e-01 -2.139243036508560181e-01
-2.989519536495208740e-01 4.916304349899291992e-01 -1.824857294559478760e-02
-2.791614532470703125e-01 2.785820960998535156e-01 -3.977141976356506348e-01
-3.432078063488006592e-01 3.556453287601470947e-01 -3.473802804946899414e-01
-3.885036110877990723e-01 4.195358157157897949e-01 2.466505765914916992e-01
-3.504966795444488525e-01 2.562635838985443115e-01 6.338238716125488281e-02
-3.550286889076232910e-01 3.157502412796020508e-01 2.375567555427551270e-01
-4.062184989452362061e-01 4.842872023582458496e-01 9.000474214553833008e-02
-4.215071797370910645e-01 4.375807046890258789e-01 1.088054627180099487e-01
-2.684238553047180176e-01 1.967318356037139893e-01 -9.134745597839355469e-02
-4.224998056888580322e-01 4.061922430992126465e-01 1.389166712760925293e-02
-3.747897446155548096e-01 3.123151361942291260e-01 -1.795685589313507080e-01
-2.692460119724273682e-01 2.703666090965270996e-01 1.793191730976104736e-01
-3.905687630176544189e-01 3.210405409336090088e-01 1.372370570898056030e-01
-3.948901891708374023e-01 5.003393888473510742e-01 -1.192568987607955933e-02
-2.255449593067169189e-01 2.820540964603424072e-01 -4.175373911857604980e-01
-2.471048533916473389e-01 3.559367060661315918e-01 1.532360017299652100e-01
-4.193471074104309082e-01 4.074762761592864990e-01 -4.097618535161018372e-02
-2.366936802864074707e-01 4.069285988807678223e-01 -3.461709916591644287e-01
-3.557038307189941406e-01 3.754145801067352295e-01 2.803092598915100098e-01
-3.623186051845550537e-01 5.054114460945129395e-01 -1.264503747224807739e-01
-2.177486717700958252e-01 3.850028216838836670e-01 -1.321731507778167725e-02
-1.892265677452087402e-01 2.287909239530563354e-01 -2.134229689836502075e-01
-2.148460745811462402e-01 2.282809764146804810e-01 -2.069376409053802490e-03
-1.957236528396606445e-01 3.382700383663177490e-01 -5.876751244068145752e-02
-4.065735340118408203e-01 4.785247147083282471e-01 -6.227807700634002686e-02
-4.076908528804779053e-01 3.586924076080322266e-01 1.380884349346160889e-01
-2.339307218790054321e-01 3.457584977149963379e-01 1.198311895132064819e-01
-3.157036006450653076e-01 3.790752291679382324e-01 2.672792375087738037e-01
-3.406684696674346924e-01 4.605666399002075195e-01 2.068402469158172607e-01
-4.170758128166198730e-01 4.614937305450439453e-01 -2.231062576174736023e-02
-2.428314238786697388e-01 2.974320948123931885e-01 1.529294103384017944e-01
-3.962806463241577148e-01 3.530202507972717285e-01 -1.438693553209304810e-01
-2.581460773944854736e-01 1.986691802740097046e-01 -1.956484019756317139e-01
-2.015283405780792236e-01 2.538270950317382812e-01 -3.560487627983093262e-01
-2.030376940965652466e-01 3.392728269100189209e-01 -3.644565641880035400e-01
-2.515026926994323730e-01 4.541499614715576172e-01 -1.824595928192138672e-01
-3.025094568729400635e-01 2.118989080190658569e-01 -4.195023328065872192e-02
-1.809748709201812744e-01 3.107443451881408691e-01 -2.460029125213623047e-01
-3.826940357685089111e-01 2.973517477512359619e-01 -4.710410162806510925e-02
-3.758009374141693115e-01 2.845826745033264160e-01 -2.782856300473213196e-02
-3.571535646915435791e-01 4.924980998039245605e-01 1.372627913951873779e-01
-4.154769182205200195e-01 3.689458966255187988e-01 7.269087433815002441e-02
-3.406567573547363281e-01 3.285049498081207275e-01 -3.342824876308441162e-01
-3.552961349487304688e-01 2.854846119880676270e-01 -2.068974822759628296e-01
-3.783424198627471924e-01 3.272285461425781250e-01 2.082534432411193848e-01
-4.129218757152557373e-01 3.682841956615447998e-01 -3.345528244972229004e-02
-2.180913239717483521e-01 3.758416771888732910e-01 1.195076107978820801e-02
-2.103306949138641357e-01 3.383965790271759033e-01 3.110910207033157349e-02
-4.100366234779357910e-01 3.815465271472930908e-01 -9.540639817714691162e-02
-3.028281927108764648e-01 3.148934245109558105e-01 2.491619884967803955e-01
-1.839241385459899902e-01 2.493032813072204590e-01 -2.630576193332672119e-01
-2.986501157283782959e-01 2.200381755828857422e-01 -2.027426958084106445e-01
-3.402028679847717285e-01 2.479500174522399902e-01 -1.319651305675506592e-01
-2.555468082427978516e-01 1.947496384382247925e-01 -1.506977677345275879e-01
-3.222957551479339600e-01 2.424356937408447266e-01 -2.091010361909866333e-01
-2.866858243942260742e-01 4.809463620185852051e-01 -8.281864225864410400e-03
-1.988033056259155273e-01 2.429311871528625488e-01 -3.984355926513671875e-02
-4.145691990852355957e-01 3.732565641403198242e-01 1.139466762542724609e-01
-2.617929279804229736e-01 2.012360394001007080e-01 -1.728010177612304688e-02
-3.511310815811157227e-01 5.065587759017944336e-01 6.206299364566802979e-02
-3.734596371650695801e-01 2.802897691726684570e-01 1.171822845935821533e-02
-2.389473766088485718e-01 4.247413873672485352e-01 -2.964330017566680908e-01
-3.077903389930725098e-01 2.433325499296188354e-01 -2.679644227027893066e-01
-3.888466358184814453e-01 4.236961007118225098e-01 -2.216524034738540649e-01
-2.478892505168914795e-01 2.422925531864166260e-01 -3.699644804000854492e-01
-2.122864425182342529e-01 3.590228557586669922e-01 -3.691125512123107910e-01
-2.012982517480850220e-01 2.529156804084777832e-01 -1.176843047142028809e-02
-2.267926037311553955e-01 2.414147257804870605e-01 -3.694864809513092041e-01
-2.210478484630584717e-01 4.018226265907287598e-01 -2.955600619316101074e-01
-3.018050193786621094e-01 4.590373933315277100e-01 -3.159326910972595215e-01
-2.249938249588012695e-01 3.304495513439178467e-01 9.862403571605682373e-02
-2.510107159614562988e-01 4.030827581882476807e-01 1.072876155376434326e-01
-3.799611330032348633e-01 3.048348426818847656e-01 1.404915153980255127e-01
-2.734663188457489014e-01 4.764900803565979004e-01 -1.075582727789878845e-01
-3.565587401390075684e-01 2.785105109214782715e-01 -1.767663657665252686e-01
-3.971394896507263184e-01 4.851483106613159180e-01 1.294393837451934814e-01
-3.975613713264465332e-01 3.275311291217803955e-01 1.056953668594360352e-01
-2.997292578220367432e-01 3.046936690807342529e-01 -3.968407809734344482e-01
-3.388456702232360840e-01 4.874805510044097900e-01 1.347028017044067383e-01
-3.002192676067352295e-01 4.673126041889190674e-01 -2.920597195625305176e-01
-3.204116225242614746e-01 3.359579741954803467e-01 2.690632939338684082e-01
-2.018628269433975220e-01 2.191675454378128052e-01 -2.668751478195190430e-01
-3.924288153648376465e-01 3.116897940635681152e-01 4.749532043933868408e-02
-3.820648193359375000e-01 3.047718405723571777e-01 -1.025243103504180908e-01
-3.354894220829010010e-01 2.503926157951354980e-01 1.074607968330383301e-01
-1.987010538578033447e-01 3.639719486236572266e-01 -2.806622982025146484e-01
-2.753775119781494141e-01 4.562224149703979492e-01 6.219117343425750732e-02
-2.318750321865081787e-01 2.058119028806686401e-01 -2.639308869838714600e-01
-3.196733295917510986e-01 3.366574943065643311e-01 -3.864534795284271240e-01
-1.798466145992279053e-01 2.638368010520935059e-01 -2.469618469476699829e-01
-2.391936480998992920e-01 4.369357228279113770e-01 -8.155125379562377930e-02
-2.371908575296401978e-01 2.293057590723037720e-01 6.156289577484130859e-02
-2.078893184661865234e-01 2.057455629110336304e-01 -1.867737472057342529e-01
-3.802190721035003662e-01 4.936708807945251465e-01 1.300462037324905396e-01
-2.177582085132598877e-01 3.161597549915313721e-01 -4.168469905853271484e-01
-2.085309624671936035e-01 2.255540490150451660e-01 -3.424725681543350220e-02
-3.539306819438934326e-01 2.843654155731201172e-01 1.755619347095489502e-01
-2.013669312000274658e-01 3.100983798503875732e-01 -3.821840882301330566e-01
-2.574990093708038330e-01 4.495825171470642090e-01 -2.662140727043151855e-01
-2.926596105098724365e-01 4.905107021331787109e-01 -1.301287114620208740e-01
-3.216090202331542969e-01 3.204657137393951416e-01 -3.713357746601104736e-01
-3.684554100036621094e-01 5.109706521034240723e-01 2.780251204967498779e-02
-3.937043249607086182e-01 3.139894604682922363e-01 2.607136964797973633e-03
-2.672502696514129639e-01 2.074352651834487915e-01 -2.354709804058074951e-01
-2.931770086288452148e-01 4.711029529571533203e-01 -2.710019946098327637e-01
-2.489832341670989990e-01 4.109770953655242920e-01 8.316962420940399170e-02
-2.272946834564208984e-01 4.209706187248229980e-01 -9.746201336383819580e-02
-2.010262012481689453e-01 3.177304267883300781e-01 1.812011003494262695e-03
-3.519462645053863525e-01 4.980588555335998535e-01 1.103660315275192261e-01
-2.398101389408111572e-01 2.557780742645263672e-01 -3.950138688087463379e-01
-3.833983540534973145e-01 3.324300944805145264e-01 -1.790934950113296509e-01
-2.722864747047424316e-01 4.177761673927307129e-01 1.503825932741165161e-01
-2.430615872144699097e-01 4.331742525100708008e-01 -2.067734673619270325e-02
-2.720990478992462158e-01 2.433618009090423584e-01 -3.481647670269012451e-01
-3.351774513721466064e-01 5.105459690093994141e-01 -7.070507109165191650e-02
-2.813274264335632324e-01 3.405637145042419434e-01 2.326201200485229492e-01
-3.781831264495849609e-01 4.946037530899047852e-01 -1.391609311103820801e-01
-4.233683943748474121e-01 4.297313094139099121e-01 8.661815524101257324e-02
-2.897807657718658447e-01 4.876052737236022949e-01 -1.517811566591262817e-01
-3.890500068664550781e-01 4.640822708606719971e-01 1.994124948978424072e-01
-2.098684012889862061e-01 3.949368298053741455e-01 -1.478766053915023804e-01
-2.725303471088409424e-01 2.016471624374389648e-01 -1.780228763818740845e-01
-4.217466413974761963e-01 4.138005673885345459e-01 -1.458110660314559937e-02
-1.902485936880111694e-01 3.494352698326110840e-01 -2.340513020753860474e-01
-2.209934443235397339e-01 4.151304960250854492e-01 -1.651877611875534058e-01
-3.898536562919616699e-01 3.132030069828033447e-01 -6.511114537715911865e-02
-4.097915589809417725e-01 4.003577828407287598e-01 -1.178132593631744385e-01
-3.572466373443603516e-01 2.613390088081359863e-01 -6.704466044902801514e-02
-3.839457929134368896e-01 4.978123307228088379e-01 1.060330718755722046e-01
-2.387389093637466431e-01 2.389428615570068359e-01 8.481222391128540039e-02
-2.210560142993927002e-01 4.146611392498016357e-01 -1.999140679836273193e-01
-4.093863964080810547e-01 4.814339280128479004e-01 -2.033710107207298279e-02
-2.752473950386047363e-01 2.048442363739013672e-01 -1.032985746860504150e-03
-1.989163160324096680e-01 3.734649717807769775e-01 -1.885389387607574463e-01
-4.198969304561614990e-01 3.926972746849060059e-01 -4.589788615703582764e-03
-3.444195687770843506e-01 5.122873783111572266e-01 -2.282299846410751343e-02
-2.026336342096328735e-01 3.595645725727081299e-01 -5.273848026990890503e-02
-3.371157348155975342e-01 2.454317659139633179e-01 7.245783507823944092e-02
-3.737827539443969727e-01 5.109975934028625488e-01 9.503312408924102783e-03
-3.480565249919891357e-01 2.862249016761779785e-01 1.938115358352661133e-01
-3.077010512351989746e-01 2.467503100633621216e-01 1.477385908365249634e-01
-4.102313518524169922e-01 4.643810987472534180e-01 -7.806133478879928589e-02
-4.091234207153320312e-01 4.408598542213439941e-01 -1.194028630852699280e-01
-3.023805320262908936e-01 4.657548964023590088e-01 1.246279031038284302e-01
-3.250684738159179688e-01 4.962091445922851562e-01 -1.953042298555374146e-01
-3.772488236427307129e-01 2.899230122566223145e-01 7.930448651313781738e-02
-2.012621313333511353e-01 2.139332741498947144e-01 -1.318576484918594360e-01
-2.939753532409667969e-01 3.789266049861907959e-01 2.403147518634796143e-01
-2.819050252437591553e-01 2.379785925149917603e-01 -3.183634877204895020e-01
-1.786001026630401611e-01 2.957737743854522705e-01 -1.985943317413330078e-01
-2.794616818428039551e-01 3.449761867523193359e-01 -4.362399876117706299e-01
-1.918189376592636108e-01 3.077474832534790039e-01 -4.729394242167472839e-02
-2.187719643115997314e-01 1.994521021842956543e-01 -1.378893703222274780e-01
-3.721173405647277832e-01 3.668111860752105713e-01 -2.711127996444702148e-01
-3.111124932765960693e-01 2.169476896524429321e-01 -6.018843874335289001e-02
-3.499060273170471191e-01 2.611243426799774170e-01 1.000800877809524536e-01
-3.341799676418304443e-01 4.870641231536865234e-01 -2.350131124258041382e-01
-3.304893076419830322e-01 2.320738434791564941e-01 -5.350079759955406189e-02
-1.992737352848052979e-01 3.421935439109802246e-01 -3.931303322315216064e-02
-1.923579871654510498e-01 2.246237546205520630e-01 -1.536580920219421387e-01
-3.845818042755126953e-01 4.542633295059204102e-01 2.204094529151916504e-01
-4.134277701377868652e-01 4.091542065143585205e-01 1.756026744842529297e-01
-3.337562084197998047e-01 2.349642813205718994e-01 -2.256803587079048157e-02
-1.856169551610946655e-01 3.321304023265838623e-01 -2.491005808115005493e-01
-4.039043188095092773e-01 4.106405377388000488e-01 -1.571325957775115967e-01
-2.576815485954284668e-01 3.995788693428039551e-01 1.361667066812515259e-01
-2.477072477340698242e-01 4.366718530654907227e-01 -2.846895456314086914e-01
-3.428299129009246826e-01 3.335942029953002930e-01 2.672989368438720703e-01
-2.325987368822097778e-01 1.957031637430191040e-01 -1.073434799909591675e-01
-3.381325006484985352e-01 4.528422057628631592e-01 -3.114847540855407715e-01
-2.504434585571289062e-01 4.307354092597961426e-01 3.476498275995254517e-02
-3.283636271953582764e-01 4.823927879333496094e-01 -2.524541020393371582e-01
-2.409837990999221802e-01 3.909441530704498291e-01 9.093128144741058350e-02
-2.842604815959930420e-01 3.016619980335235596e-01 -4.150729477405548096e-01
-1.921947002410888672e-01 3.479278683662414551e-01 -1.220673173666000366e-01
-2.726571261882781982e-01 2.443470060825347900e-01 1.417020857334136963e-01
-2.271764725446701050e-01 3.461751341819763184e-01 -4.178501963615417480e-01
-4.241511225700378418e-01 4.265088140964508057e-01 3.987905383110046387e-02
-2.718614339828491211e-01 2.172654420137405396e-01 -2.714941501617431641e-01
-2.381546497344970703e-01 2.056445777416229248e-01 -1.479372382164001465e-02
-2.351585179567337036e-01 4.113367497920989990e-01 1.493141055107116699e-02
-3.499992191791534424e-01 3.453380465507507324e-01 -3.238006234169006348e-01
-2.973850369453430176e-01 4.941442608833312988e-01 -9.283667057752609253e-02
-3.408199548721313477e-01 2.527014315128326416e-01 -1.570582091808319092e-01
-2.704382836818695068e-01 4.671558141708374023e-01 -2.062256634235382080e-02
-2.374443709850311279e-01 4.351286590099334717e-01 -2.243868857622146606e-01
-3.949834406375885010e-01 4.982329010963439941e-01 -3.885684162378311157e-02
-2.886366248130798340e-01 4.501495659351348877e-01 -3.302767276763916016e-01
-2.351805269718170166e-01 3.006084263324737549e-01 1.345787942409515381e-01
-2.483311146497726440e-01 2.032018303871154785e-01 -2.439372837543487549e-01
-1.934002637863159180e-01 2.276924699544906616e-01 -1.202833354473114014e-01
-2.041019797325134277e-01 3.779775202274322510e-01 -2.691942155361175537e-01
-4.010092020034790039e-01 3.581732511520385742e-01 1.803134381771087646e-01
-3.223026692867279053e-01 2.338832020759582520e-01 6.686088442802429199e-02
-1.814700067043304443e-01 2.711710333824157715e-01 -1.310325264930725098e-01
-2.168729454278945923e-01 3.175603747367858887e-01 7.433106005191802979e-02
-3.280007839202880859e-01 2.315383404493331909e-01 -9.391262382268905640e-02
-2.714180350303649902e-01 3.901089429855346680e-01 -4.178163707256317139e-01
-2.326163053512573242e-01 3.834103345870971680e-01 6.940670311450958252e-02
-4.148501753807067871e-01 4.548499584197998047e-01 -6.201834231615066528e-02
-2.987788617610931396e-01 4.906190037727355957e-01 -1.755645275115966797e-01
-3.740241527557373047e-01 4.747002720832824707e-01 1.905323266983032227e-01
-4.124400615692138672e-01 4.407176077365875244e-01 1.704699397087097168e-01
-2.302905321121215820e-01 4.177666902542114258e-01 -2.809728384017944336e-01
-2.327719181776046753e-01 2.126998752355575562e-01 3.590144217014312744e-03
-3.926324546337127686e-01 3.115146160125732422e-01 2.210164815187454224e-02
-2.564330995082855225e-01 4.319174289703369141e-01 6.025867164134979248e-02
-2.723012566566467285e-01 3.152253627777099609e-01 -4.341253042221069336e-01
-3.539651632308959961e-01 4.854345917701721191e-01 1.585774719715118408e-01
-3.600165247917175293e-01 4.662036895751953125e-01 2.086466848850250244e-01
-2.237201035022735596e-01 1.970827281475067139e-01 -1.612729281187057495e-01
-3.181122839450836182e-01 5.002339482307434082e-01 -1.577339172363281250e-01
-3.753472268581390381e-01 3.871517479419708252e-01 -2.697165012359619141e-01
-3.664422035217285156e-01 3.111744225025177002e-01 2.084677219390869141e-01
-2.184101492166519165e-01 2.317256778478622437e-01 1.803319156169891357e-02
-1.847185790538787842e-01 2.788516283035278320e-01 -9.339036792516708374e-02
-3.451295793056488037e-01 2.667104601860046387e-01 1.437944173812866211e-01
-3.278960585594177246e-01 4.981309473514556885e-01 6.463100016117095947e-02
-3.810420632362365723e-01 3.775847852230072021e-01 -2.455379366874694824e-01
-2.814349830150604248e-01 2.498957514762878418e-01 1.582006961107254028e-01
-3.925399184226989746e-01 4.792799651622772217e-01 -1.368671059608459473e-01
-2.986935675144195557e-01 2.251408845186233521e-01 -2.289725095033645630e-01
-2.970178425312042236e-01 4.528887271881103516e-01 1.452996283769607544e-01
-3.758062720298767090e-01 3.614507317543029785e-01 -2.537746131420135498e-01
-1.849675774574279785e-01 2.952679097652435303e-01 -3.142133057117462158e-01
-2.838826775550842285e-01 -5.340732932090759277e-01 3.409205377101898193e-01
-2.864911556243896484e-01 -5.655286312103271484e-01 3.646590709686279297e-01
-2.783333957195281982e-01 -5.421346426010131836e-01 3.495087921619415283e-01
-2.867311537265777588e-01 -5.731685161590576172e-01 3.411110043525695801e-01
-2.978625595569610596e-01 -5.723813772201538086e-01 3.435031175613403320e-01
-2.933190762996673584e-01 -5.375676751136779785e-01 3.545035421848297119e-01
-2.885949015617370605e-01 -5.149204730987548828e-01 3.525702357292175293e-01
-2.843289673328399658e-01 -5.492342114448547363e-01 3.644228875637054443e-01
-2.760793864727020264e-01 -5.547559261322021484e-01 3.578349649906158447e-01
-2.916837930679321289e-01 -5.336210131645202637e-01 3.558067083358764648e-01
-2.775598168373107910e-01 -5.786526799201965332e-01 3.625055551528930664e-01
-2.900595664978027344e-01 -5.202797055244445801e-01 3.535485863685607910e-01
-2.895951867103576660e-01 -5.451766848564147949e-01 3.602997660636901855e-01
-2.947879433631896973e-01 -5.840932726860046387e-01 3.538831174373626709e-01
-2.891063988208770752e-01 -5.593361854553222656e-01 3.623227775096893311e-01
-2.938054203987121582e-01 -5.897907018661499023e-01 3.544121384620666504e-01
-2.865366637706756592e-01 -5.676874518394470215e-01 3.646968007087707520e-01
-2.982861399650573730e-01 -5.674922466278076172e-01 3.435662090778350830e-01
-2.971436381340026855e-01 -5.697242617607116699e-01 3.501490354537963867e-01
-2.820816338062286377e-01 -5.929371714591979980e-01 3.523264229297637939e-01
-2.864826619625091553e-01 -5.123135447502136230e-01 3.524998724460601807e-01
-2.812198698520660400e-01 -5.854873657226562500e-01 3.505853712558746338e-01
-2.957317233085632324e-01 -5.330337882041931152e-01 3.488252162933349609e-01
-2.927758693695068359e-01 -5.532389879226684570e-01 3.577634394168853760e-01
-2.965748012065887451e-01 -5.798903703689575195e-01 3.498579263687133789e-01
-2.933754920959472656e-01 -5.626246929168701172e-01 3.576498031616210938e-01
-2.887920439243316650e-01 -5.131859183311462402e-01 3.513579070568084717e-01
-2.944837212562561035e-01 -5.684573650360107422e-01 3.377038836479187012e-01
-2.930827438831329346e-01 -5.332307219505310059e-01 3.538090884685516357e-01
-2.831081151962280273e-01 -5.546424984931945801e-01 3.654587864875793457e-01
-2.916525900363922119e-01 -5.733957886695861816e-01 3.386631608009338379e-01
-2.824048399925231934e-01 -5.194248557090759277e-01 3.453375399112701416e-01
-2.773775458335876465e-01 -5.497786998748779297e-01 3.517950773239135742e-01
-2.891540527343750000e-01 -5.734061598777770996e-01 3.395887315273284912e-01
-2.967804670333862305e-01 -5.505388975143432617e-01 3.367810547351837158e-01
-2.912151813507080078e-01 -6.003292798995971680e-01 3.537938296794891357e-01
-2.890383601188659668e-01 -5.977882146835327148e-01 3.592500090599060059e-01
-2.942700684070587158e-01 -5.453327894210815430e-01 3.545343577861785889e-01
-2.935850620269775391e-01 -5.783092975616455078e-01 3.570681512355804443e-01
-2.984396219253540039e-01 -5.606223344802856445e-01 3.454125821590423584e-01
-2.807758748531341553e-01 -5.348945856094360352e-01 3.451583087444305420e-01
-2.835478186607360840e-01 -5.429595112800598145e-01 3.637501895427703857e-01
-2.843022346496582031e-01 -5.319280624389648438e-01 3.611816167831420898e-01
-2.840692400932312012e-01 -5.109847187995910645e-01 3.508554995059967041e-01
-2.921553552150726318e-01 -5.305610299110412598e-01 3.544012010097503662e-01
-2.926193475723266602e-01 -5.550256371498107910e-01 3.358605504035949707e-01
-2.867138981819152832e-01 -5.263369083404541016e-01 3.584806919097900391e-01
-2.955906987190246582e-01 -5.881905555725097656e-01 3.486564159393310547e-01
-2.846056222915649414e-01 -5.598041415214538574e-01 3.409965634346008301e-01
-2.960545420646667480e-01 -5.766976475715637207e-01 3.522948622703552246e-01
-2.827701270580291748e-01 -5.136389136314392090e-01 3.527666628360748291e-01
-2.986288070678710938e-01 -5.558772087097167969e-01 3.417903780937194824e-01
-2.929100394248962402e-01 -5.472291111946105957e-01 3.568314611911773682e-01
-2.772870361804962158e-01 -5.351269841194152832e-01 3.553185462951660156e-01
-2.901748716831207275e-01 -5.104990005493164062e-01 3.471381664276123047e-01
-2.920840978622436523e-01 -5.496162772178649902e-01 3.582240641117095947e-01
-2.935317158699035645e-01 -5.923907756805419922e-01 3.454869091510772705e-01
-2.784229516983032227e-01 -5.282745361328125000e-01 3.527763187885284424e-01
-2.917101383209228516e-01 -5.285104513168334961e-01 3.543988764286041260e-01
-2.957948148250579834e-01 -5.450294017791748047e-01 3.517375886440277100e-01
-2.813672721385955811e-01 -5.444411635398864746e-01 3.439084291458129883e-01
-2.865300774574279785e-01 -5.585486888885498047e-01 3.642347157001495361e-01
-2.797376513481140137e-01 -5.346437096595764160e-01 3.470930159091949463e-01
-2.902854382991790771e-01 -5.799368023872375488e-01 3.405340313911437988e-01
-2.768000364303588867e-01 -5.730130076408386230e-01 3.615589439868927002e-01
-2.971146702766418457e-01 -5.325288772583007812e-01 3.397539556026458740e-01
-2.971267998218536377e-01 -5.641242265701293945e-01 3.386786580085754395e-01
-2.894166707992553711e-01 -6.029545664787292480e-01 3.540788888931274414e-01
-2.924099564552307129e-01 -5.143134593963623047e-01 3.407056927680969238e-01
-2.954526543617248535e-01 -5.551968216896057129e-01 3.537777364253997803e-01
-2.912879586219787598e-01 -5.755280256271362305e-01 3.391976952552795410e-01
-2.958207726478576660e-01 -5.821418762207031250e-01 3.426073789596557617e-01
-2.760721147060394287e-01 -5.607161521911621094e-01 3.596302270889282227e-01
-2.794779837131500244e-01 -5.423873662948608398e-01 3.470506072044372559e-01
-2.907016575336456299e-01 -5.264813899993896484e-01 3.366002440452575684e-01
-2.943603098392486572e-01 -5.652918815612792969e-01 3.371275365352630615e-01
-2.882518172264099121e-01 -5.347875356674194336e-01 3.370738923549652100e-01
-2.946924567222595215e-01 -5.390251874923706055e-01 3.526042103767395020e-01
-2.981742322444915771e-01 -5.435848236083984375e-01 3.400495946407318115e-01
-2.943358719348907471e-01 -5.364329814910888672e-01 3.526169359683990479e-01
-2.789071202278137207e-01 -5.640861988067626953e-01 3.494965434074401855e-01
-2.912946939468383789e-01 -5.414333939552307129e-01 3.579080998897552490e-01
-2.915429472923278809e-01 -5.119420289993286133e-01 3.457143008708953857e-01
-2.836959958076477051e-01 -5.960085988044738770e-01 3.513525426387786865e-01
-2.797475159168243408e-01 -5.650175213813781738e-01 3.661978542804718018e-01
-2.814784049987792969e-01 -5.315446257591247559e-01 3.443433940410614014e-01
-2.888435721397399902e-01 -5.999177098274230957e-01 3.584595322608947754e-01
-2.848633527755737305e-01 -5.150349736213684082e-01 3.432064652442932129e-01
-2.941382825374603271e-01 -5.710698366165161133e-01 3.565824329853057861e-01
-2.867063581943511963e-01 -5.323651432991027832e-01 3.382970094680786133e-01
-2.833638489246368408e-01 -5.735628008842468262e-01 3.661944568157196045e-01
-2.959769666194915771e-01 -5.605159997940063477e-01 3.531334996223449707e-01
-2.986138164997100830e-01 -5.538432002067565918e-01 3.414856195449829102e-01
-2.763757705688476562e-01 -5.524932742118835449e-01 3.555634021759033203e-01
-2.833578884601593018e-01 -5.875604748725891113e-01 3.650263547897338867e-01
-2.932881116867065430e-01 -5.167528390884399414e-01 3.461893796920776367e-01
-2.922863960266113281e-01 -5.460992455482482910e-01 3.353963196277618408e-01
-2.909089326858520508e-01 -5.574125051498413086e-01 3.364971578121185303e-01
-2.778159976005554199e-01 -5.631006360054016113e-01 3.517707288265228271e-01
-2.800127863883972168e-01 -5.929954648017883301e-01 3.594938516616821289e-01
-2.761750221252441406e-01 -5.517576932907104492e-01 3.599799871444702148e-01
-2.968210577964782715e-01 -5.810164809226989746e-01 3.448358178138732910e-01
-2.767697572708129883e-01 -5.735674500465393066e-01 3.593519032001495361e-01
-2.902458906173706055e-01 -5.628182888031005859e-01 3.614470362663269043e-01
-2.958102226257324219e-01 -5.352149009704589844e-01 3.493553698062896729e-01
-2.797068357467651367e-01 -5.321638584136962891e-01 3.475029170513153076e-01
-2.969348132610321045e-01 -5.806541442871093750e-01 3.471151292324066162e-01
-2.911011874675750732e-01 -5.869010686874389648e-01 3.595868647098541260e-01
-2.955100238323211670e-01 -5.374518036842346191e-01 3.506531417369842529e-01
-2.918550670146942139e-01 -5.782679915428161621e-01 3.397222757339477539e-01
-2.773205041885375977e-01 -5.462351441383361816e-01 3.520457744598388672e-01
-2.877075076103210449e-01 -5.090026259422302246e-01 3.485784828662872314e-01
-2.951950728893280029e-01 -5.428913831710815430e-01 3.525012731552124023e-01
-2.762323021888732910e-01 -5.550890564918518066e-01 3.610717654228210449e-01
-2.816146910190582275e-01 -5.956400036811828613e-01 3.551585972309112549e-01
-2.936028242111206055e-01 -5.188058614730834961e-01 3.470158874988555908e-01
-2.777487933635711670e-01 -5.763139724731445312e-01 3.638114631175994873e-01
-2.888943552970886230e-01 -5.430862903594970703e-01 3.365945816040039062e-01
-2.931798994541168213e-01 -5.960520505905151367e-01 3.522190153598785400e-01
-2.867255508899688721e-01 -5.927284955978393555e-01 3.627092540264129639e-01
-2.929546833038330078e-01 -5.681772828102111816e-01 3.583870828151702881e-01
-2.893074750900268555e-01 -5.394028425216674805e-01 3.595845401287078857e-01
-2.843163907527923584e-01 -5.201079845428466797e-01 3.422995507717132568e-01
-2.777556478977203369e-01 -5.582469105720520020e-01 3.512836694717407227e-01
-2.774764001369476318e-01 -5.801174640655517578e-01 3.602266609668731689e-01
-2.766803205013275146e-01 -5.670406818389892578e-01 3.562968969345092773e-01
-2.849418520927429199e-01 -6.006677150726318359e-01 3.604534268379211426e-01
-2.918427288532257080e-01 -5.196384787559509277e-01 3.509242534637451172e-01
-2.971911728382110596e-01 -5.411823391914367676e-01 3.375311791896820068e-01
-2.805756628513336182e-01 -5.480826497077941895e-01 3.451733589172363281e-01
-2.804649472236633301e-01 -5.894201397895812988e-01 3.538177311420440674e-01
-2.852205038070678711e-01 -5.415949821472167969e-01 3.393452465534210205e-01
-2.813639938831329346e-01 -5.426341891288757324e-01 3.640069365501403809e-01
-2.935175299644470215e-01 -5.589506030082702637e-01 3.572378754615783691e-01
-2.895775437355041504e-01 -5.687907338142395020e-01 3.623023331165313721e-01
-2.886315882205963135e-01 -5.714825391769409180e-01 3.631790280342102051e-01
-2.856327891349792480e-01 -5.831114649772644043e-01 3.443063795566558838e-01
-2.805330157279968262e-01 -5.583538413047790527e-01 3.660142123699188232e-01
-2.956897318363189697e-01 -5.242513418197631836e-01 3.441493213176727295e-01
-2.908242344856262207e-01 -5.942655801773071289e-01 3.453884720802307129e-01
-2.977414429187774658e-01 -5.381064414978027344e-01 3.438136577606201172e-01
-2.866583764553070068e-01 -6.031208038330078125e-01 3.533723652362823486e-01
-2.968639433383941650e-01 -5.304262042045593262e-01 3.434594273567199707e-01
-2.782600820064544678e-01 -5.846029520034790039e-01 3.584533035755157471e-01
-2.943869233131408691e-01 -5.927843451499938965e-01 3.478831350803375244e-01
-2.892772257328033447e-01 -5.824499130249023438e-01 3.621386885643005371e-01
-2.829742133617401123e-01 -5.765312314033508301e-01 3.661918044090270996e-01
-2.779248058795928955e-01 -5.307312607765197754e-01 3.540076315402984619e-01
-2.829860448837280273e-01 -5.172356367111206055e-01 3.451413512229919434e-01
-2.831804156303405762e-01 -5.866392254829406738e-01 3.480423092842102051e-01
-2.844364345073699951e-01 -5.488453507423400879e-01 3.403027355670928955e-01
-2.797411382198333740e-01 -5.257905721664428711e-01 3.582035601139068604e-01
-2.873752713203430176e-01 -5.607016086578369141e-01 3.387390673160552979e-01
-2.947908043861389160e-01 -5.327805280685424805e-01 3.507827520370483398e-01
-2.907612323760986328e-01 -5.931555032730102539e-01 3.586878478527069092e-01
-2.777153253555297852e-01 -5.367014408111572266e-01 3.600239455699920654e-01
-2.929377257823944092e-01 -5.894842743873596191e-01 3.562787473201751709e-01
-2.824956178665161133e-01 -5.387477278709411621e-01 3.631811439990997314e-01
-2.877402305603027344e-01 -5.444580912590026855e-01 3.617616593837738037e-01
-2.972584068775177002e-01 -5.392943620681762695e-01 3.466036021709442139e-01
-2.878630757331848145e-01 -5.738914608955383301e-01 3.637882471084594727e-01
-2.945131659507751465e-01 -5.250421762466430664e-01 3.484369814395904541e-01
-2.948132753372192383e-01 -5.598248839378356934e-01 3.364630341529846191e-01
-2.867604196071624756e-01 -5.663271546363830566e-01 3.399347960948944092e-01
-2.770083546638488770e-01 -5.712829232215881348e-01 3.630659282207489014e-01
-2.843000590801239014e-01 -5.651239752769470215e-01 3.419744074344635010e-01
-2.883309423923492432e-01 -5.530111789703369141e-01 3.624205291271209717e-01
-2.784417569637298584e-01 -5.378174185752868652e-01 3.496461212635040283e-01
-2.907688021659851074e-01 -5.535543560981750488e-01 3.601894080638885498e-01
-2.781911194324493408e-01 -5.329588055610656738e-01 3.593221306800842285e-01
-2.774361073970794678e-01 -5.699853301048278809e-01 3.542636334896087646e-01
-2.772889435291290283e-01 -5.551071166992187500e-01 3.522525727748870850e-01
-2.974512875080108643e-01 -5.669782757759094238e-01 3.494063615798950195e-01
-2.762295007705688477e-01 -5.483483672142028809e-01 3.588567674160003662e-01
-2.858034074306488037e-01 -5.964593887329101562e-01 3.622034192085266113e-01
-2.933325171470642090e-01 -5.204709768295288086e-01 3.486881554126739502e-01
-2.786738276481628418e-01 -5.613961219787597656e-01 3.495864868164062500e-01
-2.871628105640411377e-01 -5.774689912796020508e-01 3.642067909240722656e-01
-2.970757782459259033e-01 -5.310348272323608398e-01 3.414877057075500488e-01
-2.806166410446166992e-01 -5.537335872650146484e-01 3.453972339630126953e-01
-2.924455106258392334e-01 -5.885172486305236816e-01 3.429304957389831543e-01
-2.853077948093414307e-01 -5.365894436836242676e-01 3.618439137935638428e-01
-2.766958773136138916e-01 -5.456512570381164551e-01 3.545047640800476074e-01
-2.786051332950592041e-01 -5.824535489082336426e-01 3.553017675876617432e-01
-2.772359549999237061e-01 -5.774737000465393066e-01 3.585779368877410889e-01
-2.983726263046264648e-01 -5.456069707870483398e-01 3.408298790454864502e-01
-2.797974944114685059e-01 -5.827414393424987793e-01 3.523246943950653076e-01
-2.959176898002624512e-01 -5.274566411972045898e-01 3.457576334476470947e-01
-2.955969572067260742e-01 -5.473416447639465332e-01 3.525232374668121338e-01
-2.834624052047729492e-01 -5.542889237403869629e-01 3.416869938373565674e-01
-2.804731726646423340e-01 -5.236746668815612793e-01 3.478747010231018066e-01
-2.805224061012268066e-01 -5.918729901313781738e-01 3.627877235412597656e-01
-2.898854017257690430e-01 -5.364884138107299805e-01 3.361389338970184326e-01
-2.913899421691894531e-01 -5.612925291061401367e-01 3.367739915847778320e-01
-2.981511056423187256e-01 -5.696081519126892090e-01 3.445479571819305420e-01
-2.846893966197967529e-01 -5.137957334518432617e-01 3.539536297321319580e-01
-2.792555093765258789e-01 -5.360997915267944336e-01 3.618306517601013184e-01
-2.810379862785339355e-01 -5.424867868423461914e-01 3.443980216979980469e-01
-2.890622913837432861e-01 -5.758174061775207520e-01 3.401261270046234131e-01
-2.966898977756500244e-01 -5.440125465393066406e-01 3.366598188877105713e-01
-2.907955050468444824e-01 -5.783082842826843262e-01 3.608506917953491211e-01
-2.836342155933380127e-01 -5.127943754196166992e-01 3.464714586734771729e-01
-2.838487029075622559e-01 -5.367708206176757812e-01 3.408344089984893799e-01
-2.842010855674743652e-01 -5.680093169212341309e-01 3.425111472606658936e-01
-2.893428206443786621e-01 -5.418083667755126953e-01 3.599874079227447510e-01
-2.825365364551544189e-01 -5.476581454277038574e-01 3.647350966930389404e-01
-2.943762242794036865e-01 -5.879008173942565918e-01 3.436791598796844482e-01
-2.778140306472778320e-01 -5.489230751991271973e-01 3.635364174842834473e-01
-2.959631383419036865e-01 -5.246914029121398926e-01 3.410259187221527100e-01
-2.974201440811157227e-01 -5.739870071411132812e-01 3.422527015209197998e-01
-2.856054306030273438e-01 -5.366625189781188965e-01 3.390489220619201660e-01
-2.875549495220184326e-01 -5.607798695564270020e-01 3.636867105960845947e-01
-2.928889691829681396e-01 -5.951229929924011230e-01 3.468135595321655273e-01
-2.877062261104583740e-01 -5.303673148155212402e-01 3.376918435096740723e-01
-2.823466360569000244e-01 -5.495067834854125977e-01 3.427228331565856934e-01
-2.976337969303131104e-01 -5.389455556869506836e-01 3.390048742294311523e-01
-2.923383116722106934e-01 -5.230658650398254395e-01 3.370045423507690430e-01
-2.818028926849365234e-01 -5.669277906417846680e-01 3.664602339267730713e-01
-2.960814833641052246e-01 -5.659556984901428223e-01 3.530302345752716064e-01
-2.853744029998779297e-01 -5.787663459777832031e-01 3.434482812881469727e-01
-2.788745164871215820e-01 -5.815801024436950684e-01 3.644084632396697998e-01
-2.946283817291259766e-01 -5.911622643470764160e-01 3.511405289173126221e-01
-2.764067351818084717e-01 -5.498931407928466797e-01 3.608126640319824219e-01
-2.863461375236511230e-01 -5.752639770507812500e-01 3.418322503566741943e-01
-2.785166501998901367e-01 -5.721094608306884766e-01 3.654001951217651367e-01
-2.830163240432739258e-01 -5.202580094337463379e-01 3.574596047401428223e-01
