-1.716318130493164062e-01 8.912324309349060059e-01 -2.063269764184951782e-01
-1.605563163757324219e-01 9.413642287254333496e-01 -2.590642571449279785e-01
-1.833106130361557007e-01 9.357137084007263184e-01 -2.040135264396667480e-01
-1.412286311388015747e-01 8.901020884513854980e-01 -3.100124597549438477e-01
-1.360778212547302246e-01 8.916298747062683105e-01 -3.152254819869995117e-01
-1.381615549325942993e-01 8.819251060485839844e-01 -2.547520399093627930e-01
-1.484302729368209839e-01 9.196769595146179199e-01 -2.949934303760528564e-01
-2.001578211784362793e-01 9.108176827430725098e-01 -2.202329933643341064e-01
-1.338304281234741211e-01 8.623426556587219238e-01 -2.836865186691284180e-01
-1.550823301076889038e-01 8.640516400337219238e-01 -2.444119155406951904e-01
-1.829700022935867310e-01 8.816092014312744141e-01 -2.537662684917449951e-01
-1.958425492048263550e-01 9.301284551620483398e-01 -1.936373114585876465e-01
-1.895542442798614502e-01 9.325970411300659180e-01 -1.972342282533645630e-01
-1.528224796056747437e-01 9.261698126792907715e-01 -2.858555614948272705e-01
-1.485536098480224609e-01 9.313613772392272949e-01 -2.384623140096664429e-01
-1.108047217130661011e-01 8.886544704437255859e-01 -3.296107053756713867e-01
-1.479582041501998901e-01 8.825153708457946777e-01 -2.397691011428833008e-01
-1.089511215686798096e-01 8.900144100189208984e-01 -3.095703125000000000e-01
-1.562212556600570679e-01 9.070181250572204590e-01 -2.907383143901824951e-01
-1.996641904115676880e-01 9.259004592895507812e-01 -1.884745210409164429e-01
-1.152171790599822998e-01 9.026470184326171875e-01 -2.892707288265228271e-01
-1.313401758670806885e-01 8.699234127998352051e-01 -2.758710086345672607e-01
-1.932414621114730835e-01 8.963292837142944336e-01 -1.845472157001495361e-01
-1.817774623632431030e-01 8.725859522819519043e-01 -2.062923908233642578e-01
-1.437305510044097900e-01 8.733928203582763672e-01 -3.035039007663726807e-01
-1.187430471181869507e-01 9.279731512069702148e-01 -2.921797931194305420e-01
-1.142103075981140137e-01 8.775244355201721191e-01 -3.217492699623107910e-01
-1.965808719396591187e-01 9.107684493064880371e-01 -1.813749372959136963e-01
-1.978896558284759521e-01 8.709751963615417480e-01 -2.164684683084487915e-01
-1.901323199272155762e-01 9.075554013252258301e-01 -2.406858801841735840e-01
-1.921403706073760986e-01 9.343814253807067871e-01 -2.111213505268096924e-01
-1.740664094686508179e-01 9.138714075088500977e-01 -2.641618847846984863e-01
-1.575899124145507812e-01 9.439494013786315918e-01 -2.560651004314422607e-01
-1.384884566068649292e-01 9.176637530326843262e-01 -2.482720464468002319e-01
-2.014340907335281372e-01 9.192072749137878418e-01 -2.116449475288391113e-01
-2.023840844631195068e-01 8.827863931655883789e-01 -2.165550887584686279e-01
-1.163802295923233032e-01 8.745442032814025879e-01 -3.188089728355407715e-01
-1.252417713403701782e-01 8.696621656417846680e-01 -2.891322374343872070e-01
-1.571774631738662720e-01 9.013680815696716309e-01 -2.908081114292144775e-01
-1.595747619867324829e-01 8.556855320930480957e-01 -2.576127052307128906e-01
-1.499022692441940308e-01 9.305728077888488770e-01 -2.857434749603271484e-01
-2.105157077312469482e-01 9.099412560462951660e-01 -1.824443787336349487e-01
-1.314655840396881104e-01 8.859734535217285156e-01 -2.636375725269317627e-01
-2.033589929342269897e-01 9.109858870506286621e-01 -2.129842638969421387e-01
-1.299660056829452515e-01 8.839966058731079102e-01 -3.198317587375640869e-01
-1.869740784168243408e-01 8.980059623718261719e-01 -1.892302334308624268e-01
-1.524216234683990479e-01 8.828417062759399414e-01 -2.333957999944686890e-01
-1.324043571949005127e-01 9.392175674438476562e-01 -2.839584648609161377e-01
-1.479837000370025635e-01 8.745924234390258789e-01 -2.445120811462402344e-01
-1.245894432067871094e-01 8.944929838180541992e-01 -2.724289298057556152e-01
-1.245376467704772949e-01 9.080564975738525391e-01 -3.227521181106567383e-01
-1.405429542064666748e-01 9.213725328445434570e-01 -3.025017976760864258e-01
-1.688084304332733154e-01 9.339818358421325684e-01 -2.145914733409881592e-01
-1.349667906761169434e-01 9.124966263771057129e-01 -3.123635649681091309e-01
-1.819455772638320923e-01 9.367812275886535645e-01 -2.318878322839736938e-01
-1.087687909603118896e-01 9.115682244300842285e-01 -3.071144223213195801e-01
-1.246571242809295654e-01 9.047071933746337891e-01 -2.705186903476715088e-01
-1.297127604484558105e-01 9.007615447044372559e-01 -2.620918452739715576e-01
-1.672695875167846680e-01 8.967759609222412109e-01 -2.098396122455596924e-01
-1.397309005260467529e-01 8.653666973114013672e-01 -3.016170561313629150e-01
-1.727918684482574463e-01 9.266631007194519043e-01 -2.587028443813323975e-01
-1.799306571483612061e-01 8.840466737747192383e-01 -2.004778534173965454e-01
-2.073227763175964355e-01 9.117612838745117188e-01 -2.020048946142196655e-01
-1.394484788179397583e-01 9.041749835014343262e-01 -2.460813522338867188e-01
-1.205058917403221130e-01 9.263901710510253906e-01 -2.853622138500213623e-01
-2.036205530166625977e-01 8.809717297554016113e-01 -2.121315598487854004e-01
-1.585337668657302856e-01 8.713590502738952637e-01 -2.325865775346755981e-01
-1.977059841156005859e-01 8.738487958908081055e-01 -2.213058471679687500e-01
-1.593391746282577515e-01 9.276155829429626465e-01 -2.767208814620971680e-01
-1.487873345613479614e-01 8.928415179252624512e-01 -3.017447292804718018e-01
-1.603492796421051025e-01 8.787739276885986328e-01 -2.251792848110198975e-01
-2.059508562088012695e-01 8.788703083992004395e-01 -1.996244639158248901e-01
-1.928538531064987183e-01 9.303821325302124023e-01 -2.187420278787612915e-01
-1.266301274299621582e-01 9.019643068313598633e-01 -2.672465741634368896e-01
-1.526959538459777832e-01 8.586174249649047852e-01 -2.803410887718200684e-01
-1.780633032321929932e-01 8.798893690109252930e-01 -2.611559927463531494e-01
-1.077261418104171753e-01 8.870100378990173340e-01 -3.218295574188232422e-01
-1.980654001235961914e-01 8.785061836242675781e-01 -2.242844998836517334e-01
-1.874785423278808594e-01 8.712399601936340332e-01 -2.411243319511413574e-01
-1.713802963495254517e-01 8.607679605484008789e-01 -2.301064580678939819e-01
-1.135586500167846680e-01 9.123374819755554199e-01 -3.262844681739807129e-01
-2.032437324523925781e-01 8.939943313598632812e-01 -1.797658503055572510e-01
-1.703118681907653809e-01 9.355260133743286133e-01 -2.539070248603820801e-01
-1.368056684732437134e-01 8.899915814399719238e-01 -2.532718777656555176e-01
-1.667281240224838257e-01 8.784518837928771973e-01 -2.176396399736404419e-01
-1.524161994457244873e-01 8.739033341407775879e-01 -2.387653738260269165e-01
-1.441214680671691895e-01 8.624886274337768555e-01 -2.630142271518707275e-01
-1.618001908063888550e-01 8.891924619674682617e-01 -2.185707688331604004e-01
-1.410293430089950562e-01 8.854726552963256836e-01 -2.485583424568176270e-01
-1.654046624898910522e-01 9.090410470962524414e-01 -2.781971693038940430e-01
-1.662845313549041748e-01 9.408653378486633301e-01 -2.518424689769744873e-01
-1.341218054294586182e-01 9.049352407455444336e-01 -3.155843913555145264e-01
-1.455562710762023926e-01 9.025877118110656738e-01 -2.371914237737655640e-01
-1.702521145343780518e-01 8.858672380447387695e-01 -2.738967239856719971e-01
-1.189390271902084351e-01 8.761487603187561035e-01 -2.953643798828125000e-01
-1.269356161355972290e-01 8.843078017234802246e-01 -2.724012434482574463e-01
-1.652036160230636597e-01 8.817971944808959961e-01 -2.802819907665252686e-01
-1.847387105226516724e-01 8.735707402229309082e-01 -2.476416081190109253e-01
-2.002252638339996338e-01 9.024332761764526367e-01 -2.230006903409957886e-01
-2.094606161117553711e-01 8.877584934234619141e-01 -1.978178024291992188e-01
-2.078376710414886475e-01 8.928962349891662598e-01 -1.800292432308197021e-01
-1.568846702575683594e-01 8.674663305282592773e-01 -2.852939069271087646e-01
-1.813381612300872803e-01 9.024051427841186523e-01 -1.937784552574157715e-01
-2.075923681259155273e-01 8.838181495666503906e-01 -2.016299068927764893e-01
-1.484888941049575806e-01 8.776444792747497559e-01 -3.000310957431793213e-01
-1.764816194772720337e-01 9.415499567985534668e-01 -2.311719655990600586e-01
-1.378435045480728149e-01 9.327524900436401367e-01 -2.956281900405883789e-01
-1.566178500652313232e-01 8.628588318824768066e-01 -2.817400097846984863e-01
-1.631685942411422729e-01 9.300244450569152832e-01 -2.697285413742065430e-01
-1.229480355978012085e-01 8.904260396957397461e-01 -3.260550200939178467e-01
-1.150224804878234863e-01 8.986195921897888184e-01 -3.302867114543914795e-01
-1.650826632976531982e-01 8.616153597831726074e-01 -2.692301571369171143e-01
-1.530263870954513550e-01 8.773437738418579102e-01 -2.356107831001281738e-01
-1.195839047431945801e-01 8.719831109046936035e-01 -3.003298342227935791e-01
-1.823269873857498169e-01 8.935049772262573242e-01 -2.560453116893768311e-01
-1.256293207406997681e-01 9.288961291313171387e-01 -2.760891914367675781e-01
-1.258599162101745605e-01 9.122242927551269531e-01 -2.685623764991760254e-01
-1.515689045190811157e-01 8.829237222671508789e-01 -2.977674007415771484e-01
-1.941660046577453613e-01 8.726754188537597656e-01 -2.285837084054946899e-01
-1.440266370773315430e-01 8.814269304275512695e-01 -3.059333860874176025e-01
-1.481756269931793213e-01 9.433352947235107422e-01 -2.548738420009613037e-01
-1.621827334165573120e-01 9.145063757896423340e-01 -2.805185914039611816e-01
-1.490549594163894653e-01 9.095664620399475098e-01 -2.318791896104812622e-01
-1.539545655250549316e-01 8.978485465049743652e-01 -2.952959537506103516e-01
-1.186083108186721802e-01 9.270476698875427246e-01 -3.115168511867523193e-01
-1.471342146396636963e-01 9.375662207603454590e-01 -2.457587867975234985e-01
-1.108661442995071411e-01 8.829092979431152344e-01 -3.253307938575744629e-01
-1.517335325479507446e-01 9.023466706275939941e-01 -2.285767644643783569e-01
-1.943332999944686890e-01 8.992248177528381348e-01 -2.350576519966125488e-01
-1.525827199220657349e-01 9.324954152107238770e-01 -2.808668017387390137e-01
-1.828867197036743164e-01 8.979233503341674805e-01 -1.929730772972106934e-01
-1.435167044401168823e-01 9.389066100120544434e-01 -2.533084750175476074e-01
-1.393925547599792480e-01 9.113712310791015625e-01 -3.084623515605926514e-01
-1.153580099344253540e-01 9.119583964347839355e-01 -2.894863188266754150e-01
-1.903724670410156250e-01 8.666367530822753906e-01 -2.298832833766937256e-01
-1.320252269506454468e-01 9.365263581275939941e-01 -2.719157040119171143e-01
-1.897004842758178711e-01 8.946382999420166016e-01 -1.877095401287078857e-01
-1.746268570423126221e-01 8.657722473144531250e-01 -2.197371125221252441e-01
-1.279696375131607056e-01 8.649625778198242188e-01 -2.922556102275848389e-01
-1.503772139549255371e-01 9.419362545013427734e-01 -2.698155343532562256e-01
-1.204511448740959167e-01 8.918058872222900391e-01 -2.811397612094879150e-01
-1.716334521770477295e-01 9.235482811927795410e-01 -2.059529423713684082e-01
-1.764277368783950806e-01 8.965477347373962402e-01 -1.997156441211700439e-01
-1.359523683786392212e-01 9.312288761138916016e-01 -2.582821846008300781e-01
-1.719886064529418945e-01 9.094015359878540039e-01 -2.688581943511962891e-01
-1.526707261800765991e-01 9.119694232940673828e-01 -2.270014435052871704e-01
-1.646689474582672119e-01 8.977628350257873535e-01 -2.815810441970825195e-01
-1.800196319818496704e-01 8.638187050819396973e-01 -2.477237135171890259e-01
-1.953548789024353027e-01 8.829535841941833496e-01 -2.319717109203338623e-01
-1.525520682334899902e-01 9.403064846992492676e-01 -2.411839514970779419e-01
-1.808766275644302368e-01 9.181816577911376953e-01 -2.516225874423980713e-01
-1.230010911822319031e-01 9.144619107246398926e-01 -2.742269337177276611e-01
-1.670598536729812622e-01 8.737551569938659668e-01 -2.752755284309387207e-01
-2.016012370586395264e-01 8.765436410903930664e-01 -2.136381268501281738e-01
-1.969585865736007690e-01 9.004577994346618652e-01 -1.812492609024047852e-01
-1.099535673856735229e-01 8.822208046913146973e-01 -3.181854784488677979e-01
-1.699363440275192261e-01 8.590343594551086426e-01 -2.349528670310974121e-01
-1.407069861888885498e-01 9.034463763236999512e-01 -3.093902766704559326e-01
-1.317478418350219727e-01 9.240026473999023438e-01 -2.613388299942016602e-01
-1.529444158077239990e-01 8.748651742935180664e-01 -2.939189076423645020e-01
-1.220534220337867737e-01 9.195516109466552734e-01 -2.776056230068206787e-01
-1.721848696470260620e-01 9.433165788650512695e-01 -2.318403720855712891e-01
-1.680153608322143555e-01 8.664131164550781250e-01 -2.258104234933853149e-01
-1.382637470960617065e-01 8.769571185111999512e-01 -2.576402127742767334e-01
-1.658182591199874878e-01 8.564904332160949707e-01 -2.464736253023147583e-01
-1.622362285852432251e-01 8.580613136291503906e-01 -2.676634788513183594e-01
-1.841843575239181519e-01 9.168671369552612305e-01 -1.917293816804885864e-01
-1.439637392759323120e-01 9.237661361694335938e-01 -2.415842562913894653e-01
-1.348039656877517700e-01 9.359294176101684570e-01 -2.935134172439575195e-01
-1.404395699501037598e-01 8.992859721183776855e-01 -2.452094554901123047e-01
-2.032208293676376343e-01 8.826537132263183594e-01 -1.863411664962768555e-01
-1.696934401988983154e-01 9.014537334442138672e-01 -2.741236686706542969e-01
-1.438866406679153442e-01 8.891287446022033691e-01 -2.428065687417984009e-01
-1.790835857391357422e-01 8.686073422431945801e-01 -2.124729603528976440e-01
-1.443540751934051514e-01 9.143991470336914062e-01 -2.388951927423477173e-01
-1.759309023618698120e-01 9.390712380409240723e-01 -2.391689419746398926e-01
-1.556214690208435059e-01 8.941470980644226074e-01 -2.249374836683273315e-01
-1.910720169544219971e-01 9.302479028701782227e-01 -2.230604439973831177e-01
-2.120716869831085205e-01 9.010275602340698242e-01 -1.896519064903259277e-01
-1.834190636873245239e-01 8.858888149261474609e-01 -1.963139325380325317e-01
-1.068885177373886108e-01 9.090648889541625977e-01 -3.133084177970886230e-01
-1.623387634754180908e-01 9.447373747825622559e-01 -2.437071353197097778e-01
-1.249638721346855164e-01 9.137592315673828125e-01 -3.201561272144317627e-01
-1.497179418802261353e-01 8.894011974334716797e-01 -2.343718409538269043e-01
-1.376628279685974121e-01 9.356362223625183105e-01 -2.593727707862854004e-01
-1.536097973585128784e-01 8.598636388778686523e-01 -2.527095675468444824e-01
-1.080315485596656799e-01 8.960158824920654297e-01 -3.090168237686157227e-01
-1.855591386556625366e-01 8.620332479476928711e-01 -2.317150384187698364e-01
-1.566666215658187866e-01 8.769693970680236816e-01 -2.309898585081100464e-01
-1.982693821191787720e-01 8.847253918647766113e-01 -1.860871016979217529e-01
-1.844375580549240112e-01 9.314466714859008789e-01 -1.985460966825485229e-01
-1.339039057493209839e-01 9.218633770942687988e-01 -2.568118274211883545e-01
-1.154471188783645630e-01 8.960025310516357422e-01 -2.900440692901611328e-01
-1.353191584348678589e-01 8.603321313858032227e-01 -2.923423349857330322e-01
-1.094420179724693298e-01 9.020026326179504395e-01 -3.033598959445953369e-01
-1.482976675033569336e-01 9.214241504669189453e-01 -2.345533967018127441e-01
-1.244085207581520081e-01 9.345434308052062988e-01 -2.958123683929443359e-01
-1.154475659132003784e-01 8.765387535095214844e-01 -3.048657178878784180e-01
-1.941390037536621094e-01 8.771384954452514648e-01 -2.318883538246154785e-01
-1.857482790946960449e-01 9.327481389045715332e-01 -2.307332307100296021e-01
-1.818686574697494507e-01 9.099369645118713379e-01 -2.536891102790832520e-01
-1.280706822872161865e-01 8.894736170768737793e-01 -2.679551541805267334e-01
-1.825278848409652710e-01 8.800662755966186523e-01 -2.001793682575225830e-01
-2.013009339570999146e-01 8.984639048576354980e-01 -1.792817711830139160e-01
-1.114832311868667603e-01 9.055600166320800781e-01 -2.978641688823699951e-01
-1.741675287485122681e-01 9.150853753089904785e-01 -2.012450695037841797e-01
-1.053688675165176392e-01 8.982605934143066406e-01 -3.249953687191009521e-01
-1.561793982982635498e-01 9.143356680870056152e-01 -2.882857918739318848e-01
-2.045565545558929443e-01 8.955107927322387695e-01 -2.143597751855850220e-01
-1.279660016298294067e-01 8.965125083923339844e-01 -2.659021019935607910e-01
-1.236393451690673828e-01 8.854091763496398926e-01 -2.779250144958496094e-01
-1.468825340270996094e-01 8.570275306701660156e-01 -2.797882556915283203e-01
-1.240271478891372681e-01 9.235597848892211914e-01 -2.755514979362487793e-01
-1.465001553297042847e-01 8.903003334999084473e-01 -2.386023402214050293e-01
-1.642144322395324707e-01 9.417976140975952148e-01 -2.288498729467391968e-01
-1.417789906263351440e-01 9.197407364845275879e-01 -2.436739206314086914e-01
-1.829105913639068604e-01 9.223775863647460938e-01 -1.944471299648284912e-01
-2.009905129671096802e-01 8.880681991577148438e-01 -2.216406613588333130e-01
-2.060010582208633423e-01 8.987223505973815918e-01 -1.779627799987792969e-01
-1.817899644374847412e-01 8.651037216186523438e-01 -2.147414982318878174e-01
-1.869259178638458252e-01 8.676995635032653809e-01 -2.078962624073028564e-01
-1.388859450817108154e-01 8.589820861816406250e-01 -2.879396080970764160e-01
-2.105198949575424194e-01 8.882585167884826660e-01 -1.896077990531921387e-01
-1.709108203649520874e-01 8.991493582725524902e-01 -2.052024304866790771e-01
-1.688371300697326660e-01 9.310272336006164551e-01 -2.608883380889892578e-01
-1.396519541740417480e-01 8.756865859031677246e-01 -3.085808157920837402e-01
-1.730908602476119995e-01 8.672047853469848633e-01 -2.626841068267822266e-01
-1.414704620838165283e-01 8.691056966781616211e-01 -2.590458393096923828e-01
-1.596345454454421997e-01 8.625466227531433105e-01 -2.403928190469741821e-01
-1.169507578015327454e-01 8.881849050521850586e-01 -2.899961471557617188e-01
-1.272430568933486938e-01 9.276924133300781250e-01 -2.717883586883544922e-01
-1.052615642547607422e-01 9.014360308647155762e-01 -3.203819096088409424e-01
-1.702720075845718384e-01 8.928028941154479980e-01 -2.741774916648864746e-01
-1.327915638685226440e-01 9.315852522850036621e-01 -2.642511129379272461e-01
-1.563713550567626953e-01 9.332559108734130859e-01 -2.289306521415710449e-01
-1.866486966609954834e-01 9.254915118217468262e-01 -2.368839830160140991e-01
-1.820065379142761230e-01 9.263936877250671387e-01 -2.442465722560882568e-01
-1.800321340560913086e-01 9.379780888557434082e-01 -2.092683166265487671e-01
-1.496368199586868286e-01 8.667349219322204590e-01 -2.932216525077819824e-01
-1.362758278846740723e-01 8.727044463157653809e-01 -3.102110326290130615e-01
-1.513883024454116821e-01 8.653382062911987305e-01 -2.480270266532897949e-01
-1.236895620822906494e-01 8.769857287406921387e-01 -3.214229345321655273e-01
-1.436662226915359497e-01 9.337746500968933105e-01 -2.475348263978958130e-01
-1.491869688034057617e-01 9.387257099151611328e-01 -2.770991027355194092e-01
-1.166978552937507629e-01 8.814168572425842285e-01 -2.952983677387237549e-01
-1.484978497028350830e-01 8.590165376663208008e-01 -2.623282670974731445e-01
-2.052991986274719238e-01 8.796314597129821777e-01 -2.051761448383331299e-01
-1.254825145006179810e-01 8.942136168479919434e-01 -3.243997097015380859e-01
-1.950495690107345581e-01 8.758590817451477051e-01 -1.944442987442016602e-01
-1.290650367736816406e-01 9.079097509384155273e-01 -2.626722455024719238e-01
-1.798670887947082520e-01 8.919064402580261230e-01 -1.974336206912994385e-01
-1.590044200420379639e-01 8.995510935783386230e-01 -2.194087058305740356e-01
-1.881045550107955933e-01 9.163944721221923828e-01 -1.883166134357452393e-01
-1.700753867626190186e-01 9.422774910926818848e-01 -2.245471477508544922e-01
-1.518629789352416992e-01 8.564563989639282227e-01 -2.648973464965820312e-01
-1.347498148679733276e-01 8.784281611442565918e-01 -3.141657710075378418e-01
-1.770779937505722046e-01 8.901501893997192383e-01 -2.008363753557205200e-01
-1.301404535770416260e-01 8.675519227981567383e-01 -2.814418077468872070e-01
-1.455469131469726562e-01 8.635435700416564941e-01 -2.945306003093719482e-01
-1.626470088958740234e-01 9.091085791587829590e-01 -2.140752375125885010e-01
-2.107642590999603271e-01 9.105160832405090332e-01 -1.875237226486206055e-01
-1.756424009799957275e-01 9.293020963668823242e-01 -2.521432638168334961e-01
-1.663819700479507446e-01 9.171175360679626465e-01 -2.102633416652679443e-01
-1.351282596588134766e-01 8.699858784675598145e-01 -2.688306272029876709e-01
-1.885283589363098145e-01 8.826207518577575684e-01 -1.935848742723464966e-01
-1.341774165630340576e-01 9.122159481048583984e-01 -2.543504536151885986e-01
-1.316289007663726807e-01 9.303200840950012207e-01 -3.030977845191955566e-01
-3.180912137031555176e-01 -2.975500524044036865e-01 1.744669973850250244e-01
2.186647355556488037e-01 -8.209155499935150146e-02 -3.378283679485321045e-01
-9.761332720518112183e-02 -3.830934166908264160e-01 2.968023717403411865e-01
-1.322796642780303955e-01 -5.008796453475952148e-01 1.002027615904808044e-01
2.857780456542968750e-01 -1.019320785999298096e-01 -3.534085452556610107e-01
-3.076569736003875732e-01 -2.186348140239715576e-01 -1.900723278522491455e-01
9.700182080268859863e-02 -5.530438423156738281e-01 -1.171692460775375366e-01
-1.393604278564453125e-01 -1.486102044582366943e-01 2.964074313640594482e-01
-1.261446177959442139e-01 -3.028880059719085693e-01 3.312309980392456055e-01
5.451914072036743164e-01 -3.871610164642333984e-01 -8.851360529661178589e-02
-1.040999367833137512e-01 -4.141861200332641602e-01 -3.833527266979217529e-01
3.237317204475402832e-01 -4.658769369125366211e-01 1.290521025657653809e-01
-2.647850662469863892e-02 -5.491019487380981445e-01 -5.374725535511970520e-02
-9.806033223867416382e-02 -5.139943361282348633e-01 -2.445884346961975098e-01
5.041532516479492188e-01 -4.640388488769531250e-02 1.866593211889266968e-02
2.304928004741668701e-01 -3.347583413124084473e-01 -4.589144289493560791e-01
-2.116409689188003540e-02 -5.408147573471069336e-01 1.915438100695610046e-02
-1.804946660995483398e-01 -8.642731606960296631e-02 -1.479919254779815674e-01
1.011398136615753174e-01 -4.824734926223754883e-01 -3.623646497726440430e-01
1.205539405345916748e-01 -6.616859138011932373e-02 3.085187077522277832e-01
2.453171014785766602e-01 -3.347147107124328613e-01 3.341770470142364502e-01
-5.067210644483566284e-02 -1.817558407783508301e-01 -3.873992860317230225e-01
8.765656501054763794e-02 -4.572926759719848633e-01 2.392348349094390869e-01
5.367428064346313477e-01 -6.651175022125244141e-02 -1.451664976775646210e-02
-3.302453756332397461e-01 -3.179201185703277588e-01 -2.052951157093048096e-01
-5.099564045667648315e-02 -3.558057248592376709e-01 3.308382928371429443e-01
5.061147212982177734e-01 -1.233011335134506226e-01 1.921412646770477295e-01
1.711182594299316406e-01 -1.848620176315307617e-02 -2.216419279575347900e-01
4.649437963962554932e-01 -7.754142582416534424e-02 1.862332522869110107e-01
-3.426157236099243164e-01 -2.123342454433441162e-01 -8.798973262310028076e-02
2.904898822307586670e-01 -4.530439972877502441e-01 1.802879869937896729e-01
-1.788571774959564209e-01 -3.479348421096801758e-01 2.843233644962310791e-01
3.844397962093353271e-01 -2.944166362285614014e-01 2.958998978137969971e-01
1.071275770664215088e-01 2.244964241981506348e-02 3.629609197378158569e-02
3.092735707759857178e-01 -2.231025099754333496e-01 -4.351989924907684326e-01
4.954376816749572754e-01 -2.596807181835174561e-01 2.255481481552124023e-01
-5.571133643388748169e-02 -2.972982823848724365e-02 1.671676337718963623e-01
-1.521487236022949219e-01 -4.075492024421691895e-01 -3.610512614250183105e-01
3.691249489784240723e-01 -4.948804676532745361e-01 -7.130306214094161987e-02
2.868899703025817871e-01 -5.042201280593872070e-01 5.020011961460113525e-02
1.258067637681961060e-01 -1.427461355924606323e-01 -4.020954370498657227e-01
8.233995735645294189e-02 -4.158768653869628906e-01 2.930287122726440430e-01
-1.515903770923614502e-01 -7.925358414649963379e-02 1.921476721763610840e-01
4.267826974391937256e-01 -1.586668193340301514e-02 7.296850532293319702e-02
1.771651506423950195e-01 -1.717908680438995361e-01 3.779324591159820557e-01
5.654368996620178223e-01 -9.291477501392364502e-02 6.735932081937789917e-03
-1.619096100330352783e-01 -5.054362118244171143e-02 6.780140101909637451e-04
-9.663229435682296753e-02 -2.228870093822479248e-01 -3.927069306373596191e-01
-3.621551096439361572e-01 -2.356966733932495117e-01 -3.517267480492591858e-02
1.338032335042953491e-01 -1.931053102016448975e-01 -4.391497075557708740e-01
-3.097201883792877197e-01 -4.225110411643981934e-01 5.632972717285156250e-02
5.333241224288940430e-01 -3.965333104133605957e-01 -5.416325479745864868e-02
-3.938335925340652466e-02 -4.385467171669006348e-01 2.554004788398742676e-01
2.908318936824798584e-01 -9.379982948303222656e-03 -1.828489303588867188e-01
5.297099798917770386e-02 -1.396654546260833740e-02 2.001644968986511230e-01
-6.898532062768936157e-02 -8.179345726966857910e-02 -2.564731240272521973e-01
2.738566398620605469e-01 -2.938377559185028076e-01 -4.553404450416564941e-01
-4.081802815198898315e-02 -5.303027629852294922e-01 -2.309372127056121826e-01
1.166064441204071045e-01 -3.688970208168029785e-02 -2.550274133682250977e-01
-2.328450083732604980e-01 -4.861616492271423340e-01 1.505815610289573669e-02
4.002701640129089355e-01 -1.068866252899169922e-02 -1.031484082341194153e-01
4.097595214843750000e-01 -2.249123305082321167e-01 -3.962132036685943604e-01
-3.183196783065795898e-01 -3.744096159934997559e-01 -2.056255638599395752e-01
2.143180966377258301e-01 -3.476749360561370850e-02 -2.592590451240539551e-01
5.634667277336120605e-01 -1.456126570701599121e-01 1.270155906677246094e-01
4.093258082866668701e-01 -4.714215397834777832e-01 -1.791653633117675781e-01
8.583588153123855591e-02 -4.956523180007934570e-01 1.703685224056243896e-01
-6.627050787210464478e-02 -5.446481704711914062e-01 -6.454300880432128906e-02
1.476664543151855469e-01 -4.903039932250976562e-01 1.705256104469299316e-01
-1.213957592844963074e-01 -8.633619546890258789e-02 2.371155023574829102e-01
1.129665896296501160e-01 -2.458122819662094116e-01 3.878184556961059570e-01
-5.595595389604568481e-02 -1.085876226425170898e-01 -3.077401816844940186e-01
2.004906833171844482e-01 6.642490625381469727e-03 -1.460385620594024658e-01
-2.721485495567321777e-01 -1.895926296710968018e-01 -2.132481336593627930e-01
2.505010366439819336e-01 -5.164792537689208984e-01 -2.348795533180236816e-01
2.270949780941009521e-01 -4.976983070373535156e-01 1.199233010411262512e-01
2.297437936067581177e-02 -8.757561445236206055e-03 1.660718917846679688e-01
3.116718530654907227e-01 -3.437958657741546631e-01 -4.349085986614227295e-01
-9.244660288095474243e-02 -2.392796874046325684e-01 3.535858988761901855e-01
2.581816017627716064e-01 -4.241704940795898438e-01 2.429587841033935547e-01
3.438543081283569336e-01 -1.940271556377410889e-01 3.371480703353881836e-01
-1.932297348976135254e-01 -2.449405342340469360e-01 3.015452921390533447e-01
-3.299421966075897217e-01 -2.495547533035278320e-01 -1.778662204742431641e-01
2.477536052465438843e-01 -5.051309466361999512e-01 8.395203202962875366e-02
-2.053782939910888672e-01 -5.040627717971801758e-01 -2.240070328116416931e-02
8.797232061624526978e-02 -3.215746283531188965e-01 -4.665421843528747559e-01
-2.453896403312683105e-01 -4.859503805637359619e-01 -1.022863537073135376e-01
3.641934394836425781e-01 -6.637549400329589844e-02 -2.781151235103607178e-01
1.892613470554351807e-01 -9.684868156909942627e-02 -3.576839864253997803e-01
-1.447966396808624268e-01 -4.387093782424926758e-01 -3.399844169616699219e-01
-3.086621165275573730e-01 -1.565076708793640137e-01 -4.097685590386390686e-02
2.721836268901824951e-01 1.967781782150268555e-02 -5.704822763800621033e-02
1.965460777282714844e-01 1.590886712074279785e-02 -1.043120473623275757e-01
-2.863174974918365479e-01 -3.306787312030792236e-01 2.048996090888977051e-01
-5.777321010828018188e-02 -4.042937457561492920e-01 -4.092168807983398438e-01
1.447191089391708374e-01 -5.496495366096496582e-01 -8.764240145683288574e-02
5.841484665870666504e-01 -2.151498794555664062e-01 1.160118058323860168e-01
-4.077517241239547729e-02 -3.965803980827331543e-02 2.090072929859161377e-01
3.833050131797790527e-01 -1.121901273727416992e-01 2.859817147254943848e-01
3.227629363536834717e-01 -4.861877560615539551e-01 -2.650320231914520264e-01
5.044501423835754395e-01 -3.877755701541900635e-01 -2.435624301433563232e-01
-1.388930529356002808e-02 -1.884035766124725342e-02 1.714745163917541504e-01
3.006145358085632324e-02 -2.148250639438629150e-01 3.832449316978454590e-01
4.646005630493164062e-01 -3.424852192401885986e-01 1.971926689147949219e-01
4.481907486915588379e-01 -4.283934235572814941e-01 -2.527843117713928223e-01
6.226302981376647949e-01 -1.896713823080062866e-01 -3.783680871129035950e-02
2.412513494491577148e-01 -3.957478702068328857e-02 2.643108367919921875e-01
9.870558232069015503e-02 1.968261599540710449e-02 -3.374890983104705811e-02
5.336628556251525879e-01 -2.220598161220550537e-01 1.931977868080139160e-01
5.321964621543884277e-02 -3.862609863281250000e-01 3.220922052860260010e-01
-1.585656106472015381e-01 -5.806446075439453125e-02 1.128682717680931091e-01
5.543541908264160156e-01 -3.742066323757171631e-01 -1.341006755828857422e-01
3.908779919147491455e-01 -5.723515152931213379e-02 -2.471433877944946289e-01
-1.634121239185333252e-01 -4.051948785781860352e-01 2.461358010768890381e-01
-1.954195648431777954e-02 -4.767401218414306641e-01 -3.541216254234313965e-01
2.415447682142257690e-02 -3.276242017745971680e-01 -4.566100239753723145e-01
-3.632868826389312744e-01 -2.385848164558410645e-01 1.416091248393058777e-02
1.597454845905303955e-01 -2.756592631340026855e-01 -4.682964086532592773e-01
4.341150522232055664e-01 -4.554442763328552246e-01 4.304226487874984741e-03
-1.912028193473815918e-01 -4.585213065147399902e-01 -2.789723277091979980e-01
-1.117127388715744019e-02 -1.362246274948120117e-01 -3.625978827476501465e-01
3.087014704942703247e-02 6.185919046401977539e-03 1.008187755942344666e-01
-1.143571808934211731e-01 -4.886440634727478027e-01 -2.911778688430786133e-01
1.786803007125854492e-01 2.037143707275390625e-02 1.041607484221458435e-01
1.893512904644012451e-01 -3.917613029479980469e-01 3.032261133193969727e-01
6.200959086418151855e-01 -2.696603834629058838e-01 -6.663583219051361084e-02
-2.602579444646835327e-02 -4.509079456329345703e-01 -3.829351961612701416e-01
-8.542127907276153564e-03 -5.274920463562011719e-01 8.081092685461044312e-02
2.130602747201919556e-01 2.376985549926757812e-02 -4.856901615858078003e-02
4.743970930576324463e-03 6.341099739074707031e-03 1.955530047416687012e-02
6.461864709854125977e-02 -2.904824316501617432e-01 -4.637494981288909912e-01
-2.440267503261566162e-01 -3.916784226894378662e-01 2.008389234542846680e-01
2.958336472511291504e-01 -4.520593583583831787e-02 2.563658058643341064e-01
-2.072851657867431641e-01 -2.732801735401153564e-01 -3.433333337306976318e-01
1.437174677848815918e-01 -5.469986200332641602e-01 -3.894956409931182861e-02
4.621792435646057129e-01 -1.676485836505889893e-01 2.594943046569824219e-01
3.322927057743072510e-01 -4.992304146289825439e-01 -2.044696807861328125e-01
1.561466753482818604e-01 -4.545751810073852539e-01 -3.944914937019348145e-01
1.904847323894500732e-01 -5.139989852905273438e-01 -2.820887267589569092e-01
4.712872803211212158e-01 -3.668043613433837891e-01 -3.180418312549591064e-01
4.144830107688903809e-01 -3.142319023609161377e-01 2.642299532890319824e-01
2.709263563156127930e-01 -4.904689192771911621e-01 1.097761318087577820e-01
2.016903460025787354e-01 -4.163293838500976562e-01 2.733457982540130615e-01
7.974432408809661865e-02 -5.968958139419555664e-02 2.951636910438537598e-01
3.200267255306243896e-01 -5.007208585739135742e-01 2.086892351508140564e-02
2.825660407543182373e-01 -3.189509510993957520e-01 3.312801718711853027e-01
-3.466991186141967773e-01 -2.384978085756301880e-01 -1.230164393782615662e-01
1.782294064760208130e-01 -4.836419820785522461e-01 -3.504499197006225586e-01
5.824966430664062500e-01 -1.104902029037475586e-01 -5.774541944265365601e-02
-3.466165959835052490e-01 -3.007682859897613525e-01 1.208772584795951843e-01
-2.467306554317474365e-01 -4.449899196624755859e-01 1.187763586640357971e-01
-1.697826385498046875e-01 -6.429187953472137451e-02 -8.589728176593780518e-02
-3.170450627803802490e-01 -4.073846638202667236e-01 -1.689391732215881348e-01
5.903625488281250000e-01 -1.255901157855987549e-01 1.739544048905372620e-02
2.035121917724609375e-01 -2.914994359016418457e-01 3.667404651641845703e-01
-2.763497233390808105e-01 -1.430579423904418945e-01 1.238285824656486511e-01
-1.906210780143737793e-01 -4.686313569545745850e-01 1.308802664279937744e-01
3.458509743213653564e-01 1.229009032249450684e-02 -1.103451661765575409e-02
-1.355655193328857422e-01 -4.790449738502502441e-01 1.514964103698730469e-01
-3.876928240060806274e-02 -2.304108142852783203e-01 -4.216173589229583740e-01
1.556751132011413574e-01 -2.341527640819549561e-01 3.863572180271148682e-01
2.158979922533035278e-01 -2.499053776264190674e-01 3.756442070007324219e-01
-4.324669390916824341e-02 -2.319800853729248047e-02 -1.247573047876358032e-01
-1.234631016850471497e-01 -3.631225228309631348e-02 7.528662681579589844e-02
5.127789974212646484e-01 -3.494969010353088379e-01 -2.845102846622467041e-01
5.569716691970825195e-01 -2.564288079738616943e-01 -2.729484140872955322e-01
1.519185155630111694e-01 -4.726757407188415527e-01 2.039458155632019043e-01
4.514027535915374756e-01 -4.281252622604370117e-01 6.775259226560592651e-02
-6.342028826475143433e-02 -4.912668466567993164e-01 1.612181961536407471e-01
2.445386946201324463e-01 -4.949661493301391602e-01 -3.029541373252868652e-01
1.640156656503677368e-01 -6.863968074321746826e-02 3.121659457683563232e-01
6.754896044731140137e-02 -3.918154537677764893e-02 2.607776224613189697e-01
1.116328611969947815e-01 -2.711007297039031982e-01 -4.662881195545196533e-01
5.193923115730285645e-01 -2.675780653953552246e-01 1.959958672523498535e-01
1.317369937896728516e-01 -4.486360549926757812e-01 2.468157410621643066e-01
-5.002581328153610229e-02 -3.997747898101806641e-01 2.961162030696868896e-01
4.775929749011993408e-01 -1.227706670761108398e-01 -2.822093665599822998e-01
5.505823493003845215e-01 -3.281809985637664795e-01 -2.464101612567901611e-01
6.179130673408508301e-01 -2.695647180080413818e-01 -1.066702157258987427e-01
3.123181760311126709e-01 -5.118069648742675781e-01 -3.275303542613983154e-02
-3.030821979045867920e-01 -4.478125572204589844e-01 -4.511509090662002563e-02
3.364970535039901733e-02 -5.381318330764770508e-01 -2.295921444892883301e-01
4.888994097709655762e-01 -4.117254316806793213e-01 -2.196117043495178223e-01
-1.992259919643402100e-01 -4.181946218013763428e-01 2.076711058616638184e-01
5.356287360191345215e-01 -2.114140540361404419e-01 -2.929962575435638428e-01
1.204259172081947327e-01 -3.946568667888641357e-01 3.120766878128051758e-01
1.285722106695175171e-02 -2.056533396244049072e-01 -4.256477952003479004e-01
4.403360188007354736e-01 -4.062002897262573242e-01 -3.040933609008789062e-01
-6.928824633359909058e-02 -5.120537877082824707e-01 -2.690560221672058105e-01
5.923232436180114746e-01 -1.224852949380874634e-01 -2.023284696042537689e-02
5.831694006919860840e-01 -3.246326744556427002e-01 -1.711937785148620605e-01
4.533072710037231445e-01 -3.359138071537017822e-01 -3.582291901111602783e-01
-1.276940107345581055e-01 -4.758274555206298828e-02 -9.941291809082031250e-02
-2.793712615966796875e-01 -1.718587577342987061e-01 1.710961759090423584e-01
2.059296816587448120e-01 2.694863080978393555e-02 6.712846457958221436e-03
6.851437687873840332e-02 -3.561078906059265137e-01 -4.583769142627716064e-01
-3.427457809448242188e-01 -4.051476716995239258e-01 -4.624328762292861938e-02
-1.327634453773498535e-01 -6.317099928855895996e-02 -1.500242799520492554e-01
2.093666791915893555e-02 -2.327580749988555908e-02 -1.821911633014678955e-01
-3.297441899776458740e-01 -1.879757046699523926e-01 6.810456514358520508e-02
3.882251083850860596e-01 -4.467861354351043701e-01 1.092369779944419861e-01
-2.314859628677368164e-01 -2.337939441204071045e-01 2.700717747211456299e-01
8.246916532516479492e-02 -1.595707237720489502e-01 3.754540681838989258e-01
-2.573522329330444336e-01 -1.459781527519226074e-01 -1.646207273006439209e-01
1.806276291608810425e-01 -3.915249109268188477e-01 -4.438052773475646973e-01
5.539728999137878418e-01 -1.380725055932998657e-01 -2.108266949653625488e-01
4.227966666221618652e-01 -2.039165198802947998e-01 2.943729162216186523e-01
4.518837034702301025e-01 -4.466269910335540771e-02 1.382512152194976807e-01
5.286684632301330566e-01 -3.848896920680999756e-01 2.512893080711364746e-02
4.588426947593688965e-01 -6.072765588760375977e-02 -1.977630853652954102e-01
-1.915010213851928711e-01 -4.499748945236206055e-01 1.664634346961975098e-01
-1.831654608249664307e-01 -5.000362396240234375e-01 4.884805530309677124e-02
-2.511875927448272705e-01 -3.359723091125488281e-01 -3.104943931102752686e-01
5.272428989410400391e-01 -3.653014302253723145e-01 7.794801145792007446e-02
1.286797225475311279e-02 -5.529160499572753906e-01 -7.328115403652191162e-02
5.553420186042785645e-01 -2.947872877120971680e-01 1.269908845424652100e-01
3.585312962532043457e-01 -5.596786737442016602e-03 -1.290134787559509277e-01
1.814322322607040405e-01 -3.105686306953430176e-01 -4.684352576732635498e-01
-2.551309764385223389e-01 -4.817933440208435059e-01 -5.505859106779098511e-02
2.870304286479949951e-01 -4.096827507019042969e-01 -4.049439132213592529e-01
2.760321497917175293e-01 -7.214215397834777832e-02 -3.163320124149322510e-01
3.118331730365753174e-01 -6.563793122768402100e-02 -2.973359823226928711e-01
1.597213745117187500e-01 6.062597036361694336e-03 1.689214110374450684e-01
-1.273552775382995605e-01 -3.482221364974975586e-01 -3.998588621616363525e-01
-1.198709979653358459e-01 -5.312678813934326172e-01 -1.416774690151214600e-01
5.455711483955383301e-01 -1.742075234651565552e-01 1.725792586803436279e-01
-1.067573353648185730e-01 -4.551341235637664795e-01 -3.449409008026123047e-01
1.489973813295364380e-01 2.658247947692871094e-03 -1.552045792341232300e-01
-3.275246918201446533e-01 -4.211168289184570312e-01 -9.356807917356491089e-03
7.827735692262649536e-02 -4.601413011550903320e-01 -3.911960124969482422e-01
5.238060355186462402e-01 -3.012019097805023193e-01 1.681459844112396240e-01
2.131497561931610107e-01 -1.810232400894165039e-01 3.750841915607452393e-01
-7.526976615190505981e-02 -1.570700407028198242e-01 -3.542324006557464600e-01
-2.046861350536346436e-01 -7.351943850517272949e-02 -1.034820452332496643e-02
4.229667484760284424e-01 -2.753451764583587646e-01 2.799231410026550293e-01
4.530376791954040527e-01 -4.539771676063537598e-01 -1.291811764240264893e-01
-3.495778143405914307e-01 -2.620609998703002930e-01 1.088411882519721985e-01
-2.775800526142120361e-01 -1.238990873098373413e-01 1.007562503218650818e-02
1.952942907810211182e-01 -5.269863009452819824e-01 4.220221936702728271e-02
-1.695395708084106445e-01 -4.972675442695617676e-01 -2.219391763210296631e-01
-3.161009401082992554e-02 -5.465127229690551758e-01 -1.512144654989242554e-01
3.058312833309173584e-01 1.884257793426513672e-02 3.192191570997238159e-02
2.383282780647277832e-01 2.529624104499816895e-02 -1.504671573638916016e-02
-2.791965007781982422e-01 -3.330018222332000732e-01 -2.800356447696685791e-01
-1.501633226871490479e-01 -4.776404798030853271e-02 -3.875902295112609863e-02
-2.373040318489074707e-01 -1.035026460886001587e-01 -8.269376307725906372e-02
3.198783397674560547e-01 -4.450570344924926758e-01 -3.493674695491790771e-01
-2.175487875938415527e-01 -1.818762868642807007e-01 -2.724010050296783447e-01
5.099308490753173828e-01 -4.144423604011535645e-01 -1.388652920722961426e-01
5.016698837280273438e-01 -3.633188009262084961e-01 1.252907216548919678e-01
-3.023341596126556396e-01 -1.485004276037216187e-01 3.728474676609039307e-02
3.704490065574645996e-01 -1.004873216152191162e-01 -3.241210877895355225e-01
6.508320569992065430e-02 -7.564485073089599609e-02 -3.112919926643371582e-01
-2.240892499685287476e-02 -3.587754070758819580e-02 -1.873663961887359619e-01
-2.246158123016357422e-01 -1.052644252777099609e-01 1.409036517143249512e-01
3.499050736427307129e-01 -4.998005032539367676e-01 -1.592173874378204346e-01
9.379304945468902588e-03 -4.486077427864074707e-01 2.501769363880157471e-01
3.438454866409301758e-01 -1.930893957614898682e-02 -1.869371533393859863e-01
2.084452211856842041e-01 -4.836660623550415039e-01 1.631623208522796631e-01
5.321476459503173828e-01 -1.425789296627044678e-01 -2.475324273109436035e-01
-2.629927694797515869e-01 -2.774272859096527100e-01 -2.921435832977294922e-01
-1.054819747805595398e-01 -4.704363644123077393e-01 1.847651302814483643e-01
-1.049835011363029480e-01 -1.804393082857131958e-01 -3.590114116668701172e-01
9.532327950000762939e-02 -5.409805774688720703e-01 2.849016338586807251e-02
3.506843745708465576e-01 -3.491807281970977783e-01 2.782474756240844727e-01
2.624900341033935547e-01 -1.405202597379684448e-01 3.512158095836639404e-01
-2.169370353221893311e-01 -4.898252487182617188e-01 -1.717785596847534180e-01
-6.261957436800003052e-02 -5.317859649658203125e-01 4.027074575424194336e-02
3.090740144252777100e-01 -3.782247304916381836e-01 2.733289897441864014e-01
4.185481667518615723e-01 -6.773829460144042969e-03 -4.104729741811752319e-03
-1.445969343185424805e-01 -4.649131894111633301e-01 -3.087096214294433594e-01
-2.438090741634368896e-01 -1.428622305393218994e-01 1.866698861122131348e-01
-3.541709482669830322e-01 -3.719420135021209717e-01 -1.102713569998741150e-01
2.681152820587158203e-01 8.551537990570068359e-03 -1.261325776576995850e-01
9.735482186079025269e-02 -1.266698986291885376e-01 -3.829648196697235107e-01
-1.552255451679229736e-01 -1.171036213636398315e-01 -2.462198734283447266e-01
-3.192885220050811768e-01 -1.954183578491210938e-01 1.205739304423332214e-01
2.392968237400054932e-01 8.368939161300659180e-03 1.525148153305053711e-01
-2.367629408836364746e-01 -1.491166651248931885e-01 -2.040414214134216309e-01
-2.871261239051818848e-01 -3.870986104011535645e-01 1.576492786407470703e-01
4.609844684600830078e-01 -1.903324574232101440e-01 -3.507113456726074219e-01
4.531225562095642090e-01 -4.396800994873046875e-01 -2.115790545940399170e-01
2.618761956691741943e-01 2.366963028907775879e-02 3.799383342266082764e-02
-1.159607246518135071e-01 -1.231420636177062988e-01 -2.889272868633270264e-01
-3.092654049396514893e-03 -4.776245355606079102e-01 2.028290331363677979e-01
4.956126809120178223e-01 -4.469643533229827881e-02 -7.691996544599533081e-02
3.991898894309997559e-01 -7.817116379737854004e-02 2.445404231548309326e-01
5.043132305145263672e-01 -1.163601726293563843e-01 -2.478085756301879883e-01
4.889227449893951416e-01 -2.966840267181396484e-01 -3.432764112949371338e-01
4.460604488849639893e-01 -1.195502430200576782e-01 -3.034076094627380371e-01
-1.125225350260734558e-01 -3.319846093654632568e-02 -5.042424798011779785e-02
-7.038263231515884399e-02 -5.097364187240600586e-01 1.133273169398307800e-01
5.786957144737243652e-01 -3.451924622058868408e-01 -2.984475344419479370e-02
3.429673910140991211e-01 -1.478944718837738037e-02 1.713655889034271240e-01
1.951315253973007202e-01 -5.402415990829467773e-01 -1.596019119024276733e-01
1.489631533622741699e-01 2.048528194427490234e-02 -6.636295467615127563e-02
5.272149294614791870e-02 -4.694291949272155762e-01 2.211836874485015869e-01
1.850749552249908447e-02 -4.482689797878265381e-01 -3.964836299419403076e-01
9.078122675418853760e-03 5.644589662551879883e-03 6.447082012891769409e-02
-1.213050112128257751e-01 -9.013888239860534668e-02 -2.294747829437255859e-01
-2.926136851310729980e-01 -4.518926441669464111e-01 -8.045956492424011230e-04
-1.983463168144226074e-01 -1.163974553346633911e-01 -1.955439150333404541e-01
6.185271143913269043e-01 -2.497466504573822021e-01 2.318140119314193726e-03
1.617647856473922729e-01 1.265972852706909180e-02 -1.165077686309814453e-01
-4.479254037141799927e-02 -1.238765865564346313e-01 3.261973261833190918e-01
4.212739169597625732e-01 -3.836941719055175781e-01 -3.491728901863098145e-01
-1.186656728386878967e-01 -2.766764760017395020e-01 -4.024496078491210938e-01
1.749115288257598877e-01 -3.438091278076171875e-01 3.451246023178100586e-01
-3.243795782327651978e-02 -7.752448320388793945e-03 -5.759247764945030212e-02
-7.690373808145523071e-02 -1.977066695690155029e-02 8.347059041261672974e-02
3.953606486320495605e-01 -3.391664028167724609e-01 -3.974956572055816650e-01
1.043427512049674988e-01 -1.879146546125411987e-01 3.849738538265228271e-01
1.074669361114501953e-01 -5.514076948165893555e-01 -5.625012516975402832e-02
-2.779827415943145752e-01 -3.960898518562316895e-01 -2.524650096893310547e-01
4.256014525890350342e-02 -5.201358795166015625e-01 1.110740974545478821e-01
-1.850877404212951660e-01 -1.426527053117752075e-01 -2.562666237354278564e-01
2.540057301521301270e-01 -2.990092337131500244e-02 -2.446790337562561035e-01
4.975680708885192871e-01 -9.387528896331787109e-02 1.704201698303222656e-01
5.964950323104858398e-01 -2.489077299833297729e-01 7.926417142152786255e-02
4.854630231857299805e-01 -4.348593652248382568e-01 -8.358901739120483398e-02
-3.430196344852447510e-01 -1.973279565572738647e-01 3.868855535984039307e-03
8.371859788894653320e-02 -5.410481691360473633e-01 -2.198075354099273682e-01
-3.711677193641662598e-01 -3.433426618576049805e-01 -5.348433181643486023e-02
2.404171079397201538e-01 -2.962988615036010742e-01 3.561161756515502930e-01
1.362679153680801392e-02 -4.117660224437713623e-02 2.449674010276794434e-01
-2.201929688453674316e-01 -4.707264006137847900e-01 9.298124164342880249e-02
-1.802246570587158203e-01 -6.014864146709442139e-02 4.267255216836929321e-02
-3.546130657196044922e-01 -3.316699862480163574e-01 -1.469375789165496826e-01
-3.690595626831054688e-01 -3.205518424510955811e-01 -9.651316702365875244e-02
5.382235646247863770e-01 -3.781539201736450195e-01 -1.871478259563446045e-01
-4.946075379848480225e-03 -2.680754363536834717e-01 -4.454690814018249512e-01
1.963888406753540039e-01 -5.312790870666503906e-01 -2.172231376171112061e-01
5.704145431518554688e-01 -3.596728146076202393e-01 -6.386116147041320801e-02
2.854876518249511719e-01 -1.786285638809204102e-01 -4.198869466781616211e-01
-1.569263339042663574e-01 -5.218191146850585938e-01 -2.743629738688468933e-02
5.946144461631774902e-01 -2.833165526390075684e-01 -1.909678876399993896e-01
4.284291267395019531e-01 -1.560430228710174561e-02 -7.889190316200256348e-02
-1.136383339762687683e-01 -5.342416763305664062e-01 -3.938138112425804138e-02
3.916325271129608154e-01 -4.127507507801055908e-01 1.733724772930145264e-01
-1.594149321317672729e-02 -5.212421417236328125e-01 -2.703491747379302979e-01
3.698219656944274902e-01 -4.860116243362426758e-01 -1.979286968708038330e-01
4.111013412475585938e-01 -1.132041513919830322e-01 -3.185427486896514893e-01
1.693229079246520996e-01 -5.466489791870117188e-01 -1.171369478106498718e-01
1.339990794658660889e-01 -5.076434016227722168e-01 1.335712075233459473e-01
5.013291239738464355e-01 -4.355436563491821289e-02 -2.902584895491600037e-02
3.505533635616302490e-01 -3.890396952629089355e-01 -3.923940062522888184e-01
3.555462509393692017e-02 -3.284134864807128906e-01 3.605220913887023926e-01
1.112046092748641968e-02 -5.528905391693115234e-01 -1.110871508717536926e-01
6.212391704320907593e-02 -1.708397269248962402e-02 -1.874834001064300537e-01
-1.831712126731872559e-01 -2.905327081680297852e-01 -3.659496903419494629e-01
-9.470241516828536987e-02 -2.227129042148590088e-02 1.975671947002410889e-02
-2.846744954586029053e-01 -2.686554193496704102e-01 -2.629305422306060791e-01
3.399662375450134277e-01 -6.285890936851501465e-02 2.612332403659820557e-01
3.457054197788238525e-01 -1.456719040870666504e-01 -3.796668648719787598e-01
2.018705010414123535e-03 -4.984663724899291992e-01 1.622098386287689209e-01
3.131999969482421875e-01 -1.471603214740753174e-01 3.379656076431274414e-01
