-2.449274063110351562e-02 -3.085174858570098877e-01 -2.243912965059280396e-01
1.030580699443817139e-02 -3.804754912853240967e-01 9.982420504093170166e-02
2.230592072010040283e-02 -2.656237781047821045e-01 -1.668353378772735596e-01
4.162624776363372803e-01 -2.561947107315063477e-01 5.712378770112991333e-02
2.591751217842102051e-01 -2.392380833625793457e-01 -1.612076014280319214e-01
2.972423732280731201e-01 -2.387658655643463135e-01 6.136394292116165161e-02
2.471962571144104004e-01 -3.560673296451568604e-01 -2.107669413089752197e-01
6.823049485683441162e-02 -3.845026195049285889e-01 -8.950566500425338745e-02
2.420706450939178467e-01 -2.339040338993072510e-01 -1.037457063794136047e-01
3.136876821517944336e-01 -2.547659575939178467e-01 1.524164825677871704e-01
3.662939965724945068e-01 -3.555459976196289062e-01 -7.816737145185470581e-02
1.006717905402183533e-01 -3.857152760028839111e-01 -8.745985478162765503e-02
2.054138332605361938e-01 -3.703007996082305908e-01 1.946523040533065796e-01
6.307115405797958374e-02 -2.798165380954742432e-01 1.925794631242752075e-01
4.281461834907531738e-01 -3.364243209362030029e-01 5.953028798103332520e-02
2.097389101982116699e-01 -2.439073175191879272e-01 -1.918975114822387695e-01
4.272682070732116699e-01 -2.619601786136627197e-01 -1.226519942283630371e-01
2.499887049198150635e-01 -2.380436360836029053e-01 6.651923060417175293e-02
8.707337826490402222e-02 -2.976601421833038330e-01 2.447210699319839478e-01
3.132911324501037598e-01 -2.350770533084869385e-01 -5.576729774475097656e-03
1.545181870460510254e-01 -2.580373287200927734e-01 -2.412051260471343994e-01
1.497581154108047485e-01 -3.033106029033660889e-01 2.707432806491851807e-01
2.528908848762512207e-02 -3.848827481269836426e-01 7.161615043878555298e-02
2.194714546203613281e-01 -2.884749770164489746e-01 2.577219307422637939e-01
8.123055845499038696e-02 -3.896403908729553223e-01 -2.308125793933868408e-02
3.149992227554321289e-02 -2.761716842651367188e-01 1.532133817672729492e-01
3.939423561096191406e-01 -2.523629069328308105e-01 7.201567292213439941e-02
6.082274019718170166e-02 -3.432145714759826660e-01 2.473118454217910767e-01
3.307114839553833008e-01 -2.486816346645355225e-01 -1.852383315563201904e-01
3.335640728473663330e-01 -2.364490330219268799e-01 -1.372643746435642242e-02
8.926651626825332642e-02 -2.600263953208923340e-01 1.351316869258880615e-01
8.168795704841613770e-02 -2.829986810684204102e-01 -2.723567783832550049e-01
2.810330986976623535e-01 -3.781140446662902832e-01 1.689217984676361084e-02
4.130180478096008301e-01 -2.648931443691253662e-01 1.084235161542892456e-01
4.377422332763671875e-01 -3.268884122371673584e-01 8.758172392845153809e-02
3.793590664863586426e-01 -3.468600511550903320e-01 1.305997371673583984e-01
-2.640524506568908691e-02 -3.588965237140655518e-01 -1.631259173154830933e-01
3.474169969558715820e-01 -2.410165369510650635e-01 4.084998369216918945e-02
-7.767981290817260742e-02 -2.980610132217407227e-01 -1.151789575815200806e-01
4.863896965980529785e-02 -2.508170306682586670e-01 -5.344694107770919800e-02
1.141369044780731201e-01 -2.480447292327880859e-01 -1.679358929395675659e-01
2.440890222787857056e-01 -3.690645098686218262e-01 -1.535380780696868896e-01
-5.975925922393798828e-02 -3.710224330425262451e-01 1.371158566325902939e-02
3.821003139019012451e-01 -2.614708840847015381e-01 1.322572827339172363e-01
1.833562254905700684e-01 -2.438124567270278931e-01 -1.842131465673446655e-01
1.511463075876235962e-01 -2.383286356925964355e-01 -1.069545671343803406e-01
4.144864082336425781e-01 -3.364631831645965576e-01 -9.596463292837142944e-02
1.181215047836303711e-03 -3.629953265190124512e-01 1.771234124898910522e-01
1.867282688617706299e-01 -3.820556104183197021e-01 1.337362229824066162e-01
7.259327173233032227e-02 -3.107277452945709229e-01 2.533865571022033691e-01
-4.459998011589050293e-02 -3.653600215911865234e-01 -1.119619682431221008e-01
-7.011744379997253418e-02 -2.898640036582946777e-01 2.960151061415672302e-02
1.688553541898727417e-01 -3.617595136165618896e-01 -2.176448255777359009e-01
2.307281792163848877e-01 -3.634274303913116455e-01 -1.900115907192230225e-01
4.717891812324523926e-01 -3.067458271980285645e-01 -2.695570699870586395e-02
3.546732366085052490e-01 -3.493373990058898926e-01 -1.415407955646514893e-01
2.280989289283752441e-01 -2.329446077346801758e-01 -1.471411995589733124e-02
3.609485328197479248e-01 -3.617881238460540771e-01 2.254790812730789185e-02
6.785600632429122925e-02 -2.568126916885375977e-01 9.381266683340072632e-02
2.644998729228973389e-01 -3.422372043132781982e-01 -2.440860867500305176e-01
4.314978122711181641e-01 -2.654500603675842285e-01 7.889243215322494507e-02
5.589506030082702637e-02 -2.941289246082305908e-01 2.221332043409347534e-01
8.520986139774322510e-02 -3.884822130203247070e-01 8.098705112934112549e-02
-3.770187497138977051e-03 -3.255006968975067139e-01 2.142860144376754761e-01
-3.720289468765258789e-02 -2.765536010265350342e-01 3.457160666584968567e-02
1.861529350280761719e-01 -2.389138638973236084e-01 5.688009411096572876e-02
6.444036960601806641e-02 -2.935631871223449707e-01 -2.776156961917877197e-01
2.961862087249755859e-01 -3.730376958847045898e-01 -5.552865192294120789e-02
1.539764404296875000e-01 -2.809939980506896973e-01 2.372476011514663696e-01
-5.530057847499847412e-02 -3.034144043922424316e-01 -1.789115369319915771e-01
3.411021232604980469e-01 -3.656242489814758301e-01 -2.916799671947956085e-02
-6.930842995643615723e-03 -2.638131976127624512e-01 -5.716120079159736633e-02
1.406795680522918701e-01 -3.628444373607635498e-01 -2.169562429189682007e-01
1.539636850357055664e-01 -3.790777921676635742e-01 1.654587686061859131e-01
-1.542709767818450928e-02 -3.381391167640686035e-01 2.027489691972732544e-01
2.234379053115844727e-01 -2.492812871932983398e-01 1.420106291770935059e-01
1.595208048820495605e-01 -3.894081413745880127e-01 5.265967547893524170e-02
1.158829554915428162e-01 -3.237549364566802979e-01 -2.953159213066101074e-01
5.185323953628540039e-02 -3.832361102104187012e-01 1.175100877881050110e-01
1.534914672374725342e-01 -3.687755167484283447e-01 -1.922084540128707886e-01
4.099738001823425293e-01 -2.990847527980804443e-01 1.748436242341995239e-01
2.157649695873260498e-01 -3.856936693191528320e-01 5.076244473457336426e-02
-2.958059310913085938e-02 -3.123081624507904053e-01 1.793190389871597290e-01
1.582690477371215820e-01 -2.597313225269317627e-01 1.741390377283096313e-01
2.780794203281402588e-01 -2.333801537752151489e-01 -6.396756973117589951e-03
2.007468342781066895e-01 -2.337168902158737183e-01 -7.426556199789047241e-02
6.271062046289443970e-02 -2.545551955699920654e-01 -1.541058272123336792e-01
2.951223850250244141e-01 -3.203886747360229492e-01 -2.699191272258758545e-01
-1.081372201442718506e-01 -3.397814631462097168e-01 -5.653341114521026611e-02
1.088548228144645691e-01 -2.610526978969573975e-01 1.547742635011672974e-01
3.678829371929168701e-01 -2.403386533260345459e-01 -2.534956485033035278e-02
9.229858219623565674e-02 -2.635959386825561523e-01 -2.299503833055496216e-01
2.844682335853576660e-02 -2.593311071395874023e-01 4.833121597766876221e-02
1.151925101876258850e-01 -2.527391910552978516e-01 1.152691319584846497e-01
-6.778234243392944336e-02 -3.028002083301544189e-01 1.022291183471679688e-01
1.908899843692779541e-01 -2.414588630199432373e-01 8.328223228454589844e-02
-1.090541481971740723e-02 -3.803949356079101562e-01 -4.378034546971321106e-02
2.355217933654785156e-02 -3.791666626930236816e-01 1.247357651591300964e-01
-3.376473486423492432e-02 -2.838593423366546631e-01 9.413667768239974976e-02
3.362135291099548340e-01 -2.545225024223327637e-01 -2.054547965526580811e-01
-3.426000475883483887e-03 -2.638793587684631348e-01 4.088456742465496063e-03
2.517073452472686768e-01 -3.452647328376770020e-01 2.490022033452987671e-01
-2.906057238578796387e-02 -3.748373985290527344e-01 -7.101753354072570801e-02
1.266369223594665527e-01 -3.865275382995605469e-01 1.123182997107505798e-01
1.331553906202316284e-01 -2.577915787696838379e-01 1.543274074792861938e-01
4.431481361389160156e-01 -2.762309014797210693e-01 9.507807344198226929e-02
-3.977473080158233643e-02 -3.702849745750427246e-01 9.631507098674774170e-02
2.880360782146453857e-01 -2.470747977495193481e-01 -2.001035511493682861e-01
5.839029699563980103e-02 -3.705990612506866455e-01 -1.742463111877441406e-01
-7.831802964210510254e-02 -2.910215258598327637e-01 -1.258060149848461151e-02
-8.044001460075378418e-02 -3.566519021987915039e-01 7.690903544425964355e-02
5.005274713039398193e-02 -3.088035285472869873e-01 2.400502115488052368e-01
1.404912173748016357e-01 -2.377641499042510986e-01 -6.266231834888458252e-02
2.549759447574615479e-01 -3.121715486049652100e-01 -2.943602502346038818e-01
2.520223259925842285e-01 -3.819214999675750732e-01 -4.761120304465293884e-03
3.215588331222534180e-01 -3.666813373565673828e-01 -7.452329993247985840e-02
3.677165508270263672e-01 -3.191913366317749023e-01 2.120745778083801270e-01
-7.547011971473693848e-02 -3.022512793540954590e-01 -1.364630162715911865e-01
3.249409198760986328e-01 -2.850555181503295898e-01 -2.675305902957916260e-01
1.274051666259765625e-01 -3.144849240779876709e-01 2.741268575191497803e-01
2.597324848175048828e-01 -2.327116578817367554e-01 -7.306049764156341553e-02
-2.013826370239257812e-02 -2.694435715675354004e-01 1.667964458465576172e-02
3.740628957748413086e-01 -2.619812786579132080e-01 -1.982256919145584106e-01
1.991270482540130615e-01 -3.587392568588256836e-01 -2.211095541715621948e-01
3.673391938209533691e-01 -3.577674627304077148e-01 -5.032370612025260925e-02
2.811431884765625000e-01 -2.544569671154022217e-01 -2.315817922353744507e-01
2.160871177911758423e-01 -3.860760331153869629e-01 1.162682007998228073e-02
1.497149467468261719e-02 -3.767754733562469482e-01 -1.148853152990341187e-01
2.854803502559661865e-01 -3.740679323673248291e-01 9.961566329002380371e-02
1.951688826084136963e-01 -3.470750749111175537e-01 -2.564390897750854492e-01
3.111759424209594727e-01 -3.578211069107055664e-01 1.751784831285476685e-01
3.075954318046569824e-01 -3.652934730052947998e-01 -1.115735322237014771e-01
1.942760795354843140e-01 -2.468883097171783447e-01 -2.053014934062957764e-01
1.005299091339111328e-01 -2.447953373193740845e-01 -1.178742945194244385e-01
8.970502763986587524e-02 -3.854692280292510986e-01 1.176439300179481506e-01
1.959040462970733643e-01 -3.869570195674896240e-01 6.234366446733474731e-02
2.556215226650238037e-02 -2.576552629470825195e-01 1.975392550230026245e-02
3.034045994281768799e-01 -2.339572012424468994e-01 -6.158212944865226746e-02
-6.473974883556365967e-02 -3.693601787090301514e-01 -1.163843553513288498e-02
-3.549928963184356689e-02 -3.619042634963989258e-01 1.418344825506210327e-01
3.352487683296203613e-01 -2.362299412488937378e-01 -4.231507331132888794e-02
2.142791002988815308e-01 -3.826507031917572021e-01 1.066930964589118958e-01
3.669772148132324219e-01 -3.594072461128234863e-01 5.092827230691909790e-02
3.338552117347717285e-01 -3.183334171772003174e-01 2.383727282285690308e-01
2.125081121921539307e-01 -3.718089461326599121e-01 -1.579147577285766602e-01
-7.505974173545837402e-02 -3.515274524688720703e-01 1.079852804541587830e-01
3.389568328857421875e-01 -3.428876399993896484e-01 -1.877283602952957153e-01
1.706904321908950806e-01 -3.571994602680206299e-01 2.439260631799697876e-01
2.444357573986053467e-01 -2.341964244842529297e-01 1.896450668573379517e-02
1.529803872108459473e-01 -3.898557424545288086e-01 -7.428819313645362854e-03
2.302214205265045166e-01 -3.426068425178527832e-01 -2.574608623981475830e-01
3.598693609237670898e-01 -3.615127801895141602e-01 -1.818992197513580322e-02
9.999435395002365112e-02 -3.696393370628356934e-01 2.057848423719406128e-01
4.010451436042785645e-01 -3.285706043243408203e-01 1.597588658332824707e-01
4.612626731395721436e-01 -2.699325978755950928e-01 -7.096485234797000885e-03
-3.115653991699218750e-03 -3.633356988430023193e-01 -1.683179289102554321e-01
3.100365698337554932e-01 -3.350897729396820068e-01 2.366206794977188110e-01
1.782358288764953613e-01 -3.125588297843933105e-01 2.800021469593048096e-01
3.729909658432006836e-01 -2.420047968626022339e-01 3.259978257119655609e-03
2.990952730178833008e-01 -2.445121705532073975e-01 1.053498461842536926e-01
6.808340549468994141e-03 -2.627993226051330566e-01 2.880801633000373840e-02
4.602662026882171631e-01 -2.854366600513458252e-01 7.561245560646057129e-02
3.049525916576385498e-01 -3.695320188999176025e-01 1.102633848786354065e-01
-9.967440366744995117e-02 -3.452942073345184326e-01 -7.566286623477935791e-02
7.239439338445663452e-02 -2.474720925092697144e-01 -8.924660086631774902e-02
-4.785843193531036377e-02 -3.384378254413604736e-01 -1.892479509115219116e-01
2.514838576316833496e-01 -3.817411065101623535e-01 5.239657312631607056e-02
1.435707956552505493e-01 -2.378552109003067017e-01 -1.379262749105691910e-02
1.612558662891387939e-01 -2.545638978481292725e-01 1.523699462413787842e-01
1.327657699584960938e-02 -3.837411105632781982e-01 -4.411076009273529053e-02
1.303170621395111084e-01 -2.387496829032897949e-01 -3.638669103384017944e-02
-1.049107313156127930e-02 -2.677431702613830566e-01 -1.109024956822395325e-01
4.151325821876525879e-01 -2.500827014446258545e-01 -2.107048220932483673e-02
1.827376335859298706e-01 -2.610718905925750732e-01 -2.576587796211242676e-01
2.448377907276153564e-01 -3.736246526241302490e-01 -1.235241815447807312e-01
1.281901746988296509e-01 -2.932875454425811768e-01 2.532445788383483887e-01
8.634895831346511841e-02 -3.837866485118865967e-01 -1.025865525007247925e-01
9.016745723783969879e-03 6.605932712554931641e-01 -2.402933835983276367e-01
6.844623014330863953e-03 6.580771207809448242e-01 -2.432473450899124146e-01
1.264596171677112579e-02 6.647978425025939941e-01 -2.353579699993133545e-01
3.656265791505575180e-03 6.543842554092407227e-01 -2.475825399160385132e-01
8.068336173892021179e-04 6.510830521583557129e-01 -2.514580190181732178e-01
3.260632045567035675e-03 6.539254188537597656e-01 -2.481210380792617798e-01
2.873017685487866402e-03 6.534765958786010742e-01 -2.486483156681060791e-01
-7.414511870592832565e-03 6.415598988533020020e-01 -2.626375555992126465e-01
5.398781504482030869e-03 6.564022898674011230e-01 -2.452131956815719604e-01
-8.091494441032409668e-03 6.407753825187683105e-01 -2.635581791400909424e-01
1.980619505047798157e-02 6.730919480323791504e-01 -2.256209254264831543e-01
1.494500972330570221e-02 6.674606204032897949e-01 -2.322315275669097900e-01
-1.846577506512403488e-03 6.480094194412231445e-01 -2.550657987594604492e-01
5.180442705750465393e-03 6.561498045921325684e-01 -2.455102205276489258e-01
1.558905467391014099e-02 6.682066917419433594e-01 -2.313557565212249756e-01
4.805046133697032928e-03 6.557145118713378906e-01 -2.460209727287292480e-01
-4.788525868207216263e-03 6.446018218994140625e-01 -2.590666413307189941e-01
1.042657066136598587e-03 6.513562202453613281e-01 -2.511372566223144531e-01
1.938547380268573761e-02 6.726045608520507812e-01 -2.261930704116821289e-01
-6.223066244274377823e-03 6.429397463798522949e-01 -2.610175907611846924e-01
1.865780353546142578e-02 6.717615723609924316e-01 -2.271826565265655518e-01
-3.318658564239740372e-03 6.463043093681335449e-01 -2.570680677890777588e-01
1.231582649052143097e-02 6.644153594970703125e-01 -2.358066588640213013e-01
-8.534896187484264374e-04 6.491601467132568359e-01 -2.537155747413635254e-01
-5.224007647484540939e-03 6.440971493721008301e-01 -2.596585750579833984e-01
1.927567645907402039e-02 6.724772453308105469e-01 -2.263425588607788086e-01
-5.963842850178480148e-03 6.432400941848754883e-01 -2.606647312641143799e-01
-1.643410418182611465e-03 6.482451558113098145e-01 -2.547894418239593506e-01
1.513249427080154419e-02 6.676779985427856445e-01 -2.319763749837875366e-01
2.112121321260929108e-03 6.525954008102416992e-01 -2.496828436851501465e-01
-5.410867277532815933e-03 6.438806056976318359e-01 -2.599128484725952148e-01
1.611713506281375885e-02 6.688183546066284180e-01 -2.306378185749053955e-01
2.028178190812468529e-03 6.524977684020996094e-01 -2.497969418764114380e-01
4.234611988067626953e-03 6.550539135932922363e-01 -2.467967271804809570e-01
-7.717004511505365372e-03 6.412094235420227051e-01 -2.630487382411956787e-01
1.247781608253717422e-02 6.646028757095336914e-01 -2.355869561433792114e-01
1.243185345083475113e-02 6.645495891571044922e-01 -2.356488555669784546e-01
2.285585971549153328e-03 6.527964472770690918e-01 -2.494464069604873657e-01
4.389166831970214844e-03 6.552329659461975098e-01 -2.465858161449432373e-01
-8.474136702716350555e-04 6.491668224334716797e-01 -2.537071108818054199e-01
-2.371156122535467148e-03 6.474018692970275879e-01 -2.557789981365203857e-01
6.851591169834136963e-04 6.509425640106201172e-01 -2.516230344772338867e-01
-8.338829502463340759e-03 6.404888629913330078e-01 -2.638946175575256348e-01
3.331028856337070465e-04 6.505343914031982422e-01 -2.521022260189056396e-01
1.083228923380374908e-02 6.626968979835510254e-01 -2.378244102001190186e-01
8.609939366579055786e-03 6.601220965385437012e-01 -2.408468425273895264e-01
9.814485907554626465e-03 6.615177989006042480e-01 -2.392080724239349365e-01
6.124817300587892532e-03 6.572438478469848633e-01 -2.442256361246109009e-01
-6.173791829496622086e-03 6.429971456527709961e-01 -2.609503865242004395e-01
1.151831634342670441e-02 6.634911298751831055e-01 -2.368918210268020630e-01
1.630041003227233887e-02 6.690310835838317871e-01 -2.303883284330368042e-01
5.079637281596660614e-03 6.560330986976623535e-01 -2.456470280885696411e-01
1.370262913405895233e-02 6.660214066505432129e-01 -2.339213341474533081e-01
5.233303643763065338e-03 6.562111377716064453e-01 -2.454380244016647339e-01
6.484089884907007217e-03 6.576599478721618652e-01 -2.437374144792556763e-01
-5.194745026528835297e-04 6.495468020439147949e-01 -2.532616257667541504e-01
5.082473158836364746e-03 6.560361981391906738e-01 -2.456429600715637207e-01
1.219305675476789474e-02 6.642729043960571289e-01 -2.359742671251296997e-01
9.863570332527160645e-03 6.615747809410095215e-01 -2.391414493322372437e-01
5.806222092360258102e-03 6.568747758865356445e-01 -2.446589916944503784e-01
1.021907944232225418e-02 6.619862914085388184e-01 -2.386579364538192749e-01
1.654569245874881744e-02 6.693148016929626465e-01 -2.300549596548080444e-01
8.572272956371307373e-03 6.600784063339233398e-01 -2.408976852893829346e-01
1.596973277628421783e-02 6.686476469039916992e-01 -2.308380901813507080e-01
1.857235096395015717e-02 6.716625094413757324e-01 -2.272989600896835327e-01
-3.228473942726850510e-03 6.464089155197143555e-01 -2.569448053836822510e-01
5.554526112973690033e-03 6.565831303596496582e-01 -2.450010478496551514e-01
1.682902313768863678e-02 6.696430444717407227e-01 -2.296698540449142456e-01
-8.657302707433700562e-03 6.401200890541076660e-01 -2.643277347087860107e-01
-1.001094467937946320e-03 6.489890217781066895e-01 -2.539158463478088379e-01
1.049674116075038910e-02 6.623079776763916016e-01 -2.382809966802597046e-01
7.869637571275234222e-03 6.592645049095153809e-01 -2.418532222509384155e-01
1.584764569997787476e-02 6.685062050819396973e-01 -2.310044318437576294e-01
2.787098521366715431e-03 6.533771753311157227e-01 -2.487650960683822632e-01
7.694081403315067291e-03 6.590616703033447266e-01 -2.420916408300399780e-01
5.071552004665136337e-03 6.560235023498535156e-01 -2.456585466861724854e-01
-4.153898451477289200e-03 6.453369855880737305e-01 -2.582034468650817871e-01
1.515514962375164032e-02 6.677044034004211426e-01 -2.319455891847610474e-01
-1.153770368546247482e-03 6.488119363784790039e-01 -2.541241347789764404e-01
-7.550259586423635483e-03 6.414024233818054199e-01 -2.628220319747924805e-01
2.256352454423904419e-03 6.527624130249023438e-01 -2.494861334562301636e-01
1.204799488186836243e-02 6.641047000885009766e-01 -2.361714541912078857e-01
1.124027464538812637e-02 6.631690859794616699e-01 -2.372694909572601318e-01
1.070980634540319443e-02 6.625550389289855957e-01 -2.379907816648483276e-01
7.514217402786016464e-03 6.588528752326965332e-01 -2.423363626003265381e-01
-6.849342025816440582e-04 6.493550539016723633e-01 -2.534860968589782715e-01
1.573744602501392365e-02 6.683786511421203613e-01 -2.311538308858871460e-01
2.986188745126128197e-03 6.536078453063964844e-01 -2.484936565160751343e-01
1.484798640012741089e-02 6.673485636711120605e-01 -2.323632687330245972e-01
-7.615429814904928207e-03 6.413268446922302246e-01 -2.629109919071197510e-01
3.365073120221495628e-03 6.540464162826538086e-01 -2.479789704084396362e-01
1.713066548109054565e-02 6.699924468994140625e-01 -2.292594164609909058e-01
1.047664321959018707e-02 6.622848510742187500e-01 -2.383076399564743042e-01
1.163078658282756805e-02 6.636215448379516602e-01 -2.367388904094696045e-01
1.204791478812694550e-04 6.502882242202758789e-01 -2.523913383483886719e-01
2.877354389056563377e-03 6.534820199012756348e-01 -2.486417293548583984e-01
2.573561156168580055e-03 6.531299352645874023e-01 -2.490553855895996094e-01
1.294433139264583588e-02 6.651432514190673828e-01 -2.349519580602645874e-01
9.496888145804405212e-03 6.611497402191162109e-01 -2.396399974822998047e-01
4.568403586745262146e-03 6.554408669471740723e-01 -2.463424354791641235e-01
-7.463484071195125580e-04 6.492840051651000977e-01 -2.535701096057891846e-01
4.602639935910701752e-03 6.554803848266601562e-01 -2.462961226701736450e-01
1.341944932937622070e-02 6.656934022903442383e-01 -2.343060970306396484e-01
-6.251441780477762222e-03 6.429072022438049316e-01 -2.610557675361633301e-01
1.316427625715732574e-02 6.653981804847717285e-01 -2.346532344818115234e-01
-5.126507487148046494e-03 6.442103385925292969e-01 -2.595259845256805420e-01
-5.725934170186519623e-04 6.494854092597961426e-01 -2.533331215381622314e-01
-6.992548238486051559e-03 6.420485973358154297e-01 -2.620638906955718994e-01
1.492357067763805389e-02 6.674359440803527832e-01 -2.322605252265930176e-01
1.452527567744255066e-02 6.669744253158569336e-01 -2.328022718429565430e-01
1.584086194634437561e-02 6.684985160827636719e-01 -2.310131341218948364e-01
1.774817332625389099e-02 6.707078218460083008e-01 -2.284199148416519165e-01
1.026807911694049835e-02 6.620432138442993164e-01 -2.385918200016021729e-01
1.905216276645660400e-02 6.722183227539062500e-01 -2.266464829444885254e-01
-4.504001699388027191e-04 6.496271491050720215e-01 -2.531672418117523193e-01
1.102484762668609619e-02 6.629199385643005371e-01 -2.375621795654296875e-01
-3.281098324805498123e-03 6.463476419448852539e-01 -2.570169270038604736e-01
-3.023561555892229080e-03 6.466461420059204102e-01 -2.566661834716796875e-01
1.590308174490928650e-02 6.685705780982971191e-01 -2.309290617704391479e-01
-3.330838400870561600e-03 6.462903022766113281e-01 -2.570845484733581543e-01
9.774204343557357788e-03 6.614707112312316895e-01 -2.392633110284805298e-01
-2.527665812522172928e-03 6.472207307815551758e-01 -2.559922635555267334e-01
-4.820779431611299515e-03 6.445642709732055664e-01 -2.591102123260498047e-01
5.249938461929559708e-03 6.562302708625793457e-01 -2.454152256250381470e-01
3.355555236339569092e-06 6.501523852348327637e-01 -2.525500357151031494e-01
4.798082169145345688e-03 6.557068228721618652e-01 -2.460303008556365967e-01
-2.575316932052373886e-03 6.471654772758483887e-01 -2.560571432113647461e-01
4.474024754017591476e-03 6.553315520286560059e-01 -2.464705556631088257e-01
1.890334673225879669e-02 6.720461845397949219e-01 -2.268488407135009766e-01
-7.888115942478179932e-05 6.500570178031921387e-01 -2.526620924472808838e-01
1.141053996980190277e-02 6.633664965629577637e-01 -2.370376884937286377e-01
1.410550624132156372e-02 6.664881706237792969e-01 -2.333735674619674683e-01
8.127707056701183319e-03 6.595637798309326172e-01 -2.415018528699874878e-01
4.669426474720239639e-03 6.555579304695129395e-01 -2.462050020694732666e-01
8.575602434575557709e-03 6.600828170776367188e-01 -2.408929169178009033e-01
1.703961566090583801e-02 6.698870658874511719e-01 -2.293834984302520752e-01
8.538269437849521637e-03 6.600394248962402344e-01 -2.409435361623764038e-01
1.235542260110378265e-02 6.644608974456787109e-01 -2.357534766197204590e-01
-9.044855833053588867e-04 6.491011381149291992e-01 -2.537846267223358154e-01
1.508084312081336975e-02 6.676179170608520508e-01 -2.320470958948135376e-01
3.267222549766302109e-03 6.539335846900939941e-01 -2.481118440628051758e-01
3.488888498395681381e-03 6.541902422904968262e-01 -2.478100210428237915e-01
5.041523370891809464e-03 6.559888124465942383e-01 -2.456986457109451294e-01
1.237094309180974960e-02 6.644789576530456543e-01 -2.357317209243774414e-01
9.051796980202198029e-03 6.606343388557434082e-01 -2.402457445859909058e-01
6.245344411581754684e-03 6.573834419250488281e-01 -2.440617084503173828e-01
-7.090073544532060623e-03 6.419354081153869629e-01 -2.621964812278747559e-01
1.859890297055244446e-02 6.716932654380798340e-01 -2.272629737854003906e-01
1.156407967209815979e-02 6.635445952415466309e-01 -2.368289232254028320e-01
3.619654336944222450e-03 6.543415784835815430e-01 -2.476322799921035767e-01
4.336003214120864868e-03 6.551711559295654297e-01 -2.466584742069244385e-01
-3.251024987548589706e-03 6.463828086853027344e-01 -2.569759786128997803e-01
1.849053986370563507e-02 6.715680360794067383e-01 -2.274100780487060547e-01
-2.008413895964622498e-03 6.478223204612731934e-01 -2.552856802940368652e-01
7.349468301981687546e-03 6.586623191833496094e-01 -2.425608038902282715e-01
-2.760694827884435654e-03 6.469505429267883301e-01 -2.563093602657318115e-01
6.218995433300733566e-03 6.573525071144104004e-01 -2.440982311964035034e-01
1.652380451560020447e-02 6.692898273468017578e-01 -2.300845831632614136e-01
6.653763819485902786e-03 6.578565239906311035e-01 -2.435062676668167114e-01
-2.350576687604188919e-03 6.474257111549377441e-01 -2.557516396045684814e-01
1.416883431375026703e-02 6.665619015693664551e-01 -2.332871109247207642e-01
-5.969246383756399155e-03 6.432340741157531738e-01 -2.606721818447113037e-01
1.336938701570034027e-03 6.516972184181213379e-01 -2.507371604442596436e-01
-8.415165357291698456e-04 6.491736769676208496e-01 -2.536989748477935791e-01
1.507299020886421204e-02 6.676092743873596191e-01 -2.320574373006820679e-01
-4.745782818645238876e-03 6.446513533592224121e-01 -2.590082585811614990e-01
1.132497657090425491e-02 6.632673144340515137e-01 -2.371540963649749756e-01
-3.809235058724880219e-04 6.497074961662292480e-01 -2.530730366706848145e-01
9.474481455981731415e-03 6.611239910125732422e-01 -2.396709173917770386e-01
6.189703010022640228e-03 6.573185324668884277e-01 -2.441375851631164551e-01
-2.470858860760927200e-03 6.472861766815185547e-01 -2.559150159358978271e-01
9.455608204007148743e-03 6.611016988754272461e-01 -2.396964877843856812e-01
1.214613113552331924e-02 6.642183661460876465e-01 -2.360377907752990723e-01
-3.272089641541242599e-03 6.463584899902343750e-01 -2.570043802261352539e-01
-4.339913371950387955e-03 6.451213955879211426e-01 -2.584562301635742188e-01
-2.407791558653116226e-03 6.473592519760131836e-01 -2.558293044567108154e-01
2.721989294514060020e-03 6.533016562461853027e-01 -2.488536834716796875e-01
-7.464507129043340683e-03 6.415017843246459961e-01 -2.627054452896118164e-01
1.606128364801406860e-02 6.687536835670471191e-01 -2.307137548923492432e-01
1.202905364334583282e-02 6.640830636024475098e-01 -2.361971586942672729e-01
6.212345790117979050e-03 6.573448777198791504e-01 -2.441065907478332520e-01
6.898881867527961731e-03 6.581404805183410645e-01 -2.431729584932327271e-01
7.509160786867141724e-03 6.588470339775085449e-01 -2.423431724309921265e-01
1.224848069250583649e-02 6.643369197845458984e-01 -2.358988672494888306e-01
1.393658481538295746e-02 6.662928462028503418e-01 -2.336026579141616821e-01
-7.490897551178932190e-04 6.492810249328613281e-01 -2.535731196403503418e-01
-4.562429618090391159e-03 6.448634266853332520e-01 -2.587594389915466309e-01
1.506274193525314331e-02 6.675971150398254395e-01 -2.320713102817535400e-01
-4.915609490126371384e-03 6.444543004035949707e-01 -2.592396736145019531e-01
-3.755293320864439011e-03 6.457986235618591309e-01 -2.576612234115600586e-01
3.432918805629014969e-03 6.541250348091125488e-01 -2.478865236043930054e-01
-8.882222697138786316e-03 6.398594975471496582e-01 -2.646335959434509277e-01
-3.149741794914007187e-03 6.464999318122863770e-01 -2.568378150463104248e-01
1.420230232179164886e-02 6.666002273559570312e-01 -2.332417815923690796e-01
1.215927768498659134e-03 6.515570282936096191e-01 -2.509011030197143555e-01
-6.032595410943031311e-04 6.494500041007995605e-01 -2.533748447895050049e-01
-2.080528996884822845e-03 6.477388143539428711e-01 -2.553839385509490967e-01
1.166985742747783661e-02 6.636668443679809570e-01 -2.366851121187210083e-01
2.679130760952830315e-03 6.532521247863769531e-01 -2.489112317562103271e-01
5.787612404674291611e-03 6.568531990051269531e-01 -2.446845173835754395e-01
1.069728005677461624e-02 6.625404953956604004e-01 -2.380078732967376709e-01
3.102029440924525261e-03 6.537417769432067871e-01 -2.483364641666412354e-01
1.576286926865577698e-02 6.684080958366394043e-01 -2.311192899942398071e-01
6.569796241819858551e-04 6.509099006652832031e-01 -2.516611516475677490e-01
4.139953758567571640e-03 6.549443006515502930e-01 -2.469254285097122192e-01
1.888946816325187683e-02 6.720301508903503418e-01 -2.268675416707992554e-01
-1.259694807231426239e-03 6.486893296241760254e-01 -2.542676329612731934e-01
-4.965096246451139450e-03 6.443972587585449219e-01 -2.593064308166503906e-01
1.562003418803215027e-02 6.682426929473876953e-01 -2.313139736652374268e-01
1.121919602155685425e-03 6.514484882354736328e-01 -2.510291934013366699e-01
1.239635236561298370e-02 6.645087003707885742e-01 -2.356973439455032349e-01
1.895956322550773621e-02 6.721110939979553223e-01 -2.267725318670272827e-01
1.407899893820285797e-02 6.664576530456542969e-01 -2.334095239639282227e-01
1.170035358518362045e-02 6.637020111083984375e-01 -2.366438210010528564e-01
-4.809042904525995255e-03 6.445779800415039062e-01 -2.590946853160858154e-01
1.190708205103874207e-02 6.639414429664611816e-01 -2.363629490137100220e-01
4.301325418055057526e-03 6.551314592361450195e-01 -2.467052191495895386e-01
1.479419320821762085e-02 6.672863364219665527e-01 -2.324365824460983276e-01
1.191313378512859344e-02 6.639487743377685547e-01 -2.363542020320892334e-01
-4.003643989562988281e-04 6.496850848197937012e-01 -2.530989646911621094e-01
1.207323279231786728e-03 6.515469551086425781e-01 -2.509133815765380859e-01
9.618787094950675964e-03 6.612907052040100098e-01 -2.394749075174331665e-01
1.360364444553852081e-02 6.659071445465087891e-01 -2.340553998947143555e-01
-5.007192958146333694e-03 6.443485021591186523e-01 -2.593640089035034180e-01
3.343056188896298409e-03 6.540213227272033691e-01 -2.480083256959915161e-01
8.111625909805297852e-03 6.595448255538940430e-01 -2.415244728326797485e-01
7.195085287094116211e-03 6.584836244583129883e-01 -2.427702248096466064e-01
3.397030755877494812e-03 6.540837883949279785e-01 -2.479356527328491211e-01
1.697579212486743927e-02 6.698130965232849121e-01 -2.294699996709823608e-01
-8.572714403271675110e-03 6.402181386947631836e-01 -2.642124295234680176e-01
-1.013071276247501373e-03 6.489752531051635742e-01 -2.539326548576354980e-01
7.682583760470151901e-03 6.590481996536254883e-01 -2.421078085899353027e-01
1.402663439512252808e-02 6.663970947265625000e-01 -2.334806472063064575e-01
1.413537561893463135e-02 6.665228009223937988e-01 -2.333324849605560303e-01
7.754010148346424103e-03 6.591309905052185059e-01 -2.420100271701812744e-01
1.125792972743511200e-02 6.631898880004882812e-01 -2.372452318668365479e-01
2.257316140457987785e-03 6.527637839317321777e-01 -2.494849711656570435e-01
-5.632305052131414413e-03 6.436242461204528809e-01 -2.602137625217437744e-01
9.182383306324481964e-03 6.607851386070251465e-01 -2.400682866573333740e-01
-7.993116974830627441e-03 6.408895850181579590e-01 -2.634244859218597412e-01
-2.510511782020330429e-03 6.472406983375549316e-01 -2.559685707092285156e-01
-7.133400533348321915e-03 6.418852210044860840e-01 -2.622554302215576172e-01
1.134426333010196686e-02 6.632897853851318359e-01 -2.371277958154678345e-01
1.062044315040111542e-02 6.624510884284973145e-01 -2.381128221750259399e-01
1.035731658339500427e-02 6.621462702751159668e-01 -2.384706437587738037e-01
7.884381338953971863e-04 6.510620713233947754e-01 -2.514828741550445557e-01
1.597920805215835571e-02 6.686586141586303711e-01 -2.308254241943359375e-01
1.825262233614921570e-02 6.712922453880310059e-01 -2.277339249849319458e-01
-3.901831340044736862e-03 6.456287503242492676e-01 -2.578605711460113525e-01
7.428330369293689728e-03 6.587532758712768555e-01 -2.424536347389221191e-01
-3.070900682359933853e-03 6.465911269187927246e-01 -2.567308247089385986e-01
1.699497364461421967e-02 6.698354482650756836e-01 -2.294441759586334229e-01
1.746850088238716125e-02 6.703841090202331543e-01 -2.287998199462890625e-01
1.017197407782077789e-02 6.619318723678588867e-01 -2.387225180864334106e-01
8.104862645268440247e-03 6.595369577407836914e-01 -2.415333241224288940e-01
1.836298033595085144e-04 6.503615379333496094e-01 -2.523052394390106201e-01
8.051129058003425598e-03 6.594747304916381836e-01 -2.416066974401473999e-01
9.498204104602336884e-03 6.611512303352355957e-01 -2.396382540464401245e-01
1.678588800132274628e-02 6.695930361747741699e-01 -2.297284156084060669e-01
-1.459616236388683319e-03 6.484577655792236328e-01 -2.545400857925415039e-01
1.954937912523746490e-02 6.727943420410156250e-01 -2.259702980518341064e-01
1.313455775380134583e-02 6.653634905815124512e-01 -2.346939295530319214e-01
1.037310063838958740e-02 6.621649861335754395e-01 -2.384487390518188477e-01
1.659726537764072418e-02 6.693748831748962402e-01 -2.299848496913909912e-01
1.724924333393573761e-02 6.701300144195556641e-01 -2.290983945131301880e-01
-7.350646425038576126e-03 6.416336894035339355e-01 -2.625505626201629639e-01
7.466636598110198975e-04 6.510133147239685059e-01 -2.515397071838378906e-01
-9.629137814044952393e-03 6.389942765235900879e-01 -2.656492292881011963e-01
1.450154557824134827e-02 6.669472455978393555e-01 -2.328348010778427124e-01
8.378379046916961670e-03 6.598541736602783203e-01 -2.411615848541259766e-01
2.364569576457142830e-03 6.528874635696411133e-01 -2.493393868207931519e-01
7.959332317113876343e-03 6.593687534332275391e-01 -2.417308241128921509e-01
7.531202398240566254e-03 6.588725447654724121e-01 -2.423138022422790527e-01
1.960047148168087006e-02 6.728537082672119141e-01 -2.259008139371871948e-01
1.215439476072788239e-02 6.642284393310546875e-01 -2.360262423753738403e-01
1.726209884509444237e-03 6.521484851837158203e-01 -2.502075135707855225e-01
1.584293693304061890e-02 6.685007214546203613e-01 -2.310106307268142700e-01
1.286764536052942276e-02 6.650546193122863770e-01 -2.350564748048782349e-01
9.227497503161430359e-03 6.608374118804931641e-01 -2.400067597627639771e-01
1.195276249200105667e-02 6.639943718910217285e-01 -2.363007664680480957e-01
4.201398696750402451e-03 6.550153493881225586e-01 -2.468412667512893677e-01
1.396358013153076172e-03 6.517658829689025879e-01 -2.506560385227203369e-01
-4.089928697794675827e-03 6.454107761383056641e-01 -2.581164240837097168e-01
1.571567729115486145e-02 6.683536767959594727e-01 -2.311836332082748413e-01
1.067245751619338989e-02 6.625112891197204590e-01 -2.380420416593551636e-01
-8.046237751841545105e-03 6.408280730247497559e-01 -2.634965479373931885e-01
2.478620968759059906e-03 6.530201435089111328e-01 -2.491840720176696777e-01
1.775701157748699188e-02 6.707180142402648926e-01 -2.284077405929565430e-01
3.322007367387413979e-03 6.539969444274902344e-01 -2.480369508266448975e-01
3.237286815419793129e-03 6.538988947868347168e-01 -2.481521964073181152e-01
8.432934060692787170e-03 6.599174141883850098e-01 -2.410867810249328613e-01
1.963865943253040314e-02 6.728977560997009277e-01 -2.258488833904266357e-01
2.881506923586130142e-03 6.534862518310546875e-01 -2.486365586519241333e-01
7.077756803482770920e-03 6.583471894264221191e-01 -2.429300546646118164e-01
1.226148940622806549e-02 6.643522977828979492e-01 -2.358805090188980103e-01
1.510986126959323883e-02 6.676516532897949219e-01 -2.320077568292617798e-01
9.072208777070045471e-03 6.606580615043640137e-01 -2.402177900075912476e-01
7.064763922244310379e-03 6.583322882652282715e-01 -2.429474294185638428e-01
-7.793538738042116165e-03 6.411207914352416992e-01 -2.631528973579406738e-01
7.314545568078756332e-03 6.586220264434814453e-01 -2.426077872514724731e-01
-3.891759086400270462e-03 6.456403136253356934e-01 -2.578469514846801758e-01
1.465118490159511566e-02 6.671205163002014160e-01 -2.326313853263854980e-01
-4.068422596901655197e-03 6.454358696937561035e-01 -2.580876052379608154e-01
1.540083624422550201e-02 6.679885983467102051e-01 -2.316118180751800537e-01
1.878079958260059357e-02 6.719042658805847168e-01 -2.270153164863586426e-01
1.293033454567193985e-02 6.651268005371093750e-01 -2.349715679883956909e-01
-7.395015563815832138e-03 6.415824890136718750e-01 -2.626109421253204346e-01
1.805716939270496368e-02 6.710658669471740723e-01 -2.279993146657943726e-01
-1.204832922667264938e-03 6.487529873847961426e-01 -2.541935443878173828e-01
5.408190190792083740e-03 6.564133167266845703e-01 -2.452008277177810669e-01
1.676422078162431717e-03 6.520907282829284668e-01 -2.502752840518951416e-01
1.007944345474243164e-02 6.618244647979736328e-01 -2.388485223054885864e-01
6.883934605866670609e-03 6.581231355667114258e-01 -2.431932240724563599e-01
-6.436810363084077835e-03 6.426924467086791992e-01 -2.613078355789184570e-01
5.190055817365646362e-04 6.507500410079956055e-01 -2.518491446971893311e-01
1.137555763125419617e-02 6.633257269859313965e-01 -2.370857149362564087e-01
-1.424003392457962036e-03 6.484988331794738770e-01 -2.544915676116943359e-01
2.089359564706683159e-03 6.525689363479614258e-01 -2.497132271528244019e-01
7.724513299763202667e-03 6.590968966484069824e-01 -2.420504689216613770e-01
1.981213130056858063e-02 6.730988621711730957e-01 -2.256128638982772827e-01
1.569174602627754211e-02 6.683257222175598145e-01 -2.312164604663848877e-01
-9.119916707277297974e-03 6.395842432975769043e-01 -2.649567425251007080e-01
1.532263122498989105e-02 6.678982973098754883e-01 -2.317182719707489014e-01
1.103299856185913086e-02 6.629288792610168457e-01 -2.375516742467880249e-01
-5.215369630604982376e-03 6.441070437431335449e-01 -2.596469521522521973e-01
5.635784938931465149e-03 6.566768288612365723e-01 -2.448912858963012695e-01
1.138866040855646133e-02 6.633409261703491211e-01 -2.370680719614028931e-01
1.943976851180195808e-03 6.524005532264709473e-01 -2.499109208583831787e-01
1.617948757484555244e-03 6.520226597785949707e-01 -2.503545880317687988e-01
1.173984259366989136e-02 6.637480258941650391e-01 -2.365904599428176880e-01
8.404068648815155029e-03 6.598840355873107910e-01 -2.411265075206756592e-01
1.991457492113113403e-02 6.732174754142761230e-01 -2.254735827445983887e-01
1.532541215419769287e-02 6.679016351699829102e-01 -2.317142188549041748e-01
6.412941962480545044e-03 6.575775742530822754e-01 -2.438338100910186768e-01
1.910885423421859741e-02 6.722840070724487305e-01 -2.265694439411163330e-01
9.268918074667453766e-04 6.512224078178405762e-01 -2.512946724891662598e-01
-8.683057501912117004e-03 6.400902271270751953e-01 -2.643627822399139404e-01
1.865400932729244232e-02 6.717574000358581543e-01 -2.271877527236938477e-01
2.382649108767509460e-05 6.501763463020324707e-01 -2.525220513343811035e-01
2.807191805914044380e-03 6.534002423286437988e-01 -2.487377822399139404e-01
1.564058661460876465e-02 6.682667136192321777e-01 -2.312857210636138916e-01
-6.126183550804853439e-03 6.430519223213195801e-01 -2.608857750892639160e-01
1.121823582798242569e-02 6.631439328193664551e-01 -2.372995764017105103e-01
6.196926813572645187e-03 6.573269963264465332e-01 -2.441276162862777710e-01
1.272960752248764038e-02 6.648945212364196777e-01 -2.352439463138580322e-01
4.580338019877672195e-03 6.554546356201171875e-01 -2.463258057832717896e-01
1.769699156284332275e-02 6.706486344337463379e-01 -2.284890860319137573e-01
4.707848653197288513e-03 6.556019783020019531e-01 -2.461531907320022583e-01
-3.440862055867910385e-03 6.461629271507263184e-01 -2.572336196899414062e-01
-7.287512999027967453e-03 6.417068243026733398e-01 -2.624647021293640137e-01
-1.697922125458717346e-03 6.481819152832031250e-01 -2.548634409904479980e-01
-1.219711266458034515e-04 6.500073671340942383e-01 -2.527209818363189697e-01
1.296299137175083160e-02 6.651650071144104004e-01 -2.349265813827514648e-01
1.673255488276481628e-02 6.695315837860107422e-01 -2.298008948564529419e-01
1.440361514687538147e-02 6.668338775634765625e-01 -2.329676300287246704e-01
4.928896203637123108e-03 6.558584570884704590e-01 -2.458518445491790771e-01
1.826279237866401672e-02 6.713042259216308594e-01 -2.277197837829589844e-01
1.173029094934463501e-02 6.637371182441711426e-01 -2.366032302379608154e-01
1.637358218431472778e-02 6.691154241561889648e-01 -2.302890121936798096e-01
1.255321875214576721e-02 6.646899580955505371e-01 -2.354844510555267334e-01
-4.769569728523492813e-03 6.446238160133361816e-01 -2.590406537055969238e-01
5.753042176365852356e-03 6.568132042884826660e-01 -2.447313070297241211e-01
1.052531879395246506e-03 6.513679623603820801e-01 -2.511238157749176025e-01
-9.167050942778587341e-03 6.395297050476074219e-01 -2.650207877159118652e-01
1.652876660227775574e-02 6.692953109741210938e-01 -2.300777584314346313e-01
7.324427831918001175e-03 6.586334705352783203e-01 -2.425943613052368164e-01
1.641890779137611389e-02 6.691680550575256348e-01 -2.302276045083999634e-01
-1.885483507066965103e-03 6.479642987251281738e-01 -2.551190853118896484e-01
1.804427057504653931e-02 6.710507869720458984e-01 -2.280170172452926636e-01
7.114131003618240356e-04 6.509724855422973633e-01 -2.515876889228820801e-01
6.811638362705707550e-03 6.580393314361572266e-01 -2.432921379804611206e-01
1.891384832561016083e-03 6.523395776748657227e-01 -2.499831616878509521e-01
-8.490344509482383728e-03 6.403135657310485840e-01 -2.641004025936126709e-01
1.230013929307460785e-02 6.643967628479003906e-01 -2.358285784721374512e-01
2.009790763258934021e-02 6.734297871589660645e-01 -2.252244651317596436e-01
1.061044167727231979e-02 6.624398231506347656e-01 -2.381256818771362305e-01
9.522540494799613953e-03 6.611792445182800293e-01 -2.396054118871688843e-01
1.212025433778762817e-02 6.641888618469238281e-01 -2.360727936029434204e-01
8.491556160151958466e-03 6.599853634834289551e-01 -2.410071045160293579e-01
3.462401218712329865e-03 6.541591882705688477e-01 -2.478467226028442383e-01
1.643233560025691986e-02 6.691835522651672363e-01 -2.302090227603912354e-01
5.416837055236101151e-03 6.564231514930725098e-01 -2.451889216899871826e-01
6.928065326064825058e-03 6.581742763519287109e-01 -2.431335598230361938e-01
1.059794705361127853e-02 6.624254584312438965e-01 -2.381428182125091553e-01
1.164022460579872131e-02 6.636324524879455566e-01 -2.367260605096817017e-01
3.275765106081962585e-03 6.539433002471923828e-01 -2.480998486280441284e-01
7.392683066427707672e-03 6.587125062942504883e-01 -2.425016313791275024e-01
-2.171413507312536240e-03 6.476332545280456543e-01 -2.555073797702789307e-01
-4.693509545177221298e-03 6.447117328643798828e-01 -2.589376270771026611e-01
1.357026025652885437e-02 6.658685207366943359e-01 -2.341008484363555908e-01
2.034039795398712158e-02 6.737107038497924805e-01 -2.248945832252502441e-01
-2.617916557937860489e-03 6.471158266067504883e-01 -2.561150193214416504e-01
-1.333820633590221405e-03 6.486037373542785645e-01 -2.543687522411346436e-01
1.145419664680957794e-02 6.634170413017272949e-01 -2.369783520698547363e-01
1.810005400329828262e-03 6.522450447082519531e-01 -2.500937283039093018e-01
9.954359382390975952e-03 6.616799235343933105e-01 -2.390182167291641235e-01
-9.233681485056877136e-03 6.394523978233337402e-01 -2.651113569736480713e-01
1.738451654091477394e-03 6.521621942520141602e-01 -2.501908838748931885e-01
4.676067735999822617e-03 6.555651426315307617e-01 -2.461959272623062134e-01
5.857691168785095215e-03 6.569343209266662598e-01 -2.445893138647079468e-01
-1.560926437377929688e-03 6.483405828475952148e-01 -2.546771168708801270e-01
6.936805788427591324e-03 6.581839323043823242e-01 -2.431216835975646973e-01
1.617828942835330963e-02 6.688894033432006836e-01 -2.305547744035720825e-01
6.236599292606115341e-03 6.573731303215026855e-01 -2.440742105245590210e-01
6.509473081678152084e-03 6.576893925666809082e-01 -2.437026053667068481e-01
3.518850542604923248e-03 6.542246937751770020e-01 -2.477694898843765259e-01
1.173184067010879517e-02 6.637387275695800781e-01 -2.366007566452026367e-01
-1.900955103337764740e-04 6.499285697937011719e-01 -2.528135478496551514e-01
7.305186707526445389e-03 6.586111187934875488e-01 -2.426204383373260498e-01
7.684761658310890198e-04 6.510387659072875977e-01 -2.515101730823516846e-01
-9.802374988794326782e-04 6.490131616592407227e-01 -2.538881301879882812e-01
8.517574518918991089e-03 6.600151658058166504e-01 -2.409724742174148560e-01
8.459659293293952942e-03 6.599480509757995605e-01 -2.410511970520019531e-01
-7.033003028482198715e-03 6.420018076896667480e-01 -2.621186971664428711e-01
-4.254452418535947800e-03 6.452202200889587402e-01 -2.583406269550323486e-01
6.735777948051691055e-03 6.579510569572448730e-01 -2.433949857950210571e-01
2.383683342486619949e-03 6.529099941253662109e-01 -2.493135333061218262e-01
1.491011679172515869e-02 6.674201488494873047e-01 -2.322791814804077148e-01
8.910648524761199951e-03 6.604704856872558594e-01 -2.404373288154602051e-01
9.238882921636104584e-03 6.608510017395019531e-01 -2.399908006191253662e-01
-7.788071874529123306e-03 6.411271095275878906e-01 -2.631455063819885254e-01
-7.275601383298635483e-03 6.417207121849060059e-01 -2.624488174915313721e-01
6.682374514639377594e-03 6.578896641731262207e-01 -2.434673458337783813e-01
1.863207109272480011e-02 6.717320084571838379e-01 -2.272175848484039307e-01
9.488655254244804382e-03 6.611402034759521484e-01 -2.396518737077713013e-01
8.220277726650238037e-03 6.596706509590148926e-01 -2.413765490055084229e-01
-3.596433904021978378e-03 6.459823846817016602e-01 -2.574454247951507568e-01
-6.793568376451730728e-03 6.422792077064514160e-01 -2.617929875850677490e-01
-2.275452017784118652e-03 6.475129723548889160e-01 -2.556488513946533203e-01
1.056394539773464203e-02 6.623856425285339355e-01 -2.381896376609802246e-01
1.034760382026433945e-03 6.513475179672241211e-01 -2.511473894119262695e-01
1.454750448465347290e-02 6.670001745223999023e-01 -2.327724844217300415e-01
9.574986994266510010e-03 6.612399816513061523e-01 -2.395340651273727417e-01
-2.980795223265886307e-03 6.466959118843078613e-01 -2.566083669662475586e-01
1.411377079784870148e-02 6.664976477622985840e-01 -2.333620786666870117e-01
1.933628460392355919e-03 6.523883342742919922e-01 -2.499257326126098633e-01
5.577303469181060791e-03 6.566095948219299316e-01 -2.449703365564346313e-01
1.327292434871196747e-02 6.655236482620239258e-01 -2.345057278871536255e-01
1.243145205080509186e-02 6.645493507385253906e-01 -2.356495112180709839e-01
6.056506186723709106e-03 6.571645140647888184e-01 -2.443183958530426025e-01
1.384171470999717712e-02 6.661829352378845215e-01 -2.337320148944854736e-01
3.166404087096452713e-03 6.538168191909790039e-01 -2.482486814260482788e-01
4.951051436364650726e-03 6.558836698532104492e-01 -2.458224296569824219e-01
1.025504898279905319e-02 6.620282530784606934e-01 -2.386090457439422607e-01
6.879855412989854813e-03 6.581184267997741699e-01 -2.431991845369338989e-01
2.645938657224178314e-04 6.504549384117126465e-01 -2.521953582763671875e-01
3.312817309051752090e-03 6.539860963821411133e-01 -2.480502426624298096e-01
1.684790011495351791e-03 6.521003246307373047e-01 -2.502633631229400635e-01
-3.768549766391515732e-03 6.457833647727966309e-01 -2.576796412467956543e-01
1.154529675841331482e-02 6.635228395462036133e-01 -2.368545830249786377e-01
1.078024320304393768e-02 6.626363992691040039e-01 -2.378954440355300903e-01
