-2.881921231746673584e-01 3.028883226215839386e-02 -8.246244788169860840e-01
-2.524611949920654297e-01 2.746228128671646118e-02 -8.121783733367919922e-01
-3.264488577842712402e-01 2.490830421447753906e-02 -8.212351202964782715e-01
-3.107568621635437012e-01 2.402158454060554504e-02 -8.278657793998718262e-01
-3.132212162017822266e-01 2.307946048676967621e-02 -8.191682100296020508e-01
-3.028227090835571289e-01 2.683714218437671661e-02 -7.537798285484313965e-01
-3.727592527866363525e-01 3.004716709256172180e-02 -7.575585842132568359e-01
-3.829175531864166260e-01 2.093210071325302124e-02 -7.123752832412719727e-01
-3.035848140716552734e-01 1.955981366336345673e-02 -7.798839807510375977e-01
-3.424418866634368896e-01 2.402669563889503479e-02 -8.024268746376037598e-01
-2.972871959209442139e-01 2.740786224603652954e-02 -7.637038230895996094e-01
-2.510131299495697021e-01 2.039672620594501495e-02 -8.161783814430236816e-01
-3.925895094871520996e-01 2.162758447229862213e-02 -6.970351338386535645e-01
-2.674443125724792480e-01 2.937925234436988831e-02 -8.250457048416137695e-01
-3.516333401203155518e-01 3.019049391150474548e-02 -7.632355690002441406e-01
-3.445587754249572754e-01 2.116925083100795746e-02 -7.726269960403442383e-01
-3.566668331623077393e-01 2.889987267553806305e-02 -7.375720143318176270e-01
-3.484155535697937012e-01 2.004346996545791626e-02 -7.483666539192199707e-01
-3.832048177719116211e-01 2.100723981857299805e-02 -7.017869949340820312e-01
-3.869998753070831299e-01 2.217679470777511597e-02 -7.357562780380249023e-01
-2.774544954299926758e-01 1.945339702069759369e-02 -7.873318791389465332e-01
-3.666875064373016357e-01 2.782772108912467957e-02 -7.199928760528564453e-01
-2.918217480182647705e-01 2.974144741892814636e-02 -8.455966114997863770e-01
-3.162628710269927979e-01 2.809764072299003601e-02 -7.548164129257202148e-01
-2.481869012117385864e-01 2.096861973404884338e-02 -8.291169404983520508e-01
-2.324673235416412354e-01 2.201158367097377777e-02 -8.439393639564514160e-01
-3.503948450088500977e-01 2.594211511313915253e-02 -7.130979299545288086e-01
-2.174939811229705811e-01 2.468269132077693939e-02 -8.463414311408996582e-01
-3.817603290081024170e-01 2.657580748200416565e-02 -7.758222818374633789e-01
-3.934215605258941650e-01 2.226104214787483215e-02 -6.891020536422729492e-01
-2.974928021430969238e-01 2.385576069355010986e-02 -8.359329700469970703e-01
-4.177557229995727539e-01 2.491328865289688110e-02 -7.017960548400878906e-01
-2.832507789134979248e-01 2.276267483830451965e-02 -8.364621996879577637e-01
-3.629257678985595703e-01 2.779771201312541962e-02 -7.979853153228759766e-01
-3.332664370536804199e-01 2.027123235166072845e-02 -7.696458101272583008e-01
-2.556306123733520508e-01 2.862770482897758484e-02 -8.263047933578491211e-01
-2.518681287765502930e-01 2.872178144752979279e-02 -8.357356786727905273e-01
-2.637457847595214844e-01 1.979606226086616516e-02 -7.995325922966003418e-01
-2.360909432172775269e-01 2.775474078953266144e-02 -8.625831604003906250e-01
-2.669940292835235596e-01 2.418492548167705536e-02 -7.699879407882690430e-01
-3.828102946281433105e-01 2.972658351063728333e-02 -7.574729919433593750e-01
-2.181394845247268677e-01 2.534683234989643097e-02 -8.573563694953918457e-01
-3.273864090442657471e-01 2.700290828943252563e-02 -7.360022664070129395e-01
-2.593543529510498047e-01 2.442364580929279327e-02 -8.601164817810058594e-01
-2.757635712623596191e-01 2.852019108831882477e-02 -8.598850369453430176e-01
-2.514224052429199219e-01 2.882582135498523712e-02 -8.568234443664550781e-01
-3.808821141719818115e-01 2.098157815635204315e-02 -7.212713360786437988e-01
-3.164137601852416992e-01 2.101578190922737122e-02 -7.955179214477539062e-01
-3.598483800888061523e-01 2.001253515481948853e-02 -7.292292118072509766e-01
-2.416686564683914185e-01 2.146995067596435547e-02 -8.374428153038024902e-01
-3.726830482482910156e-01 2.145755663514137268e-02 -7.448767423629760742e-01
-2.727568447589874268e-01 2.941266261041164398e-02 -8.539838194847106934e-01
-4.049177169799804688e-01 2.287104539573192596e-02 -7.135817408561706543e-01
-3.043688535690307617e-01 2.617429383099079132e-02 -7.473075389862060547e-01
-3.305269479751586914e-01 3.063578717410564423e-02 -7.887617349624633789e-01
-3.225352168083190918e-01 2.368546836078166962e-02 -7.202100753784179688e-01
-2.830189168453216553e-01 2.968664839863777161e-02 -8.101486563682556152e-01
-3.121486604213714600e-01 1.974731311202049255e-02 -7.331873178482055664e-01
-3.766412138938903809e-01 2.059153839945793152e-02 -7.114742398262023926e-01
-3.264335989952087402e-01 1.930682361125946045e-02 -7.339973449707031250e-01
-2.812564373016357422e-01 2.860926836729049683e-02 -7.930402755737304688e-01
-3.869191408157348633e-01 2.591175399720668793e-02 -7.674558162689208984e-01
-2.743597924709320068e-01 1.955529302358627319e-02 -7.919602990150451660e-01
-2.944436371326446533e-01 2.914676256477832794e-02 -7.873798608779907227e-01
-2.636079490184783936e-01 2.050744183361530304e-02 -8.186697363853454590e-01
-2.965750396251678467e-01 3.037310205399990082e-02 -8.134593367576599121e-01
-2.756343185901641846e-01 2.276226319372653961e-02 -8.406819701194763184e-01
-3.733088970184326172e-01 2.055509015917778015e-02 -7.229482531547546387e-01
-2.915852367877960205e-01 2.355211973190307617e-02 -8.376207947731018066e-01
-2.751190066337585449e-01 2.433016337454319000e-02 -7.625182271003723145e-01
-3.162168860435485840e-01 1.938133500516414642e-02 -7.363720536231994629e-01
-3.024869859218597412e-01 2.018892765045166016e-02 -7.936061024665832520e-01
-3.369153141975402832e-01 2.860883064568042755e-02 -7.455737590789794922e-01
-3.502127826213836670e-01 2.507909014821052551e-02 -8.018400073051452637e-01
-3.789912760257720947e-01 2.638836391270160675e-02 -7.021659612655639648e-01
-2.448853552341461182e-01 2.588858827948570251e-02 -8.058709502220153809e-01
-3.244783580303192139e-01 2.600943483412265778e-02 -7.305614352226257324e-01
-2.894693315029144287e-01 2.106349915266036987e-02 -8.149353265762329102e-01
-4.119969904422760010e-01 2.385330758988857269e-02 -7.124766707420349121e-01
-3.282306790351867676e-01 2.000299096107482910e-02 -7.693425416946411133e-01
-2.942388057708740234e-01 2.001108415424823761e-02 -7.449634075164794922e-01
-2.791585624217987061e-01 2.939200401306152344e-02 -8.532223105430603027e-01
-2.915650606155395508e-01 1.931557804346084595e-02 -7.789601683616638184e-01
-2.572191953659057617e-01 2.010975778102874756e-02 -8.093723654747009277e-01
-3.201850652694702148e-01 2.741411514580249786e-02 -7.449418902397155762e-01
-2.473730742931365967e-01 2.038956061005592346e-02 -8.117786645889282227e-01
-4.036126732826232910e-01 2.399278432130813599e-02 -7.318996191024780273e-01
-3.179395496845245361e-01 2.585527114570140839e-02 -7.343645691871643066e-01
-3.298528194427490234e-01 2.994637563824653625e-02 -7.705792188644409180e-01
-3.460743427276611328e-01 2.977506443858146667e-02 -7.569943666458129883e-01
-2.913899421691894531e-01 1.936572231352329254e-02 -7.571631073951721191e-01
-3.362032175064086914e-01 2.713447809219360352e-02 -8.215535879135131836e-01
-3.619558215141296387e-01 2.075021527707576752e-02 -7.465204596519470215e-01
-2.827176749706268311e-01 2.049392461776733398e-02 -8.106632232666015625e-01
-2.651253938674926758e-01 2.281637676060199738e-02 -8.463004827499389648e-01
-3.987536430358886719e-01 2.229290455579757690e-02 -7.162275910377502441e-01
-2.239990234375000000e-01 2.652969397604465485e-02 -8.535817861557006836e-01
-3.842619359493255615e-01 2.568110264837741852e-02 -6.956394314765930176e-01
-3.117824494838714600e-01 1.979471370577812195e-02 -7.792675495147705078e-01
-4.153951406478881836e-01 2.675518766045570374e-02 -7.204306125640869141e-01
-2.400667965412139893e-01 2.806773781776428223e-02 -8.448243737220764160e-01
-3.149564564228057861e-01 1.958328485488891602e-02 -7.717819809913635254e-01
-3.011978864669799805e-01 3.051409684121608734e-02 -8.264412879943847656e-01
-3.120735883712768555e-01 2.845890447497367859e-02 -7.622870206832885742e-01
-3.467515110969543457e-01 2.279071323573589325e-02 -7.886401414871215820e-01
-3.926940262317657471e-01 2.162022143602371216e-02 -7.126032114028930664e-01
-3.325335979461669922e-01 1.967413164675235748e-02 -7.573742270469665527e-01
-2.183712422847747803e-01 2.535875327885150909e-02 -8.516290783882141113e-01
-3.976749181747436523e-01 2.388850226998329163e-02 -7.402840852737426758e-01
-3.701743483543395996e-01 2.724882401525974274e-02 -7.128112912178039551e-01
-2.941789627075195312e-01 2.974988892674446106e-02 -7.984215617179870605e-01
-3.436828255653381348e-01 2.029146254062652588e-02 -7.593561410903930664e-01
-3.843896687030792236e-01 2.920704707503318787e-02 -7.344207763671875000e-01
-2.371716499328613281e-01 2.170797064900398254e-02 -8.035241365432739258e-01
-2.582812607288360596e-01 2.926320582628250122e-02 -8.421984314918518066e-01
-3.826146721839904785e-01 2.953802794218063354e-02 -7.655289173126220703e-01
-2.590172886848449707e-01 1.992729492485523224e-02 -8.024749159812927246e-01
-2.530047893524169922e-01 2.010693587362766266e-02 -8.034781217575073242e-01
-3.408113718032836914e-01 2.759319916367530823e-02 -7.321330904960632324e-01
-2.622333168983459473e-01 1.976738497614860535e-02 -7.918578386306762695e-01
-2.663191556930541992e-01 2.941942214965820312e-02 -8.529583215713500977e-01
-3.284647464752197266e-01 2.072294242680072784e-02 -7.155115604400634766e-01
-3.265804350376129150e-01 2.198429219424724579e-02 -7.985751032829284668e-01
-3.327804505825042725e-01 3.047121688723564148e-02 -7.811455130577087402e-01
-3.795455098152160645e-01 2.121560834348201752e-02 -7.302052378654479980e-01
-2.319310009479522705e-01 2.589722350239753723e-02 -8.248435258865356445e-01
-2.861422896385192871e-01 3.010101988911628723e-02 -8.180844783782958984e-01
-2.581765651702880859e-01 2.325779013335704803e-02 -8.528467416763305664e-01
-2.671681940555572510e-01 1.968573965132236481e-02 -7.958698272705078125e-01
-3.519275188446044922e-01 2.380457706749439240e-02 -7.921544313430786133e-01
-3.062112927436828613e-01 3.017739951610565186e-02 -8.338313102722167969e-01
-3.982423841953277588e-01 2.248407527804374695e-02 -7.213644981384277344e-01
-2.702130377292633057e-01 2.797359600663185120e-02 -7.967914938926696777e-01
-3.067545890808105469e-01 1.940251700580120087e-02 -7.731940746307373047e-01
-4.013433456420898438e-01 2.232639305293560028e-02 -6.948475837707519531e-01
-3.019187748432159424e-01 2.180749550461769104e-02 -8.155038952827453613e-01
-2.210048139095306396e-01 2.267961949110031128e-02 -8.379846811294555664e-01
-4.003116488456726074e-01 2.814279869198799133e-02 -7.174078822135925293e-01
-3.982213139533996582e-01 2.470323443412780762e-02 -6.879724264144897461e-01
-2.943587899208068848e-01 2.231251075863838196e-02 -8.256066441535949707e-01
-2.695502042770385742e-01 2.250503189861774445e-02 -7.624531388282775879e-01
-3.426826000213623047e-01 2.070068381726741791e-02 -7.675915360450744629e-01
-3.622736334800720215e-01 2.300823479890823364e-02 -7.753218412399291992e-01
-4.033727347850799561e-01 2.283398434519767761e-02 -6.900223493576049805e-01
-2.605793178081512451e-01 2.722662128508090973e-02 -7.992402911186218262e-01
-2.947222888469696045e-01 3.004316985607147217e-02 -8.405881524085998535e-01
-2.312985062599182129e-01 2.308296412229537964e-02 -8.106265068054199219e-01
-3.814950883388519287e-01 2.188774384558200836e-02 -7.394731640815734863e-01
-3.449243903160095215e-01 2.477208152413368225e-02 -7.097855210304260254e-01
-2.619418799877166748e-01 2.804920449852943420e-02 -8.076467514038085938e-01
-3.501032888889312744e-01 2.053203247487545013e-02 -7.567697763442993164e-01
1.045125573873519897e-01 -4.839003384113311768e-01 -5.481873154640197754e-01
1.610668599605560303e-01 -4.786407649517059326e-01 -5.578289628028869629e-01
2.514892444014549255e-02 -4.528013467788696289e-01 -5.294886231422424316e-01
-2.365557253360748291e-01 -4.855625927448272705e-01 -4.513668715953826904e-01
2.687145397067070007e-02 -4.368098378181457520e-01 -5.215099453926086426e-01
-8.112014830112457275e-02 -4.899607598781585693e-01 -5.035223960876464844e-01
-2.244419902563095093e-01 -4.706597924232482910e-01 -4.627073705196380615e-01
-3.779489174485206604e-02 -4.282176494598388672e-01 -4.955534934997558594e-01
-1.479442864656448364e-01 -4.995411634445190430e-01 -4.708898663520812988e-01
-1.422012299299240112e-01 -4.629921615123748779e-01 -4.885547459125518799e-01
-1.424343734979629517e-01 -4.801201820373535156e-01 -4.883001446723937988e-01
9.920176863670349121e-02 -4.965271353721618652e-01 -5.269466042518615723e-01
-9.751012921333312988e-02 -4.966967105865478516e-01 -4.732126593589782715e-01
-1.292833387851715088e-01 -4.931206107139587402e-01 -4.640475809574127197e-01
9.444728493690490723e-04 -4.425281882286071777e-01 -5.197553634643554688e-01
-7.815075665712356567e-02 -4.792040288448333740e-01 -4.687435030937194824e-01
-3.163543716073036194e-02 -4.680416882038116455e-01 -4.779784083366394043e-01
-1.892389357089996338e-01 -4.890646636486053467e-01 -4.700408577919006348e-01
-5.062932148575782776e-02 -4.430785179138183594e-01 -4.750859141349792480e-01
-1.869163066148757935e-01 -4.607221186161041260e-01 -4.746491014957427979e-01
-1.244871914386749268e-01 -5.002442598342895508e-01 -4.728618860244750977e-01
-9.400583803653717041e-04 -4.704853594303131104e-01 -4.862731397151947021e-01
1.324269920587539673e-01 -4.444523751735687256e-01 -5.439582467079162598e-01
-1.096765846014022827e-01 -4.346068799495697021e-01 -4.862799346446990967e-01
-1.177930235862731934e-01 -4.404749870300292969e-01 -4.882475733757019043e-01
-1.938312053680419922e-01 -4.421048462390899658e-01 -4.449993371963500977e-01
-2.355167828500270844e-02 -4.965636730194091797e-01 -5.158143639564514160e-01
2.430858090519905090e-02 -4.895706474781036377e-01 -4.987323880195617676e-01
-1.002494543790817261e-01 -4.519954323768615723e-01 -4.980704188346862793e-01
1.165731400251388550e-01 -4.557127356529235840e-01 -5.486590862274169922e-01
-1.685398668050765991e-01 -4.407167434692382812e-01 -4.498911499977111816e-01
-1.779925972223281860e-01 -4.743144512176513672e-01 -4.780504405498504639e-01
1.358712166547775269e-01 -4.536342918872833252e-01 -5.278741717338562012e-01
1.337859332561492920e-01 -4.812107682228088379e-01 -5.289145112037658691e-01
1.163596361875534058e-01 -4.679840505123138428e-01 -5.512371063232421875e-01
-7.114550471305847168e-02 -4.313631057739257812e-01 -4.935727715492248535e-01
-1.150758415460586548e-01 -4.848300218582153320e-01 -4.623588323593139648e-01
-6.403910368680953979e-02 -4.299823045730590820e-01 -4.934888184070587158e-01
-2.370937615633010864e-01 -4.436579346656799316e-01 -4.401030540466308594e-01
3.128962591290473938e-02 -4.727984070777893066e-01 -5.340129733085632324e-01
4.494599625468254089e-02 -4.902463257312774658e-01 -5.049109458923339844e-01
-1.457550078630447388e-01 -4.430605173110961914e-01 -4.532773792743682861e-01
4.725902900099754333e-02 -5.013313889503479004e-01 -5.150198936462402344e-01
2.244335785508155823e-02 -4.366416335105895996e-01 -4.979483485221862793e-01
-2.641002237796783447e-01 -4.597336351871490479e-01 -4.461119174957275391e-01
-1.147768646478652954e-01 -5.021519064903259277e-01 -4.798547625541687012e-01
1.588756889104843140e-01 -4.513451755046844482e-01 -5.516886711120605469e-01
2.985905855894088745e-03 -4.374241232872009277e-01 -4.917713701725006104e-01
7.830877602100372314e-02 -5.011562705039978027e-01 -5.272977948188781738e-01
6.865398585796356201e-02 -4.373133182525634766e-01 -5.293915271759033203e-01
-1.424776017665863037e-01 -4.341979324817657471e-01 -4.590315222740173340e-01
-4.052557796239852905e-02 -4.319554269313812256e-01 -4.838192760944366455e-01
-4.230570048093795776e-03 -4.855574369430541992e-01 -4.892733097076416016e-01
-8.214651048183441162e-02 -4.376022815704345703e-01 -4.695611596107482910e-01
1.972058415412902832e-01 -4.703914225101470947e-01 -5.532048344612121582e-01
-4.975724220275878906e-02 -5.016781091690063477e-01 -5.049472451210021973e-01
-1.822700798511505127e-01 -4.856072962284088135e-01 -4.497814476490020752e-01
-1.014557778835296631e-01 -5.021169781684875488e-01 -4.880599975585937500e-01
-8.718240261077880859e-02 -4.487551152706146240e-01 -4.647911190986633301e-01
7.609838247299194336e-02 -4.356092512607574463e-01 -5.279303193092346191e-01
-3.508792445063591003e-02 -4.673712849617004395e-01 -5.179243087768554688e-01
1.626896858215332031e-01 -4.891870915889739990e-01 -5.475509166717529297e-01
-8.676987886428833008e-02 -4.485229551792144775e-01 -5.005633831024169922e-01
-2.513260841369628906e-01 -4.766203761100769043e-01 -4.367288947105407715e-01
-2.065589427947998047e-01 -4.400568604469299316e-01 -4.447961151599884033e-01
6.202920898795127869e-02 -4.844871163368225098e-01 -5.072961449623107910e-01
-1.392501592636108398e-01 -4.519502222537994385e-01 -4.870572984218597412e-01
-1.734149605035781860e-01 -4.359552264213562012e-01 -4.524744451045989990e-01
4.267556592822074890e-02 -4.709715843200683594e-01 -4.982962906360626221e-01
1.081543266773223877e-01 -4.634032845497131348e-01 -5.491283535957336426e-01
-5.278433859348297119e-02 -4.671436548233032227e-01 -4.725705981254577637e-01
1.033177971839904785e-01 -4.767645299434661865e-01 -5.489742159843444824e-01
1.130719780921936035e-01 -4.643584489822387695e-01 -5.189365148544311523e-01
3.684264793992042542e-02 -4.327023625373840332e-01 -5.064280033111572266e-01
-2.770529389381408691e-01 -4.677992761135101318e-01 -4.390713572502136230e-01
1.446027904748916626e-01 -4.782993197441101074e-01 -5.557883977890014648e-01
-5.142381787300109863e-02 -4.421125650405883789e-01 -5.069609284400939941e-01
-4.868917167186737061e-03 -4.287987351417541504e-01 -5.009019374847412109e-01
8.363246917724609375e-02 -4.778690040111541748e-01 -5.116411447525024414e-01
-3.039581328630447388e-02 -4.289047718048095703e-01 -4.993716180324554443e-01
-1.219508647918701172e-01 -4.891418218612670898e-01 -4.629768431186676025e-01
9.571805596351623535e-02 -4.628770947456359863e-01 -5.466999411582946777e-01
-1.926819086074829102e-01 -4.810239672660827637e-01 -4.721714258193969727e-01
-7.440076768398284912e-02 -4.576439261436462402e-01 -5.064371228218078613e-01
-1.159463375806808472e-01 -4.985097348690032959e-01 -4.715082347393035889e-01
3.740198537707328796e-02 -4.512812793254852295e-01 -4.969244599342346191e-01
-2.002130448818206787e-02 -4.699495434761047363e-01 -5.218194127082824707e-01
-1.358311027288436890e-01 -4.678561687469482422e-01 -4.534056186676025391e-01
-2.448961138725280762e-01 -4.684284329414367676e-01 -4.551131129264831543e-01
-1.302903145551681519e-01 -4.759159386157989502e-01 -4.561255872249603271e-01
-3.318799659609794617e-02 -4.308077692985534668e-01 -4.870500266551971436e-01
-1.497554183006286621e-01 -4.614414274692535400e-01 -4.861254990100860596e-01
-1.256795227527618408e-01 -4.368435442447662354e-01 -4.602927565574645996e-01
-8.788003772497177124e-02 -4.912184178829193115e-01 -5.011780858039855957e-01
-2.047643065452575684e-01 -4.581679701805114746e-01 -4.393602311611175537e-01
-2.116848379373550415e-01 -4.438250064849853516e-01 -4.600464701652526855e-01
2.642859891057014465e-02 -4.807913899421691895e-01 -5.324840545654296875e-01
-2.105129212141036987e-01 -4.503031969070434570e-01 -4.394076466560363770e-01
-2.748658135533332825e-02 -4.828549027442932129e-01 -5.193017721176147461e-01
7.709431648254394531e-02 -4.474026262760162354e-01 -5.097749233245849609e-01
1.541665941476821899e-01 -4.874094128608703613e-01 -5.537911057472229004e-01
-6.734874099493026733e-02 -4.343132376670837402e-01 -4.750795662403106689e-01
7.564324140548706055e-02 -4.793430566787719727e-01 -5.433177947998046875e-01
3.447689488530158997e-02 -5.037958025932312012e-01 -5.198971033096313477e-01
1.633263379335403442e-01 -4.712555706501007080e-01 -5.370494723320007324e-01
-1.290465593338012695e-01 -4.362012147903442383e-01 -4.819437861442565918e-01
-1.556674093008041382e-01 -4.923877716064453125e-01 -4.587735533714294434e-01
9.912085533142089844e-02 -4.441129863262176514e-01 -5.399796366691589355e-01
9.249562025070190430e-02 -4.538943469524383545e-01 -5.437527298927307129e-01
9.568399190902709961e-02 -4.849350452423095703e-01 -5.463182926177978516e-01
1.578862220048904419e-02 -4.414907097816467285e-01 -5.224850773811340332e-01
-9.867297112941741943e-02 -4.496132731437683105e-01 -4.619567990303039551e-01
1.102143526077270508e-01 -4.748043715953826904e-01 -5.503475666046142578e-01
-8.176212757825851440e-02 -4.280442595481872559e-01 -4.822066426277160645e-01
-1.894127018749713898e-02 -4.845891892910003662e-01 -4.850755929946899414e-01
-1.598192378878593445e-02 -4.483471512794494629e-01 -4.827218353748321533e-01
1.201433986425399780e-01 -4.885829985141754150e-01 -5.277401804924011230e-01
-1.121547073125839233e-03 -5.046420097351074219e-01 -5.070677399635314941e-01
3.747619688510894775e-03 -4.906291663646697998e-01 -4.936671257019042969e-01
1.681874692440032959e-01 -4.531818330287933350e-01 -5.533021688461303711e-01
-1.008698344230651855e-02 -4.377029538154602051e-01 -5.142565965652465820e-01
1.893445551395416260e-01 -4.747453927993774414e-01 -5.494567751884460449e-01
6.345929205417633057e-02 -4.976258575916290283e-01 -5.157129764556884766e-01
-2.385477721691131592e-01 -4.790103733539581299e-01 -4.388358891010284424e-01
-1.228377372026443481e-01 -4.296884834766387939e-01 -4.746281206607818604e-01
-1.621910780668258667e-01 -4.396703541278839111e-01 -4.742885828018188477e-01
8.522500097751617432e-02 -4.603399634361267090e-01 -5.441585779190063477e-01
-2.262501567602157593e-01 -4.871503710746765137e-01 -4.554816782474517822e-01
1.294164806604385376e-01 -4.726725816726684570e-01 -5.251125097274780273e-01
-1.483919024467468262e-01 -4.396138489246368408e-01 -4.786084890365600586e-01
-7.283756136894226074e-02 -4.281427562236785889e-01 -4.822558462619781494e-01
-1.280564963817596436e-01 -4.585685133934020996e-01 -4.545581936836242676e-01
-1.864473819732666016e-01 -4.738936424255371094e-01 -4.444260001182556152e-01
-2.797049582004547119e-01 -4.636977612972259521e-01 -4.339971542358398438e-01
-1.678817532956600189e-02 -4.935711026191711426e-01 -5.189797282218933105e-01
-1.802197396755218506e-01 -4.587849974632263184e-01 -4.764168858528137207e-01
-1.079864501953125000e-01 -4.475161433219909668e-01 -4.944005012512207031e-01
-1.686630398035049438e-01 -4.654095768928527832e-01 -4.809020459651947021e-01
1.376773864030838013e-01 -4.744257926940917969e-01 -5.282753705978393555e-01
-4.036862403154373169e-03 -4.986405372619628906e-01 -4.969832301139831543e-01
-1.059973686933517456e-01 -4.408854246139526367e-01 -4.918211102485656738e-01
-1.590268462896347046e-01 -4.455735981464385986e-01 -4.787110388278961182e-01
3.410999849438667297e-02 -4.581799507141113281e-01 -5.329356789588928223e-01
8.913348615169525146e-02 -4.438242912292480469e-01 -5.382030010223388672e-01
-1.747654080390930176e-01 -4.633312523365020752e-01 -4.449753463268280029e-01
-1.600729376077651978e-01 -4.983806014060974121e-01 -4.680534303188323975e-01
-8.120879530906677246e-03 -4.778823852539062500e-01 -4.858183860778808594e-01
1.249597221612930298e-01 -4.404605031013488770e-01 -5.344532728195190430e-01
-2.670010738074779510e-02 -4.441663920879364014e-01 -5.140839815139770508e-01
-4.927411675453186035e-02 -4.929349422454833984e-01 -5.109781026840209961e-01
-5.657091736793518066e-03 -4.333933889865875244e-01 -4.921453595161437988e-01
-1.823782175779342651e-01 -4.639561772346496582e-01 -4.435557126998901367e-01
-2.129555940628051758e-01 -4.623713493347167969e-01 -4.380167722702026367e-01
-8.215188980102539062e-02 -4.889209568500518799e-01 -4.715273976325988770e-01
-1.562060862779617310e-01 -4.812282919883728027e-01 -4.839138388633728027e-01
-6.855541467666625977e-02 -5.003931522369384766e-01 -5.010142326354980469e-01
2.022456750273704529e-02 -4.310824573040008545e-01 -5.131293535232543945e-01
-7.890062779188156128e-02 -4.614092409610748291e-01 -4.658518731594085693e-01
-5.434649810194969177e-02 -4.796084165573120117e-01 -5.128790140151977539e-01
-4.861778765916824341e-02 -4.740879833698272705e-01 -4.746441841125488281e-01
-3.018153458833694458e-02 -4.377828836441040039e-01 -4.824847579002380371e-01
-1.612178832292556763e-01 -4.326259493827819824e-01 -4.585956335067749023e-01
8.658599853515625000e-02 -4.932970404624938965e-01 -5.414635539054870605e-01
-8.345118910074234009e-02 -4.391217827796936035e-01 -4.969414174556732178e-01
1.649826914072036743e-01 -4.604972898960113525e-01 -5.376150608062744141e-01
1.431536525487899780e-01 -4.855848252773284912e-01 -5.537208318710327148e-01
-5.169221386313438416e-02 -4.563516080379486084e-01 -5.120328068733215332e-01
-5.784036964178085327e-02 -4.401171505451202393e-01 -4.743321537971496582e-01
-2.189419120550155640e-01 -4.884993731975555420e-01 -4.577280282974243164e-01
1.821717023849487305e-01 -4.773159027099609375e-01 -5.467574596405029297e-01
7.417744398117065430e-02 -4.472657740116119385e-01 -5.375280380249023438e-01
-6.127116829156875610e-02 -4.611220657825469971e-01 -5.105100274085998535e-01
-1.342679113149642944e-01 -4.323192834854125977e-01 -4.625149667263031006e-01
5.114433541893959045e-02 -4.933304190635681152e-01 -5.345950722694396973e-01
4.659125581383705139e-02 -4.776848852634429932e-01 -5.372884273529052734e-01
1.033035963773727417e-01 -4.555876255035400391e-01 -5.463054776191711426e-01
-9.823934733867645264e-02 -4.732547700405120850e-01 -4.626381695270538330e-01
8.782407641410827637e-02 -4.732172191143035889e-01 -5.460792183876037598e-01
7.957398891448974609e-02 -4.348745346069335938e-01 -5.206784009933471680e-01
-5.863803625106811523e-02 -4.889259040355682373e-01 -5.099332928657531738e-01
-1.808511167764663696e-01 -4.397561848163604736e-01 -4.483532011508941650e-01
1.231283247470855713e-01 -4.695996940135955811e-01 -5.225737690925598145e-01
-9.589518606662750244e-02 -4.283914566040039062e-01 -4.776803255081176758e-01
-2.068735063076019287e-01 -4.757681190967559814e-01 -4.683755934238433838e-01
1.827172935009002686e-03 -4.857653677463531494e-01 -5.259259939193725586e-01
-2.571978271007537842e-01 -4.500847458839416504e-01 -4.446848928928375244e-01
6.327332556247711182e-02 -4.594370126724243164e-01 -5.036185383796691895e-01
-1.564713120460510254e-01 -4.538403153419494629e-01 -4.825223088264465332e-01
1.747940629720687866e-01 -4.670970141887664795e-01 -5.594560503959655762e-01
-1.479320824146270752e-01 -4.655062854290008545e-01 -4.505778551101684570e-01
1.098337471485137939e-01 -4.918561279773712158e-01 -5.263499617576599121e-01
3.034518286585807800e-02 -4.708511233329772949e-01 -4.948226511478424072e-01
1.574046164751052856e-01 -4.874511063098907471e-01 -5.417445898056030273e-01
-1.769593060016632080e-01 -4.944624900817871094e-01 -4.700799882411956787e-01
1.623374074697494507e-01 -4.597539305686950684e-01 -5.564704537391662598e-01
-2.464610040187835693e-01 -4.778783023357391357e-01 -4.525908827781677246e-01
9.257897734642028809e-03 -4.581975936889648438e-01 -4.883668720722198486e-01
-1.840498000383377075e-01 -4.383974075317382812e-01 -4.657871723175048828e-01
1.430389881134033203e-01 -4.655414819717407227e-01 -5.290833115577697754e-01
-3.327317535877227783e-02 -5.040597915649414062e-01 -4.967113435268402100e-01
-2.333619296550750732e-01 -4.426310062408447266e-01 -4.493049979209899902e-01
6.727276742458343506e-02 -4.719182550907135010e-01 -5.055321455001831055e-01
1.052261441946029663e-01 -4.795178771018981934e-01 -5.188218355178833008e-01
-1.937608718872070312e-01 -4.571847915649414062e-01 -4.717690050601959229e-01
-3.687715530395507812e-02 -4.599294066429138184e-01 -4.761981964111328125e-01
3.911807760596275330e-02 -4.677343964576721191e-01 -5.355302095413208008e-01
1.535269170999526978e-01 -4.611217379570007324e-01 -5.558835268020629883e-01
-2.573085725307464600e-01 -4.565038681030273438e-01 -4.482714831829071045e-01
1.712260246276855469e-01 -4.554036557674407959e-01 -5.418528914451599121e-01
-2.115048468112945557e-03 -4.930605888366699219e-01 -5.227592587471008301e-01
-4.006418213248252869e-02 -5.033881664276123047e-01 -4.936968684196472168e-01
-6.686642765998840332e-03 -4.547097086906433105e-01 -4.842900633811950684e-01
9.778919816017150879e-02 -4.427998363971710205e-01 -5.187392234802246094e-01
-3.519271686673164368e-02 -4.994826018810272217e-01 -5.108971595764160156e-01
1.551310569047927856e-01 -4.464620351791381836e-01 -5.421032905578613281e-01
1.400398463010787964e-01 -4.474561214447021484e-01 -5.322520732879638672e-01
-1.889110654592514038e-01 -4.488099813461303711e-01 -4.433635473251342773e-01
-2.310931980609893799e-01 -4.498195052146911621e-01 -4.367081820964813232e-01
-4.079720750451087952e-02 -4.396162629127502441e-01 -5.082099437713623047e-01
-1.750977933406829834e-01 -4.481208622455596924e-01 -4.460499882698059082e-01
-2.351930737495422363e-01 -4.727523028850555420e-01 -4.364780485630035400e-01
-7.128556072711944580e-02 -4.798065125942230225e-01 -4.705424904823303223e-01
-7.431136071681976318e-02 -4.936788082122802734e-01 -5.039063096046447754e-01
3.456409648060798645e-02 -4.589186608791351318e-01 -4.953512549400329590e-01
1.750278919935226440e-01 -4.734431207180023193e-01 -5.422148704528808594e-01
-6.154020130634307861e-02 -4.818195998668670654e-01 -5.107187628746032715e-01
-1.081142872571945190e-01 -4.838858246803283691e-01 -4.976166188716888428e-01
-9.105096757411956787e-02 -4.932063221931457520e-01 -4.719669520854949951e-01
2.957403659820556641e-03 -4.690456688404083252e-01 -5.273147821426391602e-01
8.855958282947540283e-02 -4.831196963787078857e-01 -5.453509092330932617e-01
1.825086399912834167e-02 -4.871681034564971924e-01 -5.294560790061950684e-01
-6.614593416452407837e-02 -4.919638335704803467e-01 -5.068767070770263672e-01
-1.156191080808639526e-01 -4.337602853775024414e-01 -4.645758271217346191e-01
-9.278043359518051147e-02 -4.294165372848510742e-01 -4.844044744968414307e-01
-5.994869768619537354e-02 -4.774494469165802002e-01 -4.726227521896362305e-01
-4.743271321058273315e-02 -5.015308856964111328e-01 -4.891381263732910156e-01
-1.542640663683414459e-02 -4.741234481334686279e-01 -4.830754995346069336e-01
1.668101400136947632e-01 -4.876629114151000977e-01 -5.530778169631958008e-01
5.247998610138893127e-02 -4.566906094551086426e-01 -5.365684032440185547e-01
-1.218030005693435669e-01 -4.635282456874847412e-01 -4.560577571392059326e-01
1.359122246503829956e-02 -4.499249458312988281e-01 -5.259123444557189941e-01
4.162988439202308655e-02 -4.371234476566314697e-01 -5.246376395225524902e-01
-2.634124755859375000e-01 -4.771876335144042969e-01 -4.433647692203521729e-01
-3.140771389007568359e-02 -4.766686856746673584e-01 -4.795182645320892334e-01
-2.456759363412857056e-01 -4.557031691074371338e-01 -4.529412388801574707e-01
-1.487373858690261841e-01 -4.559603333473205566e-01 -4.502182304859161377e-01
-1.028949618339538574e-01 -4.767900705337524414e-01 -5.000792741775512695e-01
1.766800731420516968e-01 -4.855528175830841064e-01 -5.528551936149597168e-01
-7.879836112260818481e-02 -5.028594732284545898e-01 -4.945603609085083008e-01
1.769004762172698975e-01 -4.798035919666290283e-01 -5.586711764335632324e-01
4.649664089083671570e-02 -4.315589368343353271e-01 -5.153080224990844727e-01
3.258047625422477722e-02 -4.975154399871826172e-01 -5.283187627792358398e-01
-8.649326115846633911e-02 -5.036778450012207031e-01 -4.873692393302917480e-01
-1.615852415561676025e-01 -4.372814595699310303e-01 -4.531714320182800293e-01
4.952732846140861511e-02 -4.531728923320770264e-01 -5.001428723335266113e-01
1.605864986777305603e-02 -5.013770461082458496e-01 -5.054354071617126465e-01
1.875655353069305420e-01 -4.772301018238067627e-01 -5.593950152397155762e-01
1.874487996101379395e-01 -4.572430253028869629e-01 -5.508713126182556152e-01
1.375360339879989624e-01 -4.624616801738739014e-01 -5.539456009864807129e-01
-1.202076673507690430e-01 -4.775940477848052979e-01 -4.587501883506774902e-01
-9.478256106376647949e-03 -4.645991623401641846e-01 -5.239399075508117676e-01
1.182965338230133057e-01 -4.466941952705383301e-01 -5.240490436553955078e-01
-5.576472729444503784e-02 -5.040776133537292480e-01 -4.991952776908874512e-01
-1.779537796974182129e-01 -4.710392951965332031e-01 -4.453603029251098633e-01
-6.066650897264480591e-02 -4.476129114627838135e-01 -4.714194536209106445e-01
-1.935236901044845581e-01 -4.379780888557434082e-01 -4.617257118225097656e-01
2.412048354744911194e-02 -5.032833218574523926e-01 -5.202246308326721191e-01
5.780124291777610779e-02 -4.422751963138580322e-01 -5.056710243225097656e-01
1.812174916267395020e-02 -4.300028085708618164e-01 -5.053345561027526855e-01
-1.934302411973476410e-02 -4.544380307197570801e-01 -4.809676408767700195e-01
1.172721832990646362e-01 -4.902878105640411377e-01 -5.480663180351257324e-01
-1.744138747453689575e-01 -4.823261201381683350e-01 -4.779024422168731689e-01
-1.509685628116130829e-02 -4.783883988857269287e-01 -5.228922367095947266e-01
1.562757790088653564e-01 -4.752702713012695312e-01 -5.351768732070922852e-01
1.226244270801544189e-01 -4.861223399639129639e-01 -5.506460666656494141e-01
-7.287129759788513184e-02 -4.941323399543762207e-01 -4.766387641429901123e-01
-1.942165791988372803e-01 -4.871538579463958740e-01 -4.489757120609283447e-01
-1.151721775531768799e-01 -4.546718001365661621e-01 -4.575911164283752441e-01
-9.735108166933059692e-02 -4.828980267047882080e-01 -5.008426904678344727e-01
-2.114357352256774902e-01 -4.633902311325073242e-01 -4.669848680496215820e-01
-1.319686323404312134e-01 -4.810318946838378906e-01 -4.912563860416412354e-01
-1.707627326250076294e-01 -4.577171206474304199e-01 -4.791337549686431885e-01
7.042320072650909424e-02 -5.003999471664428711e-01 -5.324189066886901855e-01
1.637199223041534424e-01 -4.484806954860687256e-01 -5.453363060951232910e-01
1.167079061269760132e-01 -4.408276677131652832e-01 -5.385903716087341309e-01
1.270092427730560303e-01 -4.938571155071258545e-01 -5.464776158332824707e-01
-1.803161203861236572e-01 -4.934200644493103027e-01 -4.565079510211944580e-01
5.767316743731498718e-02 -4.789625704288482666e-01 -5.042269229888916016e-01
-3.321132063865661621e-02 -4.340283870697021484e-01 -5.058956742286682129e-01
-5.848782137036323547e-02 -4.327691495418548584e-01 -4.984515309333801270e-01
1.504059880971908569e-02 -4.482331275939941406e-01 -4.911845326423645020e-01
-8.934088051319122314e-02 -4.618365168571472168e-01 -4.633915126323699951e-01
-2.148272469639778137e-02 -4.285513460636138916e-01 -4.998265206813812256e-01
-2.088654227554798126e-02 -4.347500503063201904e-01 -5.094351768493652344e-01
-3.972773998975753784e-02 -5.027799606323242188e-01 -5.062794685363769531e-01
-1.608821302652359009e-01 -4.784790575504302979e-01 -4.505842328071594238e-01
-3.618371114134788513e-02 -4.514494240283966064e-01 -4.769373834133148193e-01
1.480864286422729492e-01 -4.797650873661041260e-01 -5.335186719894409180e-01
-1.662248671054840088e-01 -4.596322774887084961e-01 -4.465382397174835205e-01
5.761031061410903931e-03 -4.358344972133636475e-01 -5.163039565086364746e-01
-3.135161846876144409e-02 -4.918392598628997803e-01 -5.160329341888427734e-01
-2.150185406208038330e-01 -4.692924022674560547e-01 -4.385048449039459229e-01
-1.696023344993591309e-01 -4.853734374046325684e-01 -4.518061578273773193e-01
-2.115031518042087555e-02 -4.367972612380981445e-01 -4.854298532009124756e-01
3.032952547073364258e-03 -4.560244977474212646e-01 -5.253337025642395020e-01
-2.594483494758605957e-01 -4.721576273441314697e-01 -4.484336674213409424e-01
-3.674286603927612305e-02 -4.413512349128723145e-01 -4.792208075523376465e-01
7.443830370903015137e-02 -4.581862986087799072e-01 -5.070196986198425293e-01
-4.267349466681480408e-02 -4.551315009593963623e-01 -4.749036431312561035e-01
-1.253448873758316040e-01 -4.705992639064788818e-01 -4.560818672180175781e-01
-2.653772830963134766e-01 -4.642716348171234131e-01 -4.320350885391235352e-01
-8.885389566421508789e-02 -4.741978645324707031e-01 -5.040745139122009277e-01
4.685024544596672058e-02 -4.989043176174163818e-01 -5.301762819290161133e-01
-1.628122180700302124e-01 -4.960142076015472412e-01 -4.616861939430236816e-01
-4.470356553792953491e-02 -4.555650055408477783e-01 -5.136152505874633789e-01
-1.302274167537689209e-01 -4.300549924373626709e-01 -4.727659225463867188e-01
-1.033354550600051880e-01 -4.968491792678833008e-01 -4.936883449554443359e-01
-1.683462560176849365e-01 -4.780242741107940674e-01 -4.489963650703430176e-01
7.601405680179595947e-02 -4.945263266563415527e-01 -5.388507246971130371e-01
8.176207542419433594e-03 -4.792132079601287842e-01 -5.284144878387451172e-01
1.237183213233947754e-01 -4.816746711730957031e-01 -5.256209373474121094e-01
-7.528330385684967041e-02 -4.867683947086334229e-01 -4.721140861511230469e-01
-2.376980707049369812e-02 -4.299439489841461182e-01 -4.909222424030303955e-01
1.500770300626754761e-01 -4.912674129009246826e-01 -5.428494811058044434e-01
-1.940810680389404297e-01 -4.474009573459625244e-01 -4.683398306369781494e-01
5.731642246246337891e-03 -4.772306680679321289e-01 -4.893277287483215332e-01
-2.067253142595291138e-01 -4.776450693607330322e-01 -4.421510398387908936e-01
1.480719000101089478e-01 -4.459151625633239746e-01 -5.377435088157653809e-01
-1.527179777622222900e-01 -4.416663646697998047e-01 -4.524236619472503662e-01
1.500118896365165710e-02 -4.778214991092681885e-01 -4.919691681861877441e-01
-9.382063150405883789e-02 -5.006365180015563965e-01 -4.782229363918304443e-01
1.917053163051605225e-01 -4.673333466053009033e-01 -5.493765473365783691e-01
4.548810794949531555e-02 -4.525249302387237549e-01 -5.338456630706787109e-01
-6.112704053521156311e-02 -4.686492383480072021e-01 -4.706894159317016602e-01
-3.062768839299678802e-02 -4.941522479057312012e-01 -4.867703616619110107e-01
-2.568827942013740540e-02 -5.039876699447631836e-01 -5.079173445701599121e-01
-2.159252464771270752e-01 -4.433127641677856445e-01 -4.414187967777252197e-01
-1.663305759429931641e-01 -4.495166838169097900e-01 -4.474321603775024414e-01
-1.567946672439575195e-01 -4.728154540061950684e-01 -4.498783349990844727e-01
9.098120033740997314e-03 -5.031949877738952637e-01 -5.062264800071716309e-01
4.282824695110321045e-03 -4.292015135288238525e-01 -5.027114152908325195e-01
-1.042632311582565308e-01 -4.785609543323516846e-01 -4.625524282455444336e-01
-2.722191214561462402e-01 -4.722340703010559082e-01 -4.354048967361450195e-01
-1.234922260046005249e-01 -4.743703901767730713e-01 -4.944130480289459229e-01
8.896121382713317871e-02 -4.856877923011779785e-01 -5.159494876861572266e-01
-2.112248986959457397e-01 -4.375284314155578613e-01 -4.516043365001678467e-01
-1.391189545392990112e-01 -4.349232017993927002e-01 -4.776507914066314697e-01
-2.742690742015838623e-01 -4.586828052997589111e-01 -4.400911927223205566e-01
5.051556602120399475e-02 -4.659951031208038330e-01 -5.378639101982116699e-01
-1.397288590669631958e-01 -4.433313310146331787e-01 -4.834336638450622559e-01
3.067749366164207458e-02 -4.424409270286560059e-01 -5.262340307235717773e-01
-6.407568603754043579e-02 -4.694473743438720703e-01 -5.106358528137207031e-01
-1.671272218227386475e-01 -4.516185522079467773e-01 -4.786153435707092285e-01
-3.816808760166168213e-02 -4.794881641864776611e-01 -4.785402417182922363e-01
-2.205539494752883911e-01 -4.601173400878906250e-01 -4.367461502552032471e-01
-2.332246154546737671e-01 -4.762929379940032959e-01 -4.586566984653472900e-01
-1.505547612905502319e-01 -4.328055083751678467e-01 -4.593746066093444824e-01
2.790198847651481628e-02 -4.655118882656097412e-01 -5.327889919281005859e-01
-1.935565099120140076e-02 -5.047127008438110352e-01 -5.021117329597473145e-01
-2.436162531375885010e-01 -4.486560523509979248e-01 -4.360707402229309082e-01
-1.077965497970581055e-01 -4.545463025569915771e-01 -4.967080652713775635e-01
-4.678540304303169250e-02 -4.337515532970428467e-01 -5.023494958877563477e-01
4.886891320347785950e-02 -5.032507181167602539e-01 -5.220267772674560547e-01
9.606492519378662109e-02 -4.902796447277069092e-01 -5.205929875373840332e-01
-1.589509844779968262e-01 -4.588049948215484619e-01 -4.480108022689819336e-01
-1.280181854963302612e-01 -4.443625211715698242e-01 -4.565701484680175781e-01
1.281899958848953247e-01 -4.776062667369842529e-01 -5.533215999603271484e-01
-2.397657483816146851e-01 -4.797098934650421143e-01 -4.547814130783081055e-01
1.226466149091720581e-03 -4.544992744922637939e-01 -4.864332675933837891e-01
-1.474843919277191162e-01 -4.514743685722351074e-01 -4.844905138015747070e-01
-2.072926163673400879e-01 -4.502986371517181396e-01 -4.651252031326293945e-01
5.706793442368507385e-02 -4.867343604564666748e-01 -5.381565690040588379e-01
-1.948721259832382202e-01 -4.732464849948883057e-01 -4.726842641830444336e-01
-4.452726989984512329e-02 -4.808570146560668945e-01 -5.152687430381774902e-01
-1.386380046606063843e-01 -4.765171706676483154e-01 -4.545140266418457031e-01
1.817392557859420776e-02 -4.677744209766387939e-01 -4.910985231399536133e-01
1.337462216615676880e-01 -4.879485964775085449e-01 -5.322926044464111328e-01
1.049674898386001587e-01 -4.647876024246215820e-01 -5.163475275039672852e-01
6.930974125862121582e-02 -4.483658373355865479e-01 -5.070559978485107422e-01
-5.614262074232101440e-02 -4.286803305149078369e-01 -4.844488799571990967e-01
-2.232432812452316284e-01 -4.504857063293457031e-01 -4.595297574996948242e-01
-2.248671203851699829e-01 -4.399897754192352295e-01 -4.451127052307128906e-01
-9.200175106525421143e-02 -4.362477064132690430e-01 -4.926377832889556885e-01
1.897022500634193420e-02 -4.606850743293762207e-01 -5.300334095954895020e-01
-2.539050579071044922e-01 -4.683530330657958984e-01 -4.514264464378356934e-01
7.025367021560668945e-02 -4.989920556545257568e-01 -5.195107460021972656e-01
1.015840917825698853e-01 -4.672348499298095703e-01 -5.484357476234436035e-01
-5.998509377241134644e-02 -5.011909604072570801e-01 -4.858616292476654053e-01
-2.253861576318740845e-01 -4.668714702129364014e-01 -4.365044832229614258e-01
-7.270696759223937988e-02 -4.507310390472412109e-01 -5.050493478775024414e-01
1.076844334602355957e-01 -4.469127357006072998e-01 -5.201189517974853516e-01
-2.094179838895797729e-01 -4.871027171611785889e-01 -4.471756815910339355e-01
1.458442360162734985e-01 -4.617634117603302002e-01 -5.550164580345153809e-01
-2.236157655715942383e-01 -4.521760642528533936e-01 -4.370535612106323242e-01
9.059676527976989746e-02 -4.572613835334777832e-01 -5.120607614517211914e-01
-1.549863368272781372e-01 -4.665128886699676514e-01 -4.851209819316864014e-01
-5.667913705110549927e-02 -4.726995229721069336e-01 -5.126326680183410645e-01
4.576896503567695618e-02 -4.391426444053649902e-01 -5.035375952720642090e-01
-4.377776011824607849e-02 -4.719957709312438965e-01 -5.159407854080200195e-01
-1.999891698360443115e-01 -4.809108674526214600e-01 -4.696861207485198975e-01
-2.292260974645614624e-01 -4.575299620628356934e-01 -4.355430006980895996e-01
5.709963664412498474e-02 -4.764662683010101318e-01 -5.396416783332824707e-01
-2.164535224437713623e-01 -4.778440892696380615e-01 -4.646057188510894775e-01
-5.062830448150634766e-02 -4.687533378601074219e-01 -5.140801072120666504e-01
-1.530161052942276001e-01 -4.829652309417724609e-01 -4.537789821624755859e-01
-1.872694790363311768e-01 -4.345168769359588623e-01 -4.580725133419036865e-01
-1.188187897205352783e-01 -4.414983391761779785e-01 -4.595243632793426514e-01
-5.501185357570648193e-02 -4.823335707187652588e-01 -4.752524197101593018e-01
-6.820369511842727661e-02 -4.852308630943298340e-01 -5.083354115486145020e-01
-1.475178003311157227e-01 -4.753812551498413086e-01 -4.523726105690002441e-01
-2.030618488788604736e-01 -4.568464159965515137e-01 -4.686407446861267090e-01
-1.777890771627426147e-01 -4.786636531352996826e-01 -4.474464058876037598e-01
-2.032200843095779419e-01 -4.712554514408111572e-01 -4.408475756645202637e-01
-2.700020074844360352e-01 -4.671203792095184326e-01 -4.438867270946502686e-01
1.492362841963768005e-02 -4.342408478260040283e-01 -5.166843533515930176e-01
-1.027447432279586792e-01 -4.935924112796783447e-01 -4.697169959545135498e-01
-2.395179420709609985e-01 -4.847086071968078613e-01 -4.442602992057800293e-01
1.109269559383392334e-01 -4.713670611381530762e-01 -5.188313126564025879e-01
5.753375962376594543e-02 -4.931878745555877686e-01 -5.103357434272766113e-01
-9.773573279380798340e-02 -4.309968948364257812e-01 -4.711275994777679443e-01
-6.341394782066345215e-02 -4.939266741275787354e-01 -4.786867797374725342e-01
1.655948758125305176e-01 -4.663167297840118408e-01 -5.584577918052673340e-01
-1.566838920116424561e-01 -4.949370622634887695e-01 -4.775771498680114746e-01
-1.311559677124023438e-01 -4.438778758049011230e-01 -4.862299263477325439e-01
-2.918652631342411041e-02 -4.564587175846099854e-01 -4.782644808292388916e-01
-7.922792434692382812e-02 -5.033289790153503418e-01 -4.858645200729370117e-01
-2.266797274351119995e-01 -4.819501936435699463e-01 -4.416637122631072998e-01
-1.160358451306819916e-02 -4.574115276336669922e-01 -5.221928358078002930e-01
8.254860341548919678e-02 -4.581002593040466309e-01 -5.094955563545227051e-01
1.017842888832092285e-01 -4.710640609264373779e-01 -5.158861875534057617e-01
-4.916436597704887390e-02 -4.927175343036651611e-01 -4.813283085823059082e-01
-9.132564067840576172e-02 -4.847103655338287354e-01 -4.675671160221099854e-01
-1.680475026369094849e-01 -4.757947027683258057e-01 -4.810425937175750732e-01
-5.040660873055458069e-02 -4.507271647453308105e-01 -4.734321832656860352e-01
1.662839502096176147e-01 -4.772985279560089111e-01 -5.396840572357177734e-01
1.795855760574340820e-01 -4.545806944370269775e-01 -5.535559058189392090e-01
9.466326236724853516e-02 -4.489141702651977539e-01 -5.149726271629333496e-01
-1.391033828258514404e-01 -4.931620955467224121e-01 -4.848988354206085205e-01
-1.789974421262741089e-01 -4.513315558433532715e-01 -4.748200178146362305e-01
5.083319917321205139e-02 -4.357065558433532715e-01 -5.248268246650695801e-01
-1.571570783853530884e-01 -4.332553148269653320e-01 -4.693828225135803223e-01
-4.068776965141296387e-02 -4.939134120941162109e-01 -5.127914547920227051e-01
-7.916568219661712646e-02 -4.438678324222564697e-01 -4.678364396095275879e-01
-1.710916757583618164e-01 -4.970969557762145996e-01 -4.645224809646606445e-01
-1.846257224678993225e-02 -5.015439987182617188e-01 -5.132575631141662598e-01
9.435424208641052246e-02 -4.645914733409881592e-01 -5.130074024200439453e-01
8.256649971008300781e-02 -4.952088594436645508e-01 -5.197232365608215332e-01
-2.344958633184432983e-01 -4.662138223648071289e-01 -4.590675234794616699e-01
-9.012131392955780029e-02 -4.582741856575012207e-01 -5.023795366287231445e-01
7.308311760425567627e-02 -4.412840008735656738e-01 -5.111042857170104980e-01
1.237052083015441895e-01 -4.618943035602569580e-01 -5.224555134773254395e-01
-4.385444149374961853e-02 -4.633545577526092529e-01 -5.152947306632995605e-01
1.363447755575180054e-01 -4.931899309158325195e-01 -5.384738445281982422e-01
-8.360400795936584473e-02 -4.300591647624969482e-01 -4.754550457000732422e-01
1.352631002664566040e-01 -4.821669161319732666e-01 -5.537055134773254395e-01
9.970836341381072998e-02 -4.372071623802185059e-01 -5.259802937507629395e-01
1.260487884283065796e-01 -4.505978524684906006e-01 -5.479453802108764648e-01
-1.298606209456920624e-02 -4.463348984718322754e-01 -5.183375477790832520e-01
-2.543587982654571533e-01 -4.607052505016326904e-01 -4.325022995471954346e-01
1.483995765447616577e-01 -4.712987244129180908e-01 -5.566940903663635254e-01
-2.221831828355789185e-01 -4.432234764099121094e-01 -4.553660750389099121e-01
-2.430446445941925049e-01 -4.602302312850952148e-01 -4.336482584476470947e-01
-1.985626965761184692e-01 -4.772418439388275146e-01 -4.433195590972900391e-01
-6.325881928205490112e-02 -4.448448121547698975e-01 -5.052583813667297363e-01
-9.930326044559478760e-02 -4.612067341804504395e-01 -4.610523283481597900e-01
-1.203965544700622559e-01 -4.957717359066009521e-01 -4.891713261604309082e-01
1.585542112588882446e-01 -4.553599357604980469e-01 -5.361865758895874023e-01
6.826101243495941162e-02 -4.787728190422058105e-01 -5.418472290039062500e-01
