-2.350079417228698730e-01 -7.635430097579956055e-01 -3.152889311313629150e-01
-2.062049657106399536e-01 -7.744998335838317871e-01 -3.784813582897186279e-01
-2.251682132482528687e-01 -6.022645235061645508e-01 -4.702176451683044434e-01
-2.083221226930618286e-01 -6.868152618408203125e-01 -4.661550521850585938e-01
-2.422149032354354858e-01 -6.159949898719787598e-01 -3.874993324279785156e-01
-2.917900681495666504e-01 -5.973820090293884277e-01 -4.396149516105651855e-01
-1.511185765266418457e-01 -7.136212587356567383e-01 -3.664499521255493164e-01
-3.040024638175964355e-01 -6.833093166351318359e-01 -3.298850059509277344e-01
-2.142654955387115479e-01 -7.789082527160644531e-01 -3.356879651546478271e-01
-1.575453132390975952e-01 -6.695438027381896973e-01 -4.572910666465759277e-01
-2.161816954612731934e-01 -6.073971390724182129e-01 -4.125796258449554443e-01
-2.388245016336441040e-01 -7.585287690162658691e-01 -4.028448760509490967e-01
-3.402853012084960938e-01 -6.593960523605346680e-01 -3.670539259910583496e-01
-2.778066098690032959e-01 -7.156708240509033203e-01 -3.134989738464355469e-01
-2.691140472888946533e-01 -6.133999228477478027e-01 -3.866385817527770996e-01
-2.666950225830078125e-01 -7.519205808639526367e-01 -4.010994732379913330e-01
-2.108365744352340698e-01 -7.168984413146972656e-01 -3.236221075057983398e-01
-1.799671053886413574e-01 -6.742207407951354980e-01 -3.611223697662353516e-01
-1.922705173492431641e-01 -6.166613101959228516e-01 -4.686600267887115479e-01
-1.979267448186874390e-01 -7.483313083648681641e-01 -4.178619384765625000e-01
-1.626155376434326172e-01 -7.077079415321350098e-01 -3.559455275535583496e-01
-2.392181456089019775e-01 -6.773902773857116699e-01 -3.335142731666564941e-01
-2.951799631118774414e-01 -7.591031789779663086e-01 -3.662207126617431641e-01
-1.945039927959442139e-01 -7.358346581459045410e-01 -3.267969191074371338e-01
-2.408181726932525635e-01 -6.893847584724426270e-01 -4.620443880558013916e-01
-2.691679000854492188e-01 -6.988029479980468750e-01 -3.189392089843750000e-01
-2.506671249866485596e-01 -7.614460587501525879e-01 -3.950875997543334961e-01
-2.633614838123321533e-01 -7.752464413642883301e-01 -3.602688610553741455e-01
-1.489184796810150146e-01 -7.376941442489624023e-01 -3.726327121257781982e-01
-1.477862149477005005e-01 -6.565232872962951660e-01 -4.189775586128234863e-01
-2.130802571773529053e-01 -6.944921016693115234e-01 -3.318867087364196777e-01
-1.784861534833908081e-01 -6.388918161392211914e-01 -3.956694006919860840e-01
-1.949035525321960449e-01 -6.248674392700195312e-01 -4.750230908393859863e-01
-1.852626651525497437e-01 -6.224520802497863770e-01 -4.132153987884521484e-01
-2.611480057239532471e-01 -5.908243656158447266e-01 -4.412419795989990234e-01
-2.130727022886276245e-01 -7.812894582748413086e-01 -3.563305139541625977e-01
-2.095371484756469727e-01 -7.691282033920288086e-01 -3.899462521076202393e-01
-3.462115526199340820e-01 -6.658197045326232910e-01 -3.990985155105590820e-01
-2.284516990184783936e-01 -7.507237792015075684e-01 -3.136280179023742676e-01
-2.523280680179595947e-01 -5.979238152503967285e-01 -4.147382676601409912e-01
-2.500479221343994141e-01 -7.778927683830261230e-01 -3.627778589725494385e-01
-1.782389283180236816e-01 -6.539809107780456543e-01 -4.713742136955261230e-01
-2.320899218320846558e-01 -6.302852630615234375e-01 -3.737010657787322998e-01
-3.019020855426788330e-01 -6.966471672058105469e-01 -3.234513998031616211e-01
-1.883780360221862793e-01 -6.446176171302795410e-01 -4.756703376770019531e-01
-1.423673927783966064e-01 -6.655950546264648438e-01 -4.251778125762939453e-01
-1.984414756298065186e-01 -6.694922447204589844e-01 -3.534185886383056641e-01
-2.148094177246093750e-01 -7.647835612297058105e-01 -3.972781598567962646e-01
-1.588993072509765625e-01 -7.466566562652587891e-01 -3.586757183074951172e-01
-1.516049206256866455e-01 -7.266188263893127441e-01 -4.199171066284179688e-01
-2.812250554561614990e-01 -7.148416042327880859e-01 -4.316444098949432373e-01
-3.421317338943481445e-01 -7.075324654579162598e-01 -3.716967999935150146e-01
-2.078702449798583984e-01 -6.540777683258056641e-01 -4.781262576580047607e-01
-2.953533828258514404e-01 -6.036987900733947754e-01 -4.081258177757263184e-01
-2.453532665967941284e-01 -6.997683644294738770e-01 -4.549801945686340332e-01
-2.962316870689392090e-01 -6.137555241584777832e-01 -3.897804915904998779e-01
-1.795540153980255127e-01 -7.154337167739868164e-01 -3.400149345397949219e-01
-2.267098873853683472e-01 -6.973738670349121094e-01 -3.260138928890228271e-01
-3.020993471145629883e-01 -6.120389699935913086e-01 -4.515956044197082520e-01
-2.502806186676025391e-01 -7.535402178764343262e-01 -4.058854579925537109e-01
-2.634686529636383057e-01 -5.931555032730102539e-01 -4.265819191932678223e-01
-1.601804792881011963e-01 -7.074864506721496582e-01 -4.425202906131744385e-01
-2.339852899312973022e-01 -6.566438078880310059e-01 -3.490883409976959229e-01
-2.331181317567825317e-01 -5.966797471046447754e-01 -4.257372617721557617e-01
-1.598946750164031982e-01 -6.425777673721313477e-01 -4.548679888248443604e-01
-2.833060026168823242e-01 -6.627367734909057617e-01 -3.390597105026245117e-01
-2.821564078330993652e-01 -7.622706890106201172e-01 -3.745791912078857422e-01
-1.611697375774383545e-01 -7.159817814826965332e-01 -4.369238615036010742e-01
-2.274463176727294922e-01 -6.791815161705017090e-01 -4.691134393215179443e-01
-2.715310454368591309e-01 -7.189546823501586914e-01 -4.327284097671508789e-01
-3.260987699031829834e-01 -6.341570019721984863e-01 -4.350708723068237305e-01
-2.582668364048004150e-01 -7.347958683967590332e-01 -4.236915707588195801e-01
-2.003231048583984375e-01 -7.788909673690795898e-01 -3.539329767227172852e-01
-1.774237155914306641e-01 -6.955140829086303711e-01 -4.570330381393432617e-01
-2.095288485288619995e-01 -6.695589423179626465e-01 -4.736811220645904541e-01
-2.854726910591125488e-01 -7.563478350639343262e-01 -3.824669420719146729e-01
-1.979995965957641602e-01 -7.077889442443847656e-01 -3.323608040809631348e-01
-2.252507507801055908e-01 -6.359875798225402832e-01 -4.811573028564453125e-01
-1.525198519229888916e-01 -7.246795296669006348e-01 -3.627347052097320557e-01
-3.284432888031005859e-01 -6.510601043701171875e-01 -4.326374232769012451e-01
-2.690574228763580322e-01 -7.087231874465942383e-01 -3.152309060096740723e-01
-1.841538399457931519e-01 -6.295155882835388184e-01 -4.714013934135437012e-01
-2.303743213415145874e-01 -6.860510706901550293e-01 -3.307164907455444336e-01
-2.386696487665176392e-01 -6.731826066970825195e-01 -4.703267812728881836e-01
-2.356081455945968628e-01 -7.358799576759338379e-01 -4.288613796234130859e-01
-1.868869066238403320e-01 -7.593211531639099121e-01 -3.344492018222808838e-01
-3.206715583801269531e-01 -6.990317702293395996e-01 -3.300408720970153809e-01
-2.342895269393920898e-01 -7.719830274581909180e-01 -3.829055726528167725e-01
-2.150302380323410034e-01 -6.618952155113220215e-01 -3.514510691165924072e-01
-1.945047229528427124e-01 -6.847140192985534668e-01 -3.455091714859008789e-01
-2.190049737691879272e-01 -6.139926314353942871e-01 -3.997217416763305664e-01
-1.887210160493850708e-01 -6.386816501617431641e-01 -3.871766924858093262e-01
-3.104175925254821777e-01 -6.307515501976013184e-01 -3.727446198463439941e-01
-3.124794960021972656e-01 -6.077873706817626953e-01 -4.290000200271606445e-01
-1.497038602828979492e-01 -6.753346920013427734e-01 -3.901990950107574463e-01
-2.400815933942794800e-01 -6.352846026420593262e-01 -3.661768734455108643e-01
-2.820001840591430664e-01 -6.937711834907531738e-01 -3.214421272277832031e-01
-2.327989637851715088e-01 -7.636004686355590820e-01 -3.971120417118072510e-01
-3.313862681388854980e-01 -6.596735119819641113e-01 -4.273134768009185791e-01
-1.953743696212768555e-01 -6.065554022789001465e-01 -4.515110552310943604e-01
-2.627524137496948242e-01 -6.343429684638977051e-01 -4.753975272178649902e-01
-1.699224263429641724e-01 -7.470392584800720215e-01 -3.448388874530792236e-01
-3.199398517608642578e-01 -6.865337491035461426e-01 -4.263289272785186768e-01
-1.375548839569091797e-01 -6.861258745193481445e-01 -4.095410108566284180e-01
-3.277909755706787109e-01 -7.162601351737976074e-01 -3.925091326236724854e-01
-1.714311540126800537e-01 -6.324365139007568359e-01 -4.135859608650207520e-01
-1.373345404863357544e-01 -6.861605048179626465e-01 -4.212996065616607666e-01
-1.739792525768280029e-01 -6.216484308242797852e-01 -4.488541185855865479e-01
-2.720638215541839600e-01 -6.721974611282348633e-01 -4.619030058383941650e-01
-1.678445935249328613e-01 -6.954655647277832031e-01 -3.570300340652465820e-01
-1.994933485984802246e-01 -6.097453832626342773e-01 -4.228123426437377930e-01
-1.526019871234893799e-01 -6.913287639617919922e-01 -4.465133249759674072e-01
-2.379671931266784668e-01 -7.250286340713500977e-01 -4.380842447280883789e-01
-2.414643466472625732e-01 -7.411274313926696777e-01 -4.224150180816650391e-01
-3.003906607627868652e-01 -6.101821660995483398e-01 -3.975252807140350342e-01
-2.861705422401428223e-01 -5.996122360229492188e-01 -4.132954776287078857e-01
-3.372919559478759766e-01 -6.346696019172668457e-01 -3.970633447170257568e-01
-2.990885674953460693e-01 -7.315284609794616699e-01 -3.159543573856353760e-01
-3.145483136177062988e-01 -7.241266965866088867e-01 -3.994433283805847168e-01
-1.907768398523330688e-01 -7.753357887268066406e-01 -3.527842760086059570e-01
-2.761911153793334961e-01 -5.988760590553283691e-01 -4.589154720306396484e-01
-2.193122208118438721e-01 -6.687261462211608887e-01 -3.448865711688995361e-01
-3.201228380203247070e-01 -7.299997806549072266e-01 -3.853061795234680176e-01
-2.701445817947387695e-01 -7.660624980926513672e-01 -3.184395730495452881e-01
-1.424874067306518555e-01 -6.952573060989379883e-01 -4.333258867263793945e-01
-1.753182709217071533e-01 -6.745288968086242676e-01 -4.656763374805450439e-01
-2.853384912014007568e-01 -6.335198879241943359e-01 -4.667755663394927979e-01
-2.599778771400451660e-01 -6.990929841995239258e-01 -4.514679908752441406e-01
-2.115137726068496704e-01 -6.219717264175415039e-01 -3.926410377025604248e-01
-3.071084320545196533e-01 -7.480945587158203125e-01 -3.732119500637054443e-01
-1.997428387403488159e-01 -6.910375952720642090e-01 -3.393290042877197266e-01
-1.367518007755279541e-01 -7.031875252723693848e-01 -4.132995903491973877e-01
-2.705394625663757324e-01 -7.209686040878295898e-01 -3.118716776371002197e-01
-2.995793819427490234e-01 -6.612764000892639160e-01 -3.421685695648193359e-01
-2.456649690866470337e-01 -5.911228656768798828e-01 -4.482963383197784424e-01
-1.935974359512329102e-01 -7.366654276847839355e-01 -4.295831918716430664e-01
-2.369404137134552002e-01 -6.061488986015319824e-01 -4.746578931808471680e-01
-2.515496611595153809e-01 -6.594958305358886719e-01 -4.729717075824737549e-01
-1.496852040290832520e-01 -7.063200473785400391e-01 -4.354805648326873779e-01
-2.195702940225601196e-01 -6.858192086219787598e-01 -4.664923846721649170e-01
-2.930370569229125977e-01 -6.073088049888610840e-01 -4.558154046535491943e-01
-3.172958195209503174e-01 -7.004618644714355469e-01 -4.189773201942443848e-01
-2.884452044963836670e-01 -6.214273571968078613e-01 -3.774592280387878418e-01
-2.843873500823974609e-01 -6.089565753936767578e-01 -3.942081034183502197e-01
-3.296947777271270752e-01 -6.964948773384094238e-01 -3.368557989597320557e-01
-2.178143858909606934e-01 -6.756335496902465820e-01 -4.713015556335449219e-01
-1.938223540782928467e-01 -7.655013203620910645e-01 -3.931523263454437256e-01
-2.108953297138214111e-01 -7.524577379226684570e-01 -4.138665199279785156e-01
-1.702899485826492310e-01 -6.271584033966064453e-01 -4.545587003231048584e-01
-2.439076602458953857e-01 -7.105301618576049805e-01 -3.167876899242401123e-01
-3.106553554534912109e-01 -7.066274881362915039e-01 -3.231792449951171875e-01
-2.272180467844009399e-01 -7.243107557296752930e-01 -3.163034319877624512e-01
-3.322924673557281494e-01 -7.271801233291625977e-01 -3.625225722789764404e-01
-1.850319206714630127e-01 -6.167826056480407715e-01 -4.258053600788116455e-01
-3.027978241443634033e-01 -6.763653755187988281e-01 -4.447988271713256836e-01
-3.170835673809051514e-01 -6.550852656364440918e-01 -3.522682487964630127e-01
-2.422516047954559326e-01 -6.410856246948242188e-01 -4.791689515113830566e-01
-2.175033986568450928e-01 -7.821083068847656250e-01 -3.469450175762176514e-01
-1.630913317203521729e-01 -6.375148892402648926e-01 -4.185197353363037109e-01
-3.416178822517395020e-01 -6.432814598083496094e-01 -4.063921570777893066e-01
-2.860084176063537598e-01 -6.641665697097778320e-01 -4.593525230884552002e-01
-2.391631305217742920e-01 -6.492879986763000488e-01 -3.536587059497833252e-01
-2.428217977285385132e-01 -7.511386871337890625e-01 -4.110732972621917725e-01
-1.953794062137603760e-01 -6.561678647994995117e-01 -3.655488491058349609e-01
-3.410822153091430664e-01 -6.983352899551391602e-01 -3.895315527915954590e-01
-3.333462774753570557e-01 -6.793598532676696777e-01 -3.463808596134185791e-01
-2.787515521049499512e-01 -5.943845510482788086e-01 -4.267185032367706299e-01
-2.772693932056427002e-01 -7.608373761177062988e-01 -3.814305365085601807e-01
-2.166992872953414917e-01 -7.272804379463195801e-01 -4.389269351959228516e-01
-1.927771866321563721e-01 -7.674679756164550781e-01 -3.352423608303070068e-01
-2.457168847322463989e-01 -7.520416378974914551e-01 -3.108650147914886475e-01
-1.851345598697662354e-01 -6.284371614456176758e-01 -4.035305678844451904e-01
-3.375169038772583008e-01 -6.476508378982543945e-01 -3.751254379749298096e-01
-1.516816020011901855e-01 -6.957975625991821289e-01 -3.730506300926208496e-01
-2.280624061822891235e-01 -7.713151574134826660e-01 -3.211084008216857910e-01
-2.911953032016754150e-01 -7.116228342056274414e-01 -4.289020895957946777e-01
-2.057856917381286621e-01 -6.106246709823608398e-01 -4.145140647888183594e-01
-2.557962238788604736e-01 -7.234008908271789551e-01 -3.116775453090667725e-01
-1.599846184253692627e-01 -7.348972558975219727e-01 -3.534674048423767090e-01
-2.166485488414764404e-01 -7.779606580734252930e-01 -3.713667690753936768e-01
-1.840906739234924316e-01 -7.122211456298828125e-01 -4.482476413249969482e-01
-2.593673765659332275e-01 -6.555398702621459961e-01 -3.449946939945220947e-01
-2.829261124134063721e-01 -6.291087269783020020e-01 -3.680395185947418213e-01
-3.083274364471435547e-01 -6.363423466682434082e-01 -4.526563584804534912e-01
-3.283904194831848145e-01 -6.264972686767578125e-01 -4.273044466972351074e-01
-1.948180645704269409e-01 -7.577538490295410156e-01 -3.284247517585754395e-01
-2.820328772068023682e-01 8.080833554267883301e-01 3.507967591285705566e-01
-3.203125894069671631e-01 8.443285226821899414e-01 2.923550903797149658e-01
-3.302191793918609619e-01 7.740458250045776367e-01 3.231073915958404541e-01
-3.364301323890686035e-01 8.142434358596801758e-01 3.000247478485107422e-01
-2.932941317558288574e-01 8.724399209022521973e-01 2.657860815525054932e-01
-3.092814683914184570e-01 7.705025076866149902e-01 3.423480689525604248e-01
-3.304381668567657471e-01 8.356073498725891113e-01 2.867506444454193115e-01
-3.015324771404266357e-01 7.512671947479248047e-01 3.745930492877960205e-01
-3.319332897663116455e-01 8.372873067855834961e-01 2.812656164169311523e-01
-3.306286931037902832e-01 8.482612371444702148e-01 2.686948180198669434e-01
-3.396139144897460938e-01 8.038681149482727051e-01 2.988159656524658203e-01
-3.354093432426452637e-01 8.366587758064270020e-01 2.683680951595306396e-01
-3.008796870708465576e-01 7.971913218498229980e-01 3.225667774677276611e-01
-2.937618196010589600e-01 8.077932596206665039e-01 3.575649857521057129e-01
-3.075440526008605957e-01 7.471294999122619629e-01 3.720612227916717529e-01
-3.145297467708587646e-01 7.503936886787414551e-01 3.607422411441802979e-01
-3.064123392105102539e-01 7.690446376800537109e-01 3.471840918064117432e-01
-2.856762707233428955e-01 7.993238568305969238e-01 3.668906986713409424e-01
-2.994550168514251709e-01 8.567160367965698242e-01 2.665757536888122559e-01
-3.109622895717620850e-01 8.483921885490417480e-01 2.611624598503112793e-01
-3.112649023532867432e-01 7.430812120437622070e-01 3.729859292507171631e-01
-3.249274492263793945e-01 8.417208790779113770e-01 2.887919545173645020e-01
-3.005828857421875000e-01 8.803492784500122070e-01 2.636241018772125244e-01
-3.129029572010040283e-01 7.631283998489379883e-01 3.471781611442565918e-01
-3.013379573822021484e-01 7.291948199272155762e-01 4.046683013439178467e-01
-3.277974128723144531e-01 7.619723677635192871e-01 3.718217015266418457e-01
-3.045114874839782715e-01 7.571991682052612305e-01 3.634003400802612305e-01
-3.295227587223052979e-01 8.107192516326904297e-01 2.849107384681701660e-01
-3.134102523326873779e-01 8.116787672042846680e-01 2.939998209476470947e-01
-3.076294660568237305e-01 8.797280788421630859e-01 2.404762506484985352e-01
-2.843963801860809326e-01 8.443036675453186035e-01 3.116808235645294189e-01
-3.051849603652954102e-01 7.623255252838134766e-01 3.564626872539520264e-01
-2.829380631446838379e-01 7.932226061820983887e-01 3.688905835151672363e-01
-3.257470130920410156e-01 8.379678726196289062e-01 2.921834886074066162e-01
-2.842169404029846191e-01 8.270594477653503418e-01 3.208843469619750977e-01
-3.013470768928527832e-01 7.864294648170471191e-01 3.755430877208709717e-01
-3.312226235866546631e-01 8.185796737670898438e-01 3.062849938869476318e-01
-3.090961575508117676e-01 8.420643210411071777e-01 2.686008214950561523e-01
-2.912220656871795654e-01 7.445298433303833008e-01 4.039392173290252686e-01
-2.973591983318328857e-01 7.999726533889770508e-01 3.242686092853546143e-01
-3.156236708164215088e-01 8.259976506233215332e-01 3.200201690196990967e-01
-2.887511253356933594e-01 8.237786889076232910e-01 3.134880959987640381e-01
-3.068521022796630859e-01 8.311726450920104980e-01 3.229608237743377686e-01
-3.316283226013183594e-01 7.343174815177917480e-01 3.882129192352294922e-01
-3.400937318801879883e-01 7.806270718574523926e-01 3.248767554759979248e-01
-3.124065101146697998e-01 8.117834329605102539e-01 3.394343554973602295e-01
-3.111070394515991211e-01 7.782916426658630371e-01 3.758068382740020752e-01
-3.269157707691192627e-01 7.537050843238830566e-01 3.808136582374572754e-01
-3.097690343856811523e-01 7.646282315254211426e-01 3.903521299362182617e-01
-3.238377571105957031e-01 7.764369845390319824e-01 3.632954657077789307e-01
-3.331345021724700928e-01 7.925183176994323730e-01 3.025983572006225586e-01
-3.206993341445922852e-01 7.109888195991516113e-01 4.189178943634033203e-01
-3.076020181179046631e-01 8.068695068359375000e-01 3.045768737792968750e-01
-3.397467434406280518e-01 7.741763591766357422e-01 3.331401646137237549e-01
-3.276748359203338623e-01 7.993744611740112305e-01 3.339056670665740967e-01
-2.993909120559692383e-01 7.374951243400573730e-01 3.959533274173736572e-01
-3.187154233455657959e-01 8.535631895065307617e-01 2.828308939933776855e-01
-3.030495345592498779e-01 8.774704337120056152e-01 2.668811678886413574e-01
-3.335635066032409668e-01 7.835388183593750000e-01 3.407835364341735840e-01
-2.978541254997253418e-01 8.264039158821105957e-01 2.964749336242675781e-01
-3.262303471565246582e-01 8.628870844841003418e-01 2.429792582988739014e-01
-3.280299603939056396e-01 8.307468891143798828e-01 2.665723860263824463e-01
-3.332324326038360596e-01 7.346699237823486328e-01 3.837282955646514893e-01
-3.298530280590057373e-01 7.392033934593200684e-01 3.883852660655975342e-01
-3.390304446220397949e-01 7.612372636795043945e-01 3.458123803138732910e-01
-3.120352327823638916e-01 8.728690147399902344e-01 2.408383339643478394e-01
-3.212375938892364502e-01 8.294891119003295898e-01 2.706793248653411865e-01
-3.161903619766235352e-01 8.092173933982849121e-01 3.381844758987426758e-01
-2.852477133274078369e-01 8.447409868240356445e-01 3.034977614879608154e-01
-3.290136158466339111e-01 8.152703642845153809e-01 3.140203356742858887e-01
-3.106089234352111816e-01 7.545216083526611328e-01 3.596433699131011963e-01
-3.394399285316467285e-01 7.664055824279785156e-01 3.372022509574890137e-01
-3.127003610134124756e-01 8.393947482109069824e-01 3.075961470603942871e-01
-3.264932930469512939e-01 8.031769394874572754e-01 2.935651540756225586e-01
-2.877687811851501465e-01 7.670245766639709473e-01 3.797572851181030273e-01
-3.107822537422180176e-01 7.101866602897644043e-01 4.292412698268890381e-01
-2.883510589599609375e-01 7.805753946304321289e-01 3.611517548561096191e-01
-3.200824558734893799e-01 8.013481497764587402e-01 3.421487212181091309e-01
-2.865668833255767822e-01 8.217866420745849609e-01 3.199165463447570801e-01
-3.165935873985290527e-01 7.402851581573486328e-01 4.057439863681793213e-01
-3.287425637245178223e-01 8.439860939979553223e-01 2.790825366973876953e-01
-3.076469898223876953e-01 7.349327206611633301e-01 4.181989729404449463e-01
-3.265263140201568604e-01 7.455255389213562012e-01 3.886390328407287598e-01
-3.109872937202453613e-01 7.456265091896057129e-01 4.066236615180969238e-01
-3.002422451972961426e-01 7.764776945114135742e-01 3.463088274002075195e-01
-2.908235788345336914e-01 7.927907705307006836e-01 3.739170134067535400e-01
-2.986720502376556396e-01 7.877597212791442871e-01 3.357479572296142578e-01
-3.073891997337341309e-01 7.933302521705627441e-01 3.638532757759094238e-01
-3.149918615818023682e-01 8.511441349983215332e-01 2.554376125335693359e-01
-3.024835288524627686e-01 8.667246699333190918e-01 2.547359168529510498e-01
-2.939247190952301025e-01 7.500753998756408691e-01 3.886222839355468750e-01
-2.829128801822662354e-01 8.259432911872863770e-01 3.268407583236694336e-01
-3.176632523536682129e-01 8.190178275108337402e-01 3.255901932716369629e-01
-3.188527822494506836e-01 7.418077588081359863e-01 3.676056861877441406e-01
-3.023807704448699951e-01 7.750273942947387695e-01 3.861295282840728760e-01
-2.966149449348449707e-01 7.289418578147888184e-01 4.158196747303009033e-01
-3.028205931186676025e-01 7.937279343605041504e-01 3.670740127563476562e-01
-2.855200767517089844e-01 7.782438993453979492e-01 3.712716400623321533e-01
-3.238724768161773682e-01 7.915079593658447266e-01 3.477510511875152588e-01
-3.114866912364959717e-01 7.336859703063964844e-01 3.848379850387573242e-01
-3.171158134937286377e-01 7.919492721557617188e-01 3.113732635974884033e-01
-2.997324764728546143e-01 7.478414177894592285e-01 4.123169183731079102e-01
-3.226740956306457520e-01 7.516915202140808105e-01 3.885235786437988281e-01
-2.994945943355560303e-01 8.756303191184997559e-01 2.717639803886413574e-01
-2.837160229682922363e-01 7.801424264907836914e-01 3.777199387550354004e-01
-3.263014853000640869e-01 8.528815507888793945e-01 2.716371715068817139e-01
-2.880326211452484131e-01 8.570714592933654785e-01 2.869891524314880371e-01
-3.165056109428405762e-01 7.156127691268920898e-01 4.058172702789306641e-01
-3.108949959278106689e-01 8.283368945121765137e-01 2.798041701316833496e-01
-3.201390802860260010e-01 7.502120733261108398e-01 3.562690615653991699e-01
-3.289600908756256104e-01 8.322582244873046875e-01 2.938146889209747314e-01
-2.939403951168060303e-01 7.610417604446411133e-01 3.742763698101043701e-01
-2.878579795360565186e-01 8.556216359138488770e-01 3.009307384490966797e-01
-3.166198730468750000e-01 8.428230285644531250e-01 2.989785075187683105e-01
-3.346039056777954102e-01 7.399820089340209961e-01 3.659608960151672363e-01
-3.369065523147583008e-01 7.912431359291076660e-01 3.254866600036621094e-01
-3.382800221443176270e-01 8.055421710014343262e-01 2.921151816844940186e-01
-3.188008368015289307e-01 8.386002779006958008e-01 3.013728559017181396e-01
-3.103368282318115234e-01 8.854188919067382812e-01 2.365084290504455566e-01
-2.935715615749359131e-01 8.346653580665588379e-01 3.277030885219573975e-01
-3.150613009929656982e-01 7.272861003875732422e-01 4.177012443542480469e-01
-2.934921979904174805e-01 7.368605732917785645e-01 4.104141592979431152e-01
-3.245455622673034668e-01 8.672028183937072754e-01 2.404186427593231201e-01
-2.823231518268585205e-01 7.994513511657714844e-01 3.609422445297241211e-01
-2.940199673175811768e-01 7.403626441955566406e-01 4.025766253471374512e-01
-3.086279928684234619e-01 7.516539692878723145e-01 4.033136367797851562e-01
-3.174655437469482422e-01 7.179828286170959473e-01 4.213049709796905518e-01
-2.836238145828247070e-01 7.905192971229553223e-01 3.729898631572723389e-01
-3.248260319232940674e-01 8.573393821716308594e-01 2.681195139884948730e-01
-2.849875390529632568e-01 7.824969291687011719e-01 3.674060702323913574e-01
-3.084048330783843994e-01 7.754957675933837891e-01 3.810220956802368164e-01
-2.915985584259033203e-01 7.939910292625427246e-01 3.396090567111968994e-01
-3.264118432998657227e-01 7.505849599838256836e-01 3.843687474727630615e-01
-3.174496591091156006e-01 7.443722486495971680e-01 4.012982845306396484e-01
-3.012298047542572021e-01 8.843929767608642578e-01 2.556287050247192383e-01
-2.967060208320617676e-01 7.615627050399780273e-01 3.690082430839538574e-01
-3.115736246109008789e-01 7.202535271644592285e-01 4.256354570388793945e-01
-3.196842670440673828e-01 8.113163709640502930e-01 3.317507803440093994e-01
-3.278427124023437500e-01 8.477762937545776367e-01 2.757148742675781250e-01
-3.072774112224578857e-01 8.528331518173217773e-01 2.608063519001007080e-01
-3.179906904697418213e-01 8.694374561309814453e-01 2.620938420295715332e-01
-3.184854984283447266e-01 7.690557837486267090e-01 3.354684710502624512e-01
-3.055527210235595703e-01 8.262718319892883301e-01 3.296894431114196777e-01
-3.206849694252014160e-01 7.621356844902038574e-01 3.417456150054931641e-01
-3.311698436737060547e-01 7.610968351364135742e-01 3.671862483024597168e-01
-3.151294887065887451e-01 8.057108521461486816e-01 3.431783318519592285e-01
-2.990025579929351807e-01 7.597598433494567871e-01 4.023857414722442627e-01
-3.337680101394653320e-01 7.461441755294799805e-01 3.564018607139587402e-01
-3.344423472881317139e-01 8.066927194595336914e-01 3.138045072555541992e-01
-3.378516733646392822e-01 7.864776253700256348e-01 3.281149566173553467e-01
-3.160742819309234619e-01 7.758313417434692383e-01 3.732313513755798340e-01
-3.018759489059448242e-01 8.040851354598999023e-01 3.140063583850860596e-01
-3.134523630142211914e-01 7.286892533302307129e-01 3.895004689693450928e-01
-3.172407746315002441e-01 8.232697248458862305e-01 2.793329358100891113e-01
-2.961572408676147461e-01 8.726463317871093750e-01 2.597716450691223145e-01
-2.933282852172851562e-01 7.860999703407287598e-01 3.799302577972412109e-01
-3.061097562313079834e-01 8.713847398757934570e-01 2.472148537635803223e-01
-3.215476572513580322e-01 8.065589666366577148e-01 2.929022014141082764e-01
-3.257382512092590332e-01 7.821125984191894531e-01 3.549366593360900879e-01
-2.990209758281707764e-01 8.679919838905334473e-01 2.583261132240295410e-01
-3.191019594669342041e-01 7.521774172782897949e-01 3.924645483493804932e-01
-2.932893633842468262e-01 8.210139870643615723e-01 3.433707952499389648e-01
-3.152417242527008057e-01 7.216358184814453125e-01 3.976937830448150635e-01
-2.908919751644134521e-01 8.129415512084960938e-01 3.529521524906158447e-01
-3.188306689262390137e-01 7.899545431137084961e-01 3.557269871234893799e-01
-2.983140051364898682e-01 7.673829197883605957e-01 3.957773447036743164e-01
-3.264992237091064453e-01 8.172224164009094238e-01 2.796458303928375244e-01
-2.899591028690338135e-01 7.569267153739929199e-01 3.880207538604736328e-01
-3.034687936305999756e-01 8.507390022277832031e-01 2.667589783668518066e-01
-2.961849570274353027e-01 7.726027369499206543e-01 3.565886914730072021e-01
-3.133327364921569824e-01 7.189759016036987305e-01 4.035568833351135254e-01
-2.917182445526123047e-01 8.710895180702209473e-01 2.706155776977539062e-01
-3.067026436328887939e-01 7.434266805648803711e-01 3.777189254760742188e-01
-3.037513792514801025e-01 7.822651863098144531e-01 3.780320286750793457e-01
-3.247544467449188232e-01 7.686372995376586914e-01 3.697814345359802246e-01
-3.281251788139343262e-01 7.321256995201110840e-01 3.752789795398712158e-01
-3.282939791679382324e-01 7.206618189811706543e-01 3.938457071781158447e-01
-2.998141050338745117e-01 7.453075051307678223e-01 3.847174048423767090e-01
-3.289486467838287354e-01 7.437428236007690430e-01 3.595516383647918701e-01
-3.233946859836578369e-01 8.200145959854125977e-01 3.170889019966125488e-01
-3.353601992130279541e-01 7.482879161834716797e-01 3.694504499435424805e-01
-2.889446020126342773e-01 8.033948540687561035e-01 3.633387982845306396e-01
-3.115222752094268799e-01 8.745614290237426758e-01 2.632094323635101318e-01
-2.987795472145080566e-01 8.146824836730957031e-01 3.069726824760437012e-01
-3.245002031326293945e-01 7.656410932540893555e-01 3.352078497409820557e-01
-3.296662271022796631e-01 7.863004803657531738e-01 3.098830282688140869e-01
-3.244685530662536621e-01 8.114987611770629883e-01 3.252331316471099854e-01
-2.937389314174652100e-01 8.367497920989990234e-01 2.925088405609130859e-01
-3.300884962081909180e-01 7.296802401542663574e-01 3.944301605224609375e-01
-3.053463101387023926e-01 7.603046298027038574e-01 3.979967832565307617e-01
-2.850014269351959229e-01 8.416159152984619141e-01 3.179148137569427490e-01
-3.002276122570037842e-01 8.087289929389953613e-01 3.530833423137664795e-01
-3.164643943309783936e-01 7.644268870353698730e-01 3.424329459667205811e-01
-3.319367170333862305e-01 7.302644252777099609e-01 3.791505992412567139e-01
-3.219697773456573486e-01 8.173506259918212891e-01 3.220641613006591797e-01
-3.215759396553039551e-01 8.472079634666442871e-01 2.546764016151428223e-01
-2.943368852138519287e-01 8.098134398460388184e-01 3.182647824287414551e-01
-3.309575021266937256e-01 7.416560053825378418e-01 3.844135999679565430e-01
-3.154432475566864014e-01 8.687434792518615723e-01 2.667258083820343018e-01
-2.961406707763671875e-01 8.529909849166870117e-01 2.743571400642395020e-01
-3.290016353130340576e-01 7.208445072174072266e-01 3.995615839958190918e-01
-3.277835845947265625e-01 8.191916346549987793e-01 3.114880919456481934e-01
-3.134242892265319824e-01 8.186117410659790039e-01 2.870306074619293213e-01
-3.038442432880401611e-01 8.814229965209960938e-01 2.599573135375976562e-01
-2.984283864498138428e-01 8.475649356842041016e-01 2.758500277996063232e-01
-2.843025326728820801e-01 7.778399586677551270e-01 3.835989236831665039e-01
-2.909858524799346924e-01 7.749031186103820801e-01 3.626591265201568604e-01
-2.865816652774810791e-01 8.054768443107604980e-01 3.366796076297760010e-01
-3.117673099040985107e-01 7.980898022651672363e-01 3.548221886157989502e-01
-3.040145933628082275e-01 7.913851737976074219e-01 3.249953389167785645e-01
-2.908686995506286621e-01 8.036721944808959961e-01 3.303358256816864014e-01
-2.989976406097412109e-01 8.728006482124328613e-01 2.550916075706481934e-01
-3.305647969245910645e-01 7.237753272056579590e-01 3.908669054508209229e-01
-3.230396211147308350e-01 7.770804762840270996e-01 3.232127130031585693e-01
-3.128324151039123535e-01 7.978172302246093750e-01 3.088643848896026611e-01
-2.889139056205749512e-01 7.551819682121276855e-01 4.056184887886047363e-01
-3.364208042621612549e-01 7.751110196113586426e-01 3.433139920234680176e-01
-3.335681855678558350e-01 7.470296621322631836e-01 3.748188018798828125e-01
-3.167144358158111572e-01 7.738772034645080566e-01 3.314712643623352051e-01
-2.909370958805084229e-01 8.434507250785827637e-01 2.910946309566497803e-01
-2.955348789691925049e-01 7.940947413444519043e-01 3.710700571537017822e-01
-3.119217157363891602e-01 8.037034273147583008e-01 3.486911356449127197e-01
-3.375608325004577637e-01 8.162353038787841797e-01 2.822832167148590088e-01
-3.397568762302398682e-01 7.971946597099304199e-01 3.032214939594268799e-01
-2.828484177589416504e-01 8.172584772109985352e-01 3.349160552024841309e-01
-2.997636198997497559e-01 8.416676521301269531e-01 2.794345915317535400e-01
-3.042080104351043701e-01 7.728743553161621094e-01 3.453837931156158447e-01
-2.872872352600097656e-01 7.605010867118835449e-01 3.911555409431457520e-01
-3.097876012325286865e-01 7.169779539108276367e-01 4.108720719814300537e-01
-2.851398289203643799e-01 8.166186213493347168e-01 3.284173011779785156e-01
-2.927474677562713623e-01 8.490562438964843750e-01 3.105566501617431641e-01
-3.147450387477874756e-01 8.311631679534912109e-01 2.737225294113159180e-01
-3.328490853309631348e-01 8.229489326477050781e-01 2.732172608375549316e-01
-3.203026950359344482e-01 8.771708011627197266e-01 2.444113343954086304e-01
-3.159914016723632812e-01 8.370855450630187988e-01 2.671999335289001465e-01
-2.823551893234252930e-01 8.149870634078979492e-01 3.396173119544982910e-01
-2.934683561325073242e-01 8.410159945487976074e-01 3.202137649059295654e-01
-3.306242525577545166e-01 8.554831147193908691e-01 2.548792660236358643e-01
-3.282210528850555420e-01 7.535280585289001465e-01 3.476284146308898926e-01
-2.975990474224090576e-01 7.949634194374084473e-01 3.293317854404449463e-01
-3.028126955032348633e-01 8.009660243988037109e-01 3.595305979251861572e-01
-3.352144360542297363e-01 7.548590302467346191e-01 3.455625474452972412e-01
-3.172316253185272217e-01 8.288041353225708008e-01 3.149039447307586670e-01
-3.053602576255798340e-01 8.731786012649536133e-01 2.714439928531646729e-01
-3.103595674037933350e-01 7.895464897155761719e-01 3.650935888290405273e-01
-2.849570214748382568e-01 7.750277519226074219e-01 3.779056966304779053e-01
-3.336631357669830322e-01 8.313962817192077637e-01 2.665593028068542480e-01
-3.083545267581939697e-01 8.788197636604309082e-01 2.602204680442810059e-01
-2.821875810623168945e-01 8.136072754859924316e-01 3.468227684497833252e-01
-3.227176368236541748e-01 7.897357940673828125e-01 3.096674084663391113e-01
-3.275169432163238525e-01 7.177871465682983398e-01 4.034260511398315430e-01
-3.134755790233612061e-01 8.183322548866271973e-01 3.310656547546386719e-01
-3.373667597770690918e-01 7.696990370750427246e-01 3.286027610301971436e-01
-3.170624971389770508e-01 7.394451498985290527e-01 3.720511794090270996e-01
-2.965055406093597412e-01 8.449624776840209961e-01 2.808493375778198242e-01
-3.073584735393524170e-01 8.204185962677001953e-01 2.910749912261962891e-01
-3.314619660377502441e-01 8.421420454978942871e-01 2.575385272502899170e-01
-2.999379634857177734e-01 7.632025480270385742e-01 3.987951874732971191e-01
-3.282240629196166992e-01 7.687798142433166504e-01 3.646329939365386963e-01
-3.167156875133514404e-01 8.641920685768127441e-01 2.437953948974609375e-01
-2.830304503440856934e-01 8.063738346099853516e-01 3.454792499542236328e-01
-2.943456470966339111e-01 8.423184156417846680e-01 2.864447534084320068e-01
-3.142295479774475098e-01 7.778319120407104492e-01 3.292287588119506836e-01
-3.227897286415100098e-01 7.212272286415100098e-01 4.124906063079833984e-01
-2.971638739109039307e-01 8.051882386207580566e-01 3.190059959888458252e-01
-3.177821040153503418e-01 7.229351401329040527e-01 4.178761243820190430e-01
-3.046768009662628174e-01 7.295507192611694336e-01 4.240200519561767578e-01
-3.037839829921722412e-01 8.815001249313354492e-01 2.438315004110336304e-01
-2.961608469486236572e-01 8.589401245117187500e-01 2.694207429885864258e-01
-3.204571604728698730e-01 8.720635771751403809e-01 2.538178861141204834e-01
-3.200791776180267334e-01 8.240029811859130859e-01 3.169321119785308838e-01
-3.061615228652954102e-01 7.718862891197204590e-01 3.864048719406127930e-01
-2.925260961055755615e-01 8.478479385375976562e-01 2.844853401184082031e-01
-3.333213031291961670e-01 7.366100549697875977e-01 3.699099421501159668e-01
-3.007325530052185059e-01 8.358955383300781250e-01 3.223476409912109375e-01
-3.133936822414398193e-01 7.597443461418151855e-01 3.506608903408050537e-01
-3.043926358222961426e-01 7.796173691749572754e-01 3.375270068645477295e-01
-3.077958226203918457e-01 8.603508472442626953e-01 2.539593577384948730e-01
-2.969248294830322266e-01 7.422749996185302734e-01 3.936286270618438721e-01
-3.144846558570861816e-01 8.574969768524169922e-01 2.505034208297729492e-01
-3.045837283134460449e-01 7.248991131782531738e-01 4.270618259906768799e-01
-2.993780672550201416e-01 8.517149090766906738e-01 2.709383964538574219e-01
-2.847531735897064209e-01 7.986780405044555664e-01 3.486000299453735352e-01
-3.071108460426330566e-01 7.971441745758056641e-01 3.601150512695312500e-01
-2.935123443603515625e-01 7.575836181640625000e-01 4.058928489685058594e-01
-3.385668098926544189e-01 8.139504790306091309e-01 2.868110239505767822e-01
-2.926700413227081299e-01 7.679804563522338867e-01 3.970825076103210449e-01
-2.826201319694519043e-01 8.255597949028015137e-01 3.339670896530151367e-01
-3.320059478282928467e-01 7.683181762695312500e-01 3.588632643222808838e-01
-3.266274631023406982e-01 7.247004508972167969e-01 4.041873812675476074e-01
-3.072958886623382568e-01 7.308338880538940430e-01 3.935641348361968994e-01
-3.147896528244018555e-01 7.838260531425476074e-01 3.221182823181152344e-01
-3.347609341144561768e-01 7.405104041099548340e-01 3.761024177074432373e-01
-3.175329864025115967e-01 7.941781878471374512e-01 3.528099954128265381e-01
-3.323906064033508301e-01 7.625905871391296387e-01 3.357757031917572021e-01
-2.908667325973510742e-01 7.718123793601989746e-01 3.937980532646179199e-01
-3.067381978034973145e-01 8.648871183395385742e-01 2.514023184776306152e-01
-2.898475527763366699e-01 8.272776007652282715e-01 3.372174203395843506e-01
-3.214139342308044434e-01 7.197836637496948242e-01 3.957872986793518066e-01
-3.116652369499206543e-01 8.489197492599487305e-01 2.971584200859069824e-01
-3.094609379768371582e-01 7.940574884414672852e-01 3.161344230175018311e-01
-3.047308027744293213e-01 8.667961955070495605e-01 2.808486819267272949e-01
-3.332389891147613525e-01 7.838309407234191895e-01 3.117821812629699707e-01
-3.133182525634765625e-01 7.468417286872863770e-01 3.662335872650146484e-01
-3.276057839393615723e-01 8.071276545524597168e-01 3.254884779453277588e-01
-3.331819772720336914e-01 8.443554043769836426e-01 2.666822075843811035e-01
-3.186989128589630127e-01 7.976045608520507812e-01 3.478271961212158203e-01
-2.985607981681823730e-01 8.392472863197326660e-01 3.198288381099700928e-01
-2.993574738502502441e-01 8.286798596382141113e-01 3.315883278846740723e-01
-2.952141165733337402e-01 7.317731976509094238e-01 4.218095242977142334e-01
-3.311116695404052734e-01 7.919137477874755859e-01 3.363972902297973633e-01
-2.935935258865356445e-01 7.970099449157714844e-01 3.330319523811340332e-01
-3.124038279056549072e-01 7.101052403450012207e-01 4.204160869121551514e-01
-2.858791947364807129e-01 7.681116461753845215e-01 3.932598829269409180e-01
-3.162066042423248291e-01 7.493159770965576172e-01 3.982722461223602295e-01
-2.925539314746856689e-01 7.575598955154418945e-01 3.813466131687164307e-01
-3.093405663967132568e-01 7.588915824890136719e-01 3.557827472686767578e-01
-3.259291946887969971e-01 7.694711089134216309e-01 3.300512135028839111e-01
-3.019800186157226562e-01 7.422428131103515625e-01 4.158377051353454590e-01
-3.270214796066284180e-01 7.776716351509094238e-01 3.203369081020355225e-01
-3.036183118820190430e-01 8.575863838195800781e-01 2.938216924667358398e-01
-3.199930489063262939e-01 7.314125895500183105e-01 4.090971052646636963e-01
-3.319422900676727295e-01 7.772923111915588379e-01 3.501209616661071777e-01
-2.856959402561187744e-01 8.120115995407104492e-01 3.317862451076507568e-01
-2.881490588188171387e-01 7.930355072021484375e-01 3.470803201198577881e-01
-2.862581908702850342e-01 8.329505920410156250e-01 3.100635409355163574e-01
-3.314455747604370117e-01 8.000847101211547852e-01 3.269745111465454102e-01
-3.088517189025878906e-01 7.393243312835693359e-01 3.804165422916412354e-01
-3.239706456661224365e-01 7.453854680061340332e-01 3.596459031105041504e-01
-2.851379513740539551e-01 8.301435708999633789e-01 3.154408931732177734e-01
-2.915961146354675293e-01 7.503867745399475098e-01 3.933337330818176270e-01
-3.197950422763824463e-01 8.545441627502441406e-01 2.495356202125549316e-01
-3.028866350650787354e-01 7.460933327674865723e-01 3.792527914047241211e-01
-3.293361067771911621e-01 8.347008824348449707e-01 2.629407048225402832e-01
-3.349100947380065918e-01 8.348691463470458984e-01 2.761118113994598389e-01
-3.015073239803314209e-01 7.383181452751159668e-01 3.914262950420379639e-01
-3.261490166187286377e-01 8.069153428077697754e-01 2.899488508701324463e-01
-3.255972266197204590e-01 7.493630647659301758e-01 3.538602590560913086e-01
-3.041572868824005127e-01 8.622398376464843750e-01 2.873782813549041748e-01
-2.881281673908233643e-01 7.997250556945800781e-01 3.396835029125213623e-01
-3.381307721138000488e-01 7.778608202934265137e-01 3.361349105834960938e-01
-3.317544162273406982e-01 8.242908120155334473e-01 2.983810603618621826e-01
-3.128089010715484619e-01 7.155624032020568848e-01 4.271539449691772461e-01
-2.846334576606750488e-01 8.378710746765136719e-01 3.104638755321502686e-01
-3.183967173099517822e-01 8.318872451782226562e-01 3.098795413970947266e-01
-3.025418817996978760e-01 8.438008427619934082e-01 3.116826415061950684e-01
-3.167114257812500000e-01 8.197790384292602539e-01 2.831498086452484131e-01
-3.371885120868682861e-01 7.837905883789062500e-01 3.326797187328338623e-01
-3.005467653274536133e-01 7.803207039833068848e-01 3.415450155735015869e-01
-2.889805138111114502e-01 8.197726607322692871e-01 3.457599580287933350e-01
-2.961937487125396729e-01 8.515121936798095703e-01 3.062190711498260498e-01
-3.389964103698730469e-01 7.675104737281799316e-01 3.425591886043548584e-01
-3.188335299491882324e-01 7.623963952064514160e-01 3.832482993602752686e-01
-3.010673224925994873e-01 8.618546128273010254e-01 2.602847516536712646e-01
-3.207298815250396729e-01 8.145805001258850098e-01 2.853846848011016846e-01
-3.383152484893798828e-01 7.958999276161193848e-01 3.164522647857666016e-01
-3.148307204246520996e-01 7.643535137176513672e-01 3.857579529285430908e-01
-3.259601294994354248e-01 7.237243652343750000e-01 3.880145847797393799e-01
-3.290341198444366455e-01 8.385446667671203613e-01 2.597626745700836182e-01
-2.991319000720977783e-01 7.783765196800231934e-01 3.848895132541656494e-01
-3.347689807415008545e-01 8.074658513069152832e-01 2.877798974514007568e-01
-3.333427011966705322e-01 8.315969109535217285e-01 2.855665385723114014e-01
-2.831488847732543945e-01 8.218929767608642578e-01 3.293028175830841064e-01
-2.888415157794952393e-01 7.506828904151916504e-01 4.033534526824951172e-01
-3.222773373126983643e-01 7.895779609680175781e-01 3.518756031990051270e-01
-3.207920789718627930e-01 8.593964576721191406e-01 2.453280240297317505e-01
-3.130781948566436768e-01 8.039505481719970703e-01 3.022239506244659424e-01
-2.890526056289672852e-01 8.378710150718688965e-01 2.996056973934173584e-01
-3.146630227565765381e-01 7.113592624664306641e-01 4.150701165199279785e-01
-3.166192471981048584e-01 8.467248082160949707e-01 2.580747902393341064e-01
-3.048098683357238770e-01 8.378536701202392578e-01 2.769579291343688965e-01
-3.363858759403228760e-01 8.185046911239624023e-01 2.946918606758117676e-01
-3.333829641342163086e-01 7.725538015365600586e-01 3.522067964076995850e-01
-3.199227452278137207e-01 8.022581338882446289e-01 2.984143793582916260e-01
-3.030229210853576660e-01 7.352743148803710938e-01 4.207219183444976807e-01
-3.051594197750091553e-01 8.267292976379394531e-01 2.872192263603210449e-01
-2.979000210762023926e-01 8.195623159408569336e-01 3.427291512489318848e-01
-3.041650652885437012e-01 7.989032268524169922e-01 3.167450428009033203e-01
-2.950708866119384766e-01 8.680592775344848633e-01 2.644790410995483398e-01
-2.961733937263488770e-01 8.269815444946289062e-01 3.353728652000427246e-01
-3.005970418453216553e-01 8.618171215057373047e-01 2.905397713184356689e-01
-3.201640248298645020e-01 7.363592386245727539e-01 4.049446582794189453e-01
-3.237182497978210449e-01 7.854752540588378906e-01 3.136172294616699219e-01
-2.976124882698059082e-01 7.361512184143066406e-01 4.011173546314239502e-01
-3.260169923305511475e-01 7.930209040641784668e-01 3.042989969253540039e-01
-3.238385021686553955e-01 8.619402647018432617e-01 2.632599472999572754e-01
-3.185122907161712646e-01 7.353252768516540527e-01 3.761508762836456299e-01
-3.058435320854187012e-01 8.113331794738769531e-01 3.460372388362884521e-01
-3.100988268852233887e-01 8.563588857650756836e-01 2.550782263278961182e-01
-3.108213245868682861e-01 7.772002816200256348e-01 3.331926763057708740e-01
-3.244256377220153809e-01 7.166988253593444824e-01 4.118001163005828857e-01
-2.958468496799468994e-01 7.446994781494140625e-01 4.157695472240447998e-01
-3.130321502685546875e-01 7.700139880180358887e-01 3.391358554363250732e-01
-3.134287297725677490e-01 8.324692845344543457e-01 3.149738311767578125e-01
-3.261936306953430176e-01 8.470791578292846680e-01 2.532075941562652588e-01
-3.172576725482940674e-01 7.996401786804199219e-01 3.031431734561920166e-01
-3.336350023746490479e-01 8.170781731605529785e-01 2.785966396331787109e-01
-3.124494850635528564e-01 7.714181542396545410e-01 3.813114762306213379e-01
-3.341345787048339844e-01 8.276442885398864746e-01 2.697496414184570312e-01
-3.083713352680206299e-01 7.820551395416259766e-01 3.303301930427551270e-01
-3.087373971939086914e-01 7.273655533790588379e-01 3.965799212455749512e-01
-3.125325739383697510e-01 8.076326251029968262e-01 2.989225387573242188e-01
-2.890761196613311768e-01 8.651524186134338379e-01 2.811325490474700928e-01
-3.326583206653594971e-01 8.468809127807617188e-01 2.567016482353210449e-01
-3.197167813777923584e-01 7.163199186325073242e-01 4.022830724716186523e-01
-2.988685369491577148e-01 7.843459248542785645e-01 3.791643679141998291e-01
-3.041323721408843994e-01 8.201075196266174316e-01 2.949153482913970947e-01
-2.977903485298156738e-01 7.248449325561523438e-01 4.222358167171478271e-01
-3.390686213970184326e-01 8.108471632003784180e-01 2.923681139945983887e-01
-3.020354807376861572e-01 8.725634813308715820e-01 2.748695313930511475e-01
-2.992233037948608398e-01 8.228170871734619141e-01 3.382947742938995361e-01
-3.085141181945800781e-01 7.845543026924133301e-01 3.718735575675964355e-01
-3.073302507400512695e-01 7.653768062591552734e-01 3.503874838352203369e-01
-2.960488498210906982e-01 8.782095909118652344e-01 2.678702771663665771e-01
-3.111839890480041504e-01 8.302644491195678711e-01 3.198872804641723633e-01
-3.380933403968811035e-01 7.571512460708618164e-01 3.539900183677673340e-01
-3.369740247726440430e-01 7.476066350936889648e-01 3.638911545276641846e-01
-3.214079141616821289e-01 7.688421607017517090e-01 3.739433288574218750e-01
-2.995120286941528320e-01 7.633676528930664062e-01 3.626338541507720947e-01
-3.151738643646240234e-01 8.512616157531738281e-01 2.902805805206298828e-01
-2.901298105716705322e-01 7.780063152313232422e-01 3.881917297840118408e-01
-3.109743893146514893e-01 8.168959617614746094e-01 2.909817695617675781e-01
-3.130949139595031738e-01 7.556821703910827637e-01 3.557511568069458008e-01
-3.217837512493133545e-01 8.324798345565795898e-01 3.047493994235992432e-01
-3.221157789230346680e-01 8.427610397338867188e-01 2.582107484340667725e-01
-2.927945852279663086e-01 7.888305783271789551e-01 3.433496654033660889e-01
-3.186648786067962646e-01 8.404538035392761230e-01 2.622373104095458984e-01
-3.174453377723693848e-01 7.716909050941467285e-01 3.758228719234466553e-01
-3.340795338153839111e-01 7.495678663253784180e-01 3.519629836082458496e-01
-3.274132013320922852e-01 7.933661341667175293e-01 3.407576978206634521e-01
-3.206870555877685547e-01 7.266271710395812988e-01 3.862346708774566650e-01
-3.239531517028808594e-01 8.724909424781799316e-01 2.415640056133270264e-01
-3.017397522926330566e-01 7.326982021331787109e-01 3.988667130470275879e-01
-3.222582042217254639e-01 8.400696516036987305e-01 2.948929667472839355e-01
-3.228792548179626465e-01 7.134877443313598633e-01 4.151931703090667725e-01
-3.370132446289062500e-01 7.877382636070251465e-01 3.083254992961883545e-01
-3.056502640247344971e-01 8.035220503807067871e-01 3.101802766323089600e-01
-3.140386044979095459e-01 7.578784823417663574e-01 3.926789462566375732e-01
-2.887364029884338379e-01 8.128119707107543945e-01 3.245745897293090820e-01
-2.892870008945465088e-01 8.412055969238281250e-01 2.961754798889160156e-01
