3.100854456424713135e-01 1.307075917720794678e-01 3.524092733860015869e-01
4.165793061256408691e-01 1.237931251525878906e-01 2.048707455396652222e-01
2.242992222309112549e-01 1.269177794456481934e-01 -1.836073994636535645e-01
3.693324327468872070e-01 9.512002021074295044e-02 -3.192971050739288330e-01
1.827074587345123291e-01 1.323029249906539917e-01 4.174589812755584717e-01
2.741963565349578857e-01 1.391431540250778198e-01 3.269621133804321289e-01
4.102343320846557617e-01 9.146655350923538208e-02 -3.043193519115447998e-01
4.180606007575988770e-01 1.372716724872589111e-01 5.393717065453529358e-02
2.458876669406890869e-01 1.464897394180297852e-01 -2.864932268857955933e-02
2.974634468555450439e-01 1.408045142889022827e-01 2.858973145484924316e-01
2.249672859907150269e-01 1.377645432949066162e-01 -1.143735870718955994e-01
3.366982340812683105e-01 1.463755369186401367e-01 -6.249063462018966675e-02
4.376632571220397949e-01 7.884345948696136475e-02 8.405645191669464111e-02
3.912648558616638184e-01 6.821456551551818848e-02 -7.621619850397109985e-02
1.739350557327270508e-01 1.439737975597381592e-01 2.676599621772766113e-01
2.698028683662414551e-01 1.468113511800765991e-01 2.264989614486694336e-01
3.297057747840881348e-01 1.432703286409378052e-01 2.066264748573303223e-01
9.858240187168121338e-02 8.307282626628875732e-02 2.414994537830352783e-01
4.395200610160827637e-01 1.272649168968200684e-01 -2.258433401584625244e-01
3.906670808792114258e-01 9.867513179779052734e-02 -3.263774514198303223e-01
3.277726173400878906e-01 6.336187571287155151e-02 1.883128657937049866e-02
4.807152152061462402e-01 1.196288764476776123e-01 -2.752572298049926758e-03
2.646923065185546875e-01 7.500056922435760498e-02 -1.577659249305725098e-01
2.795971333980560303e-01 6.380529701709747314e-02 1.609048247337341309e-01
4.260087311267852783e-01 9.329891204833984375e-02 2.137076258659362793e-01
3.914650082588195801e-01 6.891176104545593262e-02 -1.000795289874076843e-01
2.212559580802917480e-01 7.060373574495315552e-02 -4.628854244947433472e-02
3.677039146423339844e-01 1.443557143211364746e-01 8.486874401569366455e-02
3.947678804397583008e-01 1.211310252547264099e-01 2.654700279235839844e-01
1.855708062648773193e-01 7.356815040111541748e-02 -1.000925898551940918e-02
1.905062496662139893e-01 1.345321834087371826e-01 -8.725989609956741333e-02
2.740537226200103760e-01 1.470978707075119019e-01 -4.522658139467239380e-02
2.515203058719635010e-01 1.334959864616394043e-01 3.893413841724395752e-01
1.365471333265304565e-01 1.398668140172958374e-01 1.282333880662918091e-01
1.774934828281402588e-01 1.389475911855697632e-01 3.560166656970977783e-01
1.784567832946777344e-01 6.895392388105392456e-02 2.105832397937774658e-01
3.256569206714630127e-01 1.356889307498931885e-01 -2.145959734916687012e-01
4.211092591285705566e-01 7.193681597709655762e-02 1.663365960121154785e-02
1.530764997005462646e-01 7.305325567722320557e-02 2.658936083316802979e-01
1.738334000110626221e-01 7.468943297863006592e-02 5.068972706794738770e-03
1.300343424081802368e-01 8.091690391302108765e-02 6.215405836701393127e-02
4.239974319934844971e-01 1.223182678222656250e-01 -2.794002294540405273e-01
1.243814229965209961e-01 1.389580667018890381e-01 1.948906779289245605e-01
4.170774817466735840e-01 7.550070434808731079e-02 -1.839782893657684326e-01
3.165183663368225098e-01 9.768870472908020020e-02 -3.046827912330627441e-01
1.530912816524505615e-01 1.367941200733184814e-01 1.512049883604049683e-02
4.576958417892456055e-01 8.395530283451080322e-02 6.377910822629928589e-02
3.363450169563293457e-01 1.447305679321289062e-01 1.675622165203094482e-01
2.795013785362243652e-01 9.046986699104309082e-02 4.219280183315277100e-01
2.807411253452301025e-01 1.349696069955825806e-01 3.558683097362518311e-01
3.755269944667816162e-01 1.290013194084167480e-01 -2.651778757572174072e-01
3.952034711837768555e-01 7.045151293277740479e-02 9.578409045934677124e-02
1.365922242403030396e-01 7.468897849321365356e-02 1.762721538543701172e-01
2.137726545333862305e-01 8.114622533321380615e-02 -1.360475420951843262e-01
2.859958708286285400e-01 1.495274901390075684e-01 1.204796731472015381e-01
2.520787715911865234e-01 1.449893563985824585e-01 -6.319840997457504272e-02
3.918778002262115479e-01 1.211222559213638306e-01 -3.014532625675201416e-01
8.588624000549316406e-02 9.500709176063537598e-02 1.087869256734848022e-01
2.048684209585189819e-01 1.426573395729064941e-01 -2.707735449075698853e-02
4.604868888854980469e-01 7.955913245677947998e-02 -1.128730550408363342e-01
9.188970923423767090e-02 1.290208995342254639e-01 3.281426131725311279e-01
2.831704318523406982e-01 7.354906946420669556e-02 -1.632094681262969971e-01
1.727542579174041748e-01 9.017448872327804565e-02 4.582954347133636475e-01
2.694028615951538086e-01 1.003929153084754944e-01 -2.721506953239440918e-01
1.411547064781188965e-01 1.356443762779235840e-01 3.571002185344696045e-02
1.207402348518371582e-01 1.145475283265113831e-01 -3.199878334999084473e-02
2.478481680154800415e-01 1.487443745136260986e-01 1.879957467317581177e-01
8.052001893520355225e-02 9.119710326194763184e-02 1.806205213069915771e-01
3.012131452560424805e-01 9.313103556632995605e-02 4.100767374038696289e-01
1.651994287967681885e-01 8.031618595123291016e-02 3.934372663497924805e-01
2.280995249748229980e-01 1.336844116449356079e-01 4.006143510341644287e-01
2.583130300045013428e-01 6.342244148254394531e-02 6.122682243585586548e-02
1.615848988294601440e-01 1.421722173690795898e-01 2.887655794620513916e-01
6.200583279132843018e-02 1.114172115921974182e-01 3.327523767948150635e-01
3.109992146492004395e-01 1.478600203990936279e-01 1.432977914810180664e-01
4.012434184551239014e-01 1.414540410041809082e-01 5.394995212554931641e-03
2.879231572151184082e-01 1.469202190637588501e-01 2.051262259483337402e-01
2.548445463180541992e-01 7.869057357311248779e-02 -1.756772994995117188e-01
2.588695883750915527e-01 1.499474644660949707e-01 9.112588316202163696e-02
1.571537554264068604e-01 1.230825707316398621e-01 4.615451693534851074e-01
4.770506918430328369e-01 9.771774709224700928e-02 7.105230540037155151e-02
1.396288722753524780e-01 9.864806383848190308e-02 4.738435447216033936e-01
2.345771044492721558e-01 7.268908619880676270e-02 3.347615897655487061e-01
3.575345873832702637e-01 1.264447122812271118e-01 3.088380396366119385e-01
1.956700831651687622e-01 7.344797253608703613e-02 3.381271362304687500e-01
4.112441837787628174e-01 6.984978914260864258e-02 -2.939454466104507446e-02
3.567745685577392578e-01 1.377760171890258789e-01 -1.965976357460021973e-01
3.138346374034881592e-01 1.169572100043296814e-01 4.014177322387695312e-01
2.999872267246246338e-01 6.570233404636383057e-02 -6.886955350637435913e-02
2.991476655006408691e-01 9.974187612533569336e-02 -2.962191104888916016e-01
3.784474432468414307e-01 7.295423746109008789e-02 1.799747645854949951e-01
4.754275679588317871e-01 1.250063180923461914e-01 -8.542186766862869263e-02
2.938775718212127686e-01 6.589274108409881592e-02 2.063155472278594971e-01
2.530030012130737305e-01 1.422994881868362427e-01 3.091777265071868896e-01
3.489528298377990723e-01 6.522364914417266846e-02 9.841049462556838989e-02
9.058788418769836426e-02 1.303297579288482666e-01 2.901147007942199707e-01
4.183645546436309814e-01 1.386595666408538818e-01 -7.872683554887771606e-02
4.734356403350830078e-01 8.382149785757064819e-02 -1.344103515148162842e-01
3.691424131393432617e-01 1.340924948453903198e-01 2.375369369983673096e-01
4.934294223785400391e-01 1.160205304622650146e-01 -8.886285871267318726e-02
2.627415359020233154e-01 1.439807116985321045e-01 2.803249359130859375e-01
3.553642332553863525e-01 1.329218745231628418e-01 -2.402938902378082275e-01
2.675658166408538818e-01 1.210154592990875244e-01 -2.530512213706970215e-01
2.696745395660400391e-01 6.718324124813079834e-02 -6.831418722867965698e-02
4.620664417743682861e-01 1.254542917013168335e-01 -1.883144676685333252e-01
3.789278864860534668e-01 1.435897052288055420e-01 6.028160452842712402e-02
8.833663165569305420e-02 8.688533306121826172e-02 2.873526513576507568e-01
1.556932777166366577e-01 1.435272693634033203e-01 1.538162231445312500e-01
4.055154323577880859e-01 1.255825608968734741e-01 2.209430634975433350e-01
2.641987204551696777e-01 1.496149301528930664e-01 1.418563425540924072e-01
3.013391792774200439e-01 1.489165425300598145e-01 1.975581049919128418e-03
4.145969152450561523e-01 8.040145784616470337e-02 1.708085536956787109e-01
6.871914863586425781e-02 1.217452734708786011e-01 2.429774999618530273e-01
1.310210824012756348e-01 7.653157413005828857e-02 1.417433619499206543e-01
4.119913280010223389e-01 7.292632758617401123e-02 -1.508171260356903076e-01
3.735206425189971924e-01 7.434155046939849854e-02 2.061615884304046631e-01
1.045546084642410278e-01 8.386920392513275146e-02 1.371094882488250732e-01
4.576188921928405762e-01 1.215150058269500732e-01 -2.381176352500915527e-01
1.789598613977432251e-01 1.429739296436309814e-01 2.971335053443908691e-01
3.120624125003814697e-01 6.657023727893829346e-02 1.998391151428222656e-01
4.189393222332000732e-01 1.376250237226486206e-01 -1.161357685923576355e-01
5.006181001663208008e-01 1.064926013350486755e-01 -1.428003311157226562e-01
2.346833646297454834e-01 6.749108433723449707e-02 -1.965887844562530518e-02
2.366294264793395996e-01 1.490251123905181885e-01 6.195031106472015381e-02
3.797738254070281982e-01 1.424669921398162842e-01 -1.028440967202186584e-01
2.633208036422729492e-01 1.440653502941131592e-01 -8.899012953042984009e-02
3.721230626106262207e-01 6.602827459573745728e-02 -3.779424726963043213e-02
4.363184571266174316e-01 7.543917000293731689e-02 3.043077886104583740e-02
3.418408334255218506e-01 1.184500455856323242e-01 -3.070135414600372314e-01
2.519304156303405762e-01 1.491109877824783325e-01 3.659303486347198486e-02
4.343954920768737793e-01 8.529081940650939941e-02 -2.572379410266876221e-01
1.301838308572769165e-01 8.175336569547653198e-02 3.666716516017913818e-01
3.217346072196960449e-01 6.696818023920059204e-02 -1.040790602564811707e-01
1.879292726516723633e-01 7.030841708183288574e-02 3.908018022775650024e-02
4.366872310638427734e-01 1.326459199190139771e-01 -1.643315553665161133e-01
2.710612714290618896e-01 8.765193819999694824e-02 -2.414564490318298340e-01
2.355820983648300171e-01 1.475394219160079956e-01 2.262940406799316406e-01
4.421139359474182129e-01 1.344549059867858887e-01 -5.624233931303024292e-02
4.550969600677490234e-01 1.284798234701156616e-01 -1.703008711338043213e-01
7.834234833717346191e-02 1.122965440154075623e-01 1.035681292414665222e-01
3.333405852317810059e-01 1.389046460390090942e-01 -1.862513124942779541e-01
1.435358673334121704e-01 1.382076889276504517e-01 3.313627839088439941e-01
3.016842603683471680e-01 6.404953449964523315e-02 1.510366201400756836e-01
9.427061676979064941e-02 1.253532171249389648e-01 3.796662688255310059e-01
3.030673265457153320e-01 6.437209248542785645e-02 -3.739883750677108765e-02
2.288879752159118652e-01 6.700529903173446655e-02 2.761840820312500000e-03
4.668560624122619629e-01 8.186700940132141113e-02 -2.331130951642990112e-02
1.531848460435867310e-01 7.185825705528259277e-02 1.895841062068939209e-01
3.749364316463470459e-01 1.334627866744995117e-01 -2.325628101825714111e-01
1.531120091676712036e-01 1.298752427101135254e-01 4.245230853557586670e-01
3.300487697124481201e-01 1.220119073987007141e-01 -2.917785644531250000e-01
4.545924663543701172e-01 8.637222647666931152e-02 9.786446392536163330e-02
4.161544740200042725e-01 1.346905827522277832e-01 -1.814425289630889893e-01
4.918557405471801758e-01 1.137980893254280090e-01 -2.731327712535858154e-02
1.367661356925964355e-01 1.345368474721908569e-01 3.701612949371337891e-01
4.545682668685913086e-01 8.737534284591674805e-02 -2.426129281520843506e-01
1.109181344509124756e-01 1.200422123074531555e-01 4.402795135974884033e-01
2.511398792266845703e-01 1.477891951799392700e-01 -5.808055400848388672e-03
4.653752446174621582e-01 1.158598959445953369e-01 -2.549455165863037109e-01
3.158501982688903809e-01 1.467517912387847900e-01 1.649763286113739014e-01
2.085677981376647949e-01 1.304620802402496338e-01 -1.437571048736572266e-01
1.829220652580261230e-01 1.375527530908584595e-01 -4.608082026243209839e-02
4.633883833885192871e-01 8.749204874038696289e-02 -2.251361906528472900e-01
2.102079093456268311e-01 7.441986352205276489e-02 -7.302308827638626099e-02
3.797823786735534668e-01 1.339102536439895630e-01 2.170750200748443604e-01
3.389422595500946045e-01 1.294606924057006836e-01 -2.610252201557159424e-01
2.519623637199401855e-01 6.517171859741210938e-02 1.672729849815368652e-03
8.430305123329162598e-02 9.256994724273681641e-02 3.594149947166442871e-01
3.195094764232635498e-01 1.270944923162460327e-01 -2.664113044738769531e-01
2.028858065605163574e-01 7.280899584293365479e-02 -3.955862671136856079e-02
4.603708088397979736e-01 1.232230290770530701e-01 7.031303644180297852e-02
3.566527962684631348e-01 1.408265233039855957e-01 -1.590222120285034180e-01
3.927244246006011963e-01 6.861329078674316406e-02 5.557167530059814453e-02
1.057430654764175415e-01 8.283320069313049316e-02 3.096396923065185547e-01
1.701231151819229126e-01 1.446041166782379150e-01 1.115909367799758911e-01
4.018602967262268066e-01 8.314877748489379883e-02 2.205424010753631592e-01
4.604504704475402832e-01 8.074650168418884277e-02 1.436464488506317139e-03
3.326725363731384277e-01 7.140366733074188232e-02 2.429640591144561768e-01
3.034659624099731445e-01 1.335628926753997803e-01 -2.210192978382110596e-01
4.151931107044219971e-01 1.371447294950485229e-01 -1.410272419452667236e-01
2.421195060014724731e-01 1.400342434644699097e-01 3.407426178455352783e-01
3.129054307937622070e-01 1.491137742996215820e-01 5.673488229513168335e-02
4.344172477722167969e-01 7.394358515739440918e-02 -5.019277334213256836e-03
4.915170073509216309e-01 1.096783727407455444e-01 -2.011775374412536621e-01
1.591655910015106201e-01 8.918172121047973633e-02 -8.115143328905105591e-02
2.146753966808319092e-01 6.847387552261352539e-02 2.695957124233245850e-01
1.883483678102493286e-01 1.354194432497024536e-01 3.942456245422363281e-01
4.558812975883483887e-01 8.020365983247756958e-02 2.005851641297340393e-02
3.287925720214843750e-01 6.412015855312347412e-02 1.079119667410850525e-01
1.629839837551116943e-01 7.246616482734680176e-02 8.083713054656982422e-02
1.309315711259841919e-01 1.394349038600921631e-01 2.662915289402008057e-01
1.766881048679351807e-01 1.429159343242645264e-01 4.223829880356788635e-02
4.666365981101989746e-01 8.415986597537994385e-02 -1.802497506141662598e-01
4.754203557968139648e-01 1.237459555268287659e-01 -1.463574469089508057e-01
4.499711096286773682e-01 7.972945272922515869e-02 4.377657547593116760e-02
3.794063925743103027e-01 8.838427811861038208e-02 2.902697622776031494e-01
3.703256845474243164e-01 1.439390182495117188e-01 -8.134797960519790649e-02
1.878118515014648438e-01 9.139285236597061157e-02 -1.453427374362945557e-01
4.166197776794433594e-01 7.167430222034454346e-02 3.565322235226631165e-02
3.396583795547485352e-01 9.710010886192321777e-02 3.745482265949249268e-01
4.153661429882049561e-01 8.330217748880386353e-02 -2.609919905662536621e-01
4.049726128578186035e-01 1.241286545991897583e-01 -2.828851342201232910e-01
4.096745252609252930e-01 1.087522283196449280e-01 -3.255841732025146484e-01
4.411498904228210449e-01 1.110640317201614380e-01 -3.030974566936492920e-01
3.835276961326599121e-01 1.438045501708984375e-01 -2.210252732038497925e-02
1.942085623741149902e-01 7.014220952987670898e-02 2.847374975681304932e-01
4.287058115005493164e-01 1.366400867700576782e-01 -9.610482305288314819e-02
3.146571516990661621e-01 6.364195793867111206e-02 -1.407603919506072998e-02
3.329114317893981934e-01 1.336636692285537720e-01 -2.322240769863128662e-01
1.989902555942535400e-01 7.793617248535156250e-02 3.864353001117706299e-01
1.633287072181701660e-01 8.009472489356994629e-02 -2.880093455314636230e-02
9.597235918045043945e-02 1.268122345209121704e-01 1.054119393229484558e-01
4.160302281379699707e-01 7.742939144372940063e-02 1.381788998842239380e-01
1.863411366939544678e-01 1.468183696269989014e-01 1.695948541164398193e-01
3.210804462432861328e-01 1.483757495880126953e-01 -2.749577164649963379e-03
4.717300534248352051e-01 1.201647371053695679e-01 -2.116068899631500244e-01
4.185018837451934814e-01 1.053804755210876465e-01 2.480223476886749268e-01
4.376565814018249512e-01 1.286440789699554443e-01 1.070116981863975525e-01
2.616723179817199707e-01 6.591825932264328003e-02 2.259463667869567871e-01
2.897078990936279297e-01 1.211866810917854309e-01 4.156967103481292725e-01
2.078558802604675293e-01 8.780797570943832397e-02 4.484187662601470947e-01
3.688678741455078125e-01 9.001135081052780151e-02 3.139510452747344971e-01
3.990169167518615723e-01 1.357841789722442627e-01 1.494542211294174194e-01
8.335044980049133301e-02 8.811561018228530884e-02 2.528353333473205566e-01
2.118757963180541992e-01 1.363707035779953003e-01 3.852713108062744141e-01
4.509023427963256836e-01 1.318917423486709595e-01 -2.100338041782379150e-02
3.098703026771545410e-01 1.180596053600311279e-01 -2.931567728519439697e-01
2.783967256546020508e-01 6.968661397695541382e-02 -1.155747249722480774e-01
2.323114573955535889e-01 1.465544402599334717e-01 2.500620484352111816e-01
4.476496875286102295e-01 7.608550041913986206e-02 -5.302379280328750610e-02
3.431465923786163330e-01 1.451389491558074951e-01 -8.939478546380996704e-02
1.662624180316925049e-01 9.665957838296890259e-02 -1.227247789502143860e-01
4.924026429653167725e-01 9.158062189817428589e-02 -9.050645679235458374e-02
3.478712141513824463e-01 6.455140560865402222e-02 7.116857171058654785e-02
2.098627984523773193e-01 1.206289529800415039e-01 4.686657786369323730e-01
1.229943186044692993e-01 1.344728171825408936e-01 3.469645380973815918e-01
3.549370467662811279e-01 7.135306298732757568e-02 -1.732898950576782227e-01
1.930800974369049072e-01 1.376107335090637207e-01 3.749425709247589111e-01
3.127089738845825195e-01 6.961537897586822510e-02 -1.412035822868347168e-01
1.081242859363555908e-01 8.095167577266693115e-02 1.862889826297760010e-01
4.453276991844177246e-01 1.280427575111389160e-01 8.416008204221725464e-02
4.718871712684631348e-01 9.843634068965911865e-02 -2.605079114437103271e-01
3.861400485038757324e-01 6.739672273397445679e-02 3.748040273785591125e-02
1.101679950952529907e-01 1.010178327560424805e-01 4.542430341243743896e-01
1.964356005191802979e-01 1.474754363298416138e-01 1.263843178749084473e-01
1.244135499000549316e-01 9.091088920831680298e-02 -4.581660032272338867e-03
2.425480335950851440e-01 1.427382528781890869e-01 -8.416474610567092896e-02
2.704826891422271729e-01 7.388737052679061890e-02 3.317749500274658203e-01
3.166137039661407471e-01 7.179150730371475220e-02 -1.694552302360534668e-01
1.235941946506500244e-01 8.029282093048095703e-02 9.807462990283966064e-02
2.325829565525054932e-01 6.539125740528106689e-02 3.897440060973167419e-02
2.710039019584655762e-01 1.377547383308410645e-01 -1.658108830451965332e-01
2.265867888927459717e-01 1.452815681695938110e-01 2.756703197956085205e-01
2.492277920246124268e-01 1.060951650142669678e-01 -2.553212344646453857e-01
2.297429442405700684e-01 6.507155299186706543e-02 1.870706677436828613e-01
2.128578722476959229e-01 6.749445199966430664e-02 3.100524097681045532e-02
1.796428561210632324e-01 6.898787617683410645e-02 1.144023314118385315e-01
3.702619373798370361e-01 1.389683187007904053e-01 -1.767618358135223389e-01
1.714145690202713013e-01 7.364070415496826172e-02 2.776142582297325134e-02
2.046658098697662354e-01 1.189023777842521667e-01 -1.845733821392059326e-01
4.013302922248840332e-01 1.414968371391296387e-01 -4.643613845109939575e-02
1.432957947254180908e-01 7.581508159637451172e-02 9.140782803297042847e-02
2.923189401626586914e-01 1.304074525833129883e-01 3.737894594669342041e-01
1.760554909706115723e-01 7.630010694265365601e-02 3.604703843593597412e-01
3.091454207897186279e-01 1.464973986148834229e-01 -7.199431210756301880e-02
3.724143505096435547e-01 1.448331326246261597e-01 3.450986370444297791e-02
1.462390720844268799e-01 1.424435377120971680e-01 2.137542068958282471e-01
1.055739969015121460e-01 1.300141215324401855e-01 3.623982071876525879e-01
1.468707323074340820e-01 7.521323859691619873e-02 3.013857603073120117e-01
4.594736099243164062e-01 1.180951446294784546e-01 1.095942482352256775e-01
4.267123341560363770e-01 8.681065589189529419e-02 1.842409670352935791e-01
2.219671010971069336e-01 1.479905843734741211e-01 2.078309059143066406e-01
3.474828004837036133e-01 1.469203084707260132e-01 6.169410794973373413e-02
3.424409031867980957e-01 6.401551514863967896e-02 -1.229010522365570068e-03
3.458414673805236816e-01 6.618338823318481445e-02 1.350646317005157471e-01
2.367085665464401245e-01 1.136062741279602051e-01 -2.365832328796386719e-01
4.056180417537689209e-01 7.112862169742584229e-02 -1.260863840579986572e-01
1.010183095932006836e-01 8.264794200658798218e-02 2.653680443763732910e-01
1.290310025215148926e-01 1.277751326560974121e-01 4.199856519699096680e-01
3.715462386608123779e-01 1.154533326625823975e-01 3.247698247432708740e-01
3.422695994377136230e-01 9.883309155702590942e-02 -3.190002441406250000e-01
6.653767824172973633e-02 9.835088253021240234e-02 2.099260389804840088e-01
3.992435932159423828e-01 1.407647430896759033e-01 5.417864769697189331e-02
3.356156051158905029e-01 1.317521929740905762e-01 3.121531307697296143e-01
2.911896407604217529e-01 6.397300958633422852e-02 -1.664208620786666870e-02
2.198821604251861572e-01 6.515564769506454468e-02 1.630071848630905151e-01
2.325116991996765137e-01 8.839272707700729370e-02 4.436018168926239014e-01
3.488264381885528564e-01 1.319379359483718872e-01 2.905306220054626465e-01
2.252386212348937988e-01 8.387714624404907227e-02 4.249357879161834717e-01
1.794260740280151367e-01 1.234109550714492798e-01 4.639052152633666992e-01
2.107963860034942627e-01 6.628032028675079346e-02 2.013474106788635254e-01
1.159287542104721069e-01 1.267188787460327148e-01 3.082207590341567993e-02
3.616862893104553223e-01 8.502818644046783447e-02 -2.827280461788177490e-01
3.200629651546478271e-01 1.440236717462539673e-01 -1.189437285065650940e-01
3.054806292057037354e-01 1.451350599527359009e-01 2.158199548721313477e-01
2.017481327056884766e-01 9.677347540855407715e-02 -1.834957003593444824e-01
2.435283958911895752e-01 6.372374296188354492e-02 1.061984524130821228e-01
3.246966004371643066e-01 6.320980936288833618e-02 5.341712385416030884e-02
4.284514486789703369e-01 1.284727901220321655e-01 1.395020484924316406e-01
1.668792963027954102e-01 1.412149071693420410e-01 3.155655860900878906e-01
2.640715837478637695e-01 6.374868750572204590e-02 2.831756696105003357e-02
1.954299211502075195e-01 6.807208061218261719e-02 7.230816036462783813e-02
1.097688674926757812e-01 8.693069219589233398e-02 7.261271029710769653e-02
2.703565657138824463e-01 8.159957826137542725e-02 3.892686069011688232e-01
1.740307211875915527e-01 1.452404707670211792e-01 2.231296002864837646e-01
3.472918272018432617e-01 1.394091695547103882e-01 2.261970639228820801e-01
6.958590447902679443e-02 1.171981543302536011e-01 3.521170020103454590e-01
3.796869218349456787e-01 7.250615954399108887e-02 -1.805364787578582764e-01
3.401075005531311035e-01 8.151318877935409546e-02 -2.583137750625610352e-01
1.447983980178833008e-01 7.751002907752990723e-02 3.376406133174896240e-01
1.643497943878173828e-01 1.359096765518188477e-01 -2.251021564006805420e-02
1.557011902332305908e-01 1.433210968971252441e-01 2.332614660263061523e-01
1.050642728805541992e-01 1.264843791723251343e-01 6.576719880104064941e-02
3.165400326251983643e-01 8.487543463706970215e-02 3.639600574970245361e-01
3.940307497978210449e-01 1.054019182920455933e-01 2.969859838485717773e-01
1.205098330974578857e-01 7.839889079332351685e-02 2.736702561378479004e-01
1.054030954837799072e-01 8.121807128190994263e-02 2.213460803031921387e-01
2.167336046695709229e-01 1.487759798765182495e-01 1.400834023952484131e-01
3.005402088165283203e-01 8.673154562711715698e-02 -2.627190649509429932e-01
2.031307369470596313e-01 1.464229971170425415e-01 2.417012453079223633e-01
4.387039244174957275e-01 1.321654021739959717e-01 5.588600039482116699e-02
2.694422900676727295e-01 6.308284401893615723e-02 1.223323196172714233e-01
4.772693216800689697e-01 1.238595470786094666e-01 -1.232969090342521667e-01
2.171205878257751465e-01 7.128277420997619629e-02 3.171911239624023438e-01
2.222865670919418335e-01 8.191933482885360718e-02 -1.540052890777587891e-01
3.937374949455261230e-01 8.363921195268630981e-02 -2.735312283039093018e-01
4.753334522247314453e-01 1.243946105241775513e-01 -4.344283789396286011e-02
1.546038687229156494e-01 1.198789328336715698e-01 -9.598908573389053345e-02
2.429499477148056030e-01 1.496375650167465210e-01 1.327805817127227783e-01
2.424538880586624146e-01 7.043655216693878174e-02 3.059693872928619385e-01
3.836146891117095947e-01 8.363257348537445068e-02 2.597846388816833496e-01
4.594563245773315430e-01 1.282613873481750488e-01 8.229620754718780518e-03
7.067508995532989502e-02 9.431135654449462891e-02 2.873136699199676514e-01
3.323732912540435791e-01 7.439996302127838135e-02 2.745346724987030029e-01
1.895444691181182861e-01 6.748916208744049072e-02 1.713003516197204590e-01
2.768386602401733398e-01 7.757681608200073242e-02 -1.911257505416870117e-01
3.714441657066345215e-01 6.756657361984252930e-02 1.037988588213920593e-01
1.401158720254898071e-01 1.187726855278015137e-01 -6.842193752527236938e-02
2.939073741436004639e-01 6.287555396556854248e-02 3.591918200254440308e-02
3.445420861244201660e-01 1.425189077854156494e-01 1.895065903663635254e-01
1.920703947544097900e-01 1.299463659524917603e-01 -1.208962127566337585e-01
2.064961194992065430e-01 1.294614076614379883e-01 4.333454966545104980e-01
2.140497714281082153e-01 1.450917124748229980e-01 -4.306882619857788086e-03
2.956807911396026611e-01 6.339705735445022583e-02 2.440318465232849121e-03
1.016190201044082642e-01 1.339644491672515869e-01 2.081378996372222900e-01
9.548127651214599609e-02 8.706397563219070435e-02 3.380118906497955322e-01
1.342725455760955811e-01 1.216470599174499512e-01 4.559791684150695801e-01
2.544042170047760010e-01 1.497540175914764404e-01 7.164614647626876831e-02
3.759024441242218018e-01 1.415119171142578125e-01 1.281177401542663574e-01
1.871365606784820557e-01 1.430789381265640259e-01 1.765894889831542969e-02
3.502289056777954102e-01 6.802411377429962158e-02 1.651047766208648682e-01
1.570800542831420898e-01 7.143500447273254395e-02 1.595966517925262451e-01
4.846307635307312012e-01 9.587293863296508789e-02 -2.174659073352813721e-01
2.718464136123657227e-01 1.417624205350875854e-01 3.014323115348815918e-01
3.615326583385467529e-01 7.326138019561767578e-02 -1.952189207077026367e-01
3.961540460586547852e-01 7.504081726074218750e-02 1.638835072517395020e-01
1.014512479305267334e-01 1.337827444076538086e-01 2.670953869819641113e-01
9.342221915721893311e-02 1.060933992266654968e-01 4.379837512969970703e-01
1.271642148494720459e-01 1.315501779317855835e-01 3.877893686294555664e-01
4.312468171119689941e-01 7.297967374324798584e-02 -2.904415875673294067e-02
2.920756340026855469e-01 6.272911280393600464e-02 5.604294314980506897e-02
3.444350063800811768e-01 1.468403935432434082e-01 8.242759108543395996e-02
4.455475807189941406e-01 8.137953281402587891e-02 -2.066743969917297363e-01
2.865858376026153564e-01 1.438423991203308105e-01 2.602519690990447998e-01
3.375658094882965088e-01 1.478397250175476074e-01 4.032567143440246582e-02
3.094575405120849609e-01 1.413351148366928101e-01 2.645648121833801270e-01
3.668992519378662109e-01 7.566127926111221313e-02 -2.189895808696746826e-01
3.553628325462341309e-01 7.016475498676300049e-02 1.898025870323181152e-01
3.403469920158386230e-01 7.994701713323593140e-02 3.068850934505462646e-01
1.996562778949737549e-01 1.455873250961303711e-01 2.605898976325988770e-01
1.730992943048477173e-01 1.181205585598945618e-01 -1.358038783073425293e-01
2.475277483463287354e-01 8.163574337959289551e-02 4.032601118087768555e-01
2.677208483219146729e-01 1.477624773979187012e-01 -2.448597550392150879e-02
1.407654881477355957e-01 1.244710609316825867e-01 -4.841964691877365112e-02
1.170376688241958618e-01 1.344032585620880127e-01 1.072518900036811829e-01
2.037571072578430176e-01 1.410466432571411133e-01 -4.665087908506393433e-02
3.308967053890228271e-01 1.370063871145248413e-01 2.785322368144989014e-01
1.777191162109375000e-01 1.083766743540763855e-01 -1.564676165580749512e-01
3.196275234222412109e-01 6.438067555427551270e-02 1.359107047319412231e-01
4.846852421760559082e-01 8.911560475826263428e-02 -1.568025648593902588e-01
4.692652225494384766e-01 8.167734742164611816e-02 -9.265566617250442505e-02
4.594919383525848389e-01 1.026632860302925110e-01 -2.875912487506866455e-01
2.887353897094726562e-01 6.536673009395599365e-02 -5.265276879072189331e-02
4.782422184944152832e-01 9.688925743103027344e-02 -2.412447333335876465e-01
4.809433519840240479e-01 1.170267164707183838e-01 2.139746770262718201e-02
4.006796777248382568e-01 7.290610671043395996e-02 -1.681854426860809326e-01
2.258831858634948730e-01 1.440460383892059326e-01 2.963735461235046387e-01
1.412886828184127808e-01 1.400913745164871216e-01 1.096462309360504150e-01
4.788312017917633057e-01 8.770578354597091675e-02 -5.642995238304138184e-03
3.989278376102447510e-01 1.401153802871704102e-01 7.458368688821792603e-02
1.579402089118957520e-01 7.453112304210662842e-02 5.714303255081176758e-02
3.805565834045410156e-01 6.952153146266937256e-02 1.217216402292251587e-01
3.906983733177185059e-01 1.397573351860046387e-01 1.142056956887245178e-01
1.366223394870758057e-01 7.751941680908203125e-02 3.193346261978149414e-01
3.360146582126617432e-01 1.246055364608764648e-01 3.494731783866882324e-01
1.332889795303344727e-01 9.370339661836624146e-02 -4.140093922615051270e-02
3.122811615467071533e-01 1.489776670932769775e-01 8.444446325302124023e-02
3.132317960262298584e-01 7.428987324237823486e-02 2.973180115222930908e-01
1.402791440486907959e-01 8.580517023801803589e-02 -1.616624742746353149e-02
2.566473782062530518e-01 6.589895486831665039e-02 -2.480662614107131958e-02
2.821760475635528564e-01 1.437141001224517822e-01 -1.093543991446495056e-01
3.795358538627624512e-01 6.772500276565551758e-02 8.126363158226013184e-02
4.564702212810516357e-01 7.811869680881500244e-02 -7.858345657587051392e-02
2.510838806629180908e-01 7.680465281009674072e-02 3.680213093757629395e-01
1.681087017059326172e-01 7.068167626857757568e-02 2.431906759738922119e-01
4.655365943908691406e-01 8.084389567375183105e-02 -4.512504488229751587e-02
9.705869853496551514e-02 1.234327107667922974e-01 4.006754159927368164e-01
4.177302122116088867e-01 1.347271054983139038e-01 1.033438742160797119e-01
4.082726538181304932e-01 1.306674331426620483e-01 1.778154969215393066e-01
1.302677094936370850e-01 1.341666877269744873e-01 5.274733155965805054e-02
3.375960588455200195e-01 1.472358703613281250e-01 -2.895665913820266724e-02
3.048216998577117920e-01 1.433584988117218018e-01 2.446589171886444092e-01
6.431524455547332764e-02 9.818936884403228760e-02 2.630867958068847656e-01
3.953525424003601074e-01 1.354560554027557373e-01 -1.999412477016448975e-01
7.563690841197967529e-02 1.116345226764678955e-01 3.962076306343078613e-01
6.155365705490112305e-02 1.155824884772300720e-01 2.971279323101043701e-01
3.584132790565490723e-01 6.699665635824203491e-02 -9.801398962736129761e-02
1.181232631206512451e-01 9.009701013565063477e-02 1.891250163316726685e-02
1.472794115543365479e-01 1.370545625686645508e-01 3.535095155239105225e-01
1.098338216543197632e-01 9.034886211156845093e-02 4.446096718311309814e-02
3.616810441017150879e-01 1.453571021556854248e-01 -5.146592110395431519e-02
4.011826813220977783e-01 6.861199438571929932e-02 -1.116062700748443604e-02
4.473536014556884766e-01 1.218003258109092712e-01 1.297222971916198730e-01
1.650929450988769531e-01 9.938099235296249390e-02 4.846455454826354980e-01
3.959661126136779785e-01 7.487822324037551880e-02 -1.993697583675384521e-01
4.437449574470520020e-01 7.943399250507354736e-02 -1.864356994628906250e-01
8.708989620208740234e-02 1.026384234428405762e-01 7.097029685974121094e-02
1.427776813507080078e-01 8.955028653144836426e-02 4.419821202754974365e-01
2.209653705358505249e-01 7.626488804817199707e-02 3.723418414592742920e-01
1.934365630149841309e-01 7.609689980745315552e-02 -5.784041434526443481e-02
1.060942560434341431e-01 1.352349966764450073e-01 2.321340441703796387e-01
2.237651199102401733e-01 6.477348506450653076e-02 1.410025358200073242e-01
1.457144767045974731e-01 8.187967538833618164e-02 3.903530240058898926e-01
2.888817787170410156e-01 1.423096358776092529e-01 -1.321524083614349365e-01
4.414181113243103027e-01 7.618747651576995850e-02 -1.336516737937927246e-01
3.719602227210998535e-01 6.983892619609832764e-02 1.496610045433044434e-01
3.199885785579681396e-01 6.554335355758666992e-02 -7.413768023252487183e-02
3.966692686080932617e-01 6.835301220417022705e-02 1.941799372434616089e-02
3.539058864116668701e-01 9.538193047046661377e-02 3.516683280467987061e-01
1.213042140007019043e-01 1.376618146896362305e-01 1.580262184143066406e-01
3.289480209350585938e-01 1.207066252827644348e-01 3.731119930744171143e-01
3.388217091560363770e-01 7.372944802045822144e-02 -1.981585621833801270e-01
3.732904791831970215e-01 1.306715905666351318e-01 2.560702562332153320e-01
2.214203774929046631e-01 7.864595949649810791e-02 3.919815421104431152e-01
3.706420958042144775e-01 6.567324697971343994e-02 -1.267961412668228149e-02
4.298042654991149902e-01 1.247197091579437256e-01 1.644368320703506470e-01
4.480406939983367920e-01 7.886739820241928101e-02 -1.650026738643646240e-01
1.263919472694396973e-01 1.250834316015243530e-01 -9.425364434719085693e-03
3.867839276790618896e-01 1.370820999145507812e-01 1.666528284549713135e-01
4.617720246315002441e-01 1.258777678012847900e-01 3.380782529711723328e-02
2.305603027343750000e-01 8.789406716823577881e-02 -1.962061822414398193e-01
1.481845825910568237e-01 1.401311308145523071e-01 3.056551218032836914e-01
3.274978399276733398e-01 6.353580206632614136e-02 7.941416651010513306e-02
2.223336845636367798e-01 1.474151909351348877e-01 3.284923732280731201e-02
4.567346870899200439e-01 1.067815497517585754e-01 1.499479115009307861e-01
1.077902913093566895e-01 1.299223005771636963e-01 8.711087703704833984e-02
1.516439169645309448e-01 1.343464702367782593e-01 -7.004015147686004639e-03
4.464815855026245117e-01 1.057465374469757080e-01 1.799925565719604492e-01
1.101710796356201172e-01 1.356893926858901978e-01 1.823644638061523438e-01
2.442536354064941406e-01 6.521657109260559082e-02 2.068552672863006592e-01
3.377197682857513428e-01 1.461624801158905029e-01 1.300142705440521240e-01
3.665207326412200928e-01 8.080466091632843018e-02 2.726180851459503174e-01
3.123798966407775879e-01 1.345843821763992310e-01 3.240191638469696045e-01
2.647326886653900146e-01 1.497338116168975830e-01 5.397150665521621704e-02
4.423480033874511719e-01 7.535965740680694580e-02 -9.899129718542098999e-02
2.434241175651550293e-01 1.491782516241073608e-01 1.688589155673980713e-01
2.698628306388854980e-01 1.489970386028289795e-01 1.670691668987274170e-01
3.451018035411834717e-01 6.873036921024322510e-02 -1.366790533065795898e-01
2.149678170680999756e-01 1.091205701231956482e-01 4.857745468616485596e-01
2.458797842264175415e-01 9.486794471740722656e-02 -2.377396821975708008e-01
2.192760407924652100e-01 1.383852958679199219e-01 3.656688630580902100e-01
3.038618862628936768e-01 1.468296498060226440e-01 1.844520866870880127e-01
2.954754531383514404e-01 6.339494884014129639e-02 1.324971914291381836e-01
1.928190588951110840e-01 8.495782315731048584e-02 -1.244124844670295715e-01
3.030634820461273193e-01 7.507069408893585205e-02 3.151347041130065918e-01
1.128962486982345581e-01 9.119548648595809937e-02 4.188185930252075195e-01
3.141115009784698486e-01 1.423954367637634277e-01 -1.419219076633453369e-01
4.186826348304748535e-01 1.356792598962783813e-01 8.419821411371231079e-02
2.026124894618988037e-01 6.644105911254882812e-02 1.163805723190307617e-01
4.709699749946594238e-01 8.702027052640914917e-02 -1.989449262619018555e-01
4.316042065620422363e-01 8.147398382425308228e-02 -2.309247553348541260e-01
4.221898317337036133e-01 7.200160622596740723e-02 -9.309459477663040161e-02
3.512615561485290527e-01 -2.383170425891876221e-01 2.190880477428436279e-02
3.208088278770446777e-01 -1.392408460378646851e-02 1.113349199295043945e-02
3.153710663318634033e-01 -1.622993648052215576e-01 -2.912895195186138153e-02
3.507896363735198975e-01 -2.616059184074401855e-01 -2.013396844267845154e-02
2.972582280635833740e-01 -8.649562299251556396e-02 -5.114926025271415710e-03
3.468328714370727539e-01 -1.873475313186645508e-02 -4.669835790991783142e-03
3.627871274948120117e-01 -1.843693703413009644e-01 2.345340326428413391e-02
3.268968462944030762e-01 -1.583686619997024536e-01 -3.990058973431587219e-02
3.572268486022949219e-01 -2.619103193283081055e-01 1.290431432425975800e-02
3.309383392333984375e-01 -1.390132308006286621e-02 9.150419384241104126e-03
3.094485998153686523e-01 3.129780292510986328e-03 -1.334595493972301483e-02
3.594086170196533203e-01 -1.699655801057815552e-01 2.545906603336334229e-02
3.069586455821990967e-01 -4.250583797693252563e-02 1.386557705700397491e-02
3.046447038650512695e-01 -1.505053043365478516e-01 -1.176722534000873566e-02
3.354849219322204590e-01 -2.519396245479583740e-01 8.874969556927680969e-03
3.767225742340087891e-01 -1.441913098096847534e-01 -2.456302009522914886e-02
3.411255180835723877e-01 -1.657132208347320557e-01 3.127476572990417480e-02
3.156924545764923096e-01 -1.092638075351715088e-02 8.944474160671234131e-03
2.984706759452819824e-01 -1.008111536502838135e-01 2.040967810899019241e-03
3.421803414821624756e-01 -5.557701736688613892e-02 -4.203203693032264709e-02
3.716927468776702881e-01 -1.216783523559570312e-01 5.540119018405675888e-03
3.794973492622375488e-01 -1.689535826444625854e-01 -2.092697471380233765e-02
3.391233980655670166e-01 -1.923444867134094238e-02 6.637246813625097275e-03
3.660809993743896484e-01 -1.700106710195541382e-01 -3.950474038720130920e-02
3.698003888130187988e-01 -1.355078220367431641e-01 1.233371719717979431e-02
3.806543350219726562e-01 -2.179602384567260742e-01 -8.179215714335441589e-03
3.276309370994567871e-01 -2.007054388523101807e-01 2.426997199654579163e-02
3.256147801876068115e-01 -1.521226614713668823e-01 -4.008280113339424133e-02
3.655167222023010254e-01 -7.555937767028808594e-02 -2.516219858080148697e-03
3.786694407463073730e-01 -1.798695325851440430e-01 -2.421157062053680420e-02
3.049230277538299561e-01 -6.680307537317276001e-02 1.582505553960800171e-02
3.736126422882080078e-01 -1.355011016130447388e-01 -2.973044477403163910e-02
3.456128239631652832e-01 -1.571935713291168213e-01 3.071574866771697998e-02
3.086899220943450928e-01 -1.225036680698394775e-01 -2.923192828893661499e-02
3.426660299301147461e-01 -1.983802914619445801e-01 -3.949969634413719177e-02
3.351196646690368652e-01 -3.298558294773101807e-02 1.517334580421447754e-02
3.216378390789031982e-01 2.008825540542602539e-04 -2.699573896825313568e-02
3.379455208778381348e-01 -1.910572499036788940e-01 2.949536591768264771e-02
3.230730891227722168e-01 -1.302241533994674683e-01 -4.124201461672782898e-02
3.463346660137176514e-01 -1.497678905725479126e-01 3.040153533220291138e-02
3.117186427116394043e-01 -1.033973544836044312e-01 2.373202145099639893e-02
3.802255690097808838e-01 -1.608473807573318481e-01 -1.087725721299648285e-02
3.464327156543731689e-01 -1.168962717056274414e-01 -4.695553332567214966e-02
3.614812791347503662e-01 -5.914524942636489868e-02 -3.749929834157228470e-03
3.584371209144592285e-01 -1.902365982532501221e-01 2.589789777994155884e-02
3.189488053321838379e-01 -5.404575914144515991e-02 2.212251722812652588e-02
3.655886948108673096e-01 -1.221564710140228271e-01 -3.831062465906143188e-02
3.069493174552917480e-01 -1.630937457084655762e-01 -1.206405740231275558e-02
3.408297002315521240e-01 -5.694013833999633789e-02 1.982422545552253723e-02
3.696516454219818115e-01 -2.179033905267715454e-01 1.628083549439907074e-02
3.125539124011993408e-01 -3.203533589839935303e-02 1.503498479723930359e-02
3.071986436843872070e-01 -1.485748440027236938e-01 -2.016225829720497131e-02
3.069161176681518555e-01 -7.626647502183914185e-02 1.869122125208377838e-02
2.973363995552062988e-01 -7.044950127601623535e-02 -1.592058688402175903e-04
3.628313541412353516e-01 -1.256331056356430054e-01 1.877347007393836975e-02
3.102874755859375000e-01 -1.512236446142196655e-01 1.849579252302646637e-02
3.456624150276184082e-01 -1.926357448101043701e-01 2.947514504194259644e-02
3.213664293289184570e-01 -3.021060675382614136e-02 -3.718155249953269958e-02
2.970131337642669678e-01 -7.565602660179138184e-02 -3.820045385509729385e-03
3.218734264373779297e-01 -8.090886473655700684e-02 2.668844908475875854e-02
3.638267815113067627e-01 -2.709267735481262207e-01 3.419311251491308212e-03
3.603624403476715088e-01 -2.328695207834243774e-01 2.062730304896831512e-02
3.654503524303436279e-01 -1.965112090110778809e-01 -3.770296648144721985e-02
3.178383111953735352e-01 -1.019361838698387146e-01 2.709815278649330139e-02
3.637290298938751221e-01 -7.037203013896942139e-02 -2.625030092895030975e-02
3.005975484848022461e-01 -1.167382746934890747e-01 -1.375189796090126038e-02
3.527155816555023193e-01 -4.648493230342864990e-02 -3.266169503331184387e-02
3.156711459159851074e-01 3.252044320106506348e-03 6.067394278943538666e-04
3.313821554183959961e-01 -1.435601711273193359e-01 -4.393496736884117126e-02
3.521856069564819336e-01 -5.600615590810775757e-02 1.091977022588253021e-02
3.202784061431884766e-01 -1.694925427436828613e-01 -3.267175331711769104e-02
3.258140385150909424e-01 -2.362836897373199463e-01 1.778411213308572769e-03
3.261856734752655029e-01 -2.363675832748413086e-01 -6.754896603524684906e-03
3.188531994819641113e-01 -9.834235906600952148e-02 -4.083304107189178467e-02
3.009329438209533691e-01 -3.248323500156402588e-02 -1.741558685898780823e-02
3.013659715652465820e-01 -1.352000683546066284e-01 -2.019128762185573578e-03
3.657554090023040771e-01 -2.256399393081665039e-01 1.862323656678199768e-02
3.737011253833770752e-01 -1.138949394226074219e-01 -2.227964252233505249e-02
3.058967292308807373e-01 -1.633984297513961792e-01 -5.444966722279787064e-03
3.553720712661743164e-01 -6.980574131011962891e-02 1.254123821854591370e-02
3.812941610813140869e-01 -1.930226534605026245e-01 -1.381654292345046997e-02
3.220092654228210449e-01 -2.256478071212768555e-01 -5.911633372306823730e-03
3.453214466571807861e-01 -1.272016465663909912e-01 2.948390692472457886e-02
3.277425169944763184e-01 -2.413428723812103271e-01 -2.399246674031019211e-03
3.116903901100158691e-01 -7.760137319564819336e-03 -2.540253289043903351e-02
3.691675364971160889e-01 -2.056811749935150146e-01 1.773171871900558472e-02
3.759795427322387695e-01 -1.256967484951019287e-01 -1.949744485318660736e-02
3.578321337699890137e-01 -2.729260921478271484e-01 5.097981076687574387e-03
3.714655637741088867e-01 -1.083529591560363770e-01 6.412924267351627350e-04
2.997192144393920898e-01 -7.411992549896240234e-02 8.380215615034103394e-03
3.773431777954101562e-01 -2.297193408012390137e-01 3.026321064680814743e-03
3.394967317581176758e-01 -1.566282659769058228e-01 3.153477236628532410e-02
3.442293405532836914e-01 -2.151318639516830444e-01 -3.609986603260040283e-02
3.708376288414001465e-01 -1.270684748888015747e-01 8.758058771491050720e-03
3.509811162948608398e-01 -3.393366932868957520e-02 -2.830014750361442566e-02
3.185097575187683105e-01 -4.500077664852142334e-02 2.020308375358581543e-02
3.467237055301666260e-01 -5.981254577636718750e-02 -4.115021228790283203e-02
3.319749534130096436e-01 -1.828288733959197998e-01 -3.834528103470802307e-02
3.021429181098937988e-01 -1.380904912948608398e-01 -8.482998237013816833e-03
3.593561649322509766e-01 -2.317153513431549072e-01 -3.294682875275611877e-02
3.218861520290374756e-01 -1.404634416103363037e-01 2.883933112025260925e-02
3.356323540210723877e-01 -2.069899439811706543e-01 -3.457814082503318787e-02
3.810554444789886475e-01 -2.110953927040100098e-01 -1.050459500402212143e-02
3.038958311080932617e-01 -5.034949630498886108e-02 1.227815262973308563e-02
3.312136828899383545e-01 -8.882490545511245728e-02 2.826143801212310791e-02
3.484279811382293701e-01 -1.857213675975799561e-02 -1.672744750976562500e-02
3.154116570949554443e-01 -1.803772747516632080e-01 1.805583760142326355e-02
3.405781090259552002e-01 -1.122299432754516602e-01 2.945945039391517639e-02
3.730469346046447754e-01 -1.979876160621643066e-01 -3.188066184520721436e-02
3.616483509540557861e-01 -7.317218184471130371e-02 5.096398759633302689e-03
3.033227026462554932e-01 -1.425168812274932861e-01 5.889450665563344955e-03
3.293512165546417236e-01 -2.424608319997787476e-01 6.017750594764947891e-03
3.773780763149261475e-01 -2.185353189706802368e-01 -2.269345149397850037e-02
3.417402207851409912e-01 -3.583337366580963135e-02 -3.734810650348663330e-02
3.810097575187683105e-01 -1.812271326780319214e-01 -6.444966420531272888e-03
3.007378578186035156e-01 -3.468075394630432129e-02 2.883316483348608017e-03
2.990278005599975586e-01 -1.057023033499717712e-01 -1.127190608531236649e-02
3.422278761863708496e-01 -1.251817643642425537e-01 -4.715773090720176697e-02
3.095715045928955078e-01 -1.098709702491760254e-01 2.197045087814331055e-02
3.791311681270599365e-01 -1.537539660930633545e-01 -5.333926994353532791e-03
3.535074889659881592e-01 -1.340956389904022217e-01 -4.569170251488685608e-02
3.625812232494354248e-01 -1.090929061174392700e-01 -3.935794532299041748e-02
3.331375718116760254e-01 -1.332373470067977905e-01 3.141931071877479553e-02
3.340433537960052490e-01 -2.373884916305541992e-01 -2.154878340661525726e-02
3.612244725227355957e-01 -9.950664639472961426e-02 -3.906635567545890808e-02
3.811612129211425781e-01 -2.052024006843566895e-01 -1.283594593405723572e-02
3.204302787780761719e-01 -1.247273012995719910e-01 -4.012089595198631287e-02
3.202509284019470215e-01 -5.104920268058776855e-02 -3.996234387159347534e-02
3.281030952930450439e-01 -2.315001934766769409e-01 -1.704520359635353088e-02
3.052920699119567871e-01 -1.214857399463653564e-01 1.615826413035392761e-02
3.785615265369415283e-01 -2.363733351230621338e-01 -1.077690161764621735e-02
3.160813748836517334e-01 -1.254177987575531006e-01 2.639051526784896851e-02
3.105450272560119629e-01 -1.864271312952041626e-01 -2.509937621653079987e-04
3.384828567504882812e-01 -8.263304829597473145e-02 2.615939080715179443e-02
3.753072917461395264e-01 -1.191347837448120117e-01 -1.793451979756355286e-02
3.324641883373260498e-01 6.186246871948242188e-03 -1.071389485150575638e-02
3.558420240879058838e-01 -1.656000912189483643e-01 -4.405562952160835266e-02
3.633311092853546143e-01 -7.854375243186950684e-02 -3.113378025591373444e-02
3.758996427059173584e-01 -2.001257538795471191e-01 9.473044425249099731e-03
3.577881455421447754e-01 -2.555392682552337646e-01 -2.460348978638648987e-02
3.663513362407684326e-01 -2.423693239688873291e-01 1.495875418186187744e-02
2.992588877677917480e-01 -3.170036524534225464e-02 -7.848799228668212891e-03
3.462666869163513184e-01 -8.217705786228179932e-02 2.292755059897899628e-02
3.691270649433135986e-01 -2.257307767868041992e-01 -3.047135658562183380e-02
3.389910459518432617e-01 -2.252617776393890381e-01 2.371210232377052307e-02
3.070782124996185303e-01 -1.558925956487655640e-01 -1.677256263792514801e-02
3.403558731079101562e-01 -1.064821258187294006e-01 -4.713252559304237366e-02
3.602993488311767578e-01 -1.856787502765655518e-01 -4.107857495546340942e-02
3.703377842903137207e-01 -1.643422245979309082e-01 1.574243791401386261e-02
3.063687384128570557e-01 -1.517708599567413330e-01 1.129738613963127136e-02
3.108898401260375977e-01 -1.284590959548950195e-01 2.225425653159618378e-02
3.689672350883483887e-01 -9.212975949048995972e-02 -2.535399422049522400e-02
