-8.588482141494750977e-01 2.616547644138336182e-01 -1.459335535764694214e-01
-8.393362164497375488e-01 2.428915500640869141e-01 1.345047503709793091e-01
-7.704156637191772461e-01 1.384331881999969482e-01 6.192570924758911133e-02
-7.078586816787719727e-01 3.111089766025543213e-01 4.125758633017539978e-02
-7.492650747299194336e-01 1.569407731294631958e-01 2.976945601403713226e-03
-7.831494808197021484e-01 3.734288811683654785e-01 6.872619688510894775e-02
-7.803112864494323730e-01 3.867160081863403320e-01 2.401153743267059326e-02
-8.616616129875183105e-01 2.667601704597473145e-01 8.395125716924667358e-02
-8.249835371971130371e-01 2.441397756338119507e-01 1.472610682249069214e-01
-8.728796243667602539e-01 8.253021538257598877e-02 1.174875069409608841e-02
-9.062774777412414551e-01 1.484831273555755615e-01 -5.345866829156875610e-02
-7.441775202751159668e-01 3.664382100105285645e-01 -7.623991370201110840e-02
-8.798865079879760742e-01 8.965878188610076904e-02 -8.532056212425231934e-02
-8.988945484161376953e-01 1.682048439979553223e-01 -1.039853319525718689e-01
-8.631118535995483398e-01 1.372380852699279785e-01 -1.560728549957275391e-01
-7.257946729660034180e-01 2.075763642787933350e-01 1.942747086286544800e-02
-8.789538741111755371e-01 2.387720495462417603e-01 6.219538301229476929e-02
-7.740111947059631348e-01 3.481183350086212158e-01 -1.204700917005538940e-01
-7.613901495933532715e-01 1.482997536659240723e-01 5.633557587862014771e-02
-8.523127436637878418e-01 1.829725503921508789e-01 1.250573694705963135e-01
-8.914500474929809570e-01 1.979430764913558960e-01 4.886945337057113647e-02
-8.896065950393676758e-01 1.850641667842864990e-01 -1.290627270936965942e-01
-8.129066228866577148e-01 3.614891171455383301e-01 4.358801245689392090e-02
-7.940016984939575195e-01 1.521818339824676514e-01 1.195189207792282104e-01
-8.227524757385253906e-01 1.118545904755592346e-01 -1.291358768939971924e-01
-8.772881031036376953e-01 2.723832726478576660e-01 -7.703760266304016113e-02
-8.190939426422119141e-01 3.369273841381072998e-01 8.545453846454620361e-02
-7.552729845046997070e-01 2.090753167867660522e-01 -1.295739859342575073e-01
-8.307076096534729004e-01 1.471821665763854980e-01 1.237960159778594971e-01
-8.609238862991333008e-01 2.861556708812713623e-01 -1.133776158094406128e-01
-9.030180573463439941e-01 1.635384261608123779e-01 7.615805603563785553e-03
-8.943459987640380859e-01 1.786860227584838867e-01 -1.175852864980697632e-01
-7.864233851432800293e-01 3.765255212783813477e-01 5.606883019208908081e-02
-7.617809176445007324e-01 3.150947093963623047e-01 1.398263871669769287e-01
-7.679244279861450195e-01 2.358728051185607910e-01 -1.591929942369461060e-01
-7.983759641647338867e-01 2.568842470645904541e-01 -1.798076629638671875e-01
-7.535384297370910645e-01 2.553917169570922852e-01 -1.440757662057876587e-01
-8.129183053970336914e-01 1.055767536163330078e-01 7.082334160804748535e-02
-8.300109505653381348e-01 3.239745199680328369e-01 -1.185986399650573730e-01
-7.221875786781311035e-01 2.819948494434356689e-01 9.932330250740051270e-02
-8.974791765213012695e-01 2.240602374076843262e-01 -2.731820568442344666e-02
-8.320939540863037109e-01 2.288574427366256714e-01 1.442375630140304565e-01
-8.040051460266113281e-01 3.702900707721710205e-01 3.854465112090110779e-02
-8.894253969192504883e-01 2.005850672721862793e-01 -1.236624419689178467e-01
-8.176076412200927734e-01 8.359725773334503174e-02 -4.802736267447471619e-02
-7.565081715583801270e-01 1.910106539726257324e-01 -1.178501397371292114e-01
-8.911643624305725098e-01 9.735746681690216064e-02 -5.657243542373180389e-03
-9.037456512451171875e-01 1.945205926895141602e-01 -3.320318087935447693e-02
-8.246471285820007324e-01 3.521137237548828125e-01 3.516127169132232666e-02
-8.974687457084655762e-01 1.069920584559440613e-01 -6.021190807223320007e-02
-7.479348182678222656e-01 3.869445919990539551e-01 3.907476365566253662e-02
-7.542309761047363281e-01 1.606423854827880859e-01 6.050392985343933105e-02
-7.883572578430175781e-01 2.779244482517242432e-01 1.553462594747543335e-01
-8.183221817016601562e-01 2.972854673862457275e-01 1.296137273311614990e-01
-8.808140754699707031e-01 2.635822296142578125e-01 1.761639118194580078e-02
-8.532570600509643555e-01 2.232118099927902222e-01 1.227772235870361328e-01
-9.022524952888488770e-01 1.649080812931060791e-01 -8.929045498371124268e-02
-7.765381932258605957e-01 1.283863037824630737e-01 -7.238319516181945801e-02
-7.338632941246032715e-01 3.790851235389709473e-01 4.266981780529022217e-02
-8.469719290733337402e-01 3.102504312992095947e-01 -1.083417311310768127e-01
-7.588367462158203125e-01 1.493394225835800171e-01 -5.675015598535537720e-02
-7.454713582992553711e-01 2.939814031124114990e-01 1.367077678442001343e-01
-9.016791582107543945e-01 1.841114163398742676e-01 8.607874624431133270e-03
-7.615154385566711426e-01 1.697723269462585449e-01 -1.059388220310211182e-01
-8.706911802291870117e-01 7.495357096195220947e-02 -2.237610891461372375e-02
-7.351455092430114746e-01 2.863327860832214355e-01 1.250182241201400757e-01
-7.252740859985351562e-01 3.139931261539459229e-01 -8.822934329509735107e-02
-9.045071601867675781e-01 1.288349777460098267e-01 -3.889584913849830627e-02
-9.003053903579711914e-01 2.025792002677917480e-01 -5.329074338078498840e-04
-9.011349678039550781e-01 1.787048876285552979e-01 -9.085112065076828003e-02
-9.005695581436157227e-01 2.116325199604034424e-01 -3.522497043013572693e-02
-8.646004796028137207e-01 8.551731705665588379e-02 3.281311318278312683e-02
-7.811989188194274902e-01 2.094222158193588257e-01 1.498770564794540405e-01
-7.587014436721801758e-01 1.750476211309432983e-01 9.864633530378341675e-02
-7.578654289245605469e-01 1.957061290740966797e-01 1.193514019250869751e-01
-8.606856465339660645e-01 9.830072522163391113e-02 6.036433577537536621e-02
-7.127050161361694336e-01 2.565138936042785645e-01 -1.815513893961906433e-02
-8.726956844329833984e-01 1.304825246334075928e-01 -1.444417536258697510e-01
-7.516589164733886719e-01 2.848457694053649902e-01 -1.411835402250289917e-01
-8.045536279678344727e-01 2.704023122787475586e-01 1.527559459209442139e-01
-7.097426652908325195e-01 3.033021092414855957e-01 -3.272046893835067749e-02
-8.683324456214904785e-01 2.199618071317672729e-01 -1.572334170341491699e-01
-8.347712755203247070e-01 3.348519802093505859e-01 -8.696708083152770996e-02
-8.885203599929809570e-01 1.886387616395950317e-01 6.150384247303009033e-02
-7.976905107498168945e-01 9.658984839916229248e-02 -4.536220803856849670e-04
-8.485418558120727539e-01 3.258985280990600586e-01 -6.051946058869361877e-02
-7.676208019256591797e-01 3.376756906509399414e-01 -1.288613379001617432e-01
-8.680660724639892578e-01 2.800302207469940186e-01 4.719398915767669678e-02
-8.127922415733337402e-01 3.502569198608398438e-01 -9.741886705160140991e-02
-8.607289791107177734e-01 9.515425562858581543e-02 -1.159227564930915833e-01
-7.129933834075927734e-01 3.100055456161499023e-01 7.142731547355651855e-02
-8.940057158470153809e-01 1.857146024703979492e-01 4.447232186794281006e-02
-8.493794798851013184e-01 3.191581070423126221e-01 -8.072815835475921631e-02
-8.139258623123168945e-01 3.408568501472473145e-01 -1.134256273508071899e-01
-7.494984865188598633e-01 2.994379401206970215e-01 -1.352043896913528442e-01
-9.000715613365173340e-01 2.098844945430755615e-01 -6.074791029095649719e-02
-8.492981195449829102e-01 3.085170686244964600e-01 6.155941635370254517e-02
-7.381579279899597168e-01 2.150508463382720947e-01 -9.316024184226989746e-02
-8.024092912673950195e-01 3.018190562725067139e-01 -1.614702045917510986e-01
-8.765243291854858398e-01 2.761428952217102051e-01 1.146567147225141525e-02
-8.659088611602783203e-01 2.516666650772094727e-01 8.693625032901763916e-02
-8.804755210876464844e-01 1.816135793924331665e-01 -1.481940597295761108e-01
-8.378612995147705078e-01 1.089396923780441284e-01 8.582295477390289307e-02
-7.331820726394653320e-01 3.818485140800476074e-01 2.570398151874542236e-02
-8.400954008102416992e-01 2.021803408861160278e-01 1.384468227624893188e-01
-8.842470645904541016e-01 1.309040039777755737e-01 5.969955772161483765e-02
-7.310346961021423340e-01 3.690964579582214355e-01 6.336865574121475220e-02
-7.397629618644714355e-01 1.753399819135665894e-01 1.634375751018524170e-02
-7.358689308166503906e-01 1.877727508544921875e-01 -3.560195118188858032e-02
-8.298915028572082520e-01 7.589562237262725830e-02 -1.321905944496393204e-02
-7.128949165344238281e-01 2.500913441181182861e-01 1.448606792837381363e-02
-8.250604867935180664e-01 1.761240959167480469e-01 1.407988369464874268e-01
-8.021533489227294922e-01 6.131343543529510498e-03 6.682837009429931641e-02
-7.601006031036376953e-01 1.373797059059143066e-01 -4.096202552318572998e-02
-8.560711145401000977e-01 1.650619879364967346e-02 -6.414151191711425781e-02
-7.211244702339172363e-01 4.727099835872650146e-02 -1.016368865966796875e-01
-7.280041575431823730e-01 2.006186544895172119e-02 3.160833567380905151e-02
-7.282817363739013672e-01 1.454565525054931641e-01 2.307824417948722839e-02
-8.079959750175476074e-01 1.050781905651092529e-01 -7.521614432334899902e-02
-8.521739840507507324e-01 7.534162700176239014e-02 -4.614657536149024963e-02
-7.348692417144775391e-01 1.489055156707763672e-02 -2.488544769585132599e-02
-7.623725533485412598e-01 1.381539702415466309e-01 -2.342556230723857880e-02
-7.642511129379272461e-01 1.317410469055175781e-01 -6.269860267639160156e-02
-7.266283035278320312e-01 1.276677250862121582e-01 7.793337106704711914e-02
-8.758603334426879883e-01 3.972040489315986633e-02 -1.614451780915260315e-02
-7.424845099449157715e-01 1.436483860015869141e-02 3.840337693691253662e-02
-6.835260391235351562e-01 4.747723788022994995e-02 1.814136281609535217e-02
-7.015885114669799805e-01 3.939864411950111389e-02 4.628095403313636780e-02
-7.182980775833129883e-01 1.487698256969451904e-01 -3.442074358463287354e-02
-7.059823274612426758e-01 3.023993968963623047e-02 -1.888900995254516602e-02
-7.054994702339172363e-01 1.192915365099906921e-01 8.889244496822357178e-02
-8.294103741645812988e-01 9.149476885795593262e-03 6.884376704692840576e-02
-8.142958879470825195e-01 1.123068556189537048e-01 -1.224480848759412766e-02
-8.394052982330322266e-01 8.347795903682708740e-02 -6.313720345497131348e-02
-8.558905124664306641e-01 5.594438314437866211e-02 -7.023383677005767822e-02
-7.122649550437927246e-01 2.611852437257766724e-02 6.477634422481060028e-03
-8.084002733230590820e-01 -1.075938344001770020e-03 -5.209071561694145203e-02
-7.829417586326599121e-01 4.622774943709373474e-02 1.130047142505645752e-01
-8.614835739135742188e-01 6.359248608350753784e-02 2.862601727247238159e-02
-8.186903595924377441e-01 2.310022711753845215e-03 -6.356477737426757812e-02
-8.109917640686035156e-01 8.172130584716796875e-02 -1.079390794038772583e-01
-6.991367340087890625e-01 5.819556117057800293e-02 -9.351886808872222900e-02
-8.063470721244812012e-01 1.154058948159217834e-01 -3.846555948257446289e-02
-8.188151121139526367e-01 3.158951178193092346e-02 9.730084240436553955e-02
-7.192870378494262695e-01 1.419881880283355713e-01 4.517043381929397583e-02
-6.662619709968566895e-01 8.169850707054138184e-02 5.898493900895118713e-02
-7.233328223228454590e-01 6.297246366739273071e-02 -1.194965243339538574e-01
-7.248285412788391113e-01 1.169658154249191284e-01 9.359507262706756592e-02
-7.590565085411071777e-01 5.484625697135925293e-03 2.337703667581081390e-02
-7.765098214149475098e-01 1.062415242195129395e-01 8.934953808784484863e-02
-6.728358864784240723e-01 1.064621135592460632e-01 7.718768715858459473e-02
-8.017876744270324707e-01 2.924935147166252136e-02 1.005886048078536987e-01
-7.485365867614746094e-01 8.827918767929077148e-02 1.145973801612854004e-01
-8.705013990402221680e-01 4.352465271949768066e-02 3.086731955409049988e-02
-8.071997165679931641e-01 1.146165356040000916e-01 1.998432911932468414e-02
-7.545809745788574219e-01 1.331102252006530762e-01 4.831371456384658813e-02
-8.443695306777954102e-01 -2.847008407115936279e-03 2.391427010297775269e-02
-7.744626998901367188e-01 9.269267320632934570e-04 2.563906461000442505e-02
-6.964969635009765625e-01 1.508262008428573608e-01 5.333841778337955475e-03
-7.983782887458801270e-01 1.208571568131446838e-01 -3.201701492071151733e-02
-7.389274239540100098e-01 1.392925977706909180e-01 -6.461815536022186279e-02
-6.515622735023498535e-01 1.223371997475624084e-01 -5.829645320773124695e-02
-7.706415057182312012e-01 7.627092301845550537e-03 -5.992450565099716187e-02
-6.521545648574829102e-01 1.366479694843292236e-01 -3.318410366773605347e-02
-6.874665021896362305e-01 6.461276113986968994e-02 -8.685424923896789551e-02
-8.266091346740722656e-01 -2.212658524513244629e-03 -4.686786979436874390e-02
-8.000702857971191406e-01 1.023066937923431396e-01 -9.258837997913360596e-02
-7.024160027503967285e-01 5.054769665002822876e-02 -8.551278710365295410e-02
-8.565174341201782227e-01 8.866235613822937012e-03 -5.084658041596412659e-02
-6.794688105583190918e-01 5.713491514325141907e-02 4.395391047000885010e-02
-8.284150958061218262e-01 -6.263107061386108398e-03 -2.376998215913772583e-02
-7.557203173637390137e-01 1.255643963813781738e-01 6.865517795085906982e-02
-8.731391429901123047e-01 4.952128976583480835e-02 -7.964929565787315369e-03
-8.343380093574523926e-01 9.758539497852325439e-02 -6.961484905332326889e-03
-6.598439216613769531e-01 6.968946754932403564e-02 3.901074640452861786e-03
-6.439019441604614258e-01 1.289607733488082886e-01 -3.736577695235610008e-03
-8.058658242225646973e-01 6.220214068889617920e-03 -7.393954694271087646e-02
-7.843018770217895508e-01 1.162436604499816895e-01 -8.290611207485198975e-02
-8.567737936973571777e-01 7.524795830249786377e-02 1.802863553166389465e-03
-8.264414072036743164e-01 9.584452956914901733e-02 -6.213172525167465210e-02
-7.157604694366455078e-01 1.459267735481262207e-01 3.096983209252357483e-02
-7.368041872978210449e-01 1.381798684597015381e-01 4.774228110909461975e-02
-8.219528198242187500e-01 9.481105953454971313e-03 -7.926855981349945068e-02
-7.283285856246948242e-01 6.959126889705657959e-02 1.119865477085113525e-01
-8.599406480789184570e-01 1.578942686319351196e-02 4.916797950863838196e-02
-7.705588936805725098e-01 1.818735152482986450e-02 -8.854852616786956787e-02
-7.048538923263549805e-01 8.443274348974227905e-02 1.034304797649383545e-01
-6.448327898979187012e-01 9.444440156221389771e-02 5.020437762141227722e-03
-6.708990931510925293e-01 8.882205188274383545e-02 7.240602374076843262e-02
-7.414861917495727539e-01 1.031839698553085327e-01 -1.242080032825469971e-01
-8.219425082206726074e-01 5.352127552032470703e-02 9.963160753250122070e-02
-8.654864430427551270e-01 2.982985600829124451e-02 -5.900960415601730347e-02
-7.660820484161376953e-01 3.328326344490051270e-02 -1.107713133096694946e-01
-6.433799862861633301e-01 1.015739813446998596e-01 1.254397071897983551e-02
-8.239022493362426758e-01 9.976160526275634766e-02 3.738040104508399963e-02
-7.591794729232788086e-01 2.216232940554618835e-02 -8.961170911788940430e-02
-7.329535484313964844e-01 3.183193504810333252e-02 -8.656565845012664795e-02
-7.307600975036621094e-01 1.358664035797119141e-01 5.858284607529640198e-02
-6.776182651519775391e-01 6.237766891717910767e-02 5.227857455611228943e-02
-8.554542064666748047e-01 4.841366410255432129e-02 6.381724774837493896e-02
-8.711186051368713379e-01 1.704856753349304199e-02 -3.248868882656097412e-02
-6.761164069175720215e-01 1.475383341312408447e-01 1.479790732264518738e-02
-7.515327334403991699e-01 1.421851813793182373e-01 -1.170331984758377075e-02
-7.488819360733032227e-01 1.089149788022041321e-01 9.910587966442108154e-02
-8.017632961273193359e-01 1.022470369935035706e-01 7.194261252880096436e-02
-7.984223961830139160e-01 1.194395124912261963e-01 -4.290339350700378418e-02
-7.791008353233337402e-01 1.268095970153808594e-01 3.517127409577369690e-02
-8.409763574600219727e-01 2.818286418914794922e-02 -9.094430506229400635e-02
-6.468501091003417969e-01 1.058965101838111877e-01 3.162937611341476440e-02
-7.657781243324279785e-01 1.050928235054016113e-01 9.718061983585357666e-02
-8.193433284759521484e-01 7.603868842124938965e-03 6.948174536228179932e-02
-7.952005267143249512e-01 -5.424469709396362305e-03 -5.943670403212308884e-03
-8.269420862197875977e-01 9.164193272590637207e-02 -7.203847169876098633e-02
-7.565741539001464844e-01 2.647637948393821716e-02 8.757129311561584473e-02
-6.526558399200439453e-01 1.361349225044250488e-01 1.530636474490165710e-02
-6.909381151199340820e-01 1.189486384391784668e-01 -1.035271137952804565e-01
-7.354698181152343750e-01 2.357913181185722351e-02 6.086536124348640442e-02
-7.257263064384460449e-01 5.403529480099678040e-02 1.015830934047698975e-01
-8.314705491065979004e-01 9.677284955978393555e-02 2.436063438653945923e-02
-6.593142151832580566e-01 7.103728502988815308e-02 -2.346294559538364410e-02
-7.893739938735961914e-01 9.524387866258621216e-02 9.471365809440612793e-02
-7.280641794204711914e-01 2.368933334946632385e-02 4.869192466139793396e-02
-7.068993449211120605e-01 3.234850615262985229e-02 3.168000653386116028e-02
-7.359437942504882812e-01 1.549687609076499939e-02 2.740570530295372009e-02
-7.711394429206848145e-01 1.274562776088714600e-01 -6.828709691762924194e-02
-7.988244295120239258e-01 -8.053481578826904297e-04 4.401881620287895203e-02
-7.613115906715393066e-01 1.331653147935867310e-01 3.917392343282699585e-02
-7.373005151748657227e-01 1.444375813007354736e-01 -3.992292284965515137e-02
-6.815795302391052246e-01 9.541817754507064819e-02 -1.034173816442489624e-01
-6.945195198059082031e-01 1.123447194695472717e-01 -1.097166389226913452e-01
-7.771202921867370605e-01 1.246740072965621948e-01 4.743713513016700745e-02
-7.801423072814941406e-01 8.136193454265594482e-02 1.114834994077682495e-01
-7.779147624969482422e-01 5.574912577867507935e-02 -1.288588494062423706e-01
-8.702657818794250488e-01 2.578577771782875061e-02 3.591954708099365234e-02
-6.635030508041381836e-01 6.719098985195159912e-02 1.791393198072910309e-02
-7.635610103607177734e-01 6.557933986186981201e-03 3.996785357594490051e-02
-7.517664432525634766e-01 1.412811875343322754e-01 7.955976761877536774e-03
-6.932120323181152344e-01 4.051555320620536804e-02 -3.303113579750061035e-02
-8.081592917442321777e-01 6.951112300157546997e-02 1.033931225538253784e-01
-7.186517119407653809e-01 1.495958268642425537e-01 -2.328445948660373688e-02
-6.924439668655395508e-01 9.897389262914657593e-02 9.523855149745941162e-02
-7.503041028976440430e-01 8.102551102638244629e-03 -2.316139265894889832e-02
-8.580170869827270508e-01 2.199195697903633118e-02 5.829623714089393616e-02
-7.533182501792907715e-01 1.297918260097503662e-01 5.987209454178810120e-02
-7.809448242187500000e-01 1.294420659542083740e-01 -3.537244349718093872e-02
-8.108102083206176758e-01 3.486856818199157715e-02 -1.123552024364471436e-01
-6.465193033218383789e-01 1.022551357746124268e-01 -4.558080062270164490e-02
-7.466637492179870605e-01 9.463686496019363403e-03 1.574649102985858917e-02
-7.388804554939270020e-01 1.329335421323776245e-01 -8.397498726844787598e-02
-7.447523474693298340e-01 9.697362035512924194e-02 1.102087646722793579e-01
-7.432575225830078125e-01 6.525072455406188965e-02 1.156959533691406250e-01
-7.091253399848937988e-01 4.049230366945266724e-02 -7.434447109699249268e-02
-6.901285052299499512e-01 5.569943040609359741e-02 6.420558691024780273e-02
-6.624012589454650879e-01 6.624478101730346680e-02 -5.088453181087970734e-03
-7.891447544097900391e-01 5.903689190745353699e-02 1.147193461656570435e-01
-8.644517660140991211e-01 6.428718566894531250e-03 -2.566253952682018280e-02
-7.460926175117492676e-01 1.403377354145050049e-01 2.816746383905410767e-02
-6.849298477172851562e-01 4.602064937353134155e-02 -2.625752240419387817e-02
-8.374986648559570312e-01 7.513557374477386475e-02 -8.214159309864044189e-02
-8.081489205360412598e-01 1.157795786857604980e-01 -2.381177246570587158e-02
-8.311877846717834473e-01 1.320295408368110657e-02 -8.181814849376678467e-02
-6.446363925933837891e-01 1.305611133575439453e-01 -1.322512514889240265e-02
-8.760160803794860840e-01 3.953154757618904114e-02 3.080634400248527527e-03
-8.495866060256958008e-01 -2.034135162830352783e-03 -2.454344555735588074e-02
-7.084420323371887207e-01 1.344361752271652222e-01 6.682193279266357422e-02
-6.519740819931030273e-01 8.418495208024978638e-02 2.080657705664634705e-02
-6.783722043037414551e-01 7.321304827928543091e-02 -8.453883230686187744e-02
-7.969631552696228027e-01 7.714623957872390747e-02 -1.213766038417816162e-01
-8.265857100486755371e-01 2.546505630016326904e-02 -9.859789907932281494e-02
-7.057918906211853027e-01 1.473631262779235840e-01 -5.141600966453552246e-02
-7.824259400367736816e-01 1.279691904783248901e-01 1.979424618184566498e-02
-7.855958342552185059e-01 -3.458142280578613281e-03 5.434905178844928741e-03
-7.158692479133605957e-01 1.205356419086456299e-01 8.914238214492797852e-02
-6.999505758285522461e-01 8.639380335807800293e-02 -1.162404417991638184e-01
-7.554384469985961914e-01 1.874970644712448120e-02 -7.883140444755554199e-02
-6.840732097625732422e-01 4.905037581920623779e-02 -4.065888002514839172e-02
-7.671378850936889648e-01 1.247030869126319885e-01 6.041393056511878967e-02
-7.853476405143737793e-01 7.109282165765762329e-02 1.140094846487045288e-01
-7.835214734077453613e-01 -2.833455801010131836e-03 -1.417113654315471649e-02
-7.198493480682373047e-01 1.323182880878448486e-01 -9.207454323768615723e-02
-6.615875363349914551e-01 1.340120881795883179e-01 3.951909020543098450e-02
-6.754041314125061035e-01 1.410512924194335938e-01 -6.178771704435348511e-02
-8.215898275375366211e-01 9.016045182943344116e-02 6.720854341983795166e-02
-6.680729389190673828e-01 9.900818765163421631e-02 -8.893443644046783447e-02
-6.830883622169494629e-01 8.046501874923706055e-02 8.331771194934844971e-02
-8.425929546356201172e-01 1.031692698597908020e-02 6.226896867156028748e-02
-7.175703644752502441e-01 7.437848299741744995e-02 -1.227343082427978516e-01
-6.414638757705688477e-01 1.035480946302413940e-01 -2.556052990257740021e-03
-7.466758489608764648e-01 1.421470940113067627e-01 -3.798095136880874634e-02
-8.045672178268432617e-01 1.146860718727111816e-01 -4.930894821882247925e-02
-7.062915563583374023e-01 1.083176583051681519e-01 9.829929471015930176e-02
-8.421422243118286133e-01 8.012685924768447876e-02 4.788764193654060364e-02
-7.251577973365783691e-01 3.899285197257995605e-02 8.245217800140380859e-02
-7.073752284049987793e-01 3.191302344202995300e-02 -3.977257013320922852e-02
-8.709255456924438477e-01 5.345528945326805115e-02 -1.859071850776672363e-02
-8.579792976379394531e-01 5.590011924505233765e-02 5.251022428274154663e-02
-8.041024804115295410e-01 3.824264928698539734e-02 1.059610694646835327e-01
-7.961452007293701172e-01 3.170002624392509460e-02 -1.128463298082351685e-01
-7.175252437591552734e-01 1.467987298965454102e-01 -4.893103986978530884e-02
-8.242088556289672852e-01 -2.151645720005035400e-03 4.230225831270217896e-02
-8.130941390991210938e-01 -6.781205534934997559e-03 -1.943818852305412292e-02
-6.859352588653564453e-01 1.486572921276092529e-01 1.789144799113273621e-02
-7.142973542213439941e-01 2.545221149921417236e-02 -2.240458317101001740e-02
-8.285307884216308594e-01 -7.467925548553466797e-03 -1.413777004927396774e-03
-7.830114960670471191e-01 2.391955256462097168e-02 9.454539418220520020e-02
-8.031511902809143066e-01 1.124187931418418884e-01 4.259345680475234985e-02
-6.967338919639587402e-01 3.590828180313110352e-02 -3.552084090188145638e-03
-7.034603953361511230e-01 1.416563093662261963e-01 -7.206435501575469971e-02
-8.043270707130432129e-01 -5.465045571327209473e-03 2.076200582087039948e-02
-8.722184896469116211e-01 1.373720914125442505e-02 -1.760469935834407806e-02
-6.785879731178283691e-01 1.302275657653808594e-01 -8.443938195705413818e-02
-7.305250763893127441e-01 1.424852460622787476e-01 3.619890287518501282e-02
-7.571619153022766113e-01 8.834733068943023682e-02 -1.302460879087448120e-01
-8.489897847175598145e-01 8.373545110225677490e-02 3.211822360754013062e-03
-6.902585625648498535e-01 1.512697339057922363e-01 -1.958139240741729736e-02
-7.986954450607299805e-01 8.711623400449752808e-02 9.669251739978790283e-02
-7.517210841178894043e-01 1.256730705499649048e-01 -9.244632720947265625e-02
-8.395174145698547363e-01 -1.686677336692810059e-03 3.522003814578056335e-02
-6.637860536575317383e-01 7.702176272869110107e-02 -6.106419116258621216e-02
-7.200497984886169434e-01 2.602951228618621826e-02 4.015116766095161438e-02
-6.744599342346191406e-01 6.801088899374008179e-02 -6.934584677219390869e-02
-7.348732948303222656e-01 1.164242774248123169e-01 9.329579770565032959e-02
-6.919509768486022949e-01 4.352472722530364990e-02 -4.430233314633369446e-02
-8.163671493530273438e-01 4.997924715280532837e-02 -1.156966835260391235e-01
-7.192489504814147949e-01 5.607616156339645386e-02 -1.107668280601501465e-01
-6.747986674308776855e-01 1.237352341413497925e-01 6.842032074928283691e-02
-7.140811085700988770e-01 4.108885303139686584e-02 7.310995459556579590e-02
-7.292464971542358398e-01 9.509013593196868896e-02 1.107051223516464233e-01
-6.736696362495422363e-01 7.082600891590118408e-02 5.927056446671485901e-02
-7.708162665367126465e-01 1.330372393131256104e-01 -4.230668023228645325e-02
-7.978535890579223633e-01 1.221882775425910950e-01 -7.266979198902845383e-03
-6.542192697525024414e-01 9.555488079786300659e-02 -6.234962865710258484e-02
-7.425356507301330566e-01 1.446940302848815918e-01 -1.997785083949565887e-02
-8.265685439109802246e-01 7.148759812116622925e-02 8.588899672031402588e-02
-6.419911384582519531e-01 1.142132729291915894e-01 -3.145185858011245728e-02
-7.821689248085021973e-01 1.123213320970535278e-01 7.402317225933074951e-02
-8.407865762710571289e-01 6.592617183923721313e-02 -8.732692897319793701e-02
-7.492400407791137695e-01 1.784130930900573730e-02 6.236187741160392761e-02
-7.627606987953186035e-01 4.153463989496231079e-02 -1.186615824699401855e-01
-7.888844609260559082e-01 8.762144297361373901e-02 -1.195376664400100708e-01
-8.375185132026672363e-01 7.744240760803222656e-02 6.293202936649322510e-02
-6.952654123306274414e-01 6.745702773332595825e-02 8.710907399654388428e-02
-7.532849311828613281e-01 7.727770507335662842e-02 -1.327170282602310181e-01
-8.580647110939025879e-01 3.909356892108917236e-03 2.761144191026687622e-02
-8.292776942253112793e-01 1.014206781983375549e-01 -1.857079192996025085e-02
-8.103538751602172852e-01 1.274734735488891602e-02 -8.735702931880950928e-02
-6.442506313323974609e-01 9.445749223232269287e-02 -8.009153418242931366e-03
-7.629490494728088379e-01 1.347786486148834229e-01 -5.084989592432975769e-02
-7.981255650520324707e-01 -2.821579575538635254e-03 3.376830741763114929e-02
-7.412888407707214355e-01 1.283954083919525146e-02 -3.248317539691925049e-02
-7.451548576354980469e-01 1.688726246356964111e-02 -6.103873625397682190e-02
-7.936716079711914062e-01 4.976287484169006348e-03 -6.755487620830535889e-02
-7.954359054565429688e-01 4.199817776679992676e-04 -5.269874259829521179e-02
-8.373631834983825684e-01 8.050275593996047974e-02 -7.393588125705718994e-02
-7.555886507034301758e-01 3.262007981538772583e-02 9.607614576816558838e-02
-8.300303816795349121e-01 -4.233419895172119141e-03 3.092141449451446533e-02
-7.139114141464233398e-01 1.284528523683547974e-01 7.783246040344238281e-02
-7.093389034271240234e-01 1.505198627710342407e-01 2.144982106983661652e-03
-7.732197642326354980e-01 4.585093259811401367e-02 -1.239494383335113525e-01
-8.508763313293457031e-01 6.480144709348678589e-02 5.649040266871452332e-02
-7.051576972007751465e-01 1.431190073490142822e-01 4.476410895586013794e-02
-8.432868123054504395e-01 4.210214316844940186e-02 8.230791985988616943e-02
-6.476270556449890137e-01 1.100330427289009094e-01 -5.301379784941673279e-02
-7.263729572296142578e-01 1.484576463699340820e-01 -4.255667328834533691e-03
-7.928171157836914062e-01 2.080105245113372803e-02 -1.000353246927261353e-01
-7.274598479270935059e-01 2.363962680101394653e-02 -5.518923699855804443e-02
-7.702589035034179688e-01 1.328206360340118408e-01 2.304962649941444397e-02
-8.670613765716552734e-01 6.140606477856636047e-02 -8.940118364989757538e-03
-7.070614695549011230e-01 1.341212093830108643e-01 -8.925034105777740479e-02
-8.420139551162719727e-01 8.905581384897232056e-02 -3.332719206809997559e-02
-6.562646031379699707e-01 1.326073259115219116e-01 -5.442957207560539246e-02
-8.502735495567321777e-01 7.683584094047546387e-02 3.271444141864776611e-02
-8.212839365005493164e-01 1.075272113084793091e-01 -6.033464800566434860e-03
-7.660877108573913574e-01 4.861608520150184631e-02 1.135057657957077026e-01
-8.367169499397277832e-01 9.213679283857345581e-02 -4.309058934450149536e-02
-7.325293421745300293e-01 1.535314321517944336e-02 9.473469108343124390e-03
-7.646917104721069336e-01 7.812058180570602417e-02 1.167824864387512207e-01
-7.706623077392578125e-01 1.352076232433319092e-01 -1.483766548335552216e-02
-7.732890248298645020e-01 9.536692500114440918e-02 1.040322184562683105e-01
-7.067790031433105469e-01 3.477924317121505737e-02 -5.163365975022315979e-02
-6.641654968261718750e-01 1.439360529184341431e-01 1.326983980834484100e-02
-6.993392705917358398e-01 1.289731115102767944e-01 7.506500184535980225e-02
-7.998890876770019531e-01 8.455117791891098022e-02 -1.146829873323440552e-01
-8.008408546447753906e-01 9.781832247972488403e-02 8.092638850212097168e-02
-6.471629142761230469e-01 8.910112082958221436e-02 -1.986965537071228027e-02
-6.863386631011962891e-01 1.372393667697906494e-01 5.570883676409721375e-02
-7.672051787376403809e-01 1.113618686795234680e-01 8.778992295265197754e-02
-7.652611732482910156e-01 7.833418995141983032e-02 -1.319051682949066162e-01
-7.569607496261596680e-01 2.112521231174468994e-02 7.788778841495513916e-02
-6.975734829902648926e-01 5.611207336187362671e-02 7.652622461318969727e-02
-8.470038771629333496e-01 6.478182971477508545e-03 5.111464858055114746e-02
-6.552523970603942871e-01 1.414893269538879395e-01 -9.393956512212753296e-03
-6.428096890449523926e-01 1.040061712265014648e-01 -2.984315529465675354e-02
-8.182013630867004395e-01 7.351714372634887695e-02 -1.078522503376007080e-01
-7.272894382476806641e-01 1.418145596981048584e-01 -6.447984278202056885e-02
-7.108969688415527344e-01 9.175480902194976807e-02 1.064758300781250000e-01
-7.615278363227844238e-01 1.123319864273071289e-01 -1.091948598623275757e-01
-6.748769879341125488e-01 7.743342220783233643e-02 6.971152126789093018e-02
-6.618991494178771973e-01 1.155905872583389282e-01 6.075127795338630676e-02
-6.819869279861450195e-01 1.506263315677642822e-01 -8.126004599034786224e-03
-7.425748705863952637e-01 4.247171059250831604e-02 -1.112122535705566406e-01
-7.703191041946411133e-01 6.723637133836746216e-02 -1.318409740924835205e-01
-7.157654762268066406e-01 2.575982734560966492e-02 2.476943656802177429e-02
-8.125925660133361816e-01 1.075536906719207764e-01 -5.779410898685455322e-02
-6.591770648956298828e-01 8.626540750265121460e-02 4.883884266018867493e-02
-8.008680343627929688e-01 1.164164543151855469e-01 3.129516914486885071e-02
-8.560903072357177734e-01 7.521063089370727539e-02 -2.560275420546531677e-02
-7.546781301498413086e-01 1.318603754043579102e-01 -7.441736757755279541e-02
-7.400975227355957031e-01 2.416067197918891907e-02 -7.658974826335906982e-02
-7.173948884010314941e-01 4.150999337434768677e-02 -8.823320269584655762e-02
-7.360746264457702637e-01 1.087327599525451660e-01 1.016103923320770264e-01
-7.253596782684326172e-01 1.948858797550201416e-02 1.647696271538734436e-02
-7.793046236038208008e-01 5.899366736412048340e-02 1.166806221008300781e-01
-8.099902868270874023e-01 -4.499793052673339844e-03 -3.626878187060356140e-02
-7.796544432640075684e-01 8.549278229475021362e-02 -1.254702210426330566e-01
-7.748584151268005371e-01 9.767249226570129395e-02 -1.188333481550216675e-01
-8.475088477134704590e-01 7.265114039182662964e-02 5.090572312474250793e-02
-7.946507334709167480e-01 -4.170238971710205078e-03 2.034093253314495087e-02
-6.922611594200134277e-01 7.333150506019592285e-02 -1.026265174150466919e-01
-7.237756848335266113e-01 8.014358580112457275e-02 1.121359467506408691e-01
-7.802847027778625488e-01 1.829296350479125977e-03 -4.586968943476676941e-02
-6.646734476089477539e-01 6.904647499322891235e-02 3.107837960124015808e-02
-6.910187602043151855e-01 1.366606503725051880e-01 -8.096127212047576904e-02
-7.649645209312438965e-01 1.550381630659103394e-02 -7.871995866298675537e-02
-7.268709540367126465e-01 8.915884792804718018e-02 -1.285212337970733643e-01
-8.418669700622558594e-01 -5.152948200702667236e-03 -1.603970676660537720e-02
-8.173085451126098633e-01 7.227540761232376099e-02 9.451159834861755371e-02
-8.562778830528259277e-01 4.437107965350151062e-02 -7.615928351879119873e-02
-7.393795847892761230e-01 1.265996396541595459e-01 7.596991956233978271e-02
-7.021608948707580566e-01 1.457177400588989258e-01 3.562039881944656372e-02
-8.618792295455932617e-01 5.161028355360031128e-02 -6.081004440784454346e-02
-7.208279371261596680e-01 1.476453840732574463e-01 1.692880131304264069e-02
-8.335294723510742188e-01 9.126044809818267822e-02 -5.731328949332237244e-02
-7.291462421417236328e-01 6.038630753755569458e-02 1.082320362329483032e-01
-6.887276172637939453e-01 1.308929771184921265e-01 -8.957570791244506836e-02
-8.542712330818176270e-01 7.497201859951019287e-02 2.266793325543403625e-02
-7.438234090805053711e-01 3.266980499029159546e-02 8.878318965435028076e-02
-7.631253004074096680e-01 1.381396353244781494e-01 -6.886222399771213531e-03
-6.667461395263671875e-01 8.681897819042205811e-02 -8.005195856094360352e-02
-8.295607566833496094e-01 2.205558121204376221e-03 -6.017539277672767639e-02
-8.200330138206481934e-01 1.358209177851676941e-02 7.938128709793090820e-02
-6.889578104019165039e-01 5.536269769072532654e-02 -7.300005853176116943e-02
-7.303593754768371582e-01 3.876292705535888672e-02 -9.701240062713623047e-02
-7.363684177398681641e-01 1.755190268158912659e-02 -4.755438491702079773e-02
-7.826177477836608887e-01 5.416408181190490723e-03 -6.267466396093368530e-02
-6.608742475509643555e-01 7.806161791086196899e-02 4.072716832160949707e-02
-7.875741720199584961e-01 1.249752938747406006e-02 7.712504267692565918e-02
-7.023866176605224609e-01 3.220907598733901978e-02 3.545708954334259033e-03
-6.882787942886352539e-01 4.242987185716629028e-02 -1.538026891648769379e-02
-7.105383276939392090e-01 2.865296974778175354e-02 -3.130740672349929810e-02
-6.641274690628051758e-01 1.355288922786712646e-01 -6.168127432465553284e-02
-7.730381488800048828e-01 7.301826775074005127e-02 1.167358309030532837e-01
-7.328127026557922363e-01 9.679624438285827637e-02 -1.276166141033172607e-01
-7.328666448593139648e-01 1.509696617722511292e-02 -1.460747793316841125e-02
-8.130153417587280273e-01 8.112460374832153320e-02 9.050589799880981445e-02
-8.423058986663818359e-01 4.956468939781188965e-02 -9.423869848251342773e-02
-7.674318552017211914e-01 1.355194449424743652e-01 -3.288169577717781067e-02
-7.836563587188720703e-01 9.725835174322128296e-03 -7.601374387741088867e-02
-6.700358390808105469e-01 1.344294846057891846e-01 4.917527362704277039e-02
-7.081382870674133301e-01 1.487847864627838135e-01 1.900383085012435913e-02
-8.489085435867309570e-01 1.851732656359672546e-02 6.674094498157501221e-02
-7.240354418754577637e-01 1.980774849653244019e-02 -1.922153308987617493e-02
-7.444532513618469238e-01 9.676404297351837158e-03 -8.854713290929794312e-03
-7.344620823860168457e-01 5.899632349610328674e-02 -1.224977076053619385e-01
-6.867569684982299805e-01 5.243530869483947754e-02 -6.108124926686286926e-02
-7.729035019874572754e-01 1.295361220836639404e-01 -5.698893591761589050e-02
-7.253568768501281738e-01 1.061963215470314026e-01 1.037696003913879395e-01
-6.612898707389831543e-01 1.025582998991012573e-01 6.255055963993072510e-02
-8.153986930847167969e-01 8.711426705121994019e-02 -9.750021994113922119e-02
-6.683223843574523926e-01 1.224728673696517944e-01 -8.348150551319122314e-02
-8.195870518684387207e-01 5.616992712020874023e-05 5.084631964564323425e-02
-8.421834707260131836e-01 6.120894849300384521e-02 7.532915472984313965e-02
-7.425394654273986816e-01 1.433941125869750977e-01 1.395991444587707520e-02
-8.611109256744384766e-01 2.526089549064636230e-03 -1.729023456573486328e-02
-8.553625941276550293e-01 2.899639308452606201e-02 -7.575197517871856689e-02
-8.008298277854919434e-01 7.688271999359130859e-02 1.037743836641311646e-01
-7.789819240570068359e-01 1.566372811794281006e-02 8.012917637825012207e-02
-8.202525973320007324e-01 3.993145376443862915e-02 -1.110023856163024902e-01
-6.442250013351440430e-01 1.139132678508758545e-01 -4.192844405770301819e-02
-7.334710359573364258e-01 7.403015345335006714e-02 -1.291861385107040405e-01
-8.039355278015136719e-01 9.308027476072311401e-02 -1.023734211921691895e-01
-7.158938646316528320e-01 7.556218653917312622e-02 1.078781485557556152e-01
-7.524640560150146484e-01 1.396021395921707153e-01 2.078719995915889740e-02
-8.491176962852478027e-01 8.274924755096435547e-02 -2.795631624758243561e-02
-7.158103585243225098e-01 2.708597853779792786e-02 -4.141949862241744995e-02
-7.886497974395751953e-01 1.237773299217224121e-01 2.724449336528778076e-02
-7.656561136245727539e-01 1.259818375110626221e-01 -7.981030642986297607e-02
-8.518624305725097656e-01 6.870107352733612061e-02 -6.266973167657852173e-02
-8.272179961204528809e-01 3.981801494956016541e-02 9.591032564640045166e-02
-7.668431997299194336e-01 1.599602401256561279e-03 -1.246790587902069092e-02
-8.108732104301452637e-01 2.895973622798919678e-03 5.951659008860588074e-02
-7.081289291381835938e-01 5.357701331377029419e-02 8.592507243156433105e-02
-7.886397242546081543e-01 3.617291525006294250e-02 -1.171571016311645508e-01
-7.860779762268066406e-01 1.251621246337890625e-01 -4.807988181710243225e-02
-7.351576089859008789e-01 1.881747692823410034e-02 4.347293823957443237e-02
-8.297274112701416016e-01 9.914514422416687012e-02 -3.727237507700920105e-02
-6.403472423553466797e-01 1.176971048116683960e-01 -1.130339223891496658e-02
-7.569805383682250977e-01 1.300827786326408386e-02 5.671297386288642883e-02
-6.756243109703063965e-01 5.276454612612724304e-02 -5.455242935568094254e-03
-7.444700598716735840e-01 7.572026550769805908e-02 1.172008365392684937e-01
-6.617689728736877441e-01 7.220450788736343384e-02 -4.289631918072700500e-02
-8.726704120635986328e-01 1.895555481314659119e-02 2.101506292819976807e-02
-8.229570984840393066e-01 1.032151281833648682e-01 2.509701624512672424e-02
-7.165710330009460449e-01 1.428244113922119141e-01 -6.637080013751983643e-02
-7.992486953735351562e-01 5.465110391378402710e-02 -1.240922510623931885e-01
-7.108005285263061523e-01 4.797490686178207397e-02 -9.190334379673004150e-02
-8.736681938171386719e-01 3.707863017916679382e-02 -3.465048968791961670e-02
-8.108586668968200684e-01 1.011527031660079956e-01 6.116579100489616394e-02
-8.651490807533264160e-01 6.298017501831054688e-02 9.922135621309280396e-03
-7.643215656280517578e-01 1.298009753227233887e-01 4.793713614344596863e-02
-7.890129089355468750e-01 1.261418163776397705e-01 7.265179418027400970e-03
-8.705503344535827637e-01 5.404294654726982117e-02 6.579360924661159515e-03
-8.139712810516357422e-01 -2.416647970676422119e-03 4.216620698571205139e-02
-7.083393931388854980e-01 8.283770829439163208e-02 -1.205632537603378296e-01
-6.555370092391967773e-01 1.162349879741668701e-01 -6.962563097476959229e-02
-7.098606228828430176e-01 1.509229242801666260e-01 -8.828393183648586273e-03
-7.384784221649169922e-01 1.148297935724258423e-01 -1.143057048320770264e-01
-6.770001053810119629e-01 1.490438878536224365e-01 -2.821904234588146210e-02
-7.538935542106628418e-01 1.023560464382171631e-01 1.044683009386062622e-01
-6.681252121925354004e-01 6.023215502500534058e-02 1.836773008108139038e-03
-8.077414035797119141e-01 6.263527274131774902e-02 -1.201599389314651489e-01
-7.752220630645751953e-01 1.077757775783538818e-01 -1.070870757102966309e-01
-7.693474888801574707e-01 1.156097650527954102e-01 -9.909746050834655762e-02
-7.653827667236328125e-01 1.363582313060760498e-01 9.803052991628646851e-03
-7.666700482368469238e-01 2.700261771678924561e-03 -2.676942758262157440e-02
-7.054483890533447266e-01 1.289145052433013916e-01 -9.759241342544555664e-02
-6.568301916122436523e-01 1.416190564632415771e-01 3.285436891019344330e-03
-7.254559993743896484e-01 2.814365923404693604e-02 5.878752842545509338e-02
-6.536988019943237305e-01 1.276001632213592529e-01 3.667097166180610657e-02
-7.109088301658630371e-01 5.881997197866439819e-02 9.448561072349548340e-02
-8.616483807563781738e-01 3.581424057483673096e-02 5.698499456048011780e-02
-8.406550884246826172e-01 -5.545988678932189941e-03 8.885262534022331238e-03
-7.875325679779052734e-01 -1.714825630187988281e-04 3.825628384947776794e-02
-7.991802692413330078e-01 1.156679987907409668e-01 -5.937105789780616760e-02
-8.473612070083618164e-01 7.790169864892959595e-02 -5.521501228213310242e-02
-7.525011301040649414e-01 8.838929235935211182e-03 3.036201000213623047e-02
-8.451712727546691895e-01 2.983210608363151550e-02 7.824352383613586426e-02
-7.968214154243469238e-01 9.522996842861175537e-03 -8.023238182067871094e-02
-8.467533588409423828e-01 -5.878880620002746582e-04 -3.710089251399040222e-02
-7.917522192001342773e-01 8.148519694805145264e-02 1.060350686311721802e-01
-8.180581331253051758e-01 1.063409894704818726e-01 -4.642708227038383484e-02
-7.342255115509033203e-01 1.268920153379440308e-01 -9.851954877376556396e-02
-7.592145800590515137e-01 1.020623743534088135e-02 -5.600783228874206543e-02
-7.429984211921691895e-01 3.574236109852790833e-02 -1.023534983396530151e-01
-7.738022804260253906e-01 1.334146261215209961e-01 4.092277958989143372e-03
-6.909028291702270508e-01 7.713990658521652222e-02 8.979471027851104736e-02
-7.141036987304687500e-01 3.438343480229377747e-02 -6.637077033519744873e-02
-7.906663417816162109e-01 4.105214774608612061e-02 1.098984181880950928e-01
-8.186898827552795410e-01 1.630747318267822266e-02 -9.134644269943237305e-02
-7.844312787055969238e-01 -1.757688820362091064e-03 2.401056326925754547e-02
-8.594371080398559570e-01 6.958473473787307739e-02 -3.296055272221565247e-02
-6.694390773773193359e-01 6.383086740970611572e-02 -4.473872855305671692e-02
-7.429410815238952637e-01 1.202462613582611084e-01 -1.062057018280029297e-01
-7.780997753143310547e-01 1.180813759565353394e-01 6.546911597251892090e-02
-6.804749369621276855e-01 5.307022482156753540e-02 3.348520770668983459e-02
-8.040595054626464844e-01 4.874140024185180664e-02 1.092660278081893921e-01
-6.830611228942871094e-01 1.229350715875625610e-01 7.538339495658874512e-02
-7.470170855522155762e-01 9.502337872982025146e-02 -1.284712553024291992e-01
-8.299467563629150391e-01 -6.940543651580810547e-03 1.011449843645095825e-02
-8.127588033676147461e-01 -7.016323506832122803e-03 1.123649254441261292e-02
-7.660267353057861328e-01 1.441730931401252747e-02 6.964947283267974854e-02
-8.283479213714599609e-01 1.013893634080886841e-01 9.636141359806060791e-03
-8.715468645095825195e-01 1.321317255496978760e-02 1.209085807204246521e-02
-7.180306315422058105e-01 1.335639953613281250e-01 6.803280115127563477e-02
-8.692753314971923828e-01 4.501802101731300354e-02 -4.567133635282516479e-02
-7.214626669883728027e-01 2.077402174472808838e-02 4.040519706904888153e-03
-7.354467511177062988e-01 2.136252820491790771e-02 -6.153568252921104431e-02
-7.049046754837036133e-01 1.015670150518417358e-01 -1.189067512750625610e-01
-8.671491742134094238e-01 2.883313968777656555e-02 4.507427662611007690e-02
-6.833438277244567871e-01 1.458103954792022705e-01 2.985676378011703491e-02
-8.739561438560485840e-01 1.549402251839637756e-02 -8.216654881834983826e-03
-7.435132861137390137e-01 1.004531607031822205e-02 1.210645772516727448e-03
-6.547195911407470703e-01 7.868307828903198242e-02 -3.145629912614822388e-02
-8.154519200325012207e-01 1.106470078229904175e-01 9.247155860066413879e-03
-6.537734866142272949e-01 1.325044780969619751e-01 2.822544053196907043e-02
-7.727945446968078613e-01 2.572012692689895630e-02 9.419073164463043213e-02
-6.485719084739685059e-01 1.349894702434539795e-01 -2.274736389517784119e-02
-6.972919702529907227e-01 3.931679576635360718e-02 3.339985013008117676e-02
-6.711293458938598633e-01 6.573358178138732910e-02 -5.608185008168220520e-02
-6.466665267944335938e-01 1.192288249731063843e-01 2.877542376518249512e-02
-7.692261934280395508e-01 6.213430315256118774e-02 1.178779602050781250e-01
-7.717638015747070312e-01 1.152786165475845337e-01 7.771433889865875244e-02
-6.780456900596618652e-01 8.306204527616500854e-02 -9.380011260509490967e-02
-6.866965293884277344e-01 1.057139933109283447e-01 8.946603536605834961e-02
-6.772129535675048828e-01 5.373182147741317749e-02 -3.376049548387527466e-02
-7.834429740905761719e-01 1.295377314090728760e-01 -1.598634012043476105e-02
-6.983796954154968262e-01 1.112381368875503540e-01 9.331965446472167969e-02
-7.819060087203979492e-01 2.373028174042701721e-02 -1.025049686431884766e-01
-7.828006744384765625e-01 1.200296282768249512e-01 5.405689030885696411e-02
-7.697454094886779785e-01 3.491350635886192322e-02 1.040011793375015259e-01
-8.579704165458679199e-01 -1.221522688865661621e-04 -3.889298997819423676e-03
-7.645565867424011230e-01 2.147741615772247314e-03 6.818054243922233582e-04
-7.355319857597351074e-01 1.227613836526870728e-01 8.410626649856567383e-02
-8.761307597160339355e-01 3.014041483402252197e-02 -2.280965819954872131e-02
-7.838140130043029785e-01 6.996050477027893066e-02 -1.291879415512084961e-01
-8.511854410171508789e-01 3.752969950437545776e-02 7.308833301067352295e-02
-7.734735012054443359e-01 1.073695719242095947e-02 -7.242859899997711182e-02
-7.325702905654907227e-01 1.208558753132820129e-01 -1.081080883741378784e-01
-8.623057007789611816e-01 9.552791714668273926e-03 3.416998684406280518e-02
-7.304276227951049805e-01 2.715200558304786682e-02 -7.202409207820892334e-02
-7.881466746330261230e-01 1.093008071184158325e-01 -9.332479536533355713e-02
-6.819395422935485840e-01 1.480829715728759766e-01 -4.151711612939834595e-02
-8.109077215194702148e-01 2.032365649938583374e-02 9.028999507427215576e-02
-7.346782684326171875e-01 4.598277807235717773e-02 9.970027208328247070e-02
-7.898520827293395996e-01 1.264023780822753906e-01 -6.247173063457012177e-03
-8.304808139801025391e-01 6.261688470840454102e-02 8.854264020919799805e-02
-6.436428427696228027e-01 9.786261618137359619e-02 -2.233323454856872559e-02
-6.990414261817932129e-01 4.286540299654006958e-02 -6.148119643330574036e-02
-6.486907601356506348e-01 8.532444387674331665e-02 -7.856988348066806793e-03
-7.597590684890747070e-01 1.025137081742286682e-01 -1.208357214927673340e-01
-6.620907783508300781e-01 9.655516594648361206e-02 -7.898227870464324951e-02
-6.932976841926574707e-01 1.447037160396575928e-01 -6.142557412385940552e-02
-4.509100317955017090e-02 7.900156080722808838e-03 -2.688569724559783936e-01
1.689781099557876587e-01 -1.183194741606712341e-01 -3.510342240333557129e-01
7.346735149621963501e-02 -8.355204761028289795e-02 -4.485096335411071777e-01
3.717856109142303467e-02 -1.167753562331199646e-01 -2.330019474029541016e-01
7.928386330604553223e-03 -5.343434587121009827e-02 -5.195695161819458008e-02
1.685712039470672607e-01 -1.256011128425598145e-01 6.304152309894561768e-02
2.329876422882080078e-01 -9.275704622268676758e-03 -1.441142857074737549e-01
2.423573136329650879e-01 -4.268638044595718384e-02 3.424187004566192627e-02
-1.710082590579986572e-02 1.133812218904495239e-02 -2.326151579618453979e-01
2.251487970352172852e-01 -1.015374585986137390e-01 1.181628555059432983e-01
1.595928966999053955e-01 -1.081224307417869568e-01 8.531279861927032471e-02
2.431063950061798096e-01 -1.427438855171203613e-01 -2.199345827102661133e-01
2.875888347625732422e-01 -1.521475613117218018e-01 -1.021891757845878601e-01
-3.665453195571899414e-02 1.202517002820968628e-02 -4.188275039196014404e-01
