-2.816980779170989990e-01 -6.299628019332885742e-01 2.496410012245178223e-01
-3.046205639839172363e-01 -6.600711345672607422e-01 2.457540631294250488e-01
-3.502474427223205566e-01 -6.631028652191162109e-01 2.611955106258392334e-01
-2.846509814262390137e-01 -6.685394048690795898e-01 2.816235423088073730e-01
-2.848282754421234131e-01 -5.703707337379455566e-01 2.431776523590087891e-01
-2.798988819122314453e-01 -6.345698833465576172e-01 3.029806017875671387e-01
-3.465040624141693115e-01 -6.214954853057861328e-01 2.644086182117462158e-01
-3.465478718280792236e-01 -6.316655278205871582e-01 2.789097726345062256e-01
-3.174008727073669434e-01 -5.948767066001892090e-01 2.365404367446899414e-01
-3.342445790767669678e-01 -6.310034990310668945e-01 2.401565760374069214e-01
-3.079473674297332764e-01 -6.792442798614501953e-01 2.550037503242492676e-01
-2.931700646877288818e-01 -6.337122321128845215e-01 3.096426725387573242e-01
-3.382419943809509277e-01 -6.588584184646606445e-01 2.454183250665664673e-01
-2.638953328132629395e-01 -6.081841588020324707e-01 2.837894856929779053e-01
-2.620364725589752197e-01 -5.904371738433837891e-01 2.794990539550781250e-01
-2.758399546146392822e-01 -6.176908612251281738e-01 3.021592199802398682e-01
-3.322023749351501465e-01 -6.836648583412170410e-01 2.975782752037048340e-01
-2.771492302417755127e-01 -5.981807708740234375e-01 2.463881671428680420e-01
-2.633959054946899414e-01 -5.903666019439697266e-01 2.854919135570526123e-01
-2.773314416408538818e-01 -5.506416559219360352e-01 2.577473521232604980e-01
-2.967565059661865234e-01 -5.706933140754699707e-01 2.400189936161041260e-01
-3.463258743286132812e-01 -6.240475177764892578e-01 2.581857442855834961e-01
-3.380699157714843750e-01 -6.098060607910156250e-01 2.476749867200851440e-01
-2.691656053066253662e-01 -6.159372329711914062e-01 2.608825564384460449e-01
-3.064541816711425781e-01 -6.363084316253662109e-01 2.374051511287689209e-01
-3.296925127506256104e-01 -6.386030316352844238e-01 2.383919656276702881e-01
-3.025133609771728516e-01 -5.637195706367492676e-01 2.884418070316314697e-01
-2.622517347335815430e-01 -5.791696906089782715e-01 2.732911705970764160e-01
-3.192442655563354492e-01 -5.819099545478820801e-01 2.889512181282043457e-01
-3.346131742000579834e-01 -6.147289872169494629e-01 2.909991443157196045e-01
-2.901997864246368408e-01 -6.723222136497497559e-01 2.938882112503051758e-01
-3.495419621467590332e-01 -6.388036012649536133e-01 2.728675007820129395e-01
-3.276165127754211426e-01 -5.776489377021789551e-01 2.695647180080413818e-01
-3.177613317966461182e-01 -5.948792695999145508e-01 2.974503934383392334e-01
-3.377793431282043457e-01 -6.982338428497314453e-01 2.705710828304290771e-01
-3.084482550621032715e-01 -6.650567054748535156e-01 2.463717907667160034e-01
-3.087059855461120605e-01 -5.894385576248168945e-01 3.001383244991302490e-01
-2.732038497924804688e-01 -6.280631422996520996e-01 2.597180008888244629e-01
-2.959134578704833984e-01 -5.592442750930786133e-01 2.879483103752136230e-01
-3.019372224807739258e-01 -6.167543530464172363e-01 2.354399114847183228e-01
-2.794295847415924072e-01 -5.732827782630920410e-01 2.455419600009918213e-01
-2.784776687622070312e-01 -6.552661061286926270e-01 2.737421691417694092e-01
-3.372852206230163574e-01 -6.718387007713317871e-01 2.489460408687591553e-01
-3.150847554206848145e-01 -6.785464286804199219e-01 2.511636614799499512e-01
-3.118301331996917725e-01 -6.936045289039611816e-01 2.934210598468780518e-01
-2.893374264240264893e-01 -5.447871685028076172e-01 2.604209184646606445e-01
-3.455173969268798828e-01 -6.306053996086120605e-01 2.523567676544189453e-01
-2.902406752109527588e-01 -5.495544075965881348e-01 2.525295615196228027e-01
-3.188790082931518555e-01 -5.883458852767944336e-01 2.933269739151000977e-01
-2.828188240528106689e-01 -6.567310690879821777e-01 2.642163932323455811e-01
-3.152525424957275391e-01 -6.407064795494079590e-01 2.369135469198226929e-01
-3.494917154312133789e-01 -6.772589683532714844e-01 2.678229510784149170e-01
-3.309073150157928467e-01 -6.597090363502502441e-01 3.025972843170166016e-01
-3.440725803375244141e-01 -6.922066211700439453e-01 2.731715738773345947e-01
-2.812128961086273193e-01 -6.494802236557006836e-01 2.606720924377441406e-01
-2.713800370693206787e-01 -5.933823585510253906e-01 2.518455088138580322e-01
-3.071914911270141602e-01 -6.734125614166259766e-01 2.514954507350921631e-01
-3.099828660488128662e-01 -6.961753368377685547e-01 2.872566878795623779e-01
-3.191878199577331543e-01 -6.629278659820556641e-01 2.428013980388641357e-01
-2.969250679016113281e-01 -6.851323843002319336e-01 2.771082520484924316e-01
-2.814001142978668213e-01 -5.924171209335327148e-01 3.030605018138885498e-01
-2.645668387413024902e-01 -5.719569921493530273e-01 2.649295032024383545e-01
-3.438929319381713867e-01 -6.169692873954772949e-01 2.556494474411010742e-01
-3.247155845165252686e-01 -5.720244050025939941e-01 2.623055279254913330e-01
-3.123822808265686035e-01 -6.521751880645751953e-01 2.402081340551376343e-01
-2.666483819484710693e-01 -6.215032339096069336e-01 2.719036340713500977e-01
-3.416105508804321289e-01 -6.754933595657348633e-01 2.531962692737579346e-01
-3.122591078281402588e-01 -6.049476265907287598e-01 3.041204214096069336e-01
-2.809375822544097900e-01 -6.595368981361389160e-01 2.724955081939697266e-01
-2.888373732566833496e-01 -6.733406186103820801e-01 2.892905771732330322e-01
-3.513237535953521729e-01 -6.534367203712463379e-01 2.651900053024291992e-01
-3.456382453441619873e-01 -6.610472798347473145e-01 2.521582245826721191e-01
-2.881383299827575684e-01 -5.893808603286743164e-01 2.391437292098999023e-01
-3.110588192939758301e-01 -6.061303019523620605e-01 2.341512143611907959e-01
-3.234779238700866699e-01 -5.754346847534179688e-01 2.503367662429809570e-01
-3.395233154296875000e-01 -6.290058493614196777e-01 2.905836403369903564e-01
-2.855598926544189453e-01 -6.070315241813659668e-01 3.067649006843566895e-01
-3.059217929840087891e-01 -5.533620119094848633e-01 2.728521227836608887e-01
-2.852816283702850342e-01 -6.651791930198669434e-01 2.689954340457916260e-01
-3.511470258235931396e-01 -6.481326222419738770e-01 2.683865725994110107e-01
-2.899150252342224121e-01 -6.007958650588989258e-01 2.383763790130615234e-01
-3.478799462318420410e-01 -6.840577125549316406e-01 2.734139859676361084e-01
-3.298816680908203125e-01 -5.965447425842285156e-01 2.436057627201080322e-01
-3.371239602565765381e-01 -5.975861549377441406e-01 2.550262510776519775e-01
-2.789274752140045166e-01 -6.010291576385498047e-01 3.035758137702941895e-01
-3.327120840549468994e-01 -6.295893192291259766e-01 2.980806827545166016e-01
-2.659190297126770020e-01 -6.188071370124816895e-01 2.851503789424896240e-01
-2.619561254978179932e-01 -5.941163897514343262e-01 2.764958739280700684e-01
-3.477486968040466309e-01 -6.498913168907165527e-01 2.538109421730041504e-01
-3.176426887512207031e-01 -6.360942721366882324e-01 2.360406965017318726e-01
-3.078813254833221436e-01 -6.832727193832397461e-01 2.582858502864837646e-01
-2.985410094261169434e-01 -6.728832125663757324e-01 3.019429147243499756e-01
-3.095166981220245361e-01 -6.090617775917053223e-01 3.062400221824645996e-01
-3.373062312602996826e-01 -6.342840194702148438e-01 2.948121726512908936e-01
-2.913334071636199951e-01 -6.562741398811340332e-01 3.049409985542297363e-01
-2.765926122665405273e-01 -6.336076855659484863e-01 2.573862671852111816e-01
-2.811797559261322021e-01 -6.532626748085021973e-01 2.966166734695434570e-01
-3.106150925159454346e-01 -5.837653279304504395e-01 2.965561151504516602e-01
-2.930830419063568115e-01 -5.885064005851745605e-01 3.035597503185272217e-01
-3.085026741027832031e-01 -5.545338392257690430e-01 2.571823894977569580e-01
-2.840911746025085449e-01 -5.666218996047973633e-01 2.941919267177581787e-01
-2.849879264831542969e-01 -6.188785433769226074e-01 3.073870837688446045e-01
-3.099201023578643799e-01 -5.556462407112121582e-01 2.699000239372253418e-01
-3.303774297237396240e-01 -6.411633491516113281e-01 3.020594418048858643e-01
-3.238718807697296143e-01 -5.711727142333984375e-01 2.669349908828735352e-01
-3.114645183086395264e-01 -6.578171849250793457e-01 3.090439140796661377e-01
-3.416614234447479248e-01 -6.088883280754089355e-01 2.730884850025177002e-01
-3.054532110691070557e-01 -6.535999774932861328e-01 2.427476197481155396e-01
-2.671137452125549316e-01 -5.871794223785400391e-01 2.920086681842803955e-01
-3.344569504261016846e-01 -6.538271903991699219e-01 3.001743257045745850e-01
-2.789295315742492676e-01 -6.391735076904296875e-01 2.571723461151123047e-01
-2.679870724678039551e-01 -5.778868198394775391e-01 2.904828190803527832e-01
-2.978866398334503174e-01 -5.890187621116638184e-01 3.032355904579162598e-01
-3.038406670093536377e-01 -5.555100440979003906e-01 2.791624665260314941e-01
-3.168258070945739746e-01 -5.647940635681152344e-01 2.743033766746520996e-01
-3.062281906604766846e-01 -6.477789282798767090e-01 3.102537393569946289e-01
-2.760594487190246582e-01 -5.585137605667114258e-01 2.529337704181671143e-01
-3.247496485710144043e-01 -5.929313302040100098e-01 2.905521094799041748e-01
-3.344317674636840820e-01 -6.976753473281860352e-01 2.661846578121185303e-01
-3.232616484165191650e-01 -5.751353502273559570e-01 2.771833240985870361e-01
-2.820846438407897949e-01 -5.840981006622314453e-01 2.425461858510971069e-01
-2.704745829105377197e-01 -6.218053698539733887e-01 2.612817585468292236e-01
-3.492956161499023438e-01 -6.348075866699218750e-01 2.636046707630157471e-01
-3.319532573223114014e-01 -6.254618763923645020e-01 2.389990687370300293e-01
-2.784019410610198975e-01 -6.525552272796630859e-01 2.694998383522033691e-01
-2.934789955615997314e-01 -5.870780348777770996e-01 2.373981326818466187e-01
-3.476462662220001221e-01 -6.682639122009277344e-01 2.845137715339660645e-01
-3.144482970237731934e-01 -5.749094486236572266e-01 2.420751452445983887e-01
-3.248983025550842285e-01 -6.140256524085998535e-01 2.998299300670623779e-01
-2.961031794548034668e-01 -6.310049891471862793e-01 2.398995310068130493e-01
-3.163664042949676514e-01 -6.591731905937194824e-01 3.082370758056640625e-01
-3.442398309707641602e-01 -6.910613179206848145e-01 2.785416543483734131e-01
-2.846184968948364258e-01 -6.004453301429748535e-01 3.055649697780609131e-01
-3.387435078620910645e-01 -6.236532926559448242e-01 2.443368732929229736e-01
-3.183338642120361328e-01 -6.278944015502929688e-01 2.351047694683074951e-01
-3.217827975749969482e-01 -6.466157436370849609e-01 2.380830794572830200e-01
-3.509662449359893799e-01 -6.661188602447509766e-01 2.654358446598052979e-01
-2.866989374160766602e-01 -6.465237736701965332e-01 3.050470948219299316e-01
-2.697248458862304688e-01 -5.561836361885070801e-01 2.638181447982788086e-01
-3.285183310508728027e-01 -5.808376669883728027e-01 2.538260817527770996e-01
-3.296761214733123779e-01 -6.061274409294128418e-01 2.925402522087097168e-01
-3.332079052925109863e-01 -6.680319309234619141e-01 2.459141165018081665e-01
-3.184344768524169922e-01 -5.822340846061706543e-01 2.408898919820785522e-01
-2.965666353702545166e-01 -6.583727598190307617e-01 3.068443834781646729e-01
-3.351298868656158447e-01 -5.933205485343933105e-01 2.733092308044433594e-01
-3.051012456417083740e-01 -6.786304116249084473e-01 3.020754158496856689e-01
-2.651367187500000000e-01 -6.177316308021545410e-01 2.767554521560668945e-01
-2.993156611919403076e-01 -5.830082297325134277e-01 3.006827831268310547e-01
-3.117166757583618164e-01 -5.716937184333801270e-01 2.882522642612457275e-01
-3.285301327705383301e-01 -5.910944342613220215e-01 2.846708893775939941e-01
-3.419359028339385986e-01 -6.255407333374023438e-01 2.855117619037628174e-01
-2.910539507865905762e-01 -6.054277420043945312e-01 3.075590729713439941e-01
-2.911159992218017578e-01 -6.465060114860534668e-01 2.481133043766021729e-01
-2.845822572708129883e-01 -5.442689061164855957e-01 2.698115706443786621e-01
-3.042143583297729492e-01 -5.958832502365112305e-01 2.348327040672302246e-01
-2.629745304584503174e-01 -5.861584544181823730e-01 2.670818865299224854e-01
-3.410433530807495117e-01 -6.789830327033996582e-01 2.919375300407409668e-01
-3.418856263160705566e-01 -6.148227453231811523e-01 2.519030570983886719e-01
-3.411835730075836182e-01 -6.476820111274719238e-01 2.931925058364868164e-01
-3.316533267498016357e-01 -6.358245611190795898e-01 3.003013730049133301e-01
-3.511093258857727051e-01 -6.643217206001281738e-01 2.741491794586181641e-01
-2.834500074386596680e-01 -5.560060739517211914e-01 2.870230078697204590e-01
-3.507616817951202393e-01 -6.484746932983398438e-01 2.626941204071044922e-01
-2.869775891304016113e-01 -6.270398497581481934e-01 3.080400824546813965e-01
-3.265644907951354980e-01 -7.023604512214660645e-01 2.734087109565734863e-01
-2.756138741970062256e-01 -6.479879021644592285e-01 2.718905806541442871e-01
-3.141901493072509766e-01 -6.413640379905700684e-01 3.093594908714294434e-01
-3.212196826934814453e-01 -6.886162161827087402e-01 2.990612387657165527e-01
-3.217819333076477051e-01 -6.748647689819335938e-01 3.042996525764465332e-01
-2.839912176132202148e-01 -5.459790825843811035e-01 2.748740911483764648e-01
-3.340824246406555176e-01 -6.821807026863098145e-01 2.526211738586425781e-01
-3.079948723316192627e-01 -5.879828333854675293e-01 2.359289675951004028e-01
-2.646145522594451904e-01 -6.064969301223754883e-01 2.675386071205139160e-01
-2.888891100883483887e-01 -6.501467823982238770e-01 2.517819106578826904e-01
-3.387715816497802734e-01 -6.745000481605529785e-01 2.952882051467895508e-01
-2.985153198242187500e-01 -6.797831058502197266e-01 2.639914155006408691e-01
-3.340510725975036621e-01 -5.955532193183898926e-01 2.497530877590179443e-01
-2.981387972831726074e-01 -5.716958045959472656e-01 2.955691814422607422e-01
-3.133916556835174561e-01 -5.889537930488586426e-01 2.974939644336700439e-01
-3.193301856517791748e-01 -6.193267107009887695e-01 3.046499788761138916e-01
-2.911262512207031250e-01 -6.706201434135437012e-01 2.644037008285522461e-01
-2.728370726108551025e-01 -5.781890749931335449e-01 2.503245174884796143e-01
-3.234377801418304443e-01 -5.965965390205383301e-01 2.938520610332489014e-01
-2.817879319190979004e-01 -6.599211096763610840e-01 2.915376722812652588e-01
-3.330000042915344238e-01 -6.948762536048889160e-01 2.620623409748077393e-01
-3.380314707756042480e-01 -5.974876880645751953e-01 2.686254978179931641e-01
-2.811310291290283203e-01 -6.620102524757385254e-01 2.842397391796112061e-01
-2.992245554924011230e-01 -6.878947019577026367e-01 2.844611108303070068e-01
-2.841550111770629883e-01 -6.668188571929931641e-01 2.759957015514373779e-01
-3.413147628307342529e-01 -6.844924092292785645e-01 2.895771563053131104e-01
-3.158839344978332520e-01 -6.843014955520629883e-01 3.014844059944152832e-01
-3.116294145584106445e-01 -6.753682494163513184e-01 2.505459785461425781e-01
-2.697619795799255371e-01 -5.710678100585937500e-01 2.551332414150238037e-01
-3.084897100925445557e-01 -5.936511158943176270e-01 2.350650131702423096e-01
-3.068484663963317871e-01 -5.602812767028808594e-01 2.820588350296020508e-01
-2.926663160324096680e-01 -6.753106117248535156e-01 2.675247788429260254e-01
-3.299293816089630127e-01 -5.809952020645141602e-01 2.588297128677368164e-01
-2.829190492630004883e-01 -6.094253659248352051e-01 2.432782948017120361e-01
-3.423514962196350098e-01 -6.819091439247131348e-01 2.573083341121673584e-01
-3.045836985111236572e-01 -6.445727348327636719e-01 2.400693446397781372e-01
-3.288973569869995117e-01 -7.024475336074829102e-01 2.822241187095642090e-01
-3.113837540149688721e-01 -6.196425557136535645e-01 2.343486249446868896e-01
-2.747230529785156250e-01 -5.579709410667419434e-01 2.853003740310668945e-01
-2.955690920352935791e-01 -6.840035319328308105e-01 2.829185724258422852e-01
-2.780335843563079834e-01 -5.538865923881530762e-01 2.541572749614715576e-01
-3.397022783756256104e-01 -6.485652327537536621e-01 2.445865273475646973e-01
-3.110319077968597412e-01 -5.766603350639343262e-01 2.922511696815490723e-01
-2.707364857196807861e-01 -5.539810657501220703e-01 2.757202386856079102e-01
-3.331192135810852051e-01 -5.975754261016845703e-01 2.826406657695770264e-01
-3.051728010177612305e-01 -5.754206180572509766e-01 2.387907058000564575e-01
-2.969394922256469727e-01 -6.503995060920715332e-01 2.457377612590789795e-01
-2.649708986282348633e-01 -6.139487624168395996e-01 2.717020213603973389e-01
-2.996245026588439941e-01 -5.742707252502441406e-01 2.388031184673309326e-01
-3.297289609909057617e-01 -6.241316795349121094e-01 2.991586029529571533e-01
-3.047980368137359619e-01 -6.424175500869750977e-01 3.105529844760894775e-01
-3.439694046974182129e-01 -6.667716503143310547e-01 2.906155586242675781e-01
-3.350800871849060059e-01 -7.009332776069641113e-01 2.786011695861816406e-01
-3.131225109100341797e-01 -5.606493353843688965e-01 2.531870007514953613e-01
-2.902137339115142822e-01 -6.276124119758605957e-01 2.422418594360351562e-01
-2.903807163238525391e-01 -5.974885821342468262e-01 3.059482276439666748e-01
-2.726569473743438721e-01 -5.976260900497436523e-01 2.992529273033142090e-01
-2.766649127006530762e-01 -6.526640057563781738e-01 2.847181856632232666e-01
-3.337168097496032715e-01 -6.629173755645751953e-01 2.444150000810623169e-01
-2.982846498489379883e-01 -6.203643083572387695e-01 2.369551956653594971e-01
-3.119299113750457764e-01 -5.817590355873107910e-01 2.382373213768005371e-01
-2.825323939323425293e-01 -5.449161529541015625e-01 2.626587450504302979e-01
-2.839261591434478760e-01 -5.601545572280883789e-01 2.470318824052810669e-01
-3.435929715633392334e-01 -6.117558479309082031e-01 2.623130083084106445e-01
-3.176104426383972168e-01 -6.494104266166687012e-01 2.387345135211944580e-01
-3.506903052330017090e-01 -6.510852575302124023e-01 2.747834324836730957e-01
-3.358988165855407715e-01 -6.646106243133544922e-01 2.989371120929718018e-01
-2.722655236721038818e-01 -5.519652366638183594e-01 2.640727162361145020e-01
-2.755315005779266357e-01 -5.738218426704406738e-01 2.483994513750076294e-01
-2.669409215450286865e-01 -6.249983310699462891e-01 2.760244607925415039e-01
-2.699386179447174072e-01 -6.347072124481201172e-01 2.750874459743499756e-01
-3.290040194988250732e-01 -6.807573437690734863e-01 3.001897633075714111e-01
-3.035105466842651367e-01 -5.655316114425659180e-01 2.426067143678665161e-01
-2.977243065834045410e-01 -5.469498038291931152e-01 2.693472802639007568e-01
-3.200478851795196533e-01 -6.945428252220153809e-01 2.949439585208892822e-01
-3.249313831329345703e-01 -5.805030465126037598e-01 2.476582527160644531e-01
-2.770109772682189941e-01 -5.640287995338439941e-01 2.497156411409378052e-01
-3.321677446365356445e-01 -6.177523136138916016e-01 2.397858202457427979e-01
-2.957709729671478271e-01 -6.363564133644104004e-01 2.414824813604354858e-01
-3.321607410907745361e-01 -5.845546722412109375e-01 2.654475867748260498e-01
-3.409312665462493896e-01 -6.402794122695922852e-01 2.920784056186676025e-01
-3.152816891670227051e-01 -6.979415416717529297e-01 2.703656256198883057e-01
-3.281188607215881348e-01 -6.142671108245849609e-01 2.378628253936767578e-01
-2.669256925582885742e-01 -5.616371035575866699e-01 2.780621051788330078e-01
-3.494636416435241699e-01 -6.704139113426208496e-01 2.619064748287200928e-01
-2.963366806507110596e-01 -5.948410630226135254e-01 3.052404224872589111e-01
-3.185341656208038330e-01 -6.968801021575927734e-01 2.660298943519592285e-01
-3.240100145339965820e-01 -5.724226236343383789e-01 2.561478018760681152e-01
-2.689519524574279785e-01 -5.948767066001892090e-01 2.954330444335937500e-01
-3.396229743957519531e-01 -6.022313237190246582e-01 2.575975656509399414e-01
-2.925216555595397949e-01 -6.262357234954833984e-01 3.096292018890380859e-01
-2.995254397392272949e-01 -6.518939733505249023e-01 3.091480135917663574e-01
-3.476031124591827393e-01 -6.383439302444458008e-01 2.547121644020080566e-01
-2.788810133934020996e-01 -5.460922122001647949e-01 2.715622186660766602e-01
-3.071908652782440186e-01 -6.913491487503051758e-01 2.681722044944763184e-01
-2.831786274909973145e-01 -5.963305830955505371e-01 2.417684048414230347e-01
-3.001620471477508545e-01 -6.828032732009887695e-01 2.957878708839416504e-01
-2.946124076843261719e-01 -6.491364836692810059e-01 3.082982897758483887e-01
-2.686296999454498291e-01 -6.092979907989501953e-01 2.950680553913116455e-01
-2.744122445583343506e-01 -6.479132175445556641e-01 2.801178097724914551e-01
-2.807899117469787598e-01 -5.767213702201843262e-01 2.981845736503601074e-01
-3.280268013477325439e-01 -6.730415225028991699e-01 3.025842010974884033e-01
-2.817250788211822510e-01 -5.483761429786682129e-01 2.566599845886230469e-01
-3.205695748329162598e-01 -5.713194012641906738e-01 2.503631711006164551e-01
-2.733603715896606445e-01 -5.703199505805969238e-01 2.511243224143981934e-01
-2.937086820602416992e-01 -5.537884235382080078e-01 2.837653458118438721e-01
-3.421642780303955078e-01 -6.724006533622741699e-01 2.921724021434783936e-01
-3.457436263561248779e-01 -6.225147843360900879e-01 2.740051150321960449e-01
-3.238530755043029785e-01 -6.371139287948608398e-01 2.367459535598754883e-01
-3.434729874134063721e-01 -6.442068219184875488e-01 2.895447909832000732e-01
-3.482486605644226074e-01 -6.299317479133605957e-01 2.620534300804138184e-01
-2.847483456134796143e-01 -6.365015506744384766e-01 3.060305416584014893e-01
-2.935927510261535645e-01 -6.107614636421203613e-01 2.375366091728210449e-01
-3.231082558631896973e-01 -6.095119714736938477e-01 2.995916903018951416e-01
-2.639430165290832520e-01 -5.685121417045593262e-01 2.715979516506195068e-01
-3.138477206230163574e-01 -6.676268577575683594e-01 2.457302808761596680e-01
-2.619927227497100830e-01 -5.862414836883544922e-01 2.724377810955047607e-01
-2.821080684661865234e-01 -6.478308439254760742e-01 3.007746636867523193e-01
-3.326257467269897461e-01 -6.557603478431701660e-01 2.421579807996749878e-01
-3.326844573020935059e-01 -6.120871901512145996e-01 2.411297559738159180e-01
-3.254059553146362305e-01 -5.861978530883789062e-01 2.850983440876007080e-01
-3.222068548202514648e-01 -6.466306447982788086e-01 3.069291114807128906e-01
-2.785891294479370117e-01 -6.091290116310119629e-01 2.467079311609268188e-01
-3.243346214294433594e-01 -5.908764004707336426e-01 2.412006556987762451e-01
-3.479993343353271484e-01 -6.341111660003662109e-01 2.573317587375640869e-01
-3.457165956497192383e-01 -6.555461883544921875e-01 2.512349486351013184e-01
-3.157260417938232422e-01 -5.604886412620544434e-01 2.618901133537292480e-01
-2.895657420158386230e-01 -6.654484868049621582e-01 2.615510523319244385e-01
-3.045941889286041260e-01 -6.111609339714050293e-01 2.345301657915115356e-01
-2.829590439796447754e-01 -6.133536100387573242e-01 3.064157366752624512e-01
-3.320989906787872314e-01 -5.885636806488037109e-01 2.753024101257324219e-01
-2.624976038932800293e-01 -5.954456925392150879e-01 2.710114121437072754e-01
-3.024818897247314453e-01 -6.817498207092285156e-01 2.615129649639129639e-01
-3.248620629310607910e-01 -5.859411954879760742e-01 2.439452111721038818e-01
-3.336558043956756592e-01 -5.887634754180908203e-01 2.569405734539031982e-01
-3.447310030460357666e-01 -6.278710961341857910e-01 2.812031507492065430e-01
-2.798846364021301270e-01 -6.448218226432800293e-01 2.593535482883453369e-01
-3.282203376293182373e-01 -5.967325568199157715e-01 2.890132367610931396e-01
-3.206753134727478027e-01 -5.927325487136840820e-01 2.942262589931488037e-01
-3.488985002040863037e-01 -6.751354336738586426e-01 2.632845640182495117e-01
-3.272992372512817383e-01 -5.761004686355590820e-01 2.611790001392364502e-01
-2.681927382946014404e-01 -5.711098313331604004e-01 2.877814769744873047e-01
-3.431470990180969238e-01 -6.159405112266540527e-01 2.763148546218872070e-01
-2.709140181541442871e-01 -5.744595527648925781e-01 2.921250462532043457e-01
-3.096249401569366455e-01 -6.824647188186645508e-01 3.014748394489288330e-01
-3.161915242671966553e-01 -5.621862411499023438e-01 2.701715230941772461e-01
-2.724603712558746338e-01 -6.380338668823242188e-01 2.907268404960632324e-01
-3.445861935615539551e-01 -6.320440769195556641e-01 2.836714386940002441e-01
-2.981456518173217773e-01 -6.643832921981811523e-01 3.055575489997863770e-01
-3.463796675205230713e-01 -6.797946095466613770e-01 2.610646188259124756e-01
-3.465501070022583008e-01 -6.734013557434082031e-01 2.856572866439819336e-01
-3.477787375450134277e-01 -6.437405943870544434e-01 2.815294861793518066e-01
-2.814649045467376709e-01 -6.263047456741333008e-01 3.054046332836151123e-01
-2.648484706878662109e-01 -5.836815834045410156e-01 2.875891327857971191e-01
-3.250153958797454834e-01 -5.987838506698608398e-01 2.390604913234710693e-01
-3.111802935600280762e-01 -5.605332255363464355e-01 2.773223817348480225e-01
-3.453204929828643799e-01 -6.803197860717773438e-01 2.855553030967712402e-01
-2.977472543716430664e-01 -6.613383293151855469e-01 2.504580616950988770e-01
-2.695819139480590820e-01 -6.332517266273498535e-01 2.853727340698242188e-01
-2.774286568164825439e-01 -6.517242789268493652e-01 2.901176214218139648e-01
-2.974411547183990479e-01 -6.037437915802001953e-01 3.073539137840270996e-01
-3.139899075031280518e-01 -6.299042701721191406e-01 2.352279573678970337e-01
-2.937487959861755371e-01 -6.403434276580810547e-01 3.092989921569824219e-01
-2.885522246360778809e-01 -6.663430929183959961e-01 2.972286343574523926e-01
-2.988349497318267822e-01 -5.561558604240417480e-01 2.837433815002441406e-01
-3.279958069324493408e-01 -5.842653512954711914e-01 2.488947957754135132e-01
-2.770537137985229492e-01 -5.850754976272583008e-01 2.460225522518157959e-01
-2.800083160400390625e-01 -6.045791506767272949e-01 2.447597682476043701e-01
-3.292306959629058838e-01 -5.830009579658508301e-01 2.748104631900787354e-01
-3.118557333946228027e-01 -6.928662657737731934e-01 2.653843164443969727e-01
-3.506058156490325928e-01 -6.427970528602600098e-01 2.673982083797454834e-01
-2.637540698051452637e-01 -6.013630032539367676e-01 2.860096693038940430e-01
-2.792406678199768066e-01 -5.525406599044799805e-01 2.827482521533966064e-01
-3.383014202117919922e-01 -5.973209738731384277e-01 2.635908126831054688e-01
-2.962191104888916016e-01 -6.292769312858581543e-01 3.102456331253051758e-01
-3.358367085456848145e-01 -6.245400905609130859e-01 2.934990823268890381e-01
-3.073468804359436035e-01 -6.238150000572204590e-01 3.094668090343475342e-01
-2.992233335971832275e-01 -6.101071834564208984e-01 2.355870306491851807e-01
-3.153645396232604980e-01 -5.804215669631958008e-01 2.914231419563293457e-01
-3.376624584197998047e-01 -6.010213494300842285e-01 2.761635482311248779e-01
-3.404848277568817139e-01 -6.954430937767028809e-01 2.814021706581115723e-01
-2.944770753383636475e-01 -6.199637651443481445e-01 3.096458613872528076e-01
-2.883725464344024658e-01 -5.815992355346679688e-01 3.012026250362396240e-01
-3.135611116886138916e-01 -5.660002827644348145e-01 2.474487125873565674e-01
-3.239766359329223633e-01 -6.818642616271972656e-01 3.015996217727661133e-01
-3.019721508026123047e-01 -5.937921404838562012e-01 3.040128052234649658e-01
-3.502675294876098633e-01 -6.438589692115783691e-01 2.729549109935760498e-01
-3.189666569232940674e-01 -7.015730142593383789e-01 2.828015983104705811e-01
-3.424433767795562744e-01 -6.357372999191284180e-01 2.887579798698425293e-01
-2.687299251556396484e-01 -5.614172816276550293e-01 2.609013915061950684e-01
-3.159987926483154297e-01 -6.679990887641906738e-01 3.069173693656921387e-01
-3.252600133419036865e-01 -7.030731439590454102e-01 2.787550687789916992e-01
-2.967135608196258545e-01 -5.785230398178100586e-01 2.379882633686065674e-01
-2.871904671192169189e-01 -5.522026419639587402e-01 2.836233377456665039e-01
-2.979539632797241211e-01 -6.846478581428527832e-01 2.722840309143066406e-01
-3.009769022464752197e-01 -6.152049303054809570e-01 3.091594278812408447e-01
-2.809778153896331787e-01 -5.625465512275695801e-01 2.912568449974060059e-01
-2.945778965950012207e-01 -5.830431580543518066e-01 3.015337884426116943e-01
-3.512233197689056396e-01 -6.584057807922363281e-01 2.737911641597747803e-01
-3.448643982410430908e-01 -6.173766851425170898e-01 2.711420059204101562e-01
-3.391711711883544922e-01 -6.172254085540771484e-01 2.463698089122772217e-01
-3.093185126781463623e-01 -6.874985098838806152e-01 2.980281710624694824e-01
-3.059703707695007324e-01 -6.134086251258850098e-01 3.081202805042266846e-01
-3.042751252651214600e-01 -6.056066751480102539e-01 2.344533950090408325e-01
-3.326918184757232666e-01 -6.489818692207336426e-01 3.012137115001678467e-01
-2.949452400207519531e-01 -5.460118055343627930e-01 2.597627341747283936e-01
-3.317901492118835449e-01 -6.173985004425048828e-01 2.951791584491729736e-01
-3.263613879680633545e-01 -6.384847760200500488e-01 3.042562603950500488e-01
-2.872200906276702881e-01 -5.715824365615844727e-01 2.969683110713958740e-01
-2.732311785221099854e-01 -5.783392190933227539e-01 2.953307628631591797e-01
-2.930441200733184814e-01 -6.719667315483093262e-01 2.980654835700988770e-01
-2.723963558673858643e-01 -6.407948732376098633e-01 2.732818424701690674e-01
-3.198641240596771240e-01 -6.530079841613769531e-01 3.077832758426666260e-01
-3.140245974063873291e-01 -6.888020038604736328e-01 2.593653500080108643e-01
-2.989991307258605957e-01 -5.518599748611450195e-01 2.516826093196868896e-01
-3.192819058895111084e-01 -5.647145509719848633e-01 2.612936794757843018e-01
-3.426670730113983154e-01 -6.926302909851074219e-01 2.683528661727905273e-01
-2.824909687042236328e-01 -5.489690303802490234e-01 2.795543670654296875e-01
-2.799084484577178955e-01 -5.932474732398986816e-01 2.438526749610900879e-01
-3.228186666965484619e-01 -6.963676214218139648e-01 2.635411918163299561e-01
-2.743493616580963135e-01 -5.486508011817932129e-01 2.681752741336822510e-01
-2.814149856567382812e-01 -5.644602775573730469e-01 2.466121912002563477e-01
-2.784340977668762207e-01 -6.477659344673156738e-01 2.959796190261840820e-01
-2.966674566268920898e-01 -6.686920523643493652e-01 2.560106515884399414e-01
-3.313717544078826904e-01 -7.021842598915100098e-01 2.745881080627441406e-01
-3.328445553779602051e-01 -5.907070636749267578e-01 2.517482042312622070e-01
-2.717134952545166016e-01 -6.073874235153198242e-01 2.989042103290557861e-01
-3.071106076240539551e-01 -6.879007816314697266e-01 2.635803818702697754e-01
-3.397187590599060059e-01 -6.157574057579040527e-01 2.840552031993865967e-01
-3.478097021579742432e-01 -6.495279669761657715e-01 2.831372916698455811e-01
-3.058943748474121094e-01 -6.942110061645507812e-01 2.832366228103637695e-01
-2.671293616294860840e-01 -5.588234663009643555e-01 2.712728679180145264e-01
-2.681123018264770508e-01 -6.009210348129272461e-01 2.947687506675720215e-01
-3.209239244461059570e-01 -6.760102510452270508e-01 2.483592331409454346e-01
-3.400807380676269531e-01 -6.203139424324035645e-01 2.860156297683715820e-01
-3.059797585010528564e-01 -6.266244053840637207e-01 2.357531189918518066e-01
-3.439468741416931152e-01 -6.410412788391113281e-01 2.482858896255493164e-01
-3.362490534782409668e-01 -5.927391052246093750e-01 2.650540471076965332e-01
-3.400656878948211670e-01 -6.655980348587036133e-01 2.483491301536560059e-01
-3.180978000164031982e-01 -6.012930274009704590e-01 2.356418371200561523e-01
-2.986980974674224854e-01 -5.652256011962890625e-01 2.913766205310821533e-01
-3.440583646297454834e-01 -6.682491898536682129e-01 2.524653971195220947e-01
-2.660906314849853516e-01 -6.147688031196594238e-01 2.885748147964477539e-01
-3.086138367652893066e-01 -5.632016062736511230e-01 2.461086213588714600e-01
-3.180291056632995605e-01 -6.010137200355529785e-01 2.998312711715698242e-01
-2.769551873207092285e-01 -6.363152265548706055e-01 2.995278239250183105e-01
-2.932745516300201416e-01 -6.801350116729736328e-01 2.877644002437591553e-01
-3.039138019084930420e-01 -5.515818595886230469e-01 2.561890780925750732e-01
-3.285834193229675293e-01 -6.488205790519714355e-01 3.038750290870666504e-01
-2.886258363723754883e-01 -6.598716974258422852e-01 3.014436960220336914e-01
-2.963474988937377930e-01 -6.028620600700378418e-01 2.360680550336837769e-01
-3.271747529506683350e-01 -6.094721555709838867e-01 2.963993847370147705e-01
-3.373169898986816406e-01 -6.865473389625549316e-01 2.567470967769622803e-01
-3.175316154956817627e-01 -5.666604042053222656e-01 2.514005601406097412e-01
-3.014672696590423584e-01 -6.563758254051208496e-01 2.456978410482406616e-01
-2.661980390548706055e-01 -6.077293157577514648e-01 2.910655736923217773e-01
-3.363313078880310059e-01 -6.967209577560424805e-01 2.861996591091156006e-01
-3.093590438365936279e-01 -5.596592426300048828e-01 2.499347180128097534e-01
-2.864679992198944092e-01 -5.849156975746154785e-01 2.401641011238098145e-01
-2.811931669712066650e-01 -6.198762059211730957e-01 2.468796819448471069e-01
-2.760322988033294678e-01 -5.916985869407653809e-01 2.469179481267929077e-01
-2.625968754291534424e-01 -5.811534523963928223e-01 2.803029417991638184e-01
-3.476707935333251953e-01 -6.301135420799255371e-01 2.738211154937744141e-01
-3.198977410793304443e-01 -5.776249170303344727e-01 2.848987281322479248e-01
-2.977635860443115234e-01 -6.843995451927185059e-01 2.902033925056457520e-01
-3.090833425521850586e-01 -5.709021687507629395e-01 2.416018843650817871e-01
-3.238210976123809814e-01 -6.017386317253112793e-01 2.959792613983154297e-01
-2.759117484092712402e-01 -6.277918219566345215e-01 3.007813692092895508e-01
-2.895390093326568604e-01 -6.192729473114013672e-01 3.087835609912872314e-01
-3.027180731296539307e-01 -5.833009481430053711e-01 2.365907430648803711e-01
-2.824960649013519287e-01 -6.412473917007446289e-01 2.537845075130462646e-01
-3.424765467643737793e-01 -6.895873546600341797e-01 2.847426533699035645e-01
-3.362217545509338379e-01 -6.033087968826293945e-01 2.481903433799743652e-01
-2.873698472976684570e-01 -6.728450059890747070e-01 2.831386327743530273e-01
-2.765697240829467773e-01 -6.279365420341491699e-01 2.546235024929046631e-01
-2.650517821311950684e-01 -5.670273303985595703e-01 2.665384411811828613e-01
-3.398863971233367920e-01 -6.918539404869079590e-01 2.631633281707763672e-01
-3.136578500270843506e-01 -6.581238508224487305e-01 2.419207394123077393e-01
-3.208766579627990723e-01 -5.676220059394836426e-01 2.573245167732238770e-01
-2.817416489124298096e-01 -6.631420850753784180e-01 2.784090638160705566e-01
-2.648014128208160400e-01 -6.144781708717346191e-01 2.834384143352508545e-01
-3.062985539436340332e-01 -5.551113486289978027e-01 2.527537345886230469e-01
-3.234778940677642822e-01 -6.631708145141601562e-01 3.058772683143615723e-01
-3.419954776763916016e-01 -6.074672937393188477e-01 2.684238851070404053e-01
-2.736501097679138184e-01 -6.448704600334167480e-01 2.860530614852905273e-01
-2.931688725948333740e-01 -5.557781457901000977e-01 2.471644431352615356e-01
-3.254179656505584717e-01 -6.926475763320922852e-01 2.958670854568481445e-01
-2.718251943588256836e-01 -5.566548705101013184e-01 2.591056525707244873e-01
-2.832956314086914062e-01 -6.429607272148132324e-01 3.035895526409149170e-01
-2.693136334419250488e-01 -6.115758419036865234e-01 2.587850987911224365e-01
-3.023325800895690918e-01 -6.395796537399291992e-01 2.394702881574630737e-01
-3.468409478664398193e-01 -6.717027425765991211e-01 2.572172284126281738e-01
-2.867834270000457764e-01 -6.530299782752990723e-01 3.029556572437286377e-01
-3.392689526081085205e-01 -6.981116533279418945e-01 2.757483720779418945e-01
-2.720308005809783936e-01 -6.051175594329833984e-01 2.528768777847290039e-01
-3.449604511260986328e-01 -6.621693968772888184e-01 2.894284725189208984e-01
-3.161053359508514404e-01 -6.907054185867309570e-01 2.976110875606536865e-01
-3.002544045448303223e-01 -6.768431663513183594e-01 2.591058015823364258e-01
-3.285197317600250244e-01 -6.973685622215270996e-01 2.910262942314147949e-01
-3.030271232128143311e-01 -6.315352916717529297e-01 2.373531758785247803e-01
-3.485365509986877441e-01 -6.774740815162658691e-01 2.794229984283447266e-01
-3.038960993289947510e-01 -6.077128648757934570e-01 3.073723316192626953e-01
-3.271369934082031250e-01 -6.545984745025634766e-01 2.404999136924743652e-01
-3.109373152256011963e-01 -5.944065451622009277e-01 3.011193573474884033e-01
-3.436470627784729004e-01 -6.227945685386657715e-01 2.514980137348175049e-01
-3.211536407470703125e-01 -5.683435201644897461e-01 2.702086865901947021e-01
5.357983112335205078e-01 -6.802707910537719727e-01 4.798856675624847412e-01
5.172232389450073242e-01 -6.775788664817810059e-01 4.625683128833770752e-01
4.817689657211303711e-01 -6.965892910957336426e-01 4.580165147781372070e-01
4.568225443363189697e-01 -6.713041663169860840e-01 4.893082976341247559e-01
5.136872529983520508e-01 -6.832290887832641602e-01 4.858340322971343994e-01
4.657827913761138916e-01 -6.581351757049560547e-01 4.805620312690734863e-01
4.714195728302001953e-01 -7.053766846656799316e-01 4.591083824634552002e-01
5.246497988700866699e-01 -6.740818619728088379e-01 4.865334630012512207e-01
5.160012841224670410e-01 -6.613106727600097656e-01 4.715198278427124023e-01
5.209473371505737305e-01 -6.636999249458312988e-01 4.705064892768859863e-01
5.223451852798461914e-01 -6.553000807762145996e-01 4.910310506820678711e-01
4.693897664546966553e-01 -7.008414864540100098e-01 4.781584441661834717e-01
5.374416708946228027e-01 -6.645290255546569824e-01 4.812919199466705322e-01
4.556471705436706543e-01 -6.648495197296142578e-01 4.818795919418334961e-01
4.725549221038818359e-01 -7.157012224197387695e-01 4.650837182998657227e-01
4.740446805953979492e-01 -6.892465949058532715e-01 4.622000455856323242e-01
5.385940670967102051e-01 -7.001594901084899902e-01 4.592647254467010498e-01
4.929728507995605469e-01 -6.449773907661437988e-01 4.842779636383056641e-01
5.266255736351013184e-01 -7.066703438758850098e-01 4.538756012916564941e-01
5.052912235260009766e-01 -6.992893218994140625e-01 4.542796611785888672e-01
5.195692181587219238e-01 -6.619534492492675781e-01 4.912833869457244873e-01
4.791883826255798340e-01 -7.131704688072204590e-01 4.704326391220092773e-01
5.366242527961730957e-01 -6.623046398162841797e-01 4.780881106853485107e-01
5.364691019058227539e-01 -7.039338946342468262e-01 4.663003683090209961e-01
4.757367968559265137e-01 -7.174020409584045410e-01 4.643937945365905762e-01
4.754673242568969727e-01 -6.446337699890136719e-01 4.894453287124633789e-01
4.763974845409393311e-01 -7.078657150268554688e-01 4.743708074092864990e-01
4.608717560768127441e-01 -6.598424315452575684e-01 4.931657612323760986e-01
5.139016509056091309e-01 -6.460859775543212891e-01 4.931150972843170166e-01
5.211414694786071777e-01 -6.877040863037109375e-01 4.584548771381378174e-01
4.739936292171478271e-01 -6.951153278350830078e-01 4.823629558086395264e-01
5.093369483947753906e-01 -6.438382267951965332e-01 4.939536154270172119e-01
5.233268141746520996e-01 -7.114294767379760742e-01 4.672086834907531738e-01
4.885695278644561768e-01 -6.880580186843872070e-01 4.864808619022369385e-01
5.073044300079345703e-01 -7.011656165122985840e-01 4.779442846775054932e-01
5.355499386787414551e-01 -6.781604886054992676e-01 4.653774201869964600e-01
4.842141568660736084e-01 -7.155134081840515137e-01 4.546158313751220703e-01
4.773179888725280762e-01 -6.672816872596740723e-01 4.945642650127410889e-01
4.698013365268707275e-01 -7.102615237236022949e-01 4.598971903324127197e-01
4.802283644676208496e-01 -6.419143080711364746e-01 4.918500483036041260e-01
4.755651056766510010e-01 -6.504032015800476074e-01 4.830253124237060547e-01
5.401816964149475098e-01 -6.894649267196655273e-01 4.731983542442321777e-01
4.610279500484466553e-01 -6.876187324523925781e-01 4.674093425273895264e-01
5.424667596817016602e-01 -6.919099092483520508e-01 4.694728553295135498e-01
4.774496555328369141e-01 -6.751952767372131348e-01 4.671359956264495850e-01
4.806859195232391357e-01 -6.559030413627624512e-01 4.774411618709564209e-01
5.043072700500488281e-01 -6.810854673385620117e-01 4.882893562316894531e-01
5.249729752540588379e-01 -6.629939675331115723e-01 4.716332256793975830e-01
5.363826751708984375e-01 -6.884921193122863770e-01 4.761212170124053955e-01
5.285036563873291016e-01 -6.904332637786865234e-01 4.583648443222045898e-01
5.197459459304809570e-01 -6.706593036651611328e-01 4.662744104862213135e-01
4.906452298164367676e-01 -6.742990016937255859e-01 4.921899735927581787e-01
5.173475146293640137e-01 -6.945390105247497559e-01 4.557567834854125977e-01
5.408622622489929199e-01 -6.699446439743041992e-01 4.749466776847839355e-01
5.085086226463317871e-01 -6.537684202194213867e-01 4.953303039073944092e-01
4.857817888259887695e-01 -7.192918062210083008e-01 4.652040302753448486e-01
4.966410994529724121e-01 -6.672292947769165039e-01 4.941337704658508301e-01
5.294171571731567383e-01 -6.629167795181274414e-01 4.728198349475860596e-01
4.794362783432006836e-01 -7.037037611007690430e-01 4.776293635368347168e-01
4.931440055370330811e-01 -6.977403163909912109e-01 4.557655155658721924e-01
4.897822737693786621e-01 -6.660934090614318848e-01 4.949447512626647949e-01
4.553311169147491455e-01 -6.751284599304199219e-01 4.873558282852172852e-01
5.105657577514648438e-01 -6.592118144035339355e-01 4.940989315509796143e-01
4.701416194438934326e-01 -7.062992453575134277e-01 4.743470251560211182e-01
4.890508651733398438e-01 -6.534714698791503906e-01 4.977429509162902832e-01
5.094205141067504883e-01 -6.914504170417785645e-01 4.828368723392486572e-01
4.697889685630798340e-01 -6.892616748809814453e-01 4.634476304054260254e-01
5.030630826950073242e-01 -6.877453923225402832e-01 4.855268001556396484e-01
5.114507079124450684e-01 -6.972330808639526367e-01 4.547558724880218506e-01
4.721999466419219971e-01 -6.923063397407531738e-01 4.617187082767486572e-01
4.733262360095977783e-01 -7.116360664367675781e-01 4.705569148063659668e-01
5.242497920989990234e-01 -6.862795352935791016e-01 4.819222986698150635e-01
4.623515009880065918e-01 -6.726236343383789062e-01 4.731164872646331787e-01
4.963728785514831543e-01 -6.962020993232727051e-01 4.558558762073516846e-01
4.509620964527130127e-01 -6.835369467735290527e-01 4.781580567359924316e-01
4.604943990707397461e-01 -6.965075731277465820e-01 4.655010998249053955e-01
5.335668325424194336e-01 -6.615368723869323730e-01 4.847843348979949951e-01
4.693807661533355713e-01 -6.886451840400695801e-01 4.852530360221862793e-01
5.020473599433898926e-01 -7.121325135231018066e-01 4.714221656322479248e-01
4.535966217517852783e-01 -6.731188893318176270e-01 4.781696796417236328e-01
5.219477415084838867e-01 -6.972717046737670898e-01 4.770823121070861816e-01
5.297388434410095215e-01 -7.131660580635070801e-01 4.554375708103179932e-01
4.675326049327850342e-01 -6.831234693527221680e-01 4.664347171783447266e-01
5.394814014434814453e-01 -7.026486992835998535e-01 4.639009833335876465e-01
4.622662067413330078e-01 -6.808732748031616211e-01 4.875654876232147217e-01
4.935897588729858398e-01 -7.241550087928771973e-01 4.570819735527038574e-01
4.543805420398712158e-01 -6.781279444694519043e-01 4.856932461261749268e-01
4.963908493518829346e-01 -6.937561631202697754e-01 4.832414686679840088e-01
4.593572020530700684e-01 -6.639122962951660156e-01 4.797566533088684082e-01
4.763365685939788818e-01 -6.705057621002197266e-01 4.697150588035583496e-01
4.841142296791076660e-01 -6.595349311828613281e-01 4.967680275440216064e-01
4.967898428440093994e-01 -6.410654783248901367e-01 4.888609349727630615e-01
5.243177413940429688e-01 -6.541942358016967773e-01 4.784577488899230957e-01
4.601429402828216553e-01 -6.796944141387939453e-01 4.708026647567749023e-01
4.603490233421325684e-01 -6.734122633934020996e-01 4.899606704711914062e-01
4.622642397880554199e-01 -6.757465004920959473e-01 4.716163575649261475e-01
4.731976389884948730e-01 -6.714111566543579102e-01 4.929472506046295166e-01
4.961107373237609863e-01 -6.706570982933044434e-01 4.664515554904937744e-01
4.717572927474975586e-01 -6.814111471176147461e-01 4.889414906501770020e-01
4.953786134719848633e-01 -6.576083898544311523e-01 4.966692030429840088e-01
4.799838364124298096e-01 -6.936321258544921875e-01 4.592943787574768066e-01
5.069996118545532227e-01 -7.141779661178588867e-01 4.691791534423828125e-01
4.737841486930847168e-01 -6.490856409072875977e-01 4.969668388366699219e-01
4.563387036323547363e-01 -6.593232154846191406e-01 4.885399341583251953e-01
5.244299769401550293e-01 -7.053359150886535645e-01 4.713832437992095947e-01
5.260308384895324707e-01 -7.019129991531372070e-01 4.545845389366149902e-01
5.070419907569885254e-01 -6.733444333076477051e-01 4.908378124237060547e-01
5.280231237411499023e-01 -7.109498977661132812e-01 4.655386805534362793e-01
5.001975297927856445e-01 -6.418232917785644531e-01 4.956037402153015137e-01
4.704730212688446045e-01 -6.999057531356811523e-01 4.603008627891540527e-01
5.101057291030883789e-01 -6.632878184318542480e-01 4.933067560195922852e-01
5.207835435867309570e-01 -6.883836388587951660e-01 4.819231331348419189e-01
5.131205916404724121e-01 -6.682819128036499023e-01 4.671773016452789307e-01
4.680083096027374268e-01 -6.676576137542724609e-01 4.934922754764556885e-01
4.707876145839691162e-01 -6.672481894493103027e-01 4.729527533054351807e-01
5.175758004188537598e-01 -6.511933207511901855e-01 4.794525206089019775e-01
4.832557737827301025e-01 -6.625251770019531250e-01 4.726845920085906982e-01
4.681662917137145996e-01 -6.964079737663269043e-01 4.807463586330413818e-01
5.344579815864562988e-01 -6.656206250190734863e-01 4.727948307991027832e-01
4.671730995178222656e-01 -7.072339653968811035e-01 4.725906252861022949e-01
4.671897292137145996e-01 -6.496445536613464355e-01 4.878219664096832275e-01
5.177627205848693848e-01 -7.216228842735290527e-01 4.557443559169769287e-01
5.239603519439697266e-01 -7.178570628166198730e-01 4.546528160572052002e-01
4.873964488506317139e-01 -7.171078324317932129e-01 4.677291810512542725e-01
5.300738811492919922e-01 -6.798813939094543457e-01 4.630456864833831787e-01
4.727713167667388916e-01 -6.656650900840759277e-01 4.946805536746978760e-01
5.081427693367004395e-01 -6.941777467727661133e-01 4.557597637176513672e-01
4.670872092247009277e-01 -6.606199741363525391e-01 4.949928224086761475e-01
5.008574724197387695e-01 -6.530981659889221191e-01 4.967482984066009521e-01
4.632214605808258057e-01 -7.016595602035522461e-01 4.633375406265258789e-01
4.588727653026580811e-01 -6.822032928466796875e-01 4.859683215618133545e-01
5.145578980445861816e-01 -6.909231543540954590e-01 4.821476936340332031e-01
4.879322648048400879e-01 -6.504675745964050293e-01 4.800941348075866699e-01
4.547282457351684570e-01 -6.937097311019897461e-01 4.767835438251495361e-01
4.867683053016662598e-01 -6.651183962821960449e-01 4.705853164196014404e-01
4.828082919120788574e-01 -6.659623980522155762e-01 4.951187670230865479e-01
4.885538816452026367e-01 -6.442658901214599609e-01 4.856428205966949463e-01
5.130506157875061035e-01 -6.563437581062316895e-01 4.746898412704467773e-01
4.818765223026275635e-01 -6.597338318824768066e-01 4.746599495410919189e-01
5.255222320556640625e-01 -7.102146148681640625e-01 4.533600509166717529e-01
5.153177976608276367e-01 -6.749704480171203613e-01 4.637437760829925537e-01
5.058025717735290527e-01 -7.242212891578674316e-01 4.574662446975708008e-01
4.754804968833923340e-01 -7.137632966041564941e-01 4.690523147583007812e-01
5.046319961547851562e-01 -6.598371267318725586e-01 4.721409380435943604e-01
5.166333913803100586e-01 -7.100865244865417480e-01 4.520733356475830078e-01
5.097407698631286621e-01 -7.158208489418029785e-01 4.673266112804412842e-01
5.336922407150268555e-01 -7.079052329063415527e-01 4.648081064224243164e-01
5.282618403434753418e-01 -6.676352620124816895e-01 4.870479404926300049e-01
4.862864315509796143e-01 -6.808355450630187988e-01 4.628877043724060059e-01
5.293095111846923828e-01 -7.092214822769165039e-01 4.544615447521209717e-01
4.627632498741149902e-01 -6.994618177413940430e-01 4.772500991821289062e-01
5.256028175354003906e-01 -6.959637403488159180e-01 4.767113626003265381e-01
4.996958374977111816e-01 -6.961814165115356445e-01 4.555549621582031250e-01
5.126617550849914551e-01 -6.544754505157470703e-01 4.942861497402191162e-01
4.740006029605865479e-01 -6.454242467880249023e-01 4.958143234252929688e-01
