5.714563727378845215e-01 -9.110133349895477295e-02 3.276303410530090332e-02
1.972618252038955688e-01 -1.906722187995910645e-01 -3.239154815673828125e-03
2.304192483425140381e-01 -3.255459964275360107e-01 6.006153225898742676e-01
1.982471942901611328e-01 -1.852156519889831543e-01 5.864226818084716797e-01
9.289009869098663330e-02 -5.469701290130615234e-01 3.073846697807312012e-01
8.216693997383117676e-02 -5.797761678695678711e-02 3.055123090744018555e-01
5.005823969841003418e-01 -1.691663712263107300e-01 -8.839650452136993408e-02
9.345205128192901611e-02 -8.940814435482025146e-02 2.000575363636016846e-01
1.197427958250045776e-01 -4.542481303215026855e-01 1.150561273097991943e-01
2.715484201908111572e-01 -3.792136013507843018e-01 5.887914896011352539e-01
5.559988021850585938e-01 -5.607366561889648438e-02 4.856242239475250244e-02
3.183088600635528564e-01 5.550935864448547363e-02 7.802861928939819336e-02
5.086786150932312012e-01 -2.833667099475860596e-01 -1.050159186124801636e-01
5.875303745269775391e-01 -4.843946695327758789e-01 1.943613439798355103e-01
5.933276414871215820e-01 -1.145502775907516479e-01 6.622992455959320068e-02
4.125019907951354980e-01 -1.299142837524414062e-02 4.288301467895507812e-01
5.147773027420043945e-01 -1.288019567728042603e-01 3.937033414840698242e-01
4.436568319797515869e-01 -6.580867767333984375e-01 2.050213217735290527e-01
1.510479450225830078e-01 -2.828923761844635010e-01 5.889595746994018555e-01
2.856429815292358398e-01 -2.028315365314483643e-01 -7.139141857624053955e-02
3.064689636230468750e-01 -6.056229472160339355e-01 4.568377733230590820e-01
1.447479426860809326e-01 -6.099849939346313477e-01 2.811951637268066406e-01
4.633874297142028809e-01 -2.344474643468856812e-01 4.855651259422302246e-01
5.114668607711791992e-01 -3.938717246055603027e-01 4.221164584159851074e-01
6.324046850204467773e-02 -4.924286007881164551e-01 3.227651417255401611e-01
5.404811501502990723e-01 -2.892701625823974609e-01 -8.740930259227752686e-02
3.513725697994232178e-01 -5.265440940856933594e-01 -4.202543199062347412e-02
2.887894809246063232e-01 -2.093925774097442627e-01 5.855165719985961914e-01
8.052818477153778076e-02 -7.628105580806732178e-02 4.170435667037963867e-01
1.160032749176025391e-01 -3.472674489021301270e-01 5.667710900306701660e-01
5.143873691558837891e-01 -8.439511060714721680e-03 4.890674352645874023e-02
2.133104205131530762e-01 -5.961753726005554199e-01 1.067178696393966675e-01
2.414450347423553467e-01 -2.851045727729797363e-01 6.011528968811035156e-01
6.039258241653442383e-01 -1.667916625738143921e-01 2.229283452033996582e-01
2.660370469093322754e-01 -6.683727502822875977e-01 3.525743484497070312e-01
4.359316825866699219e-01 2.052694559097290039e-03 3.908672332763671875e-01
5.369518399238586426e-01 -2.933946251869201660e-01 4.022663831710815430e-01
7.089230418205261230e-02 -5.074675083160400391e-01 3.738291859626770020e-01
2.676012516021728516e-01 9.787905216217041016e-02 2.518688440322875977e-01
4.906324148178100586e-01 -5.991622209548950195e-01 6.278072297573089600e-02
5.295560359954833984e-01 -2.339408546686172485e-01 4.080843627452850342e-01
3.991513252258300781e-01 -1.208120286464691162e-01 5.074753165245056152e-01
4.434965550899505615e-01 -3.319286406040191650e-01 5.057722926139831543e-01
4.161450564861297607e-01 6.906121969223022461e-02 3.075219094753265381e-01
4.359189867973327637e-01 -5.343698263168334961e-01 4.368297457695007324e-01
1.514946818351745605e-01 -5.897559523582458496e-01 1.965856552124023438e-01
4.637702405452728271e-01 -2.765995264053344727e-02 3.888233304023742676e-01
2.627895474433898926e-01 -3.047716617584228516e-02 1.971457898616790771e-02
1.395719945430755615e-01 -2.670925855636596680e-02 1.720420718193054199e-01
1.789366155862808228e-01 -3.193175494670867920e-01 3.001376986503601074e-03
6.592541933059692383e-02 -9.142476320266723633e-02 3.839175105094909668e-01
2.247330844402313232e-01 -6.608906388282775879e-01 2.227964401245117188e-01
3.820974230766296387e-01 -1.627736240625381470e-01 -9.755168855190277100e-02
1.000921726226806641e-01 -4.253256320953369141e-01 1.335704922676086426e-01
3.818941712379455566e-01 -8.026087284088134766e-02 -6.329260766506195068e-02
4.048777222633361816e-01 -3.888098299503326416e-01 5.271356105804443359e-01
1.404337882995605469e-01 -4.249501526355743408e-01 5.600228309631347656e-01
5.533788800239562988e-01 -4.132316708564758301e-01 3.513292074203491211e-01
7.787606120109558105e-02 -3.313650190830230713e-01 1.458693444728851318e-01
3.242937326431274414e-01 -2.347450256347656250e-01 -9.510253369808197021e-02
9.630186855792999268e-02 -4.405153989791870117e-01 5.172342061996459961e-01
4.117067456245422363e-01 8.518889546394348145e-02 2.602362632751464844e-01
5.218152403831481934e-01 -5.903412103652954102e-01 2.132617980241775513e-01
5.465481877326965332e-01 -1.360461264848709106e-01 3.469671010971069336e-01
1.731007695198059082e-01 -5.293881297111511230e-01 5.155463218688964844e-01
5.516387820243835449e-01 -3.930906653404235840e-01 -6.140820682048797607e-02
1.609373688697814941e-01 -3.424105048179626465e-01 2.454754710197448730e-02
3.716817498207092285e-02 -3.168686628341674805e-01 4.626727700233459473e-01
6.654322147369384766e-02 -4.142155647277832031e-01 2.000110000371932983e-01
4.745684862136840820e-01 -2.710986137390136719e-01 4.779362380504608154e-01
3.179007470607757568e-01 -6.728168725967407227e-01 1.474366039037704468e-01
4.723754823207855225e-01 3.598740696907043457e-02 2.864997684955596924e-01
3.259555101394653320e-01 -7.797506451606750488e-02 5.271848440170288086e-01
5.714228153228759766e-01 -5.212720632553100586e-01 9.709319472312927246e-02
2.213914692401885986e-01 -6.657465696334838867e-01 2.862753272056579590e-01
4.208238720893859863e-01 -4.448667168617248535e-01 4.984411001205444336e-01
4.202557206153869629e-01 5.260732769966125488e-02 6.750296056270599365e-02
4.390127658843994141e-01 -1.183462888002395630e-01 4.745700061321258545e-01
5.337206721305847168e-01 -7.623195648193359375e-03 2.176481932401657104e-01
3.737586140632629395e-01 -5.311022996902465820e-01 4.881944060325622559e-01
2.484047412872314453e-02 -3.139696419239044189e-01 3.135065436363220215e-01
1.655178219079971313e-01 -5.891307592391967773e-01 4.441087245941162109e-01
5.784191489219665527e-01 -6.632046401500701904e-02 1.376898586750030518e-01
3.684615492820739746e-01 -6.130454540252685547e-01 4.188157916069030762e-01
6.509992480278015137e-02 -2.856862545013427734e-01 1.700449883937835693e-01
3.099926710128784180e-01 -6.260278820991516113e-01 4.311431348323822021e-01
6.204462051391601562e-01 -2.967402338981628418e-01 2.131282985210418701e-01
2.262212783098220825e-01 -6.289410591125488281e-01 1.386679112911224365e-01
5.868225097656250000e-01 -1.470974981784820557e-01 2.639285624027252197e-01
3.679019808769226074e-01 9.285888075828552246e-02 1.496107876300811768e-01
1.210299432277679443e-01 -5.059856176376342773e-01 1.499651670455932617e-01
4.618960618972778320e-02 -4.503801465034484863e-01 3.573707044124603271e-01
3.493024706840515137e-01 -6.859707832336425781e-01 1.956602036952972412e-01
5.318644642829895020e-02 -4.213616251945495605e-01 2.460456043481826782e-01
1.639146506786346436e-01 -1.089861690998077393e-01 5.465906262397766113e-01
1.221068650484085083e-01 -1.552856713533401489e-01 9.891971945762634277e-02
2.211647480726242065e-01 -4.434901475906372070e-01 -8.805349469184875488e-03
2.902049124240875244e-01 -6.824654936790466309e-01 2.052839696407318115e-01
5.972008705139160156e-01 -3.282071352005004883e-01 -2.101789414882659912e-02
5.396883487701416016e-01 -2.090595960617065430e-01 -7.785792648792266846e-02
1.645372807979583740e-01 -6.126624941825866699e-01 3.965805172920227051e-01
3.420692682266235352e-01 -1.631060987710952759e-01 -8.711196482181549072e-02
5.232087969779968262e-01 -1.718271821737289429e-01 4.006574749946594238e-01
1.040483564138412476e-01 -5.111771821975708008e-01 1.908002793788909912e-01
5.346137881278991699e-01 -6.818558275699615479e-02 -3.076180815696716309e-03
2.964895963668823242e-01 -2.956328392028808594e-01 5.909672975540161133e-01
1.314405202865600586e-01 -5.412666201591491699e-01 4.716727137565612793e-01
1.602748930454254150e-01 -1.603188216686248779e-01 4.528421163558959961e-02
5.282717347145080566e-01 -5.733217298984527588e-02 3.180759251117706299e-01
6.123963594436645508e-01 -4.277910590171813965e-01 1.389524042606353760e-01
2.071524560451507568e-01 -3.935663104057312012e-01 -1.221902668476104736e-02
1.983378678560256958e-01 2.366277575492858887e-02 1.426221132278442383e-01
2.980729043483734131e-01 -4.803292155265808105e-01 5.500134825706481934e-01
6.216875314712524414e-01 -3.462647497653961182e-01 1.929612457752227783e-01
2.049877941608428955e-01 -6.562887430191040039e-01 3.129992485046386719e-01
3.455609083175659180e-01 -3.080067634582519531e-01 5.720156431198120117e-01
3.249722719192504883e-01 3.323090076446533203e-02 4.366588592529296875e-01
2.516269981861114502e-01 7.828742265701293945e-02 3.613273799419403076e-01
4.272161126136779785e-01 3.974530100822448730e-02 3.511120676994323730e-01
5.985738635063171387e-01 -1.106830537319183350e-01 1.310467123985290527e-01
2.185012400150299072e-01 -4.921953082084655762e-01 1.588840782642364502e-02
3.281045854091644287e-01 -6.761388778686523438e-01 3.278161287307739258e-01
6.265146136283874512e-01 -2.238037586212158203e-01 9.792436659336090088e-02
1.830913126468658447e-01 -8.638948202133178711e-03 1.211474835872650146e-01
3.924953341484069824e-01 -2.328539490699768066e-01 5.421842336654663086e-01
4.978427290916442871e-02 -4.532625079154968262e-01 3.088962137699127197e-01
1.868288666009902954e-01 -3.599483966827392578e-01 -1.344382762908935547e-04
4.783501029014587402e-01 -6.358177661895751953e-01 1.787064969539642334e-01
2.349767088890075684e-01 -4.137002527713775635e-01 5.847513079643249512e-01
1.332972496747970581e-01 -2.023649811744689941e-01 5.694509148597717285e-01
1.090592145919799805e-01 -4.836122989654541016e-01 5.022091269493103027e-01
2.915143966674804688e-02 -3.686725497245788574e-01 3.188523054122924805e-01
1.172421276569366455e-01 -2.094104886054992676e-02 4.087318778038024902e-01
3.809926807880401611e-01 -3.005467951297760010e-01 -1.156846433877944946e-01
1.826189458370208740e-01 -2.677027583122253418e-01 5.973147153854370117e-01
6.034284830093383789e-01 -2.119176089763641357e-01 3.858149051666259766e-03
2.846018671989440918e-01 -6.572896838188171387e-01 3.840507864952087402e-01
5.683954358100891113e-01 -5.324149131774902344e-01 1.355680227279663086e-01
3.750519752502441406e-01 -6.673566102981567383e-01 3.187508583068847656e-01
3.535471856594085693e-01 -6.776612997055053711e-01 1.542378216981887817e-01
3.808927536010742188e-01 -8.785846829414367676e-02 5.041695833206176758e-01
7.333374023437500000e-02 -4.260773956775665283e-01 4.942873120307922363e-01
1.072766035795211792e-01 -1.014194935560226440e-01 1.575361639261245728e-01
4.102111160755157471e-01 -6.180499792098999023e-01 3.773790001869201660e-01
2.794607579708099365e-01 8.710211515426635742e-02 3.471752703189849854e-01
4.772011041641235352e-01 -4.371444582939147949e-01 4.482294321060180664e-01
5.251811742782592773e-01 -5.508370399475097656e-01 2.919318079948425293e-01
4.425521492958068848e-01 -6.125797629356384277e-01 4.174786806106567383e-02
6.030442714691162109e-01 -2.466834485530853271e-01 -8.678033947944641113e-03
5.798914432525634766e-01 -8.278705179691314697e-02 7.333944737911224365e-02
5.433175563812255859e-01 -2.159630954265594482e-01 3.839760720729827881e-01
4.668510854244232178e-01 -3.206369280815124512e-02 -2.119024097919464111e-02
3.200172781944274902e-01 -3.242136240005493164e-01 -9.558607637882232666e-02
4.658406376838684082e-01 5.653154850006103516e-02 2.404826879501342773e-01
3.593540787696838379e-01 -5.553221106529235840e-01 -2.407647669315338135e-02
3.509117364883422852e-01 -4.170696735382080078e-01 -9.053818881511688232e-02
2.475623190402984619e-01 -4.719617962837219238e-01 5.627612471580505371e-01
4.405414164066314697e-01 1.813548803329467773e-02 2.268530428409576416e-02
5.200153589248657227e-02 -2.946295738220214844e-01 4.990779161453247070e-01
1.350059956312179565e-01 -1.878059059381484985e-01 6.813468039035797119e-02
4.915786087512969971e-01 -5.607900023460388184e-01 6.061866879463195801e-03
5.656957030296325684e-01 -2.547038495540618896e-01 -6.399239599704742432e-02
3.744240999221801758e-01 -4.116668105125427246e-01 5.412186384201049805e-01
3.433904647827148438e-01 1.031596660614013672e-01 2.691490054130554199e-01
3.011393547058105469e-01 -2.768626809120178223e-02 -2.166047692298889160e-03
5.406959652900695801e-01 -4.576919674873352051e-01 3.503046035766601562e-01
2.172560393810272217e-01 -5.392435789108276367e-01 4.750059545040130615e-02
6.254237890243530273e-01 -3.065701723098754883e-01 5.499459803104400635e-02
4.445443153381347656e-01 -5.563710927963256836e-01 -2.282176911830902100e-02
4.627749323844909668e-02 -2.445018440485000610e-01 4.807310402393341064e-01
2.929318249225616455e-01 -1.673179119825363159e-01 5.745687484741210938e-01
4.789422750473022461e-01 -2.756974697113037109e-01 -1.147048026323318481e-01
1.157714724540710449e-01 -1.309192180633544922e-02 2.677926421165466309e-01
1.171763390302658081e-01 -3.801256418228149414e-01 8.867384493350982666e-02
3.150415420532226562e-01 -6.627321243286132812e-01 3.678034543991088867e-01
6.305491924285888672e-01 -2.761744856834411621e-01 9.537580609321594238e-02
2.991077601909637451e-01 -6.877439022064208984e-01 2.387058436870574951e-01
8.265936374664306641e-02 -7.871104776859283447e-02 2.475651204586029053e-01
5.088292956352233887e-01 -6.576932966709136963e-02 -2.582879364490509033e-02
2.994288206100463867e-01 -5.640910565853118896e-02 5.234107971191406250e-01
4.314419627189636230e-01 -4.980491995811462402e-01 -6.696532666683197021e-02
3.175755441188812256e-01 -1.429895013570785522e-01 5.590897798538208008e-01
2.616579532623291016e-01 4.858034849166870117e-02 4.258994460105895996e-01
2.859970927238464355e-01 -2.462376654148101807e-01 -7.798604667186737061e-02
1.307912617921829224e-01 -2.371126711368560791e-01 5.754297375679016113e-01
5.596002340316772461e-01 -4.617981016635894775e-01 3.105096817016601562e-01
5.402185320854187012e-01 -1.269879937171936035e-02 1.059737354516983032e-01
2.327100336551666260e-01 6.003102660179138184e-02 3.958214521408081055e-01
4.012987017631530762e-02 -3.953483104705810547e-01 2.768941819667816162e-01
2.004036158323287964e-01 -3.745990693569183350e-01 5.928112268447875977e-01
6.029040813446044922e-01 -1.643338948488235474e-01 3.456735610961914062e-02
4.107539057731628418e-01 -4.823819100856781006e-01 4.900826215744018555e-01
5.530011653900146484e-02 -4.643926918506622314e-01 4.032281637191772461e-01
1.503159999847412109e-01 -4.375686645507812500e-01 6.289042532444000244e-02
1.252597123384475708e-01 5.190551280975341797e-03 3.011839389801025391e-01
9.525765478610992432e-02 -2.012820988893508911e-01 1.256140768527984619e-01
4.970020055770874023e-01 6.765455007553100586e-03 2.931101024150848389e-01
1.935335248708724976e-01 3.389662504196166992e-02 4.190647006034851074e-01
4.946733713150024414e-01 -5.367459356784820557e-02 3.711159229278564453e-01
5.070813894271850586e-01 -2.402810752391815186e-01 -1.024011820554733276e-01
6.626662611961364746e-02 -2.101377844810485840e-01 1.820418238639831543e-01
2.653940916061401367e-01 -2.472219765186309814e-01 5.959240198135375977e-01
2.264806926250457764e-01 -1.747322678565979004e-01 -2.460490167140960693e-02
2.142646908760070801e-02 -2.865583896636962891e-01 3.608953356742858887e-01
5.791059136390686035e-01 -4.179272949695587158e-01 -1.665581762790679932e-02
2.808621525764465332e-01 -6.786065697669982910e-01 3.211372792720794678e-01
6.246825456619262695e-01 -3.401164114475250244e-01 6.410974264144897461e-02
2.341929078102111816e-02 -3.353871405124664307e-01 3.782125115394592285e-01
3.538553714752197266e-01 -4.400100708007812500e-01 5.438013672828674316e-01
5.571460723876953125e-01 -5.223348736763000488e-01 2.494049221277236938e-01
5.822435617446899414e-01 -3.089134097099304199e-01 -4.639934003353118896e-02
5.548762679100036621e-01 -3.191066384315490723e-01 3.730604946613311768e-01
1.368501633405685425e-01 -3.925966322422027588e-01 5.690887570381164551e-01
8.879721164703369141e-02 -4.514616727828979492e-01 1.713612973690032959e-01
1.916733533143997192e-01 -1.394091546535491943e-01 1.887889206409454346e-02
4.940088987350463867e-01 -8.832371234893798828e-02 -5.205936729907989502e-02
3.930982649326324463e-01 -1.665404736995697021e-01 5.278504490852355957e-01
2.703157067298889160e-01 -6.471379995346069336e-01 1.237089112401008606e-01
6.771096587181091309e-02 -4.467360377311706543e-01 2.211063504219055176e-01
5.493644475936889648e-01 -1.931723952293395996e-02 1.423847079277038574e-01
3.722234070301055908e-01 4.729205369949340820e-02 5.123810470104217529e-02
5.791031718254089355e-01 -4.731175005435943604e-01 3.061358630657196045e-02
3.741273581981658936e-01 4.259780049324035645e-02 3.975941538810729980e-01
6.305652856826782227e-02 -1.140313446521759033e-01 4.231110215187072754e-01
5.727273821830749512e-01 -1.301017254590988159e-01 -4.750981926918029785e-03
4.509545266628265381e-01 -4.138596653938293457e-01 4.829743504524230957e-01
4.294060766696929932e-01 -1.675521880388259888e-01 5.012368559837341309e-01
1.058844923973083496e-01 -4.160796403884887695e-01 5.391990542411804199e-01
3.189246058464050293e-01 -6.863318681716918945e-01 2.864627540111541748e-01
6.142590045928955078e-01 -3.657836318016052246e-01 2.175136059522628784e-01
4.279335141181945801e-01 -5.500580370426177979e-02 4.486220180988311768e-01
1.417769640684127808e-01 -2.457484006881713867e-01 4.690356552600860596e-02
1.989057362079620361e-01 -6.466947197914123535e-01 3.531228899955749512e-01
2.548426389694213867e-01 -6.696493029594421387e-01 1.983676254749298096e-01
5.862646102905273438e-01 -3.144801855087280273e-01 3.133974671363830566e-01
4.350931048393249512e-01 -2.583974301815032959e-01 -1.194506138563156128e-01
1.607629656791687012e-01 -1.803398132324218750e-02 4.690074324607849121e-01
3.976934552192687988e-01 -6.003824472427368164e-01 4.112651050090789795e-01
2.046703398227691650e-01 -4.458739161491394043e-01 5.724466443061828613e-01
1.962723433971405029e-01 -5.787482857704162598e-02 5.255182385444641113e-01
2.356410920619964600e-01 -1.983245909214019775e-01 5.913699269294738770e-01
6.096097826957702637e-01 -1.431109160184860229e-01 1.148909777402877808e-01
1.686813384294509888e-01 -5.050936341285705566e-01 7.672153413295745850e-02
2.526667118072509766e-01 3.701031208038330078e-03 5.797196924686431885e-02
5.773964524269104004e-02 -1.225441396236419678e-01 2.801189124584197998e-01
6.196411848068237305e-01 -3.951179087162017822e-01 9.615361690521240234e-02
3.329451680183410645e-01 -4.840190708637237549e-01 -5.928964912891387939e-02
4.035901427268981934e-01 -2.904928922653198242e-01 5.386291742324829102e-01
4.261642098426818848e-01 -2.719052433967590332e-01 5.215002894401550293e-01
5.479543209075927734e-01 -4.253251552581787109e-01 -5.135743319988250732e-02
2.895047664642333984e-01 -5.649307370185852051e-01 4.996472001075744629e-01
2.756717205047607422e-01 -6.690065562725067139e-02 -1.386217772960662842e-02
4.036930203437805176e-01 -3.680040240287780762e-01 -1.125814765691757202e-01
2.156130969524383545e-01 -1.989939808845520020e-02 6.998443603515625000e-02
4.647945761680603027e-01 -1.835855841636657715e-01 -1.037508100271224976e-01
2.649835050106048584e-01 -3.400387167930603027e-01 5.958166718482971191e-01
1.472448110580444336e-01 -3.525325059890747070e-01 5.828988552093505859e-01
2.715066969394683838e-01 9.254044294357299805e-02 2.010467648506164551e-01
3.091533482074737549e-01 -1.428804695606231689e-01 -6.733347475528717041e-02
5.309987068176269531e-02 -3.724413514137268066e-01 4.852375388145446777e-01
4.647207260131835938e-02 -1.419008970260620117e-01 3.141466975212097168e-01
5.660727620124816895e-01 -1.774602234363555908e-01 3.312512338161468506e-01
3.094704151153564453e-01 9.701642394065856934e-02 3.154296278953552246e-01
2.246880680322647095e-01 -6.853789091110229492e-02 5.382381677627563477e-01
5.422691702842712402e-01 -2.583333849906921387e-02 7.324549555778503418e-02
3.367514610290527344e-01 -2.675972282886505127e-01 -1.027531176805496216e-01
5.067065358161926270e-02 -3.104294538497924805e-01 2.064948379993438721e-01
3.044754564762115479e-01 -5.150527954101562500e-01 -3.067217767238616943e-02
4.921275377273559570e-01 1.593333482742309570e-02 6.114630401134490967e-02
4.748185276985168457e-01 -5.672030448913574219e-01 3.617337942123413086e-01
4.924542307853698730e-01 3.841182589530944824e-02 2.194188833236694336e-01
3.994383215904235840e-01 -6.423230767250061035e-01 3.495675623416900635e-01
8.797642588615417480e-02 -1.604856699705123901e-01 1.567807197570800781e-01
5.677383542060852051e-01 -4.226311147212982178e-01 3.186801671981811523e-01
2.455210983753204346e-01 -5.771209001541137695e-01 4.928826093673706055e-01
4.699185192584991455e-01 1.312893629074096680e-02 3.323860466480255127e-01
3.331393003463745117e-01 -4.507463276386260986e-01 -7.343186438083648682e-02
7.739196717739105225e-02 -2.667947709560394287e-01 1.453081369400024414e-01
1.186665445566177368e-01 -2.697004675865173340e-01 7.566808164119720459e-02
3.793115615844726562e-01 8.307436108589172363e-02 1.210268139839172363e-01
3.474720120429992676e-01 -3.555412888526916504e-01 5.670394897460937500e-01
3.010218143463134766e-01 -4.791435599327087402e-01 -4.759727418422698975e-02
6.150301694869995117e-01 -3.500997424125671387e-01 2.758932113647460938e-02
3.549959957599639893e-01 -1.610523462295532227e-02 -1.433794200420379639e-02
1.886751949787139893e-01 -4.739821553230285645e-01 5.567930340766906738e-01
1.109642982482910156e-01 -3.388747870922088623e-01 8.954748511314392090e-02
1.971868872642517090e-01 5.285614728927612305e-02 3.795492649078369141e-01
6.004029512405395508e-02 -1.557760983705520630e-01 4.639426469802856445e-01
4.991326332092285156e-01 -1.505383253097534180e-01 4.244834184646606445e-01
6.129940152168273926e-01 -3.968953490257263184e-01 5.342951416969299316e-02
4.301922619342803955e-01 -4.481079578399658203e-01 -9.099875390529632568e-02
2.646295428276062012e-01 -5.267084240913391113e-01 -9.284913539886474609e-05
6.253734827041625977e-01 -2.497705966234207153e-01 1.788120865821838379e-01
1.929150223731994629e-01 -6.259543895721435547e-01 1.840916424989700317e-01
2.090745270252227783e-01 -3.434066474437713623e-01 -2.309797704219818115e-02
1.712329983711242676e-01 -5.709679126739501953e-01 4.736967384815216064e-01
1.073535978794097900e-01 -5.162234306335449219e-01 4.685976505279541016e-01
3.642025291919708252e-01 -5.744054317474365234e-01 4.611734151840209961e-01
6.137721538543701172e-01 -4.044637978076934814e-01 1.845529973506927490e-01
3.271874785423278809e-01 -6.388292312622070312e-01 4.068581163883209229e-01
2.978389561176300049e-01 9.051251411437988281e-02 1.639248728752136230e-01
4.372391104698181152e-01 -5.840268135070800781e-01 2.520516514778137207e-03
2.132154256105422974e-01 -9.372985363006591797e-02 1.955974102020263672e-02
3.298214673995971680e-01 8.132201433181762695e-02 3.564018309116363525e-01
2.651098370552062988e-01 -4.337237179279327393e-01 -4.491858184337615967e-02
2.681673467159271240e-01 -5.108764171600341797e-01 5.406928062438964844e-01
6.118189096450805664e-01 -2.205240130424499512e-01 2.303140312433242798e-01
3.037642538547515869e-01 1.311630010604858398e-03 2.097731828689575195e-02
-1.040509939193725586e-01 -6.921708583831787109e-01 -3.197147548198699951e-01
-1.746757626533508301e-01 -7.378168702125549316e-01 -2.629798948764801025e-01
-1.500957757234573364e-01 -7.298179268836975098e-01 -1.937294900417327881e-01
-1.724987030029296875e-01 -7.000815272331237793e-01 -3.339941501617431641e-01
-1.576703637838363647e-01 -6.985680460929870605e-01 -3.345965147018432617e-01
-9.799857437610626221e-02 -5.985049605369567871e-01 -2.408798933029174805e-01
-2.277486026287078857e-01 -7.146754264831542969e-01 -2.139475047588348389e-01
-6.509309262037277222e-02 -6.560152173042297363e-01 -2.015959322452545166e-01
-1.177987754344940186e-01 -5.941547155380249023e-01 -3.264717757701873779e-01
-1.828623861074447632e-01 -7.299693822860717773e-01 -2.876851856708526611e-01
-2.490054070949554443e-01 -6.639654636383056641e-01 -3.089464902877807617e-01
-8.822663873434066772e-02 -6.850469112396240234e-01 -3.143398165702819824e-01
-2.461552917957305908e-01 -6.429945230484008789e-01 -2.996613085269927979e-01
-1.748544573783874512e-01 -5.910181999206542969e-01 -2.995438873767852783e-01
-6.370036303997039795e-02 -6.886869072914123535e-01 -2.157569974660873413e-01
-9.321270138025283813e-02 -7.152662277221679688e-01 -2.669742107391357422e-01
-1.924999654293060303e-01 -7.006505727767944336e-01 -3.311232328414916992e-01
-9.402689337730407715e-02 -6.720524430274963379e-01 -3.302678763866424561e-01
-9.386678040027618408e-02 -6.164570450782775879e-01 -3.368827998638153076e-01
-7.372099161148071289e-02 -6.232687830924987793e-01 -3.220630884170532227e-01
-9.332513809204101562e-02 -6.382715106010437012e-01 -3.418375253677368164e-01
-7.190082222223281860e-02 -6.765133142471313477e-01 -1.942174136638641357e-01
-1.492593735456466675e-01 -6.324811577796936035e-01 -1.881333887577056885e-01
-1.158051714301109314e-01 -7.082722783088684082e-01 -1.789088845252990723e-01
-2.019346654415130615e-01 -7.168021202087402344e-01 -3.078501820564270020e-01
-2.233390361070632935e-01 -6.643317341804504395e-01 -2.027928978204727173e-01
-5.823683738708496094e-02 -6.872177124023437500e-01 -2.328724712133407593e-01
-1.131487712264060974e-01 -7.175608873367309570e-01 -1.905257552862167358e-01
-4.503958672285079956e-02 -6.475845575332641602e-01 -2.551513910293579102e-01
-2.050667703151702881e-01 -7.353926897048950195e-01 -2.374650537967681885e-01
-2.450605034828186035e-01 -6.725218892097473145e-01 -2.265044450759887695e-01
-2.218248844146728516e-01 -7.258327603340148926e-01 -2.710425853729248047e-01
-2.533811032772064209e-01 -6.696354150772094727e-01 -2.981146872043609619e-01
-1.232129484415054321e-01 -6.365758776664733887e-01 -1.838815957307815552e-01
-5.130174010992050171e-02 -6.550741791725158691e-01 -2.864975631237030029e-01
-1.951903402805328369e-01 -6.918784976005554199e-01 -3.384157717227935791e-01
-1.499340683221817017e-01 -5.861543416976928711e-01 -2.830350100994110107e-01
-8.831311017274856567e-02 -5.934560894966125488e-01 -2.893383204936981201e-01
-1.013292670249938965e-01 -7.111432552337646484e-01 -1.911722123622894287e-01
-9.975479543209075928e-02 -6.424135565757751465e-01 -1.849481910467147827e-01
-1.919569969177246094e-01 -6.312994956970214844e-01 -2.053923755884170532e-01
-1.444445252418518066e-01 -6.018472313880920410e-01 -3.433498144149780273e-01
-2.260601073503494263e-01 -7.194555997848510742e-01 -2.842223048210144043e-01
-1.979597955942153931e-01 -6.126410365104675293e-01 -3.368289768695831299e-01
-1.429189592599868774e-01 -6.526564359664916992e-01 -1.734792888164520264e-01
-2.278153300285339355e-01 -6.205280423164367676e-01 -2.716817557811737061e-01
-2.263719141483306885e-01 -6.219029426574707031e-01 -2.613233327865600586e-01
-1.833085119724273682e-01 -6.958714723587036133e-01 -1.730771660804748535e-01
-2.312207221984863281e-01 -6.445833444595336914e-01 -3.310085833072662354e-01
-8.823151141405105591e-02 -5.948360562324523926e-01 -2.987160086631774902e-01
-1.375589519739151001e-01 -7.269126772880554199e-01 -1.920076012611389160e-01
-8.292674273252487183e-02 -6.524167656898498535e-01 -3.315404057502746582e-01
-9.049037098884582520e-02 -7.178009748458862305e-01 -2.281038463115692139e-01
-7.104051858186721802e-02 -6.050170063972473145e-01 -2.948525846004486084e-01
-1.456074416637420654e-01 -6.457214355468750000e-01 -1.776598095893859863e-01
-1.479768157005310059e-01 -7.168285846710205078e-01 -1.774633526802062988e-01
-1.354881525039672852e-01 -6.776475310325622559e-01 -3.469303250312805176e-01
-2.459996938705444336e-01 -6.960875391960144043e-01 -2.287601679563522339e-01
-1.780050694942474365e-01 -7.376593947410583496e-01 -2.152641415596008301e-01
-1.132317036390304565e-01 -7.296826243400573730e-01 -2.358215749263763428e-01
-2.561837136745452881e-01 -6.692852973937988281e-01 -2.865658700466156006e-01
-1.287858635187149048e-01 -6.006051898002624512e-01 -3.399592041969299316e-01
-2.000956535339355469e-01 -6.273823976516723633e-01 -2.158554494380950928e-01
-2.506564259529113770e-01 -6.895181536674499512e-01 -2.368251532316207886e-01
-1.212738230824470520e-01 -7.308546304702758789e-01 -2.550289034843444824e-01
-1.078794747591018677e-01 -5.958825349807739258e-01 -2.422219514846801758e-01
-1.352677196264266968e-01 -5.864969491958618164e-01 -2.708476483821868896e-01
-4.807354509830474854e-02 -6.667495369911193848e-01 -2.597851157188415527e-01
-1.666824668645858765e-01 -5.975211262702941895e-01 -2.458523809909820557e-01
-2.391216009855270386e-01 -6.723523139953613281e-01 -2.172138094902038574e-01
-1.708911210298538208e-01 -6.018240451812744141e-01 -2.380848973989486694e-01
-1.496130526065826416e-01 -5.968905091285705566e-01 -3.362202048301696777e-01
-7.425033301115036011e-02 -6.682304739952087402e-01 -3.149418532848358154e-01
-4.776504635810852051e-02 -6.442227363586425781e-01 -2.788512408733367920e-01
-9.754963219165802002e-02 -5.923556685447692871e-01 -3.051756322383880615e-01
-1.287925690412521362e-01 -6.664734482765197754e-01 -3.511540889739990234e-01
-1.674601882696151733e-01 -7.094978094100952148e-01 -1.734825670719146729e-01
-1.596416831016540527e-01 -6.109217405319213867e-01 -2.159226685762405396e-01
-7.730460911989212036e-02 -6.358680725097656250e-01 -2.012859880924224854e-01
-1.661101877689361572e-01 -7.261088490486145020e-01 -2.966510951519012451e-01
-1.232230737805366516e-01 -6.298198103904724121e-01 -3.556116819381713867e-01
-2.202619910240173340e-01 -6.212142705917358398e-01 -2.497994154691696167e-01
-6.751590967178344727e-02 -6.177029609680175781e-01 -3.098565638065338135e-01
-1.059229746460914612e-01 -7.189103960990905762e-01 -1.992452591657638550e-01
-1.610257923603057861e-01 -5.930969715118408203e-01 -2.552218139171600342e-01
-1.731961220502853394e-01 -7.338632345199584961e-01 -2.779158353805541992e-01
-8.179357647895812988e-02 -6.011300086975097656e-01 -3.072507083415985107e-01
-8.179922401905059814e-02 -6.013135910034179688e-01 -2.488631159067153931e-01
-2.106096148490905762e-01 -6.273350715637207031e-01 -2.255655825138092041e-01
-1.114118099212646484e-01 -5.902213454246520996e-01 -3.127824962139129639e-01
-5.708109587430953979e-02 -6.865409016609191895e-01 -2.481186985969543457e-01
-1.867046952247619629e-01 -6.022765636444091797e-01 -2.504962384700775146e-01
-2.458617389202117920e-01 -7.087543010711669922e-01 -2.662324905395507812e-01
-1.199185177683830261e-01 -6.463301777839660645e-01 -1.777390241622924805e-01
-9.468090534210205078e-02 -6.645963788032531738e-01 -1.778337955474853516e-01
-1.933389902114868164e-01 -7.097368240356445312e-01 -3.206426501274108887e-01
-1.209371015429496765e-01 -6.079902648925781250e-01 -2.154625803232192993e-01
-5.365590006113052368e-02 -6.203837394714355469e-01 -2.661352753639221191e-01
-2.072154283523559570e-01 -6.972278356552124023e-01 -1.850305497646331787e-01
-4.950176179409027100e-02 -6.722332835197448730e-01 -2.512653768062591553e-01
-8.478950709104537964e-02 -6.949788331985473633e-01 -2.983079254627227783e-01
-5.507645010948181152e-02 -6.536158323287963867e-01 -2.958731949329376221e-01
-1.966179460287094116e-01 -5.989429354667663574e-01 -2.953459620475769043e-01
-7.841484248638153076e-02 -6.371243596076965332e-01 -3.300256133079528809e-01
-2.522709369659423828e-01 -6.992360353469848633e-01 -2.614644765853881836e-01
-1.627746969461441040e-01 -6.802382469177246094e-01 -3.498008251190185547e-01
-1.855511069297790527e-01 -7.243962287902832031e-01 -1.905724108219146729e-01
-1.144902855157852173e-01 -5.876673460006713867e-01 -2.693655490875244141e-01
-2.270307838916778564e-01 -6.205909252166748047e-01 -3.071788549423217773e-01
-8.088398724794387817e-02 -6.235085129737854004e-01 -2.104546725749969482e-01
-1.067520827054977417e-01 -6.237139105796813965e-01 -1.981843411922454834e-01
-7.524800300598144531e-02 -6.920179724693298340e-01 -1.988321542739868164e-01
-1.093031615018844604e-01 -6.903860569000244141e-01 -1.724460422992706299e-01
-9.723040461540222168e-02 -6.857722997665405273e-01 -1.768819987773895264e-01
-1.604647785425186157e-01 -6.798220276832580566e-01 -1.669825613498687744e-01
-1.895744353532791138e-01 -6.742595434188842773e-01 -1.766067743301391602e-01
-1.810012161731719971e-01 -6.974878907203674316e-01 -3.360425829887390137e-01
-7.198673486709594727e-02 -6.336631774902343750e-01 -3.232030272483825684e-01
-1.549827307462692261e-01 -7.383908629417419434e-01 -2.180229127407073975e-01
-2.184613943099975586e-01 -6.302325725555419922e-01 -3.362255096435546875e-01
-1.289153695106506348e-01 -7.273530960083007812e-01 -1.971187144517898560e-01
-1.019746810197830200e-01 -5.929453372955322266e-01 -3.126282095909118652e-01
-1.708769649267196655e-01 -6.708011627197265625e-01 -3.549635112285614014e-01
-1.101783365011215210e-01 -6.621678471565246582e-01 -1.728078424930572510e-01
-1.672996133565902710e-01 -6.908581852912902832e-01 -3.423130512237548828e-01
-2.390691936016082764e-01 -6.324881911277770996e-01 -2.677978575229644775e-01
-7.015945017337799072e-02 -6.676212549209594727e-01 -1.947922110557556152e-01
-1.576192677021026611e-01 -6.035544276237487793e-01 -2.277467548847198486e-01
-1.354867219924926758e-01 -5.915499925613403320e-01 -2.499617040157318115e-01
-1.822313964366912842e-01 -6.048626899719238281e-01 -2.396696656942367554e-01
-7.620600610971450806e-02 -6.585957407951354980e-01 -3.228214681148529053e-01
-1.467532217502593994e-01 -6.229280233383178711e-01 -1.971645653247833252e-01
-8.925884962081909180e-02 -6.934762001037597656e-01 -1.853030920028686523e-01
-1.277970522642135620e-01 -5.850447416305541992e-01 -2.863879799842834473e-01
-2.498081028461456299e-01 -6.553980112075805664e-01 -3.036928176879882812e-01
-1.890817284584045410e-01 -6.629834771156311035e-01 -3.554710745811462402e-01
-2.416590303182601929e-01 -7.141153216361999512e-01 -2.501967549324035645e-01
-1.322756707668304443e-01 -6.511680483818054199e-01 -1.740736216306686401e-01
-1.541022956371307373e-01 -6.049851775169372559e-01 -3.464391529560089111e-01
-1.324012428522109985e-01 -7.342041134834289551e-01 -2.548920810222625732e-01
-8.113607019186019897e-02 -6.775684952735900879e-01 -1.858433485031127930e-01
-1.490115374326705933e-01 -5.892161130905151367e-01 -3.183058202266693115e-01
-1.395767033100128174e-01 -6.940996646881103516e-01 -3.350832760334014893e-01
-1.361936926841735840e-01 -7.210388779640197754e-01 -2.973125576972961426e-01
-1.363716721534729004e-01 -5.892285704612731934e-01 -3.197648525238037109e-01
-7.133147865533828735e-02 -6.251447796821594238e-01 -2.166263163089752197e-01
-2.489478290081024170e-01 -6.481095552444458008e-01 -2.622765004634857178e-01
-1.842115521430969238e-01 -6.269026398658752441e-01 -2.057824581861495972e-01
-1.198016554117202759e-01 -6.639765501022338867e-01 -3.490872681140899658e-01
-1.601139008998870850e-01 -6.560888886451721191e-01 -1.740287244319915771e-01
-1.883351504802703857e-01 -6.100788116455078125e-01 -3.405134975910186768e-01
-1.181055158376693726e-01 -7.210837602615356445e-01 -2.845488190650939941e-01
-1.174571588635444641e-01 -6.035544872283935547e-01 -2.232759892940521240e-01
-2.184548676013946533e-01 -6.813548803329467773e-01 -3.361695110797882080e-01
-8.192096650600433350e-02 -6.459978222846984863e-01 -1.914904117584228516e-01
-1.873850822448730469e-01 -7.393172383308410645e-01 -2.367897778749465942e-01
-2.562432289123535156e-01 -6.658303737640380859e-01 -2.652400135993957520e-01
-1.724736839532852173e-01 -7.226016521453857422e-01 -3.037821948528289795e-01
-1.370451748371124268e-01 -7.369774580001831055e-01 -2.377894371747970581e-01
-5.805180221796035767e-02 -6.184941530227661133e-01 -2.899850010871887207e-01
-1.396117806434631348e-01 -6.327797770500183105e-01 -1.867721378803253174e-01
-9.661420434713363647e-02 -7.117416858673095703e-01 -2.822843194007873535e-01
-6.721767038106918335e-02 -6.874788403511047363e-01 -2.832219302654266357e-01
-2.408213317394256592e-01 -6.848009228706359863e-01 -2.169288694858551025e-01
-2.199426889419555664e-01 -7.297664880752563477e-01 -2.490298300981521606e-01
-1.278129369020462036e-01 -7.314902544021606445e-01 -2.622421681880950928e-01
-4.657395184040069580e-02 -6.502836346626281738e-01 -2.725324928760528564e-01
-2.236871421337127686e-01 -6.375641822814941406e-01 -3.358136117458343506e-01
-1.239299923181533813e-01 -7.332547903060913086e-01 -2.272623777389526367e-01
-1.052815616130828857e-01 -6.713393926620483398e-01 -1.724812239408493042e-01
-6.198536604642868042e-02 -6.104383468627929688e-01 -2.662180960178375244e-01
-1.340871900320053101e-01 -6.697871685028076172e-01 -1.671727895736694336e-01
-8.766142278909683228e-02 -5.949947834014892578e-01 -2.643678188323974609e-01
-1.091612726449966431e-01 -7.190090417861938477e-01 -2.803790867328643799e-01
-1.631264835596084595e-01 -6.457917690277099609e-01 -1.806793510913848877e-01
-1.169366985559463501e-01 -6.740322709083557129e-01 -3.424162864685058594e-01
-1.748649924993515015e-01 -7.180111408233642578e-01 -1.807202249765396118e-01
-2.275057137012481689e-01 -7.147458195686340332e-01 -2.928707003593444824e-01
-1.829583346843719482e-01 -7.394571304321289062e-01 -2.294882237911224365e-01
-2.430232614278793335e-01 -6.413289308547973633e-01 -3.075490295886993408e-01
-1.945352852344512939e-01 -7.211507558822631836e-01 -3.031987249851226807e-01
-1.177678406238555908e-01 -7.254835963249206543e-01 -2.720997333526611328e-01
-1.201354116201400757e-01 -6.987131237983703613e-01 -3.223360478878021240e-01
-2.030487954616546631e-01 -6.747610569000244141e-01 -3.468755483627319336e-01
-8.387543261051177979e-02 -7.127996087074279785e-01 -2.246872335672378540e-01
-1.763985753059387207e-01 -6.014843583106994629e-01 -3.350835144519805908e-01
-1.296528875827789307e-01 -6.019228100776672363e-01 -2.252863347530364990e-01
-1.541598290205001831e-01 -5.902749300003051758e-01 -2.610119879245758057e-01
-2.197944521903991699e-01 -6.797927021980285645e-01 -1.941734552383422852e-01
-8.434660732746124268e-02 -7.123436927795410156e-01 -2.554202377796173096e-01
-2.114098221063613892e-01 -6.748618483543395996e-01 -3.432934880256652832e-01
-1.422567516565322876e-01 -6.527925729751586914e-01 -3.592061996459960938e-01
-4.821799695491790771e-02 -6.315647363662719727e-01 -2.590895891189575195e-01
-2.473667263984680176e-01 -6.655492186546325684e-01 -2.348453402519226074e-01
-9.895358979701995850e-02 -7.226539850234985352e-01 -2.266509234905242920e-01
-9.712693095207214355e-02 -7.185419797897338867e-01 -2.109704762697219849e-01
-1.253837049007415771e-01 -7.251458168029785156e-01 -2.808393537998199463e-01
-1.781998723745346069e-01 -7.173687815666198730e-01 -3.123433291912078857e-01
-2.173516154289245605e-01 -6.472851634025573730e-01 -3.445262610912322998e-01
-1.317071318626403809e-01 -7.306578755378723145e-01 -2.698506712913513184e-01
-1.086042970418930054e-01 -7.128969430923461914e-01 -2.933024168014526367e-01
-1.718177795410156250e-01 -7.107049822807312012e-01 -3.218775689601898193e-01
-1.658687293529510498e-01 -6.173883676528930664e-01 -2.089864015579223633e-01
-2.392024993896484375e-01 -7.124674320220947266e-01 -2.325310409069061279e-01
-1.999059915542602539e-01 -7.031486630439758301e-01 -3.264910280704498291e-01
-9.276285767555236816e-02 -7.190178632736206055e-01 -2.467275708913803101e-01
-1.245811432600021362e-01 -6.439683437347412109e-01 -3.563883900642395020e-01
-1.678045541048049927e-01 -6.123428344726562500e-01 -3.510064184665679932e-01
-2.026570290327072144e-01 -6.602527499198913574e-01 -3.519217967987060547e-01
-1.418197304010391235e-01 -7.317720055580139160e-01 -2.742505669593811035e-01
-1.026857793331146240e-01 -6.058112978935241699e-01 -3.345715999603271484e-01
-1.877786070108413696e-01 -7.357019782066345215e-01 -2.135641574859619141e-01
-2.330627441406250000e-01 -6.288811564445495605e-01 -2.586156725883483887e-01
-5.569697171449661255e-02 -6.677106022834777832e-01 -2.865859568119049072e-01
-1.373937726020812988e-01 -7.275706529617309570e-01 -2.834271490573883057e-01
-1.821204274892807007e-01 -6.669859290122985840e-01 -1.757662296295166016e-01
-9.850448369979858398e-02 -5.896633267402648926e-01 -2.817000150680541992e-01
-2.264871299266815186e-01 -6.325320601463317871e-01 -3.288591504096984863e-01
-1.205494254827499390e-01 -6.787292361259460449e-01 -1.677713990211486816e-01
-5.124655365943908691e-02 -6.645667552947998047e-01 -2.250111401081085205e-01
-1.958585679531097412e-01 -7.373747825622558594e-01 -2.310221195220947266e-01
-1.671757996082305908e-01 -6.915043592453002930e-01 -1.680983752012252808e-01
-7.458955794572830200e-02 -6.115861535072326660e-01 -3.139816224575042725e-01
-2.547039985656738281e-01 -6.583585739135742188e-01 -2.834729850292205811e-01
-1.529131084680557251e-01 -7.348793148994445801e-01 -2.700259387493133545e-01
-1.116623654961585999e-01 -6.158056855201721191e-01 -3.466662764549255371e-01
-1.253927946090698242e-01 -5.859037041664123535e-01 -3.020487725734710693e-01
-1.106933355331420898e-01 -6.666592955589294434e-01 -3.436955809593200684e-01
-1.775742620229721069e-01 -5.928667187690734863e-01 -2.756163477897644043e-01
-1.078421548008918762e-01 -5.877021551132202148e-01 -2.948136031627655029e-01
-4.951929301023483276e-02 -6.370568275451660156e-01 -2.833888232707977295e-01
-2.426741421222686768e-01 -6.975243687629699707e-01 -2.997424304485321045e-01
-1.219327226281166077e-01 -6.630240678787231445e-01 -1.701275408267974854e-01
-2.403385043144226074e-01 -6.891231536865234375e-01 -3.118596076965332031e-01
-1.486602127552032471e-01 -7.382249236106872559e-01 -2.499771863222122192e-01
-2.401335835456848145e-01 -7.155082821846008301e-01 -2.609979510307312012e-01
-1.210050955414772034e-01 -7.179589867591857910e-01 -2.937999963760375977e-01
-2.113901674747467041e-01 -7.084321975708007812e-01 -3.154381513595581055e-01
-1.277299821376800537e-01 -6.888573765754699707e-01 -1.670493185520172119e-01
-2.133613526821136475e-01 -6.583718061447143555e-01 -1.975164115428924561e-01
-1.568820625543594360e-01 -7.321158647537231445e-01 -2.804259955883026123e-01
-1.707416921854019165e-01 -6.262397170066833496e-01 -2.001588344573974609e-01
-2.450296878814697266e-01 -6.879674792289733887e-01 -2.240254133939743042e-01
-2.007245570421218872e-01 -6.018738150596618652e-01 -2.773926258087158203e-01
-2.335299253463745117e-01 -7.066737413406372070e-01 -2.141203880310058594e-01
-1.372371613979339600e-01 -5.923744440078735352e-01 -3.279783427715301514e-01
-1.452106088399887085e-01 -5.859482288360595703e-01 -3.025654554367065430e-01
-6.534475833177566528e-02 -6.379157900810241699e-01 -2.105552405118942261e-01
-2.433664053678512573e-01 -6.505706310272216797e-01 -2.414387613534927368e-01
-1.203123405575752258e-01 -7.226307988166809082e-01 -1.936233937740325928e-01
-9.890292584896087646e-02 -5.940309166908264160e-01 -2.533439993858337402e-01
-1.172386109828948975e-01 -5.861459374427795410e-01 -2.959030270576477051e-01
-1.667155027389526367e-01 -7.362213134765625000e-01 -2.075750380754470825e-01
-4.614604264497756958e-02 -6.560546159744262695e-01 -2.657360732555389404e-01
-9.574134647846221924e-02 -6.570892930030822754e-01 -3.394584655761718750e-01
-7.978926599025726318e-02 -6.877732872962951660e-01 -1.905935108661651611e-01
-1.644397079944610596e-01 -6.678926944732666016e-01 -1.702140718698501587e-01
-6.628864258527755737e-02 -6.678710579872131348e-01 -3.051804602146148682e-01
-1.923675835132598877e-01 -5.980261564254760742e-01 -3.066841363906860352e-01
-1.076263040304183960e-01 -7.221976518630981445e-01 -2.690496146678924561e-01
-2.551805377006530762e-01 -6.893196702003479004e-01 -2.765960693359375000e-01
-1.573649048805236816e-01 -5.878804922103881836e-01 -3.069636821746826172e-01
-1.258377283811569214e-01 -7.075260877609252930e-01 -1.745901107788085938e-01
-1.768611073493957520e-01 -5.926464796066284180e-01 -3.088920116424560547e-01
-2.154056131839752197e-01 -6.435780525207519531e-01 -2.107779532670974731e-01
-9.598124027252197266e-02 -6.771243214607238770e-01 -1.762561500072479248e-01
-2.327055633068084717e-01 -6.605955362319946289e-01 -3.322540819644927979e-01
-2.550205588340759277e-01 -6.772136688232421875e-01 -2.907538712024688721e-01
-2.456061244010925293e-01 -6.576179265975952148e-01 -3.145152628421783447e-01
-2.362438142299652100e-01 -6.556255817413330078e-01 -2.237023711204528809e-01
-1.424584537744522095e-01 -6.044119000434875488e-01 -2.219878435134887695e-01
-2.150803804397583008e-01 -6.097809076309204102e-01 -2.798953652381896973e-01
-1.030339747667312622e-01 -6.615766882896423340e-01 -3.420576453208923340e-01
-2.450488805770874023e-01 -6.388186216354370117e-01 -2.740734517574310303e-01
-1.884589791297912598e-01 -7.285897731781005859e-01 -1.977675557136535645e-01
-2.006822973489761353e-01 -6.383181810379028320e-01 -2.039254307746887207e-01
-1.129802912473678589e-01 -5.910261869430541992e-01 -2.547361850738525391e-01
-1.617356985807418823e-01 -6.272163391113281250e-01 -1.960066854953765869e-01
-1.001441553235054016e-01 -6.451487541198730469e-01 -3.454376459121704102e-01
-1.324735581874847412e-01 -6.540124416351318359e-01 -3.567964732646942139e-01
-9.249740839004516602e-02 -6.398882865905761719e-01 -1.895093321800231934e-01
-1.356468647718429565e-01 -7.023862004280090332e-01 -1.696866303682327271e-01
-1.978860497474670410e-01 -7.334640026092529297e-01 -2.147892415523529053e-01
-1.935487240552902222e-01 -6.183685064315795898e-01 -2.235310971736907959e-01
-2.222218215465545654e-01 -7.047379016876220703e-01 -1.994557082653045654e-01
-1.422454267740249634e-01 -5.852412581443786621e-01 -2.867772877216339111e-01
-1.958882212638854980e-01 -7.346308231353759766e-01 -2.681523561477661133e-01
-1.664837896823883057e-01 -7.389782667160034180e-01 -2.186670005321502686e-01
-6.697814166545867920e-02 -6.311322450637817383e-01 -3.166240453720092773e-01
-5.788788944482803345e-02 -6.277416944503784180e-01 -2.314555346965789795e-01
-1.806609779596328735e-01 -6.194016933441162109e-01 -3.524799942970275879e-01
-7.827042043209075928e-02 -6.832742094993591309e-01 -3.057230710983276367e-01
-7.986226677894592285e-02 -7.107129693031311035e-01 -2.408975511789321899e-01
-1.847335845232009888e-01 -6.187099814414978027e-01 -2.167146503925323486e-01
-2.248452901840209961e-01 -6.504499316215515137e-01 -3.391160666942596436e-01
-1.053347438573837280e-01 -6.360775828361511230e-01 -1.875515878200531006e-01
-1.082455068826675415e-01 -7.099837660789489746e-01 -1.846043169498443604e-01
-6.636858731508255005e-02 -6.533963680267333984e-01 -3.139029741287231445e-01
-1.231093406677246094e-01 -6.139050722122192383e-01 -3.498785495758056641e-01
-1.312831342220306396e-01 -5.970290303230285645e-01 -2.353183180093765259e-01
-7.373975962400436401e-02 -6.017870306968688965e-01 -2.641530930995941162e-01
-1.012826263904571533e-01 -7.012547254562377930e-01 -3.061208426952362061e-01
-6.555244326591491699e-02 -6.742740869522094727e-01 -2.981744706630706787e-01
-1.477211117744445801e-01 -7.339787483215332031e-01 -2.038369625806808472e-01
-2.392317503690719604e-01 -7.109545469284057617e-01 -2.823504507541656494e-01
-1.558079570531845093e-01 -6.937416195869445801e-01 -1.667462587356567383e-01
-7.437284290790557861e-02 -7.044975161552429199e-01 -2.232211530208587646e-01
-5.905531346797943115e-02 -6.574765443801879883e-01 -2.090336233377456665e-01
-7.319004833698272705e-02 -6.588342785835266113e-01 -1.929186731576919556e-01
-2.008145898580551147e-01 -6.855131983757019043e-01 -1.804164350032806396e-01
-1.863576173782348633e-01 -5.952085256576538086e-01 -2.809762060642242432e-01
-4.580752551555633545e-02 -6.533979773521423340e-01 -2.442854940891265869e-01
-6.564640998840332031e-02 -6.444153785705566406e-01 -3.154534697532653809e-01
-2.189407348632812500e-01 -6.938084959983825684e-01 -3.268621563911437988e-01
-1.319389045238494873e-01 -7.352105379104614258e-01 -2.463994175195693970e-01
