1.333957016468048096e-01 -3.632100671529769897e-02 1.573406308889389038e-01
1.246227771043777466e-01 -1.146652176976203918e-02 -1.156341135501861572e-01
2.271553575992584229e-01 -6.185544282197952271e-02 1.907935440540313721e-01
5.059056282043457031e-01 -2.063778415322303772e-02 -1.345272921025753021e-02
1.902930587530136108e-01 -3.726238012313842773e-02 1.691727340221405029e-01
7.159541547298431396e-02 -1.223430633544921875e-01 -4.686421249061822891e-03
4.390372633934020996e-01 -2.738830074667930603e-02 -1.174202039837837219e-01
1.256516277790069580e-01 -8.057126402854919434e-02 -1.831603795289993286e-01
1.280844658613204956e-01 -1.397006213665008545e-03 -1.184445340186357498e-02
-7.671809196472167969e-02 -3.972534090280532837e-02 -6.813790649175643921e-02
2.881033420562744141e-01 -4.439363628625869751e-02 1.811829358339309692e-01
3.601622581481933594e-01 -1.079910397529602051e-01 -9.099484980106353760e-02
2.609489560127258301e-01 -6.821550428867340088e-02 -1.914864778518676758e-01
3.112050294876098633e-01 -1.154756024479866028e-01 -7.786724716424942017e-02
-8.688363432884216309e-02 -5.301405489444732666e-02 -9.093454480171203613e-02
4.375491142272949219e-01 -1.701217144727706909e-02 8.833059668540954590e-02
1.704684942960739136e-01 -8.878968656063079834e-04 -6.226809695363044739e-02
1.236686035990715027e-01 -4.831993579864501953e-02 1.699189841747283936e-01
4.148262739181518555e-01 -1.072741970419883728e-01 7.918331027030944824e-02
2.213573604822158813e-01 -8.665777742862701416e-02 -1.779899895191192627e-01
-3.171721100807189941e-02 -3.863261640071868896e-02 8.169879764318466187e-02
2.240022122859954834e-01 -1.082561016082763672e-01 1.384272426366806030e-01
4.975601434707641602e-01 -6.999235600233078003e-02 1.210371777415275574e-01
-4.249075055122375488e-02 -3.122129291296005249e-02 4.292038083076477051e-02
2.699997127056121826e-01 -3.210547566413879395e-02 1.658750027418136597e-01
2.915302515029907227e-01 -7.097287476062774658e-02 -1.855394691228866577e-01
1.641055047512054443e-01 -1.243209913372993469e-01 -4.473265632987022400e-02
-5.682215094566345215e-02 -6.472910940647125244e-02 9.642966836690902710e-02
2.202705740928649902e-01 -1.141605824232101440e-01 1.181892901659011841e-01
3.521377742290496826e-01 -1.191895306110382080e-01 -2.652468392625451088e-03
2.198356389999389648e-02 -1.004065275192260742e-01 1.097562387585639954e-01
4.829124808311462402e-01 -5.393861606717109680e-02 -1.183236464858055115e-01
7.474528253078460693e-02 -1.132156103849411011e-01 9.282751381397247314e-02
2.062911689281463623e-01 -4.146140068769454956e-02 1.763609945774078369e-01
3.735231161117553711e-01 -1.101357713341712952e-01 9.477599710226058960e-02
1.876527816057205200e-01 5.688592791557312012e-04 -5.210581049323081970e-02
2.930615842342376709e-02 -1.278000697493553162e-02 -4.975901916623115540e-02
1.738509833812713623e-01 1.011386513710021973e-03 -3.201779350638389587e-02
3.970757722854614258e-01 -9.613409638404846191e-02 -1.133755221962928772e-01
-8.579850196838378906e-03 -3.905449435114860535e-02 1.010336950421333313e-01
3.633001446723937988e-02 -3.434838354587554932e-02 -1.499368995428085327e-01
5.076147913932800293e-01 -4.286271706223487854e-02 1.077547222375869751e-01
2.100801467895507812e-01 -5.388651043176651001e-02 -1.967337280511856079e-01
3.016622066497802734e-01 -1.232714354991912842e-01 1.097062975168228149e-02
5.192078351974487305e-01 -8.407339453697204590e-02 6.817159801721572876e-02
1.194339245557785034e-01 -2.250291407108306885e-03 -3.294632211327552795e-02
4.499694705009460449e-01 -1.446950435638427734e-02 6.564393639564514160e-02
4.639187455177307129e-01 -9.123620390892028809e-02 -8.159472048282623291e-02
1.038496121764183044e-01 -3.307286649942398071e-03 -2.152478694915771484e-02
3.085295855998992920e-02 -1.184419915080070496e-01 9.920400567352771759e-03
3.436447978019714355e-01 -1.166285574436187744e-02 1.052545160055160522e-01
5.510049462318420410e-01 -4.940342158079147339e-02 -4.393355920910835266e-02
4.623670279979705811e-01 -1.563040167093276978e-02 -5.760563164949417114e-02
3.201576173305511475e-01 -9.706905484199523926e-02 -1.420779675245285034e-01
2.651609480381011963e-01 -2.520631998777389526e-03 6.825561821460723877e-02
2.422967404127120972e-01 -1.013478264212608337e-01 -1.479083299636840820e-01
5.374549329280853271e-02 -8.796410262584686279e-02 -1.603502631187438965e-01
-2.723735570907592773e-02 -2.984538301825523376e-02 5.626715719699859619e-02
1.820094585418701172e-01 -1.923924684524536133e-02 1.304845809936523438e-01
8.455172181129455566e-02 -1.375751197338104248e-02 7.554643601179122925e-02
3.684609234333038330e-01 -1.004126071929931641e-01 -1.149926483631134033e-01
1.273964792490005493e-01 -4.685819149017333984e-03 4.333071410655975342e-02
-4.813674092292785645e-02 -9.632823616266250610e-02 6.771923601627349854e-02
2.037932276725769043e-01 -2.604005858302116394e-02 1.508740186691284180e-01
4.378034472465515137e-01 -1.083896085619926453e-01 2.294978126883506775e-02
-4.663249850273132324e-02 -6.234007328748703003e-02 -1.349280923604965210e-01
5.700811743736267090e-02 -1.202872470021247864e-01 -3.195941075682640076e-02
3.267820179462432861e-01 -2.232782170176506042e-02 -1.501450538635253906e-01
3.560419082641601562e-01 -7.611477375030517578e-02 -1.659876406192779541e-01
-5.703321099281311035e-02 -1.021473705768585205e-01 2.510567754507064819e-02
3.279760479927062988e-01 -5.685188993811607361e-02 -1.829478740692138672e-01
5.134869813919067383e-01 -3.187803179025650024e-02 7.807088643312454224e-02
4.272766411304473877e-01 -9.472195804119110107e-02 1.224630624055862427e-01
5.119609832763671875e-01 -6.999333947896957397e-02 -8.530385792255401611e-02
1.972530037164688110e-01 -1.248222142457962036e-01 -3.980596363544464111e-02
3.694649934768676758e-01 -1.171556860208511353e-02 9.819759428501129150e-02
4.428181052207946777e-01 -1.072590202093124390e-01 -3.659510519355535507e-03
-8.595764636993408203e-03 -8.915672451257705688e-02 -1.343932747840881348e-01
-5.527424812316894531e-02 -8.405428379774093628e-02 8.801899850368499756e-02
3.970457613468170166e-01 -1.486618444323539734e-02 -1.047062054276466370e-01
8.503769338130950928e-02 -5.259558558464050293e-03 -3.310668095946311951e-02
2.748952209949493408e-01 -2.592047676444053650e-02 -1.661394536495208740e-01
4.495804607868194580e-01 -7.393757253885269165e-02 1.469243317842483521e-01
2.749628424644470215e-01 -1.347775757312774658e-02 1.202967986464500427e-01
3.775526881217956543e-01 -4.226628690958023071e-02 -1.641226857900619507e-01
5.044670104980468750e-01 -4.472135007381439209e-02 -9.738816320896148682e-02
-6.268355250358581543e-02 -1.024846136569976807e-01 -1.855766028165817261e-02
4.544991254806518555e-02 -9.987953305244445801e-02 -1.337847262620925903e-01
3.766584396362304688e-01 -2.214056253433227539e-02 1.313097774982452393e-01
3.509536385536193848e-03 -9.634798765182495117e-02 1.088198050856590271e-01
1.912932991981506348e-01 1.202821731567382812e-04 3.191135823726654053e-02
3.523983359336853027e-01 -1.170803010463714600e-01 6.051878258585929871e-02
2.662849426269531250e-02 -1.100996136665344238e-01 -8.912517130374908447e-02
2.319170534610748291e-02 -8.572443574666976929e-02 -1.537765562534332275e-01
4.676566720008850098e-01 -1.279000192880630493e-02 -2.150561287999153137e-02
2.368712276220321655e-01 -1.176668405532836914e-01 1.015028432011604309e-01
2.976929843425750732e-01 -8.221896737813949585e-02 1.810124069452285767e-01
1.553093194961547852e-01 -6.158276647329330444e-02 -1.959687471389770508e-01
-4.027202725410461426e-03 -2.547422796487808228e-02 -1.001090705394744873e-01
2.958570122718811035e-01 -1.023602187633514404e-01 1.482166051864624023e-01
5.556365251541137695e-01 -7.087967544794082642e-02 -6.259218789637088776e-03
5.361379683017730713e-02 -1.165013089776039124e-01 6.253904104232788086e-02
5.992475152015686035e-02 -1.792977750301361084e-02 -1.144897416234016418e-01
7.942666113376617432e-02 -1.944563910365104675e-02 -1.296050399541854858e-01
1.707604825496673584e-01 -3.407539427280426025e-02 -1.806979477405548096e-01
2.192837446928024292e-01 -3.990434110164642334e-03 -9.788507223129272461e-02
5.482431650161743164e-01 -3.536248952150344849e-02 3.032372333109378815e-04
1.269665211439132690e-01 -3.347501903772354126e-02 -1.745187044143676758e-01
4.628151655197143555e-01 -1.034128963947296143e-01 3.453756123781204224e-02
-1.662786304950714111e-02 -6.465617567300796509e-02 -1.525027155876159668e-01
2.627854347229003906e-01 2.070888876914978027e-05 -6.889007240533828735e-02
1.844430267810821533e-01 -1.283997297286987305e-02 1.097478345036506653e-01
1.412317454814910889e-01 -8.707791566848754883e-04 -3.677554428577423096e-02
2.153913527727127075e-01 -1.631844788789749146e-03 5.675888434052467346e-02
8.575667440891265869e-02 -9.314972162246704102e-02 1.500114202499389648e-01
2.906333506107330322e-01 -1.185823827981948853e-01 -6.745108217000961304e-02
-1.097525954246520996e-01 -6.974502652883529663e-02 -6.515809893608093262e-02
2.948575913906097412e-01 6.305016577243804932e-04 -5.617040768265724182e-02
1.358000338077545166e-01 -9.703940898180007935e-02 1.557898819446563721e-01
1.346550881862640381e-01 -4.674755036830902100e-03 -7.973963767290115356e-02
7.220809161663055420e-02 -1.199428588151931763e-01 4.883326962590217590e-02
5.365025997161865234e-01 -5.650988966226577759e-02 9.046638011932373047e-02
2.529436945915222168e-01 -1.255704015493392944e-01 4.410665016621351242e-03
4.422526657581329346e-01 -8.725928515195846558e-02 -1.093815192580223083e-01
1.749033629894256592e-01 -9.006288647651672363e-02 1.721396148204803467e-01
-7.943990826606750488e-02 -8.025357127189636230e-02 -9.724756330251693726e-02
5.327352881431579590e-01 -4.018820822238922119e-02 7.687855511903762817e-02
-3.882327675819396973e-02 -3.435662388801574707e-02 -1.002386808395385742e-01
4.434692859649658203e-01 -9.659664332866668701e-02 -8.035189658403396606e-02
1.255909800529479980e-01 -1.220455914735794067e-01 6.165508553385734558e-02
5.590691566467285156e-01 -5.812872573733329773e-02 5.263628810644149780e-02
2.047652304172515869e-01 -6.992813199758529663e-03 8.821076154708862305e-02
1.038999632000923157e-01 -5.362130701541900635e-03 2.994899824261665344e-02
3.657650053501129150e-01 -3.993127495050430298e-03 5.431450903415679932e-02
4.749393463134765625e-01 -1.421837508678436279e-02 2.598214149475097656e-02
1.510410606861114502e-01 -1.283698529005050659e-02 1.010094061493873596e-01
2.308401465415954590e-01 1.542583107948303223e-03 2.736779302358627319e-02
2.752574682235717773e-01 -1.234899610280990601e-01 4.577685892581939697e-02
5.547984838485717773e-01 -6.405185908079147339e-02 -3.173221647739410400e-02
2.661066353321075439e-01 -1.233222857117652893e-01 -3.645331412553787231e-02
3.665498495101928711e-01 -1.179370880126953125e-01 1.764763146638870239e-02
4.829770922660827637e-01 -3.219034150242805481e-02 -9.725134074687957764e-02
2.812636196613311768e-01 1.216948032379150391e-03 3.338591381907463074e-02
-1.187576949596405029e-01 -6.935255229473114014e-02 1.192194409668445587e-03
4.479426741600036621e-01 -1.005633324384689331e-01 -5.767466872930526733e-02
3.095582127571105957e-03 -1.650024205446243286e-02 9.611016139388084412e-04
2.608480453491210938e-01 -1.111064255237579346e-01 -1.144303828477859497e-01
4.683198034763336182e-01 -9.929100424051284790e-02 -3.792058676481246948e-02
5.121241211891174316e-01 -2.317433804273605347e-02 3.371683135628700256e-02
3.939111232757568359e-01 -8.402376621961593628e-02 1.584617644548416138e-01
1.739168167114257812e-02 -1.170152798295021057e-01 -1.108342129737138748e-02
-1.204935312271118164e-01 -6.659533083438873291e-02 -1.948963850736618042e-02
2.296068817377090454e-01 2.673491835594177246e-03 3.440989647060632706e-03
-9.627684950828552246e-02 -5.326173081994056702e-02 3.839553520083427429e-02
6.583158671855926514e-02 -1.072243824601173401e-01 1.114808470010757446e-01
-9.555712342262268066e-02 -9.004217386245727539e-02 -3.831804916262626648e-02
2.056358605623245239e-01 -1.233695894479751587e-01 6.561133265495300293e-02
2.357902526855468750e-01 -6.054372340440750122e-02 -1.960347741842269897e-01
3.671913146972656250e-01 -2.822222560644149780e-02 1.477805078029632568e-01
3.040141463279724121e-01 -1.101710349321365356e-01 -1.063450053334236145e-01
-3.543880581855773926e-02 -1.038558781147003174e-01 -6.844228506088256836e-02
3.778726160526275635e-01 -3.869547694921493530e-02 1.624783426523208618e-01
8.061733841896057129e-02 -6.985813379287719727e-02 1.668882668018341064e-01
4.258040189743041992e-01 -9.713959693908691406e-02 -9.228872507810592651e-02
2.613647580146789551e-01 -2.270570024847984314e-02 1.470054686069488525e-01
9.122863411903381348e-03 -1.088670790195465088e-01 7.172901928424835205e-02
2.785294353961944580e-01 -1.090922206640243530e-01 -1.179218441247940063e-01
5.110834240913391113e-01 -9.005471318960189819e-02 -2.004141360521316528e-02
8.006370067596435547e-02 -1.115014404058456421e-01 -1.066834032535552979e-01
1.618350446224212646e-01 -5.778603255748748779e-03 6.938310712575912476e-02
3.392799198627471924e-02 -9.021519124507904053e-02 1.353521645069122314e-01
1.415592879056930542e-01 -1.380025967955589294e-02 -1.300341784954071045e-01
-9.998738765716552734e-02 -5.308248847723007202e-02 -6.965490430593490601e-02
3.504118919372558594e-01 -1.708172261714935303e-03 -5.347719416022300720e-02
4.015155732631683350e-01 -7.759670913219451904e-02 -1.476601958274841309e-01
2.219538539648056030e-01 -2.767294645309448242e-02 -1.725802570581436157e-01
3.720580339431762695e-01 -1.342151314020156860e-03 -2.401592954993247986e-02
4.000592827796936035e-01 -1.019410043954849243e-02 -8.243156224489212036e-02
1.556221395730972290e-01 -1.064892709255218506e-01 1.384111791849136353e-01
2.079706341028213501e-01 -5.950363352894783020e-02 1.892093718051910400e-01
3.988490998744964600e-01 -1.136066019535064697e-01 -1.148619595915079117e-02
3.302441239356994629e-01 -1.210006177425384521e-01 2.821060642600059509e-02
3.798449039459228516e-02 -4.807187616825103760e-02 1.412284076213836670e-01
3.492478132247924805e-01 -1.037487983703613281e-01 -1.127624735236167908e-01
3.259503543376922607e-01 -1.214723289012908936e-01 -1.077271299436688423e-03
5.259702801704406738e-01 -8.098244667053222656e-02 -4.061641544103622437e-02
8.342766761779785156e-02 -4.888964444398880005e-02 -1.823520362377166748e-01
-2.249875664710998535e-02 -1.069748848676681519e-01 4.946953058242797852e-02
3.184854686260223389e-01 -3.258146345615386963e-03 -8.172006160020828247e-02
4.431931376457214355e-01 -2.954379469156265259e-02 1.243627816438674927e-01
1.785304248332977295e-01 -1.254801452159881592e-01 -3.070707619190216064e-02
7.360987365245819092e-02 -1.091390103101730347e-02 -8.627344667911529541e-02
2.585112452507019043e-01 -1.173123121261596680e-01 1.005702167749404907e-01
4.718328714370727539e-01 -6.566259264945983887e-02 1.406442821025848389e-01
3.607869148254394531e-01 -1.068252325057983398e-01 1.163222044706344604e-01
4.254170060157775879e-01 -1.066002622246742249e-02 6.297250092029571533e-02
2.685170769691467285e-01 -4.031407833099365234e-02 -1.857348978519439697e-01
1.831275820732116699e-01 -1.218773946166038513e-01 7.664544880390167236e-02
2.018219977617263794e-01 -1.096978485584259033e-01 1.336825042963027954e-01
3.163411021232604980e-01 -1.166788637638092041e-01 8.720310032367706299e-02
6.295214593410491943e-02 -5.725356191396713257e-02 1.586610525846481323e-01
3.412422537803649902e-01 -9.361395239830017090e-02 1.581612825393676758e-01
4.582774341106414795e-01 -2.431030571460723877e-02 -9.718959033489227295e-02
-9.988740086555480957e-03 -2.007023990154266357e-02 1.735805347561836243e-02
1.824998855590820312e-01 -1.247152313590049744e-01 5.084525793790817261e-02
2.651236653327941895e-01 -1.065631657838821411e-01 1.410376429557800293e-01
2.075545489788055420e-01 -1.178761124610900879e-01 1.016328558325767517e-01
4.399601221084594727e-01 -5.999903008341789246e-02 -1.431546062231063843e-01
5.503091216087341309e-01 -3.871404007077217102e-02 3.716379776597023010e-02
4.929692149162292480e-01 -9.344904124736785889e-02 6.446258723735809326e-02
4.767073392868041992e-01 -9.992393851280212402e-02 -1.360659021884202957e-02
1.748929172754287720e-01 -6.928589195013046265e-02 -1.947662383317947388e-01
2.037227749824523926e-01 -9.454897791147232056e-02 1.681029349565505981e-01
3.681317567825317383e-01 -3.697320818901062012e-03 -6.024466827511787415e-02
-6.526303291320800781e-02 -4.625364020466804504e-02 6.652136892080307007e-02
3.053633272647857666e-01 -4.617702215909957886e-03 7.828959077596664429e-02
-8.086127042770385742e-02 -8.776468783617019653e-02 -7.893387228250503540e-02
1.479359865188598633e-01 -5.577802658081054688e-03 -9.225361049175262451e-02
5.361404418945312500e-01 -7.998251914978027344e-02 -2.252139523625373840e-02
5.138723850250244141e-01 -3.809995949268341064e-02 -7.972997426986694336e-02
2.014182955026626587e-01 -8.800178021192550659e-02 -1.770275831222534180e-01
7.549017667770385742e-02 -3.373993933200836182e-02 -1.630194187164306641e-01
2.311851233243942261e-01 -1.244559288024902344e-01 5.139166861772537231e-02
1.382420659065246582e-01 -1.255208700895309448e-01 -1.548322476446628571e-02
2.757208943367004395e-01 -1.244346424937248230e-01 2.540165558457374573e-02
1.875583082437515259e-01 -1.165427267551422119e-01 -9.988634288311004639e-02
4.301379919052124023e-01 -1.059883236885070801e-01 -4.432658851146697998e-02
1.352576613426208496e-01 -1.105994731187820435e-02 8.761605620384216309e-02
-4.659637808799743652e-03 -1.116696447134017944e-01 -5.131225660443305969e-02
-1.106030941009521484e-01 -7.409702241420745850e-02 2.505740523338317871e-02
-1.811137795448303223e-02 -1.061165258288383484e-01 -7.483293861150741577e-02
1.517725884914398193e-01 -1.233992874622344971e-01 5.850437656044960022e-02
3.937554955482482910e-01 -3.947693854570388794e-02 -1.560883074998855591e-01
2.779732644557952881e-02 -1.124957129359245300e-01 6.783898174762725830e-02
3.432036042213439941e-01 -1.147149503231048584e-01 -6.473048031330108643e-02
4.189843535423278809e-01 -8.718337863683700562e-03 -5.785142257809638977e-02
1.541745364665985107e-01 -1.252940148115158081e-01 3.583011403679847717e-02
-1.882427930831909180e-02 -8.662964403629302979e-02 1.121382117271423340e-01
3.149619400501251221e-01 -1.925087720155715942e-02 1.353846341371536255e-01
-9.862172603607177734e-02 -4.468579590320587158e-02 -1.771871186792850494e-02
1.162389889359474182e-01 -2.608104795217514038e-02 -1.589741110801696777e-01
1.265223324298858643e-01 -1.210869252681732178e-01 -6.676766276359558105e-02
1.033381000161170959e-01 -7.814470678567886353e-03 5.167893320322036743e-02
1.116353273391723633e-02 -1.562458276748657227e-02 -4.998376965522766113e-02
2.019656002521514893e-01 -7.623492181301116943e-02 1.867589056491851807e-01
1.186542063951492310e-01 -8.323913067579269409e-02 1.701157689094543457e-01
5.847656726837158203e-02 -7.730548828840255737e-02 1.572423130273818970e-01
5.548611879348754883e-01 -7.289177179336547852e-02 1.208640821278095245e-02
3.448787331581115723e-02 -1.145163774490356445e-01 -6.859111785888671875e-02
3.973219990730285645e-01 -5.729209631681442261e-03 4.745261743664741516e-02
3.382537961006164551e-01 -7.881186902523040771e-02 1.782690882682800293e-01
3.838714659214019775e-01 -8.850719779729843140e-02 -1.378283351659774780e-01
2.290194779634475708e-01 -6.491094827651977539e-04 -7.515036314725875854e-02
6.653890013694763184e-03 -4.259518906474113464e-02 1.176230460405349731e-01
-6.944063305854797363e-02 -8.569748699665069580e-02 7.127648591995239258e-02
4.694441556930541992e-01 -2.464030683040618896e-02 9.527883678674697876e-02
4.589299857616424561e-02 -1.095474362373352051e-01 -1.018245294690132141e-01
3.333876132965087891e-01 -1.191604435443878174e-01 -3.394468501210212708e-02
1.027932092547416687e-01 -1.760598644614219666e-02 -1.321863383054733276e-01
-7.008215785026550293e-02 -9.527508914470672607e-02 4.252519086003303528e-02
3.124177157878875732e-01 -8.057593554258346558e-02 -1.726598590612411499e-01
-1.004914045333862305e-01 -6.885265558958053589e-02 -8.218560367822647095e-02
2.835206091403961182e-01 -1.136747002601623535e-01 -9.773288667201995850e-02
4.978878200054168701e-01 -8.060480654239654541e-02 -7.952309399843215942e-02
4.022091031074523926e-01 -6.094224750995635986e-02 -1.597993075847625732e-01
9.246386587619781494e-02 -9.807051718235015869e-02 -1.507918387651443481e-01
2.075606882572174072e-01 2.339482307434082031e-05 -6.570298224687576294e-02
-7.748631834983825684e-01 5.055265128612518311e-02 2.583903968334197998e-01
-7.576050162315368652e-01 5.955471843481063843e-02 2.705966234207153320e-01
-8.035718798637390137e-01 5.666761472821235657e-02 2.488182932138442993e-01
-7.559470534324645996e-01 6.025130674242973328e-02 2.828033268451690674e-01
-7.814658284187316895e-01 6.015960127115249634e-02 2.873534560203552246e-01
-7.501027584075927734e-01 5.966037511825561523e-02 2.777421474456787109e-01
-7.747057080268859863e-01 5.609635636210441589e-02 3.130713999271392822e-01
-7.517734766006469727e-01 6.083829700946807861e-02 3.084245622158050537e-01
-7.960408926010131836e-01 5.061335489153862000e-02 2.498304843902587891e-01
-7.411288022994995117e-01 5.476129055023193359e-02 2.954568564891815186e-01
-7.793135643005371094e-01 5.973175913095474243e-02 3.122314214706420898e-01
-7.848836183547973633e-01 5.274693667888641357e-02 2.848579287528991699e-01
-8.064843416213989258e-01 5.617206171154975891e-02 2.477779686450958252e-01
-7.678615450859069824e-01 5.019813030958175659e-02 2.389487028121948242e-01
-7.339112162590026855e-01 5.851572006940841675e-02 2.959551513195037842e-01
-7.725350260734558105e-01 5.415782704949378967e-02 2.197756767272949219e-01
-7.529762387275695801e-01 5.445702373981475830e-02 3.024147748947143555e-01
-7.530045509338378906e-01 5.996824428439140320e-02 2.799792885780334473e-01
-7.768570184707641602e-01 5.898036435246467590e-02 2.592696845531463623e-01
-7.698069214820861816e-01 5.250868946313858032e-02 2.863429486751556396e-01
-7.938989400863647461e-01 5.793532729148864746e-02 2.539347708225250244e-01
-7.976570725440979004e-01 5.846154689788818359e-02 2.730906009674072266e-01
-8.035325407981872559e-01 5.066231638193130493e-02 2.359923571348190308e-01
-7.791785597801208496e-01 5.248269811272621155e-02 2.845839858055114746e-01
-7.811209559440612793e-01 4.985089972615242004e-02 2.231038063764572144e-01
-7.857680320739746094e-01 5.722706392407417297e-02 2.404570281505584717e-01
-7.705395817756652832e-01 5.008698254823684692e-02 2.411075830459594727e-01
-7.778857350349426270e-01 5.599514394998550415e-02 2.291848808526992798e-01
-7.756639122962951660e-01 5.785593390464782715e-02 2.457067966461181641e-01
-7.562735080718994141e-01 5.441017448902130127e-02 3.032130300998687744e-01
-7.864099144935607910e-01 5.533858016133308411e-02 3.027909100055694580e-01
-7.925212979316711426e-01 5.845499038696289062e-02 2.608934640884399414e-01
-7.430860996246337891e-01 5.290506780147552490e-02 2.597034871578216553e-01
-7.982504367828369141e-01 5.153462290763854980e-02 2.614609003067016602e-01
-7.687315344810485840e-01 5.226049572229385376e-02 2.834293246269226074e-01
-7.631067633628845215e-01 6.041031330823898315e-02 2.828110754489898682e-01
-7.540052533149719238e-01 5.336511135101318359e-02 2.917427420616149902e-01
-7.582360506057739258e-01 5.612435191869735718e-02 3.159643411636352539e-01
-7.613949775695800781e-01 6.095766276121139526e-02 3.003020882606506348e-01
-7.656898498535156250e-01 5.985238775610923767e-02 2.720852792263031006e-01
-7.767084240913391113e-01 5.544662475585937500e-02 2.255707085132598877e-01
-7.457481026649475098e-01 5.268936976790428162e-02 2.488485425710678101e-01
-7.493510246276855469e-01 6.063686311244964600e-02 3.139204382896423340e-01
-7.783612608909606934e-01 4.979819804430007935e-02 2.362459003925323486e-01
-8.092587590217590332e-01 5.182266980409622192e-02 2.442022562026977539e-01
-7.910318374633789062e-01 5.041117221117019653e-02 2.139348089694976807e-01
-7.597506046295166016e-01 5.870159715414047241e-02 2.588351666927337646e-01
-8.014126420021057129e-01 5.784615501761436462e-02 2.681444585323333740e-01
-7.936558723449707031e-01 5.494636297225952148e-02 2.235180884599685669e-01
-7.408180236816406250e-01 5.403878167271614075e-02 2.852505445480346680e-01
-7.565354108810424805e-01 5.168592557311058044e-02 2.689217925071716309e-01
-7.756441831588745117e-01 5.492342263460159302e-02 2.226307690143585205e-01
-7.721937894821166992e-01 4.998141154646873474e-02 2.366587072610855103e-01
-7.612185478210449219e-01 5.503385886549949646e-02 2.295832782983779907e-01
-7.556271553039550781e-01 6.048962846398353577e-02 3.201866149902343750e-01
-8.009291291236877441e-01 5.789967253804206848e-02 2.821680009365081787e-01
-7.919074892997741699e-01 5.868383869528770447e-02 2.644115388393402100e-01
-8.001421689987182617e-01 5.216329172253608704e-02 2.139898836612701416e-01
-7.632153630256652832e-01 5.940097942948341370e-02 2.660185396671295166e-01
-7.795690298080444336e-01 5.547482892870903015e-02 3.076632022857666016e-01
-7.468177080154418945e-01 5.628440156579017639e-02 3.134737014770507812e-01
-7.672950625419616699e-01 5.837523564696311951e-02 2.524091601371765137e-01
-7.942739725112915039e-01 4.999500513076782227e-02 2.363408803939819336e-01
-7.622274160385131836e-01 5.308131873607635498e-02 2.917975187301635742e-01
-7.609775066375732422e-01 5.345419049263000488e-02 2.954150736331939697e-01
-7.580938935279846191e-01 5.830373615026473999e-02 2.554816007614135742e-01
-7.458512187004089355e-01 5.415082350373268127e-02 2.943207919597625732e-01
-7.625777125358581543e-01 5.203164368867874146e-02 2.790503799915313721e-01
-7.429380416870117188e-01 5.738578736782073975e-02 2.611981332302093506e-01
-7.476021647453308105e-01 5.348062142729759216e-02 2.878891229629516602e-01
-8.018196225166320801e-01 5.164042115211486816e-02 2.582322359085083008e-01
-7.584135532379150391e-01 5.091530084609985352e-02 2.417640537023544312e-01
-7.972678542137145996e-01 5.119149759411811829e-02 2.578993439674377441e-01
-7.797081470489501953e-01 5.935993045568466187e-02 2.659526467323303223e-01
-7.371385693550109863e-01 5.437942221760749817e-02 2.792260646820068359e-01
-7.728782892227172852e-01 5.539164319634437561e-02 2.261142730712890625e-01
-7.867528796195983887e-01 5.349594354629516602e-02 2.903830409049987793e-01
-7.689536213874816895e-01 5.685063824057579041e-02 3.184137642383575439e-01
-7.602918148040771484e-01 5.159256607294082642e-02 2.708583772182464600e-01
-7.673782110214233398e-01 5.660234019160270691e-02 2.362283766269683838e-01
-7.544744014739990234e-01 5.235115438699722290e-02 2.785216271877288818e-01
-7.738658785820007324e-01 6.041043996810913086e-02 2.849945127964019775e-01
-7.331857085227966309e-01 5.624448880553245544e-02 2.925745844841003418e-01
-7.426801919937133789e-01 6.022930145263671875e-02 3.064284324645996094e-01
-7.647169232368469238e-01 5.389876663684844971e-02 3.000821769237518311e-01
-7.634493112564086914e-01 5.464983358979225159e-02 2.263872772455215454e-01
-7.704375386238098145e-01 6.076192110776901245e-02 3.074832856655120850e-01
-7.486323714256286621e-01 5.763995274901390076e-02 2.566286325454711914e-01
-7.533309459686279297e-01 6.031925231218338013e-02 2.861332893371582031e-01
-7.735840678215026855e-01 5.162674188613891602e-02 2.755403518676757812e-01
-7.994555234909057617e-01 5.197731778025627136e-02 2.653950452804565430e-01
-7.720721364021301270e-01 5.604376643896102905e-02 2.306361794471740723e-01
-7.571220993995666504e-01 5.392858386039733887e-02 2.990510463714599609e-01
-7.900246381759643555e-01 5.095321685075759888e-02 2.608106732368469238e-01
-7.834939360618591309e-01 5.331779643893241882e-02 2.907119989395141602e-01
-7.747406959533691406e-01 5.909672006964683533e-02 3.192584812641143799e-01
-7.352163195610046387e-01 5.850575864315032959e-02 2.878883779048919678e-01
-7.652466297149658203e-01 5.919968709349632263e-02 2.627358436584472656e-01
-7.717306613922119141e-01 5.069622769951820374e-02 2.604855298995971680e-01
-7.944995164871215820e-01 5.076058954000473022e-02 2.541067600250244141e-01
-7.609798312187194824e-01 6.099613383412361145e-02 3.048262000083923340e-01
-7.694799304008483887e-01 5.820825323462486267e-02 2.501136958599090576e-01
-7.889103889465332031e-01 5.704952776432037354e-02 2.396966218948364258e-01
-7.547347545623779297e-01 5.134057998657226562e-02 2.420718669891357422e-01
-7.571084499359130859e-01 5.493687093257904053e-02 2.321343868970870972e-01
-7.670536637306213379e-01 6.091332063078880310e-02 3.051779866218566895e-01
-7.616168260574340820e-01 5.583520606160163879e-02 2.337315678596496582e-01
-7.645002603530883789e-01 5.049549043178558350e-02 2.482136189937591553e-01
-7.593663334846496582e-01 6.003129854798316956e-02 3.233493566513061523e-01
-7.740257978439331055e-01 5.032603070139884949e-02 2.531715035438537598e-01
-7.359006404876708984e-01 5.580460280179977417e-02 2.971062362194061279e-01
-7.467266917228698730e-01 5.467202514410018921e-02 3.006189763545989990e-01
-7.369594573974609375e-01 5.906018242239952087e-02 2.911467850208282471e-01
-7.593604326248168945e-01 5.702931061387062073e-02 2.433575689792633057e-01
-7.995842099189758301e-01 5.420168489217758179e-02 2.215941250324249268e-01
-8.052618503570556641e-01 5.716814100742340088e-02 2.699701786041259766e-01
-7.507106065750122070e-01 5.316730216145515442e-02 2.868632376194000244e-01
-7.904300093650817871e-01 5.726522952318191528e-02 2.427148669958114624e-01
-7.890303730964660645e-01 5.900777503848075867e-02 2.670780420303344727e-01
-7.650726437568664551e-01 5.606652423739433289e-02 2.333810180425643921e-01
-7.845509648323059082e-01 4.974111169576644897e-02 2.253767251968383789e-01
-7.624002099037170410e-01 5.761799588799476624e-02 2.467011958360671997e-01
-7.744736075401306152e-01 6.062298268079757690e-02 3.037678301334381104e-01
-7.662488222122192383e-01 5.879530310630798340e-02 3.238015174865722656e-01
-7.489941716194152832e-01 5.869925394654273987e-02 2.665368318557739258e-01
-7.656075358390808105e-01 5.650760978460311890e-02 3.176579177379608154e-01
-7.605519294738769531e-01 5.900412425398826599e-02 2.619715631008148193e-01
-8.099375367164611816e-01 5.491401627659797668e-02 2.404165863990783691e-01
-7.698428034782409668e-01 6.083444133400917053e-02 2.998456656932830811e-01
-7.380034923553466797e-01 5.823239684104919434e-02 2.769683599472045898e-01
-7.846645116806030273e-01 5.635389685630798340e-02 2.320909202098846436e-01
-7.487197518348693848e-01 5.202426016330718994e-02 2.509985566139221191e-01
-7.965389490127563477e-01 5.023739114403724670e-02 2.406134307384490967e-01
-7.418551445007324219e-01 5.538148432970046997e-02 3.026519417762756348e-01
-7.722172737121582031e-01 5.482589453458786011e-02 3.064593672752380371e-01
-7.675257921218872070e-01 5.026410520076751709e-02 2.440620660781860352e-01
-7.987661361694335938e-01 5.238488316535949707e-02 2.705234885215759277e-01
-7.655976414680480957e-01 5.545134842395782471e-02 2.293031215667724609e-01
-7.518426775932312012e-01 5.835527181625366211e-02 2.603546977043151855e-01
-7.440669536590576172e-01 5.477548018097877502e-02 2.465085387229919434e-01
-7.811978459358215332e-01 6.014399975538253784e-02 3.027592897415161133e-01
-7.760059237480163574e-01 4.995978251099586487e-02 2.253185212612152100e-01
-7.767007946968078613e-01 5.097007751464843750e-02 2.658741176128387451e-01
-8.123313784599304199e-01 5.277103930711746216e-02 2.366364449262619019e-01
-7.903106212615966797e-01 5.830705538392066956e-02 2.561301589012145996e-01
-7.897614240646362305e-01 4.984664171934127808e-02 2.367569059133529663e-01
-7.361781597137451172e-01 5.910206586122512817e-02 3.072446286678314209e-01
-7.901936173439025879e-01 5.337911099195480347e-02 2.871330678462982178e-01
-7.960336208343505859e-01 5.246848985552787781e-02 2.741767168045043945e-01
-8.047185540199279785e-01 5.072972550988197327e-02 2.311200797557830811e-01
-7.541379332542419434e-01 6.081023812294006348e-02 2.986473143100738525e-01
-7.650151252746582031e-01 6.092729046940803528e-02 2.993679046630859375e-01
-7.711976766586303711e-01 5.387102439999580383e-02 2.994180321693420410e-01
-7.921259403228759766e-01 5.911410599946975708e-02 2.937363386154174805e-01
-7.997608780860900879e-01 5.390008538961410522e-02 2.819227278232574463e-01
-7.852511405944824219e-01 5.957469344139099121e-02 2.749125957489013672e-01
-7.685358524322509766e-01 6.050635129213333130e-02 2.850087285041809082e-01
-7.807829380035400391e-01 5.694030225276947021e-02 2.368575185537338257e-01
-7.980169653892517090e-01 5.842968076467514038e-02 2.841046452522277832e-01
-8.087296485900878906e-01 5.606095865368843079e-02 2.690938413143157959e-01
-7.447097301483154297e-01 5.640581250190734863e-02 2.522034347057342529e-01
-7.862212061882019043e-01 4.975711181759834290e-02 2.354065626859664917e-01
-7.392948269844055176e-01 5.976666882634162903e-02 3.082629740238189697e-01
-7.681742310523986816e-01 5.588536337018013000e-02 3.139614462852478027e-01
-7.750954627990722656e-01 5.981048941612243652e-02 2.720279395580291748e-01
-7.841803431510925293e-01 5.577151104807853699e-02 3.064674139022827148e-01
-7.626303434371948242e-01 5.061309784650802612e-02 2.355173528194427490e-01
-7.414835691452026367e-01 5.506879836320877075e-02 2.992255687713623047e-01
-7.515510320663452148e-01 5.662919953465461731e-02 3.175239562988281250e-01
-7.970250248908996582e-01 5.007565766572952271e-02 2.333056628704071045e-01
-7.455196380615234375e-01 5.339077860116958618e-02 2.838416695594787598e-01
-7.637227177619934082e-01 5.150280520319938660e-02 2.715553641319274902e-01
-7.834550738334655762e-01 5.854018405079841614e-02 2.551946938037872314e-01
-8.045296072959899902e-01 5.486426502466201782e-02 2.304686754941940308e-01
-7.884674072265625000e-01 4.974265769124031067e-02 2.318684458732604980e-01
-7.914205789566040039e-01 4.979829117655754089e-02 2.302985489368438721e-01
-7.597019672393798828e-01 6.048516556620597839e-02 3.201386332511901855e-01
-7.430941462516784668e-01 5.715760961174964905e-02 3.159312903881072998e-01
-8.080399036407470703e-01 5.134252458810806274e-02 2.378978580236434937e-01
-7.872344851493835449e-01 5.057010799646377563e-02 2.562963664531707764e-01
-7.818480134010314941e-01 5.132603272795677185e-02 2.700715661048889160e-01
-7.632824778556823730e-01 5.727788805961608887e-02 2.433301210403442383e-01
-7.409610748291015625e-01 5.987798795104026794e-02 3.125726580619812012e-01
-7.587212920188903809e-01 5.921439081430435181e-02 2.654638886451721191e-01
-7.616165876388549805e-01 5.089395493268966675e-02 2.312251329421997070e-01
-7.549348473548889160e-01 5.141067132353782654e-02 2.591383755207061768e-01
-7.625927329063415527e-01 5.068642646074295044e-02 2.518613636493682861e-01
-7.839857935905456543e-01 5.701136589050292969e-02 2.379042804241180420e-01
-7.608968615531921387e-01 5.117745697498321533e-02 2.632001638412475586e-01
-7.499984502792358398e-01 5.197808146476745605e-02 2.631800770759582520e-01
-7.883053421974182129e-01 5.951529741287231445e-02 2.791406512260437012e-01
-7.723480463027954102e-01 5.132313445210456848e-02 2.712413370609283447e-01
-7.657501101493835449e-01 5.724161490797996521e-02 3.207120597362518311e-01
-7.813631296157836914e-01 5.425284802913665771e-02 2.180657088756561279e-01
-7.441251277923583984e-01 6.018555909395217896e-02 2.965360581874847412e-01
-7.864487767219543457e-01 5.003683269023895264e-02 2.175404429435729980e-01
-7.852081060409545898e-01 5.910004302859306335e-02 2.649218440055847168e-01
-8.046161532402038574e-01 5.726913362741470337e-02 2.740061581134796143e-01
-7.800807952880859375e-01 6.033103913068771362e-02 2.946321070194244385e-01
-7.505902647972106934e-01 5.281385034322738647e-02 2.817056179046630859e-01
-7.576543092727661133e-01 5.141985788941383362e-02 2.646483182907104492e-01
-7.650957107543945312e-01 5.696467310190200806e-02 2.399591058492660522e-01
-7.454238533973693848e-01 5.750341340899467468e-02 2.589742839336395264e-01
-7.601462602615356445e-01 5.137194693088531494e-02 2.665570676326751709e-01
-7.537255287170410156e-01 5.326861143112182617e-02 2.312533706426620483e-01
-7.594537734985351562e-01 5.085187032818794250e-02 2.499576508998870850e-01
-7.882546186447143555e-01 5.285484716296195984e-02 2.839303016662597656e-01
-7.705963850021362305e-01 5.043040588498115540e-02 2.231938987970352173e-01
-7.848934531211853027e-01 5.235722661018371582e-02 2.809825241565704346e-01
-7.501694560050964355e-01 6.044482439756393433e-02 3.185048103332519531e-01
-7.950382232666015625e-01 4.993972182273864746e-02 2.309072017669677734e-01
-7.790663838386535645e-01 5.818213894963264465e-02 2.494857758283615112e-01
-7.994922399520874023e-01 5.799956619739532471e-02 2.649124264717102051e-01
-7.984329462051391602e-01 5.021155998110771179e-02 2.223093807697296143e-01
-7.947568297386169434e-01 5.310834944248199463e-02 2.811803519725799561e-01
-7.860162258148193359e-01 5.986193940043449402e-02 2.938784956932067871e-01
-7.898104786872863770e-01 4.975947365164756775e-02 2.269846498966217041e-01
-7.961912751197814941e-01 5.427207052707672119e-02 2.202250957489013672e-01
-7.385981678962707520e-01 5.385791510343551636e-02 2.669075727462768555e-01
-7.642254233360290527e-01 5.043719708919525146e-02 2.429402768611907959e-01
-7.594491839408874512e-01 5.731277540326118469e-02 3.217314183712005615e-01
-7.648615241050720215e-01 5.280017107725143433e-02 2.892122566699981689e-01
-7.969819307327270508e-01 5.266468599438667297e-02 2.134504020214080811e-01
-7.622921466827392578e-01 5.447143688797950745e-02 3.048013746738433838e-01
-7.505658864974975586e-01 5.201423913240432739e-02 2.423503398895263672e-01
-7.713863253593444824e-01 5.003020912408828735e-02 2.327883839607238770e-01
-7.711147069931030273e-01 5.782795697450637817e-02 2.458884716033935547e-01
-7.691136002540588379e-01 5.919146537780761719e-02 2.618968784809112549e-01
-7.626768946647644043e-01 5.872943997383117676e-02 2.578469216823577881e-01
-7.702538371086120605e-01 6.082167476415634155e-02 3.036342263221740723e-01
-7.818899154663085938e-01 5.595351755619049072e-02 2.286836206912994385e-01
-7.908674478530883789e-01 5.798077210783958435e-02 2.518529295921325684e-01
-7.727164030075073242e-01 5.668751150369644165e-02 2.353380620479583740e-01
-7.792255282402038574e-01 5.358456447720527649e-02 2.948371767997741699e-01
-7.855650186538696289e-01 4.970460012555122375e-02 2.290661185979843140e-01
-7.907905578613281250e-01 5.002836510539054871e-02 2.181932777166366577e-01
-8.054662942886352539e-01 5.593862757086753845e-02 2.424744963645935059e-01
-8.017461895942687988e-01 5.042073875665664673e-02 2.328241765499114990e-01
-7.864576578140258789e-01 5.980300903320312500e-02 2.863445281982421875e-01
-7.901049852371215820e-01 5.023273080587387085e-02 2.478432804346084595e-01
-7.556031942367553711e-01 5.754828453063964844e-02 3.224576413631439209e-01
-7.536621093750000000e-01 5.930380150675773621e-02 2.697760462760925293e-01
-7.970572113990783691e-01 5.771462619304656982e-02 2.543494403362274170e-01
-7.837421298027038574e-01 4.985977709293365479e-02 2.410196363925933838e-01
-7.551367878913879395e-01 6.092032790184020996e-02 3.102707564830780029e-01
-7.791457176208496094e-01 5.345676839351654053e-02 2.150261998176574707e-01
-8.037340044975280762e-01 5.552761256694793701e-02 2.354385405778884888e-01
-7.574360966682434082e-01 5.186649039387702942e-02 2.732437252998352051e-01
-7.946693897247314453e-01 4.991642013192176819e-02 2.265424281358718872e-01
-7.675146460533142090e-01 5.362454801797866821e-02 2.976303696632385254e-01
-7.508555650711059570e-01 5.255025252699851990e-02 2.777798473834991455e-01
-8.085140585899353027e-01 5.340225994586944580e-02 2.643473446369171143e-01
-8.103352189064025879e-01 5.514241755008697510e-02 2.661581337451934814e-01
-7.808561325073242188e-01 5.056710913777351379e-02 2.585470676422119141e-01
-7.400904893875122070e-01 5.739000439643859863e-02 2.655072510242462158e-01
-8.096909523010253906e-01 5.225592851638793945e-02 2.497597336769104004e-01
-7.510573863983154297e-01 5.633555352687835693e-02 2.447738498449325562e-01
-7.678677439689636230e-01 5.442585796117782593e-02 3.043314516544342041e-01
-7.539615631103515625e-01 6.049964949488639832e-02 2.895196378231048584e-01
-7.797769904136657715e-01 5.834990739822387695e-02 3.161689937114715576e-01
-7.556077837944030762e-01 5.980520695447921753e-02 2.754675149917602539e-01
-7.446455955505371094e-01 5.978084728121757507e-02 2.864730358123779297e-01
-7.584470510482788086e-01 5.305764079093933105e-02 2.903777658939361572e-01
-7.512907385826110840e-01 5.608482286334037781e-02 3.142501711845397949e-01
-7.416950464248657227e-01 5.887566879391670227e-02 2.776882946491241455e-01
-7.742594480514526367e-01 5.084021389484405518e-02 2.636688351631164551e-01
-7.464320063591003418e-01 5.233921483159065247e-02 2.592695951461791992e-01
-7.571736574172973633e-01 5.478942766785621643e-02 3.066247105598449707e-01
-7.841017246246337891e-01 5.986045300960540771e-02 2.813742458820343018e-01
-7.565641999244689941e-01 5.177703872323036194e-02 2.311701178550720215e-01
-7.945641875267028809e-01 5.187627673149108887e-02 2.111793309450149536e-01
-7.675518393516540527e-01 6.075375154614448547e-02 3.119973540306091309e-01
-7.565892338752746582e-01 6.010045856237411499e-02 2.796573638916015625e-01
-7.799037694931030273e-01 5.971424654126167297e-02 2.726260423660278320e-01
-7.529208064079284668e-01 5.147829651832580566e-02 2.473236620426177979e-01
-8.030599951744079590e-01 5.710200592875480652e-02 2.549263238906860352e-01
-8.120583891868591309e-01 5.271076411008834839e-02 2.454260438680648804e-01
-7.803319096565246582e-01 5.033519864082336426e-02 2.161407172679901123e-01
-7.439855933189392090e-01 5.567923933267593384e-02 3.072282075881958008e-01
-7.461768984794616699e-01 6.027470901608467102e-02 3.167501389980316162e-01
-7.556601166725158691e-01 5.710506811738014221e-02 2.463622093200683594e-01
-7.679034471511840820e-01 5.130010470747947693e-02 2.700135111808776855e-01
-7.794091105461120605e-01 5.145515501499176025e-02 2.724843323230743408e-01
-7.345325350761413574e-01 5.560468137264251709e-02 2.709744274616241455e-01
-7.716135382652282715e-01 5.953527987003326416e-02 2.667509615421295166e-01
-7.569370865821838379e-01 5.282707139849662781e-02 2.869133651256561279e-01
-7.651492953300476074e-01 5.116022378206253052e-02 2.663579285144805908e-01
-8.056919574737548828e-01 5.384635925292968750e-02 2.729751169681549072e-01
-7.590341567993164062e-01 5.514900013804435730e-02 3.096853494644165039e-01
-7.677410840988159180e-01 5.463671684265136719e-02 2.239836156368255615e-01
-7.802897095680236816e-01 5.906534194946289062e-02 2.614840865135192871e-01
-7.601304054260253906e-01 5.785940960049629211e-02 2.500347197055816650e-01
-7.580755949020385742e-01 5.401549860835075378e-02 2.280018925666809082e-01
-7.797513604164123535e-01 5.787829309701919556e-02 2.461444139480590820e-01
-7.529762387275695801e-01 5.510898306965827942e-02 3.079332709312438965e-01
-7.739227414131164551e-01 5.883305147290229797e-02 2.569948136806488037e-01
-7.442864775657653809e-01 5.952380970120429993e-02 2.827292084693908691e-01
-7.478066682815551758e-01 6.018598750233650208e-02 2.895984649658203125e-01
-7.948272824287414551e-01 5.187005177140235901e-02 2.689675390720367432e-01
-7.660692930221557617e-01 6.013232469558715820e-02 2.768703997135162354e-01
-8.083072900772094727e-01 5.454431101679801941e-02 2.332901209592819214e-01
-7.763515710830688477e-01 5.952356755733489990e-02 2.673959732055664062e-01
-7.830529808998107910e-01 5.078226327896118164e-02 2.616539895534515381e-01
-8.048683404922485352e-01 5.151757225394248962e-02 2.513231337070465088e-01
-7.622329592704772949e-01 5.636686086654663086e-02 2.368517965078353882e-01
-7.382297515869140625e-01 5.571446940302848816e-02 3.008056879043579102e-01
-7.612290382385253906e-01 5.670571327209472656e-02 3.190725445747375488e-01
-7.395973205566406250e-01 5.466781184077262878e-02 2.553262412548065186e-01
-7.925788760185241699e-01 5.883555486798286438e-02 2.688854932785034180e-01
-7.519654631614685059e-01 5.204952880740165710e-02 2.698443531990051270e-01
-7.828457951545715332e-01 6.011490523815155029e-02 2.901101112365722656e-01
-7.821325063705444336e-01 5.946528166532516479e-02 2.692972123622894287e-01
-7.909659147262573242e-01 5.555303394794464111e-02 3.001630008220672607e-01
-8.086131811141967773e-01 5.405199155211448669e-02 2.301515638828277588e-01
-7.648686170578002930e-01 5.077386647462844849e-02 2.578943669795989990e-01
-7.984943389892578125e-01 5.707067251205444336e-02 2.468306124210357666e-01
-7.992700934410095215e-01 5.781555548310279846e-02 2.600348889827728271e-01
-7.701447606086730957e-01 5.858920887112617493e-02 2.542400360107421875e-01
-7.748922705650329590e-01 5.917377024888992310e-02 2.616880834102630615e-01
-7.858958244323730469e-01 5.034512281417846680e-02 2.527389824390411377e-01
-8.020708560943603516e-01 5.073866993188858032e-02 2.426861524581909180e-01
-7.743273973464965820e-01 5.259455367922782898e-02 2.869045436382293701e-01
-7.920361161231994629e-01 5.313742905855178833e-02 2.837309539318084717e-01
-7.947519421577453613e-01 5.507710203528404236e-02 2.942806184291839600e-01
-7.423561811447143555e-01 5.852930620312690735e-02 2.726062834262847900e-01
-7.986657619476318359e-01 5.067132413387298584e-02 2.474661320447921753e-01
-7.865418195724487305e-01 5.144500732421875000e-02 2.696647346019744873e-01
-7.483555674552917480e-01 5.374961718916893005e-02 2.920633852481842041e-01
-8.087016940116882324e-01 5.140784382820129395e-02 2.343748807907104492e-01
-8.041937947273254395e-01 5.284838005900382996e-02 2.677857875823974609e-01
-7.874854207038879395e-01 4.990796744823455811e-02 2.410484850406646729e-01
-7.440689206123352051e-01 5.393065139651298523e-02 2.894460558891296387e-01
-7.394477128982543945e-01 5.598357319831848145e-02 2.582444250583648682e-01
-7.538108229637145996e-01 6.081701815128326416e-02 3.137863874435424805e-01
-7.813438177108764648e-01 5.029027909040451050e-02 2.530201971530914307e-01
-8.066537976264953613e-01 5.639108642935752869e-02 2.518865764141082764e-01
-7.879514694213867188e-01 5.933909863233566284e-02 3.018320202827453613e-01
-7.743769884109497070e-01 5.743892490863800049e-02 2.416461706161499023e-01
-7.611855268478393555e-01 5.835795775055885315e-02 2.544324398040771484e-01
-7.561402320861816406e-01 5.566607415676116943e-02 3.128312528133392334e-01
-7.647935152053833008e-01 6.061142310500144958e-02 2.873227596282958984e-01
-7.576842308044433594e-01 5.343510210514068604e-02 2.942546904087066650e-01
-7.884899377822875977e-01 5.933624133467674255e-02 2.739360928535461426e-01
-7.753683328628540039e-01 5.554156750440597534e-02 3.099061250686645508e-01
-7.871543169021606445e-01 5.858659371733665466e-02 2.579247057437896729e-01
-8.052259087562561035e-01 5.393587425351142883e-02 2.247288823127746582e-01
-7.468320727348327637e-01 6.058204546570777893e-02 3.072890043258666992e-01
-7.769720554351806641e-01 5.170318484306335449e-02 2.761928439140319824e-01
-7.725678086280822754e-01 5.103745311498641968e-02 2.668030560016632080e-01
-7.816494107246398926e-01 4.974678158760070801e-02 2.270474433898925781e-01
-7.738391757011413574e-01 5.426353216171264648e-02 3.019790351390838623e-01
-7.667635679244995117e-01 5.958570167422294617e-02 2.677770555019378662e-01
-7.397113442420959473e-01 5.900380387902259827e-02 2.829956710338592529e-01
-7.859562039375305176e-01 5.500506982207298279e-02 2.222468703985214233e-01
-7.693290710449218750e-01 6.080416217446327209e-02 2.960209250450134277e-01
-7.892114520072937012e-01 5.557442083954811096e-02 2.267101109027862549e-01
-7.725784182548522949e-01 5.065733194351196289e-02 2.188137620687484741e-01
-7.983712553977966309e-01 5.761940404772758484e-02 2.930825352668762207e-01
-7.988342046737670898e-01 5.615820363163948059e-02 2.366454899311065674e-01
-7.673094868659973145e-01 5.056728795170783997e-02 2.258702665567398071e-01
-7.706015110015869141e-01 5.896711349487304688e-02 2.588048577308654785e-01
-7.758667469024658203e-01 5.125562846660614014e-02 2.702665328979492188e-01
