5.192019939422607422e-01 -1.847071349620819092e-01 9.875351190567016602e-02
3.504570126533508301e-01 -2.920160293579101562e-01 1.055888012051582336e-01
3.782781958580017090e-02 -2.593743205070495605e-01 2.852356992661952972e-02
3.340914249420166016e-01 -2.934544682502746582e-01 -1.051276549696922302e-01
4.514318704605102539e-01 -1.847287565469741821e-01 -2.846846878528594971e-01
1.823012232780456543e-01 -2.832028865814208984e-01 -1.636223942041397095e-01
3.606993854045867920e-01 -2.945223152637481689e-01 7.688032463192939758e-03
2.387720942497253418e-01 -1.688166409730911255e-01 1.034810952842235565e-02
1.933194398880004883e-01 -1.865090280771255493e-01 2.195574790239334106e-01
3.147457838058471680e-01 -2.588920295238494873e-01 -3.870127797126770020e-01
3.080322742462158203e-01 -1.893406808376312256e-01 -3.486478924751281738e-01
1.407129466533660889e-01 -1.830822974443435669e-01 1.174547001719474792e-01
3.939040005207061768e-01 -2.721256613731384277e-01 -3.203129470348358154e-01
1.776556223630905151e-01 -2.859924137592315674e-01 -1.090754270553588867e-01
4.939562082290649414e-01 -2.805684804916381836e-01 1.022301390767097473e-01
3.705039024353027344e-01 -2.759129106998443604e-01 -3.034669756889343262e-01
4.781879186630249023e-01 -1.983510553836822510e-01 2.524488270282745361e-01
5.198173522949218750e-01 -1.800729334354400635e-01 -1.116046607494354248e-01
2.641875445842742920e-01 -2.626474201679229736e-01 3.329416215419769287e-01
5.628355741500854492e-01 -1.954312026500701904e-01 1.079474315047264099e-01
3.828550577163696289e-01 -1.724917590618133545e-01 1.238243207335472107e-01
5.281929969787597656e-01 -2.788525223731994629e-01 -6.937894225120544434e-02
4.097064137458801270e-01 -2.469993233680725098e-01 -4.075805246829986572e-01
3.620045185089111328e-01 -1.935544013977050781e-01 -3.692782223224639893e-01
4.716967344284057617e-01 -2.801436781883239746e-01 -1.995299160480499268e-01
1.272730976343154907e-01 -2.780691683292388916e-01 1.220815107226371765e-01
2.140235006809234619e-01 -2.807918488979339600e-01 -2.263517081737518311e-01
4.976273775100708008e-01 -2.839400768280029297e-01 -8.754847571253776550e-03
1.580658853054046631e-01 -2.682563066482543945e-01 2.519045174121856689e-01
4.900687336921691895e-01 -2.695289552211761475e-01 2.135898619890213013e-01
4.351605176925659180e-01 -2.503020763397216797e-01 -3.904922306537628174e-01
1.005526781082153320e-01 -2.643838226795196533e-01 1.992871314287185669e-01
5.052160620689392090e-01 -2.821288108825683594e-01 -8.537095785140991211e-02
2.501053810119628906e-01 -2.932601273059844971e-01 -5.305737257003784180e-02
4.964129924774169922e-01 -2.136092334985733032e-01 -3.683644831180572510e-01
5.012988448143005371e-01 -2.701944410800933838e-01 -2.529564201831817627e-01
1.105197817087173462e-01 -1.840594112873077393e-01 -8.021352440118789673e-02
3.116877079010009766e-01 -1.729108989238739014e-01 -2.226307392120361328e-01
6.429848074913024902e-02 -2.681361436843872070e-01 4.254091531038284302e-02
1.818027645349502563e-01 -1.762591451406478882e-01 9.243991971015930176e-02
3.906481564044952393e-01 -2.850986719131469727e-01 1.807890683412551880e-01
5.427173972129821777e-01 -2.506261169910430908e-01 -3.012579977512359619e-01
4.461143612861633301e-01 -2.574195861816406250e-01 3.073737025260925293e-01
4.173641204833984375e-01 -2.919565141201019287e-01 -3.072569146752357483e-02
1.820960342884063721e-01 -2.874459624290466309e-01 -8.522507548332214355e-02
3.832904398441314697e-01 -2.922030687332153320e-01 -1.070329621434211731e-01
5.068943500518798828e-01 -1.988607645034790039e-01 2.246693074703216553e-01
6.212955117225646973e-01 -2.099132835865020752e-01 -1.160125210881233215e-01
5.848846435546875000e-01 -2.048776596784591675e-01 1.212415471673011780e-01
2.429217696189880371e-01 -1.869606375694274902e-01 -3.127429783344268799e-01
3.070363402366638184e-01 -1.710538566112518311e-01 -1.965473145246505737e-01
3.550938069820404053e-01 -2.947377264499664307e-01 -2.507109567523002625e-02
2.300687432289123535e-01 -1.723037809133529663e-01 9.461518377065658569e-02
8.619213104248046875e-02 -2.538836002349853516e-01 2.270286083221435547e-01
3.144974112510681152e-01 -2.844431996345520020e-01 -2.395779490470886230e-01
2.107385993003845215e-01 -1.897105723619461060e-01 2.536029517650604248e-01
3.544676899909973145e-01 -1.810747087001800537e-01 -3.002665340900421143e-01
3.253563046455383301e-01 -2.512821257114410400e-01 -4.092741310596466064e-01
3.697626590728759766e-01 -2.104169279336929321e-01 3.515298366546630859e-01
1.141869872808456421e-01 -1.876704841852188110e-01 -1.594366282224655151e-01
4.149503409862518311e-01 -2.874861359596252441e-01 1.294432431459426880e-01
5.452502965927124023e-01 -2.258432209491729736e-01 -3.334458172321319580e-01
6.198546290397644043e-02 -2.385922819375991821e-01 2.217931747436523438e-01
4.135720729827880859e-01 -2.911968827247619629e-01 5.258454382419586182e-02
3.618235886096954346e-01 -2.713344991207122803e-01 2.934577763080596924e-01
5.217934846878051758e-01 -1.796364039182662964e-01 -2.274813130497932434e-02
5.401359200477600098e-01 -1.943103820085525513e-01 -2.452206015586853027e-01
5.147318243980407715e-01 -2.789685130119323730e-01 -1.293146908283233643e-01
5.241388082504272461e-01 -1.882672905921936035e-01 1.275493502616882324e-01
2.848387360572814941e-01 -2.745975553989410400e-01 -3.099186122417449951e-01
4.520049691200256348e-01 -2.701754868030548096e-01 2.492388188838958740e-01
3.548319339752197266e-01 -1.854084134101867676e-01 -3.289473652839660645e-01
1.216785758733749390e-01 -2.032389938831329346e-01 2.444706261157989502e-01
2.849827408790588379e-01 -2.523674070835113525e-01 -4.010359644889831543e-01
4.108311831951141357e-01 -1.967016160488128662e-01 2.922772169113159180e-01
2.529268860816955566e-01 -1.899271458387374878e-01 2.746557295322418213e-01
4.562955498695373535e-01 -1.767304241657257080e-01 1.084115579724311829e-01
3.258560597896575928e-01 -2.948330342769622803e-01 -5.424924939870834351e-02
8.199596405029296875e-02 -2.711207866668701172e-01 -8.555661141872406006e-02
2.591173946857452393e-01 -2.907138466835021973e-01 1.200825050473213196e-01
4.829256534576416016e-01 -1.772217452526092529e-01 -1.642069071531295776e-01
4.457838237285614014e-01 -1.726497411727905273e-01 5.425824970006942749e-02
7.055804133415222168e-02 -2.564102411270141602e-01 -1.934126019477844238e-01
5.669645071029663086e-01 -1.883633881807327271e-01 -4.170560836791992188e-02
2.701835036277770996e-01 -2.944303750991821289e-01 -1.960601657629013062e-04
2.310907840728759766e-01 -2.926712632179260254e-01 3.804506734013557434e-03
3.419800996780395508e-01 -2.909220755100250244e-01 1.292220503091812134e-01
3.121121227741241455e-01 -1.974886208772659302e-01 -3.838883936405181885e-01
4.468910098075866699e-01 -2.896651029586791992e-01 -3.289625048637390137e-02
2.864687144756317139e-01 -2.617094516754150391e-01 -3.725650012493133545e-01
5.832151770591735840e-01 -2.661939263343811035e-01 6.961656734347343445e-03
5.087726116180419922e-01 -1.791786402463912964e-01 3.454055637121200562e-02
1.553907543420791626e-01 -1.808129549026489258e-01 -1.656652092933654785e-01
2.565525174140930176e-01 -1.683245450258255005e-01 3.009764663875102997e-02
6.030501127243041992e-01 -2.345807999372482300e-01 1.468547433614730835e-01
2.650263905525207520e-01 -1.842353343963623047e-01 2.429161369800567627e-01
1.835673749446868896e-01 -2.122204750776290894e-01 3.278189897537231445e-01
5.278736352920532227e-01 -1.953628212213516235e-01 1.767512410879135132e-01
3.558182120323181152e-01 -1.971458792686462402e-01 3.133745491504669189e-01
6.356784105300903320e-01 -2.341006994247436523e-01 -1.124061420559883118e-01
1.548336893320083618e-01 -2.852815091609954834e-01 4.798475652933120728e-02
2.460992932319641113e-01 -2.422407418489456177e-01 3.724711239337921143e-01
4.426406025886535645e-01 -2.895585298538208008e-01 2.807332389056682587e-02
6.351269483566284180e-01 -2.183444499969482422e-01 -7.693827152252197266e-02
4.748639464378356934e-01 -2.691481113433837891e-01 -2.887274324893951416e-01
5.288617014884948730e-01 -1.827043145895004272e-01 -1.399798542261123657e-01
3.211215734481811523e-01 -2.940235435962677002e-01 6.555747985839843750e-02
1.346429437398910522e-01 -2.351586520671844482e-01 3.164212405681610107e-01
4.536106586456298828e-01 -2.829183638095855713e-01 1.427621394395828247e-01
2.789565026760101318e-01 -2.886832356452941895e-01 1.612721830606460571e-01
3.806361854076385498e-01 -2.393959313631057739e-01 -4.264377057552337646e-01
2.239247262477874756e-01 -1.813072413206100464e-01 -2.599730491638183594e-01
5.409806966781616211e-01 -1.832500398159027100e-01 -9.239699691534042358e-02
5.532370805740356445e-01 -2.601148188114166260e-01 1.718584895133972168e-01
5.060360431671142578e-01 -1.794897615909576416e-01 -1.491235047578811646e-01
2.798002958297729492e-02 -2.552118301391601562e-01 3.568040207028388977e-03
2.652300298213958740e-01 -2.940704226493835449e-01 2.450113184750080109e-02
5.275833606719970703e-01 -2.502832114696502686e-01 -3.208722174167633057e-01
2.084451913833618164e-01 -2.065666913986206055e-01 -3.726749122142791748e-01
3.912031352519989014e-01 -2.931884825229644775e-01 2.118696086108684540e-02
3.385690748691558838e-01 -1.673202514648437500e-01 4.559917747974395752e-02
5.908610820770263672e-01 -1.949568390846252441e-01 -4.117586463689804077e-02
2.682523131370544434e-01 -2.852144241333007812e-01 -2.187234312295913696e-01
4.105827510356903076e-01 -1.892997771501541138e-01 2.555816769599914551e-01
3.557862639427185059e-01 -1.675233542919158936e-01 -1.273525357246398926e-01
4.445278346538543701e-01 -1.705542504787445068e-01 -7.601469755172729492e-02
4.243143796920776367e-01 -2.039354145526885986e-01 -3.891672492027282715e-01
2.203531861305236816e-01 -2.458259314298629761e-01 3.600747287273406982e-01
2.782376408576965332e-01 -2.839705049991607666e-01 2.131975144147872925e-01
1.395745724439620972e-01 -2.700949907302856445e-01 2.200853675603866577e-01
2.507925033569335938e-01 -2.585090994834899902e-01 -3.727099895477294922e-01
5.680100321769714355e-01 -2.706469297409057617e-01 -6.418866664171218872e-02
2.682300209999084473e-01 -2.924144268035888672e-01 9.073887020349502563e-02
3.803181648254394531e-01 -1.879440844058990479e-01 -3.392494618892669678e-01
4.322324991226196289e-01 -1.780059039592742920e-01 1.523262113332748413e-01
1.767209917306900024e-01 -1.797294020652770996e-01 -1.904173940420150757e-01
4.636754393577575684e-01 -2.732881903648376465e-01 2.188582867383956909e-01
3.279736042022705078e-01 -2.632286548614501953e-01 3.340708911418914795e-01
1.441640555858612061e-01 -2.223429083824157715e-01 -3.491072058677673340e-01
3.323026299476623535e-01 -2.895072996616363525e-01 1.533284634351730347e-01
1.965893357992172241e-01 -2.775579690933227539e-01 2.248181104660034180e-01
3.949279785156250000e-01 -1.680594384670257568e-01 1.777440495789051056e-02
5.043346881866455078e-01 -1.815894097089767456e-01 -1.876229643821716309e-01
2.953378856182098389e-01 -1.665624678134918213e-01 6.711209192872047424e-03
1.748478263616561890e-01 -2.048732787370681763e-01 3.008141219615936279e-01
4.184430539608001709e-01 -2.758640646934509277e-01 -2.852736115455627441e-01
4.733848571777343750e-01 -2.817254960536956787e-01 1.270389407873153687e-01
7.731205224990844727e-02 -2.683771252632141113e-01 -1.101335734128952026e-01
5.356527566909790039e-01 -2.743244767189025879e-01 -1.460929214954376221e-01
2.244832813739776611e-01 -1.738955229520797729e-01 -1.782380789518356323e-01
4.832548499107360840e-01 -1.784545779228210449e-01 8.787864446640014648e-02
2.431228756904602051e-01 -1.701310575008392334e-01 6.469608098268508911e-02
1.815732121467590332e-01 -2.883271276950836182e-01 4.471298307180404663e-02
3.523477315902709961e-01 -2.943510711193084717e-01 -6.329829245805740356e-02
3.725010454654693604e-01 -1.780538558959960938e-01 -2.727755606174468994e-01
5.612953901290893555e-01 -2.017901241779327393e-01 1.566235572099685669e-01
1.712581068277359009e-01 -2.736793160438537598e-01 2.308900654315948486e-01
2.848004102706909180e-01 -1.764405071735382080e-01 -2.528514564037322998e-01
2.848360836505889893e-01 -2.458220273256301880e-01 3.750523328781127930e-01
3.205209374427795410e-01 -2.817003726959228516e-01 2.357752919197082520e-01
1.386047303676605225e-01 -1.869762986898422241e-01 1.589210927486419678e-01
3.752762377262115479e-01 -2.794900834560394287e-01 -2.763968110084533691e-01
2.241179943084716797e-01 -2.280099093914031982e-01 -4.083051383495330811e-01
2.967180609703063965e-01 -1.689351946115493774e-01 -1.560369879007339478e-01
2.736260592937469482e-01 -1.671119630336761475e-01 -7.682664692401885986e-02
2.608046829700469971e-01 -2.712771892547607422e-01 -3.213715255260467529e-01
5.704128742218017578e-01 -2.445735931396484375e-01 -2.786736190319061279e-01
4.421649575233459473e-01 -2.777668535709381104e-01 2.070297449827194214e-01
3.543737530708312988e-02 -2.448105365037918091e-01 1.475195586681365967e-01
6.066497564315795898e-01 -2.205716818571090698e-01 -2.224029451608657837e-01
2.123137861490249634e-01 -1.813135743141174316e-01 1.920065134763717651e-01
6.555372476577758789e-02 -2.412169426679611206e-01 -2.369710654020309448e-01
5.116014480590820312e-01 -2.039994299411773682e-01 -3.300970196723937988e-01
7.507537305355072021e-02 -2.699606418609619141e-01 7.225037366151809692e-02
4.720569252967834473e-01 -1.811244934797286987e-01 1.400011777877807617e-01
2.209338098764419556e-01 -2.905489206314086914e-01 7.961833477020263672e-02
6.164353489875793457e-01 -2.512311339378356934e-01 3.532509505748748779e-02
2.083564102649688721e-01 -1.748408228158950806e-01 1.109387800097465515e-01
2.854105234146118164e-01 -1.664516776800155640e-01 -5.011186748743057251e-02
1.350847482681274414e-01 -1.794180274009704590e-01 -6.594235450029373169e-02
2.860231399536132812e-01 -2.808630168437957764e-01 -2.658374011516571045e-01
1.684752553701400757e-01 -2.847233414649963379e-01 1.064903363585472107e-01
4.185441136360168457e-01 -1.692024767398834229e-01 -1.028711050748825073e-01
1.093129515647888184e-01 -2.575443983078002930e-01 2.469323575496673584e-01
3.804289698600769043e-01 -1.678696572780609131e-01 -1.192967444658279419e-01
5.068014264106750488e-01 -2.751899957656860352e-01 -2.004378437995910645e-01
6.283783912658691406e-01 -2.462501078844070435e-01 -8.259807527065277100e-02
2.539916634559631348e-01 -1.676587164402008057e-01 -5.022693425416946411e-02
6.389057040214538574e-01 -2.362310737371444702e-01 -5.236428976058959961e-02
4.733912050724029541e-01 -1.805685758590698242e-01 -2.256524562835693359e-01
4.289354383945465088e-01 -2.527199089527130127e-01 3.306018710136413574e-01
4.238121509552001953e-01 -1.689038276672363281e-01 -5.946120619773864746e-02
2.535604536533355713e-01 -1.707625538110733032e-01 -1.583190262317657471e-01
3.037447035312652588e-01 -2.430534958839416504e-01 -4.228236675262451172e-01
2.998446226119995117e-01 -2.070557177066802979e-01 -4.095686972141265869e-01
4.761474728584289551e-01 -2.849118113517761230e-01 6.530825048685073853e-02
5.325698852539062500e-01 -2.687932252883911133e-01 1.526397615671157837e-01
1.609859466552734375e-01 -2.818779051303863525e-01 1.384181529283523560e-01
1.597903072834014893e-01 -1.758211851119995117e-01 -5.991280823945999146e-02
1.058425307273864746e-01 -2.765171229839324951e-01 8.078576624393463135e-02
5.009295344352722168e-01 -1.927752941846847534e-01 1.982305198907852173e-01
3.798539042472839355e-01 -1.667460799217224121e-01 -5.767377465963363647e-02
6.174465417861938477e-01 -2.211055159568786621e-01 -1.917511671781539917e-01
5.404478907585144043e-01 -2.759350836277008057e-01 -9.376526623964309692e-02
3.556981086730957031e-01 -2.792853713035583496e-01 2.474315464496612549e-01
3.380627632141113281e-01 -2.631779313087463379e-01 -3.725139498710632324e-01
2.711319923400878906e-02 -2.085821032524108887e-01 -4.074571281671524048e-02
1.222572177648544312e-01 -2.551923096179962158e-01 -2.849320769309997559e-01
3.730357289314270020e-01 -2.071244716644287109e-01 -4.109794199466705322e-01
3.918057084083557129e-01 -1.689952611923217773e-01 5.190771073102951050e-02
1.001457273960113525e-01 -1.891598105430603027e-01 9.886705875396728516e-02
4.606451094150543213e-01 -1.731587946414947510e-01 3.181392699480056763e-02
3.912003040313720703e-01 -2.769794464111328125e-01 2.491560876369476318e-01
8.491006493568420410e-02 -1.897138357162475586e-01 -8.216966688632965088e-02
1.618543863296508789e-01 -1.856006681919097900e-01 -2.288220226764678955e-01
2.249380648136138916e-01 -2.163758277893066406e-01 3.562852740287780762e-01
3.120424449443817139e-01 -1.791699528694152832e-01 2.120994925498962402e-01
2.180918306112289429e-01 -2.729706466197967529e-01 2.700408101081848145e-01
5.308606624603271484e-01 -1.893133074045181274e-01 -2.219420373439788818e-01
5.635840296745300293e-01 -2.234002053737640381e-01 -3.080587685108184814e-01
1.017526984214782715e-01 -2.766634821891784668e-01 5.608227849006652832e-02
5.457655787467956543e-01 -2.734872698783874512e-01 6.236367672681808472e-02
5.060675144195556641e-01 -2.429330646991729736e-01 -3.600112199783325195e-01
2.049330770969390869e-01 -2.908963263034820557e-01 -8.391834795475006104e-03
5.042647123336791992e-01 -2.743597328662872314e-01 1.559909731149673462e-01
7.627540826797485352e-02 -2.037270814180374146e-01 -2.041666805744171143e-01
3.007826805114746094e-01 -2.894964814186096191e-01 -1.779962182044982910e-01
5.288767218589782715e-01 -2.669689059257507324e-01 -2.371599823236465454e-01
1.571352630853652954e-01 -2.050615251064300537e-01 -3.279523253440856934e-01
3.509157896041870117e-01 -2.809692025184631348e-01 -2.697749435901641846e-01
4.054583609104156494e-01 -2.333323061466217041e-01 3.642413318157196045e-01
4.429632425308227539e-01 -2.807498574256896973e-01 1.797700375318527222e-01
8.889453113079071045e-02 -2.055917680263519287e-01 -2.389251440763473511e-01
5.665960311889648438e-01 -1.981218159198760986e-01 -2.195372581481933594e-01
9.167057275772094727e-02 -2.136595249176025391e-01 -2.709526419639587402e-01
2.306126803159713745e-01 -1.689552813768386841e-01 -2.396919019520282745e-02
2.411086261272430420e-01 -2.052074223756790161e-01 3.352165222167968750e-01
1.440999954938888550e-01 -2.750558853149414062e-01 -1.957660466432571411e-01
3.269382119178771973e-01 -1.835133731365203857e-01 -3.175725042819976807e-01
5.993345975875854492e-01 -2.604815959930419922e-01 -9.022940695285797119e-02
8.602949976921081543e-02 -1.904423534870147705e-01 6.733773648738861084e-02
3.378508090972900391e-01 -2.699597477912902832e-01 -3.420300185680389404e-01
3.805241286754608154e-01 -2.828521430492401123e-01 -2.456602305173873901e-01
2.726120054721832275e-01 -1.997617930173873901e-01 3.246875107288360596e-01
4.339054822921752930e-01 -2.905451953411102295e-01 -5.438455939292907715e-02
3.280439674854278564e-01 -2.200126647949218750e-01 3.756074309349060059e-01
3.111497163772583008e-01 -1.675986945629119873e-01 5.385751277208328247e-02
3.708768486976623535e-01 -1.677728593349456787e-01 3.991559147834777832e-02
3.854505121707916260e-01 -2.034176737070083618e-01 3.277082741260528564e-01
2.606573998928070068e-01 -1.742613166570663452e-01 1.490995436906814575e-01
4.033874869346618652e-01 -1.783192157745361328e-01 1.783300340175628662e-01
5.890828371047973633e-01 -2.650030851364135742e-01 -4.436063393950462341e-02
3.891620337963104248e-01 -2.588461041450500488e-01 -3.816657066345214844e-01
4.517856240272521973e-01 -1.715417504310607910e-01 3.745235502719879150e-03
2.923627793788909912e-01 -2.930176854133605957e-01 -1.100078448653221130e-01
4.432871341705322266e-01 -2.734623253345489502e-01 -2.863144278526306152e-01
6.192876696586608887e-01 -2.137263268232345581e-01 -1.577202528715133667e-01
4.973854422569274902e-01 -1.759117543697357178e-01 -4.744283109903335571e-02
5.832033753395080566e-01 -1.944811493158340454e-01 -1.249604523181915283e-01
1.990165412425994873e-01 -1.820603460073471069e-01 -2.433269917964935303e-01
1.542519778013229370e-01 -2.856854200363159180e-01 1.931320689618587494e-02
3.526345491409301758e-01 -2.925347685813903809e-01 -1.219991967082023621e-01
4.564537405967712402e-01 -2.360830307006835938e-01 3.360851705074310303e-01
3.418436646461486816e-01 -2.545640170574188232e-01 3.573430180549621582e-01
2.792095541954040527e-01 -1.889287829399108887e-01 -3.395539522171020508e-01
2.136679291725158691e-01 -1.703400015830993652e-01 -1.125238835811614990e-03
1.615710407495498657e-01 -2.665476799011230469e-01 -2.783935964107513428e-01
3.637389540672302246e-01 -1.778199821710586548e-01 1.927289962768554688e-01
6.176045536994934082e-02 -2.130808979272842407e-01 1.897168606519699097e-01
5.328087210655212402e-01 -2.589088082313537598e-01 -2.803901433944702148e-01
9.920385479927062988e-02 -1.942855417728424072e-01 -1.904376000165939331e-01
3.950201272964477539e-01 -2.907404601573944092e-01 -1.299444586038589478e-01
3.707039058208465576e-01 -1.923772543668746948e-01 2.883793115615844727e-01
4.101256132125854492e-01 -2.801468372344970703e-01 2.141375541687011719e-01
5.580282807350158691e-01 -1.880623847246170044e-01 -1.291437894105911255e-01
3.394190371036529541e-01 -2.759571075439453125e-01 2.732158601284027100e-01
3.010637760162353516e-01 -2.075848430395126343e-01 3.523818552494049072e-01
1.732304841279983521e-01 -1.739883422851562500e-01 -2.013993263244628906e-02
2.357278466224670410e-01 -2.025998234748840332e-01 -3.768215179443359375e-01
5.351257920265197754e-01 -2.198999822139739990e-01 2.557963430881500244e-01
7.215508818626403809e-02 -2.594426274299621582e-01 1.737188845872879028e-01
1.804048120975494385e-01 -2.217005342245101929e-01 -3.790852725505828857e-01
4.107274115085601807e-01 -1.791783571243286133e-01 -2.673400342464447021e-01
3.171712458133697510e-01 -2.918179929256439209e-01 -1.427245438098907471e-01
3.600135445594787598e-02 -2.149837166070938110e-01 -1.499432921409606934e-01
4.196668863296508789e-01 -2.844961285591125488e-01 1.639162153005599976e-01
5.891749858856201172e-01 -1.983778774738311768e-01 -1.540240347385406494e-01
6.295833587646484375e-01 -2.177886962890625000e-01 2.760821767151355743e-02
3.773740828037261963e-01 -1.747074723243713379e-01 1.551012992858886719e-01
3.258980214595794678e-01 -2.787384390830993652e-01 -2.883577942848205566e-01
1.884366571903228760e-01 -2.011464983224868774e-01 -3.422918617725372314e-01
2.877122461795806885e-01 -2.917315363883972168e-01 -1.362177729606628418e-01
5.674037933349609375e-01 -1.918153464794158936e-01 5.280221253633499146e-02
2.734053134918212891e-01 -1.708711981773376465e-01 -1.775021851062774658e-01
3.162090778350830078e-01 -1.730712801218032837e-01 1.498605012893676758e-01
2.785334587097167969e-01 -1.878585517406463623e-01 2.695472240447998047e-01
4.575219154357910156e-01 -2.852668762207031250e-01 1.019885614514350891e-01
8.463972806930541992e-02 -2.064088582992553711e-01 2.048302739858627319e-01
1.337028592824935913e-01 -1.817329078912734985e-01 -1.247378215193748474e-01
1.332596093416213989e-01 -2.775636017322540283e-01 -1.481225937604904175e-01
5.844604969024658203e-01 -2.018577903509140015e-01 -2.014276236295700073e-01
6.050080060958862305e-02 -2.009203284978866577e-01 1.113332733511924744e-01
2.612220048904418945e-01 -1.952321380376815796e-01 -3.622063994407653809e-01
1.072111278772354126e-01 -2.752963900566101074e-01 1.083271130919456482e-01
2.657279968261718750e-01 -2.238603979349136353e-01 -4.237865209579467773e-01
1.394660323858261108e-01 -2.669460475444793701e-01 -2.503739297389984131e-01
2.797816097736358643e-01 -1.685626506805419922e-01 6.374260038137435913e-02
6.000938415527343750e-01 -2.560097277164459229e-01 7.168234884738922119e-02
2.189206033945083618e-01 -1.712833344936370850e-01 -1.176371276378631592e-01
2.054009139537811279e-01 -2.510202527046203613e-01 -3.716626763343811035e-01
4.841176271438598633e-01 -2.614061534404754639e-01 -3.217643499374389648e-01
3.569467365741729736e-01 -1.661140322685241699e-01 -4.874803125858306885e-02
5.051086544990539551e-01 -1.807637661695480347e-01 7.602734863758087158e-02
5.858875513076782227e-01 -2.150422632694244385e-01 1.633617281913757324e-01
4.490721523761749268e-01 -1.871796846389770508e-01 2.158281505107879639e-01
1.308587789535522461e-01 -2.825072407722473145e-01 -1.678175106644630432e-02
3.680822551250457764e-01 -1.738558113574981689e-01 -2.315429747104644775e-01
3.381729125976562500e-01 -1.691683530807495117e-01 -1.691800057888031006e-01
2.985409200191497803e-01 -2.947240173816680908e-01 -5.239699035882949829e-02
1.745406538248062134e-01 -2.754954695701599121e-01 -2.328665405511856079e-01
8.239382505416870117e-02 -2.699622511863708496e-01 1.047046706080436707e-01
4.646591544151306152e-01 -2.018627226352691650e-01 -3.617301285266876221e-01
5.775331258773803711e-01 -2.529929578304290771e-01 -2.340367436408996582e-01
2.121437191963195801e-01 -2.898176312446594238e-01 -9.380331635475158691e-02
5.691289305686950684e-01 -2.341263592243194580e-01 2.157328277826309204e-01
4.147167503833770752e-01 -1.716019511222839355e-01 8.142757415771484375e-02
3.974081873893737793e-01 -2.857088744640350342e-01 -2.069771885871887207e-01
2.914445400238037109e-01 -2.871700525283813477e-01 1.829297542572021484e-01
5.502557754516601562e-02 -2.588230967521667480e-01 1.317933648824691772e-01
1.302653253078460693e-01 -1.823163479566574097e-01 7.834707200527191162e-02
2.741098403930664062e-02 -2.223141789436340332e-01 1.295855641365051270e-01
7.377772033214569092e-02 -2.712464034557342529e-01 1.305100880563259125e-02
1.974609494209289551e-02 -2.380080074071884155e-01 1.093822196125984192e-01
1.060997843742370605e-01 -2.219804227352142334e-01 -3.060256540775299072e-01
4.228135645389556885e-01 -1.688941717147827148e-01 -2.466193959116935730e-02
1.068384796380996704e-01 -1.954749971628189087e-01 -2.154521048069000244e-01
3.272421360015869141e-01 -1.660105586051940918e-01 -7.016216218471527100e-02
2.308444082736968994e-01 -2.791859209537506104e-01 -2.532497942447662354e-01
5.437399744987487793e-01 -2.693318426609039307e-01 -1.879436224699020386e-01
5.233579874038696289e-01 -1.992790997028350830e-01 2.057103812694549561e-01
4.820991456508636475e-01 -1.853105872869491577e-01 1.669567972421646118e-01
1.761817485094070435e-01 -1.748779565095901489e-01 -1.026912927627563477e-01
1.537523120641708374e-01 -2.586447596549987793e-01 -3.072116672992706299e-01
3.548650443553924561e-01 -1.664564013481140137e-01 -8.654920756816864014e-02
1.392647027969360352e-01 -1.990429461002349854e-01 -2.852242290973663330e-01
1.705439388751983643e-01 -1.830556988716125488e-01 1.661251783370971680e-01
1.900331974029541016e-01 -2.820732593536376953e-01 1.768682301044464111e-01
1.677384376525878906e-01 -1.751162409782409668e-01 2.064537070691585541e-02
1.049219369888305664e-01 -1.851787120103836060e-01 3.875569254159927368e-02
5.979407429695129395e-01 -2.586359679698944092e-01 -1.302027404308319092e-01
4.370533227920532227e-01 -2.832753062248229980e-01 -2.038333863019943237e-01
1.036732047796249390e-01 -2.749751806259155273e-01 -1.046115234494209290e-01
1.792733669281005859e-01 -1.890310347080230713e-01 -2.755495309829711914e-01
3.694917261600494385e-01 -2.897308766841888428e-01 1.350266039371490479e-01
6.179378032684326172e-01 -2.524987459182739258e-01 4.979614168405532837e-03
1.163856387138366699e-01 -2.520577907562255859e-01 2.739581167697906494e-01
6.209424734115600586e-01 -2.071669250726699829e-01 -5.314891412854194641e-02
-1.893480271100997925e-01 5.254735946655273438e-01 9.101323783397674561e-02
-3.163766115903854370e-02 7.387984991073608398e-01 -2.339310795068740845e-01
-2.149480581283569336e-01 7.901360988616943359e-01 -2.118208818137645721e-02
-1.602966785430908203e-01 7.694613337516784668e-01 1.460057049989700317e-01
-4.552040249109268188e-02 6.632007956504821777e-01 -2.640150189399719238e-01
-1.742172241210937500e-01 6.092007160186767578e-01 -2.976489961147308350e-01
-1.194081902503967285e-01 7.774379849433898926e-01 -3.193517625331878662e-01
-3.655105829238891602e-03 6.349549293518066406e-01 1.944002509117126465e-02
-4.806297272443771362e-02 5.973263978958129883e-01 1.837806999683380127e-01
-2.419533431529998779e-01 6.112288832664489746e-01 1.936230510473251343e-01
-8.282074332237243652e-02 6.800466775894165039e-01 -3.310400247573852539e-01
-2.430762052536010742e-01 7.726168632507324219e-01 -8.255544304847717285e-02
-2.019739896059036255e-01 7.354222536087036133e-01 -3.325946033000946045e-01
-2.082749009132385254e-01 6.721538901329040527e-01 -3.330546617507934570e-01
-6.891962885856628418e-02 8.079866170883178711e-01 -1.268603056669235229e-01
-2.761477231979370117e-01 6.681638956069946289e-01 -1.840344965457916260e-01
-8.292318880558013916e-02 5.665458440780639648e-01 2.018948346376419067e-01
-1.516440808773040771e-01 8.205990791320800781e-01 -8.313718438148498535e-02
-2.564273774623870850e-01 6.458582282066345215e-01 1.641430705785751343e-01
-1.653968393802642822e-01 7.971853613853454590e-01 5.687619373202323914e-02
-1.972713172435760498e-01 8.062509894371032715e-01 -8.452710509300231934e-02
-2.844375371932983398e-01 6.861439347267150879e-01 1.531794667243957520e-03
-2.290571331977844238e-01 5.631945133209228516e-01 -1.416530758142471313e-01
-2.490710020065307617e-01 7.523300647735595703e-01 1.892454177141189575e-02
-2.314982116222381592e-01 5.430883169174194336e-01 5.158470198512077332e-02
-2.629744410514831543e-01 6.932265758514404297e-01 -2.335060685873031616e-01
-1.126459315419197083e-01 7.270125150680541992e-01 2.279400527477264404e-01
-6.294846534729003906e-04 6.875969171524047852e-01 4.863252863287925720e-02
-5.934619903564453125e-02 5.533396601676940918e-01 5.167390033602714539e-02
-1.962854415178298950e-01 8.036872148513793945e-01 -4.478035867214202881e-02
-1.589050740003585815e-01 5.840917229652404785e-01 -2.583906650543212891e-01
-3.382486850023269653e-02 7.810281515121459961e-01 -5.285275727510452271e-02
-2.301015257835388184e-01 5.454372167587280273e-01 8.594076335430145264e-02
-8.242467790842056274e-02 7.272688150405883789e-01 2.096914499998092651e-01
-1.618589162826538086e-01 5.988988280296325684e-01 -2.847581207752227783e-01
-2.738469243049621582e-01 6.367185115814208984e-01 1.031914353370666504e-01
-2.255907356739044189e-01 6.100286245346069336e-01 2.246834635734558105e-01
-1.451016217470169067e-01 7.544310688972473145e-01 -3.504755496978759766e-01
-2.865850031375885010e-01 6.690950989723205566e-01 1.002537831664085388e-02
-1.433146893978118896e-01 5.275857448577880859e-01 -7.079556584358215332e-02
-1.976262778043746948e-02 6.082816123962402344e-01 -7.838618755340576172e-02
-1.087714731693267822e-02 6.206550002098083496e-01 5.780974403023719788e-02
-1.481074690818786621e-01 7.560428380966186523e-01 1.808449178934097290e-01
-2.421918809413909912e-01 5.515007376670837402e-01 -1.905754581093788147e-02
-1.318355202674865723e-01 7.816114425659179688e-01 1.245559602975845337e-01
-1.989226788282394409e-02 7.139865159988403320e-01 -2.120516449213027954e-01
-3.332785516977310181e-02 6.166403293609619141e-01 -1.670584827661514282e-01
-1.983537226915359497e-01 8.049581050872802734e-01 -1.575807034969329834e-01
-1.412886977195739746e-01 5.196355581283569336e-01 1.412014663219451904e-02
-1.773410141468048096e-01 6.790519952774047852e-01 -3.577805161476135254e-01
-2.249136120080947876e-01 5.661521553993225098e-01 -1.604558974504470825e-01
-4.614636301994323730e-03 6.359267830848693848e-01 4.179565235972404480e-02
-1.263332366943359375e-02 6.219677329063415527e-01 7.881584763526916504e-02
-2.727586627006530762e-01 6.046668291091918945e-01 7.773351669311523438e-02
-2.443585693836212158e-01 6.391537189483642578e-01 1.947405040264129639e-01
-5.891194939613342285e-02 5.561361312866210938e-01 -2.664389088749885559e-02
-1.150340139865875244e-01 7.990945577621459961e-01 6.561742722988128662e-02
-2.130482643842697144e-01 7.947787642478942871e-01 -1.718732118606567383e-01
-1.520010232925415039e-01 5.196549296379089355e-01 7.887004315853118896e-02
-1.041267365217208862e-01 5.992265939712524414e-01 -2.639865279197692871e-01
-1.387117207050323486e-01 5.220004320144653320e-01 9.859947860240936279e-02
-4.766436666250228882e-02 5.860748291015625000e-01 1.611123383045196533e-01
-2.894716858863830566e-01 6.658315062522888184e-01 -6.045583635568618774e-02
-3.487613797187805176e-02 7.123406529426574707e-01 -2.574782073497772217e-01
-1.253422051668167114e-01 8.129798769950866699e-01 -2.258423268795013428e-01
-2.883327007293701172e-01 6.430085897445678711e-01 -8.124949410557746887e-03
-1.910204589366912842e-01 7.844909429550170898e-01 6.953161954879760742e-02
-1.144087836146354675e-01 6.172524690628051758e-01 -3.001457750797271729e-01
-2.272512912750244141e-01 6.462840437889099121e-01 -2.945362031459808350e-01
-2.695044875144958496e-01 6.338619589805603027e-01 -1.849650889635086060e-01
-2.307806015014648438e-01 6.289549469947814941e-01 2.212248444557189941e-01
-2.893226742744445801e-01 6.496540307998657227e-01 -2.610750123858451843e-02
-1.146781817078590393e-01 5.296113491058349609e-01 -4.640900343656539917e-02
-6.426421552896499634e-02 8.003543615341186523e-01 -1.782666295766830444e-01
-4.966470599174499512e-02 6.102661490440368652e-01 -2.000950574874877930e-01
-8.701370656490325928e-02 5.911793112754821777e-01 -2.293427139520645142e-01
-2.353149950504302979e-01 7.763633728027343750e-01 -3.650953248143196106e-02
-6.350911408662796021e-02 7.359678745269775391e-01 1.757013350725173950e-01
-3.909149765968322754e-02 6.646612882614135742e-01 2.002281546592712402e-01
-2.809779047966003418e-01 6.798963546752929688e-01 -1.567744314670562744e-01
-2.531827092170715332e-01 7.603791356086730957e-01 -1.261084079742431641e-01
-2.576549947261810303e-01 5.673673748970031738e-01 -2.737857401371002197e-02
-2.625938653945922852e-01 6.934265494346618652e-01 1.098864376544952393e-01
-2.504958510398864746e-01 5.604301691055297852e-01 5.322131887078285217e-02
-2.231839746236801147e-01 5.591607689857482910e-01 1.640240848064422607e-01
-6.891010701656341553e-02 8.006510734558105469e-01 -5.170591175556182861e-03
-2.162576913833618164e-01 7.687264680862426758e-01 -2.664060890674591064e-01
-2.157974839210510254e-01 6.987750530242919922e-01 2.084383666515350342e-01
-1.983220130205154419e-01 5.919145345687866211e-01 -2.556923031806945801e-01
-1.765185594558715820e-02 7.284474968910217285e-01 -1.936085969209671021e-01
-7.075320184230804443e-02 7.737321257591247559e-01 -2.768620848655700684e-01
-2.349336743354797363e-01 7.471511363983154297e-01 -2.630149126052856445e-01
-3.311815857887268066e-02 6.093124151229858398e-01 -1.486886143684387207e-01
-9.063993394374847412e-02 8.121911287307739258e-01 -1.870419383049011230e-01
-6.061849743127822876e-02 6.285455226898193359e-01 -2.538919746875762939e-01
-4.219534248113632202e-02 5.800001025199890137e-01 1.217710673809051514e-01
-7.163388282060623169e-02 6.149187088012695312e-01 2.460771799087524414e-01
-2.290972769260406494e-01 6.958591341972351074e-01 1.901973783969879150e-01
-4.736847430467605591e-02 5.961494445800781250e-01 -1.608794927597045898e-01
-7.407251000404357910e-02 6.661542057991027832e-01 2.535297274589538574e-01
-2.082746028900146484e-01 6.367909908294677734e-01 2.537115216255187988e-01
-4.319160431623458862e-02 5.677140951156616211e-01 3.355081006884574890e-02
-2.715149819850921631e-01 7.328047156333923340e-01 -8.372682332992553711e-02
-2.140665352344512939e-01 7.795809507369995117e-01 -2.429084479808807373e-01
-1.306563615798950195e-01 6.542721390724182129e-01 -3.469645678997039795e-01
-2.774191200733184814e-01 6.931493282318115234e-01 -1.703427135944366455e-01
-7.874251157045364380e-02 7.004793882369995117e-01 -3.327625095844268799e-01
-8.453407138586044312e-02 8.041772842407226562e-01 1.215228438377380371e-02
-6.457188725471496582e-02 5.539318919181823730e-01 1.049527823925018311e-01
-2.472653985023498535e-01 7.474989891052246094e-01 4.512796178460121155e-02
-4.343211650848388672e-03 6.803268790245056152e-01 7.842868566513061523e-02
-1.658202707767486572e-01 5.712572336196899414e-01 2.518675923347473145e-01
-2.489671111106872559e-03 7.149450778961181641e-01 2.095174416899681091e-02
-1.139756813645362854e-01 7.535566091537475586e-01 -3.445599973201751709e-01
-9.682181477546691895e-02 6.942560076713562012e-01 -3.489691615104675293e-01
-2.871982008218765259e-02 6.696212291717529297e-01 -2.286465913057327271e-01
-2.156478166580200195e-02 6.781502366065979004e-01 -2.127864211797714233e-01
-1.933613717555999756e-01 8.088726997375488281e-01 -1.177623122930526733e-01
-8.562444895505905151e-02 5.480530261993408203e-01 -9.002262353897094727e-02
-2.982642501592636108e-02 6.078351140022277832e-01 1.419451981782913208e-01
-2.175099402666091919e-02 7.160614132881164551e-01 1.165242493152618408e-01
-2.387282848358154297e-01 7.754823565483093262e-01 -5.874010920524597168e-02
-5.923448503017425537e-02 7.438959479331970215e-01 -2.935810685157775879e-01
-1.234671995043754578e-01 5.543014407157897949e-01 -1.732357293367385864e-01
-2.786684632301330566e-01 6.571115255355834961e-01 -1.671610623598098755e-01
-1.284509897232055664e-01 5.353780388832092285e-01 1.697742342948913574e-01
-2.133940160274505615e-01 7.976327538490295410e-01 -1.234087944030761719e-01
-1.840407252311706543e-01 7.678791880607604980e-01 -3.164020478725433350e-01
-1.127710565924644470e-01 5.794431567192077637e-01 -2.318095415830612183e-01
-1.359791159629821777e-01 8.111642003059387207e-01 1.259337738156318665e-02
-4.110251367092132568e-02 5.880575180053710938e-01 -1.137285977602005005e-01
-2.252995669841766357e-01 7.118631005287170410e-01 1.769370436668395996e-01
-4.546590149402618408e-02 5.661183595657348633e-01 5.378808453679084778e-02
-2.622845172882080078e-01 6.103223562240600586e-01 -1.727903038263320923e-01
-2.016732096672058105e-02 6.038658618927001953e-01 7.620334625244140625e-02
-2.844907641410827637e-01 6.228444576263427734e-01 -6.675001978874206543e-02
-1.542107462882995605e-01 8.204824924468994141e-01 -1.469917148351669312e-01
-5.040758103132247925e-02 7.127819061279296875e-01 -2.912242114543914795e-01
-1.911620199680328369e-01 8.059573173522949219e-01 -1.847247481346130371e-01
-5.685347318649291992e-02 6.612110137939453125e-01 -2.836985886096954346e-01
-9.648032486438751221e-02 5.472455024719238281e-01 -1.115867793560028076e-01
-4.471851140260696411e-02 6.233429312705993652e-01 2.038431018590927124e-01
-2.067418694496154785e-01 6.005329489707946777e-01 2.463058829307556152e-01
-2.268868386745452881e-01 6.632598042488098145e-01 2.202048897743225098e-01
-1.765138357877731323e-01 7.431689500808715820e-01 1.889064460992813110e-01
-2.866586744785308838e-01 6.276125907897949219e-01 -3.718935325741767883e-02
-2.500242590904235840e-01 5.581570863723754883e-01 2.908283844590187073e-02
-1.863378882408142090e-01 5.226701498031616211e-01 6.245076283812522888e-02
-1.501508057117462158e-02 7.538680434226989746e-01 -2.347488142549991608e-02
-1.574133932590484619e-01 7.839762568473815918e-01 1.089815944433212280e-01
-2.458274364471435547e-01 7.332461476325988770e-01 9.041342139244079590e-02
-1.128838211297988892e-01 5.475821495056152344e-01 -1.390336751937866211e-01
-2.012779265642166138e-01 7.955344915390014648e-01 -2.161421179771423340e-01
-2.593394219875335693e-01 5.971215963363647461e-01 1.302384585142135620e-01
-2.783177047967910767e-02 6.888126134872436523e-01 -2.368067055940628052e-01
-2.515084147453308105e-01 7.560659646987915039e-01 -1.747031956911087036e-01
-2.594180703163146973e-01 6.150742173194885254e-01 -1.909434646368026733e-01
-4.264284670352935791e-02 6.246210932731628418e-01 -2.096852958202362061e-01
-8.543550968170166016e-03 6.869160532951354980e-01 -1.652925312519073486e-01
-1.580952554941177368e-01 5.533376932144165039e-01 2.252264618873596191e-01
-2.792593538761138916e-01 6.768324971199035645e-01 5.752744153141975403e-02
-1.170877441763877869e-01 8.080894947052001953e-01 2.717181667685508728e-02
-2.883761525154113770e-01 6.436808705329895020e-01 -6.982153654098510742e-02
-2.486579865217208862e-01 7.106955647468566895e-01 -2.670456469058990479e-01
-1.438413560390472412e-02 6.247808337211608887e-01 -1.022416055202484131e-01
-2.011896520853042603e-01 6.266895532608032227e-01 -3.043636083602905273e-01
-1.920509934425354004e-01 6.926830410957336426e-01 -3.525573015213012695e-01
-1.432693898677825928e-01 5.465710163116455078e-01 -1.586529612541198730e-01
-1.870684325695037842e-02 7.571880817413330078e-01 -1.364292949438095093e-01
-2.237967550754547119e-01 7.509754896163940430e-01 -2.829112708568572998e-01
-2.683880329132080078e-01 5.886754989624023438e-01 6.295746564865112305e-02
-7.545412331819534302e-02 8.094398379325866699e-01 -5.410628765821456909e-02
-2.358458638191223145e-01 7.131978273391723633e-01 1.542596817016601562e-01
-1.087928861379623413e-01 7.985719442367553711e-01 -2.692728638648986816e-01
-6.775434315204620361e-02 7.733049392700195312e-01 1.021566987037658691e-01
-6.121841818094253540e-02 5.890665650367736816e-01 2.022016495466232300e-01
-2.044270187616348267e-02 7.638642787933349609e-01 -3.848730027675628662e-02
-6.477061659097671509e-02 5.506593585014343262e-01 7.769934833049774170e-02
-2.825494110584259033e-01 6.495598554611206055e-01 5.586004629731178284e-02
-2.751329243183135986e-01 7.107729911804199219e-01 -1.599578261375427246e-01
-2.754632532596588135e-01 7.210880517959594727e-01 -1.222692877054214478e-01
-1.930505931377410889e-01 5.851662158966064453e-01 2.490309178829193115e-01
-2.023908197879791260e-01 7.641720175743103027e-01 1.130267977714538574e-01
-2.011769413948059082e-01 5.344163179397583008e-01 1.249728798866271973e-01
-5.488816648721694946e-02 6.158053278923034668e-01 -2.224748432636260986e-01
-2.080810368061065674e-01 7.256446480751037598e-01 1.836888045072555542e-01
1.914143562316894531e-03 6.569645404815673828e-01 -5.365684628486633301e-04
-7.441839575767517090e-02 7.331613302230834961e-01 1.934019476175308228e-01
-2.753379344940185547e-01 6.107254028320312500e-01 -1.133805364370346069e-01
-2.720636129379272461e-02 7.726168632507324219e-01 -1.226423233747482300e-01
-2.697393894195556641e-01 6.686809062957763672e-01 -2.107711732387542725e-01
-2.577919363975524902e-01 7.229464650154113770e-01 7.317684590816497803e-02
-1.030875891447067261e-01 6.476190090179443359e-01 -3.269926905632019043e-01
-1.340868175029754639e-01 8.199070096015930176e-01 -1.808596849441528320e-01
-4.345718771219253540e-02 6.857073307037353516e-01 -2.735468149185180664e-01
-1.705671846866607666e-02 7.574978470802307129e-01 -1.175791174173355103e-01
-2.067833393812179565e-02 5.975012779235839844e-01 -1.412037573754787445e-02
-7.989452779293060303e-02 7.706347107887268066e-01 1.258808374404907227e-01
-1.330979168415069580e-02 6.953499317169189453e-01 1.109841614961624146e-01
-1.855923533439636230e-01 6.325971484184265137e-01 -3.214883208274841309e-01
-2.247214317321777344e-03 6.615304946899414062e-01 6.343933939933776855e-02
-2.647648751735687256e-01 6.644375324249267578e-01 1.313821673393249512e-01
-2.036696821451187134e-01 5.288841128349304199e-01 7.234078645706176758e-02
-2.085465192794799805e-01 7.885456681251525879e-01 1.231853291392326355e-02
-4.112656414508819580e-02 5.759258866310119629e-01 9.717701375484466553e-02
-2.506447136402130127e-01 6.719713807106018066e-01 -2.669571936130523682e-01
-1.019942760467529297e-02 7.470919489860534668e-01 -8.971169590950012207e-02
-1.175027638673782349e-01 7.881636023521423340e-01 1.040034294128417969e-01
-4.899396747350692749e-02 5.719925761222839355e-01 -7.848413288593292236e-02
-1.691684126853942871e-01 5.229903459548950195e-01 1.067459434270858765e-01
-1.318295150995254517e-01 5.813432931900024414e-01 -2.479303628206253052e-01
-9.543207287788391113e-02 5.333144664764404297e-01 -1.496009714901447296e-02
-4.014899581670761108e-02 6.868545413017272949e-01 1.925274282693862915e-01
-6.228625774383544922e-03 6.516037583351135254e-01 -1.154698729515075684e-01
-2.159645408391952515e-01 5.831855535507202148e-01 -2.192324548959732056e-01
-8.174355328083038330e-02 5.386012196540832520e-01 7.437527179718017578e-03
-1.239098459482192993e-01 8.225813508033752441e-01 -1.383284330368041992e-01
-2.795434892177581787e-01 6.418120265007019043e-01 7.469317317008972168e-02
-1.476348787546157837e-01 5.776895284652709961e-01 2.635637521743774414e-01
-6.746545433998107910e-02 5.739458203315734863e-01 1.875462830066680908e-01
-1.063883602619171143e-01 5.684998631477355957e-01 2.352920472621917725e-01
1.860722899436950684e-03 7.030907869338989258e-01 -2.335868775844573975e-04
-1.898170411586761475e-01 7.972683906555175781e-01 -2.369617521762847900e-01
-2.299844622611999512e-01 7.287316918373107910e-01 1.404743492603302002e-01
-1.866224110126495361e-01 7.689534425735473633e-01 1.232175827026367188e-01
-2.542296946048736572e-01 5.837064981460571289e-01 -1.344452500343322754e-01
-1.238736510276794434e-01 7.665581703186035156e-01 -3.356284797191619873e-01
-2.557376027107238770e-01 6.204411387443542480e-01 -2.101757973432540894e-01
-1.515511721372604370e-01 5.306489467620849609e-01 1.593754887580871582e-01
-1.712962239980697632e-01 7.908209562301635742e-01 -2.834047079086303711e-01
-9.962526708841323853e-02 8.182048797607421875e-01 -6.879930198192596436e-02
-1.865072399377822876e-01 5.247482657432556152e-01 -2.505725622177124023e-02
-2.692784368991851807e-02 7.480190396308898926e-01 6.991572678089141846e-02
-9.685144573450088501e-02 7.844191193580627441e-01 -2.919441461563110352e-01
-2.516373693943023682e-01 7.568124532699584961e-01 -1.885845325887203217e-02
-2.208326160907745361e-01 7.554925680160522461e-01 1.004199832677841187e-01
-2.544585764408111572e-01 7.168657779693603516e-01 9.828652441501617432e-02
-2.118322849273681641e-01 7.519629597663879395e-01 1.271920651197433472e-01
-1.438934952020645142e-01 7.258573770523071289e-01 2.314679622650146484e-01
-2.194940745830535889e-01 5.421120524406433105e-01 1.123186200857162476e-01
-1.394718885421752930e-02 6.488604545593261719e-01 -1.532411873340606689e-01
-2.652283608913421631e-01 7.320660948753356934e-01 -1.743844151496887207e-01
-1.621728688478469849e-01 8.066099882125854492e-01 -2.408668845891952515e-01
-2.866924107074737549e-01 6.820278763771057129e-01 -1.000915020704269409e-01
-1.098576933145523071e-01 6.084828972816467285e-01 -2.841265797615051270e-01
-1.811359226703643799e-01 7.976105213165283203e-01 3.336314484477043152e-02
-9.100272506475448608e-02 8.119580745697021484e-01 -2.559323608875274658e-02
-3.843776881694793701e-02 6.042381525039672852e-01 1.666303575038909912e-01
-8.543016016483306885e-02 6.069560647010803223e-01 2.577454745769500732e-01
-1.919146478176116943e-01 5.284905433654785156e-01 -4.849997162818908691e-02
-1.318424046039581299e-01 5.854238867759704590e-01 2.700693011283874512e-01
-9.085518121719360352e-02 7.978174686431884766e-01 -2.521237730979919434e-01
-2.636081278324127197e-01 6.701639294624328613e-01 -2.319135069847106934e-01
-2.782554030418395996e-01 6.097911596298217773e-01 4.772889241576194763e-02
-5.602747201919555664e-03 6.697877049446105957e-01 -1.377971023321151733e-01
-1.238834261894226074e-01 5.554597377777099609e-01 2.239309847354888916e-01
-4.703085869550704956e-02 7.758428454399108887e-01 -2.168842405080795288e-01
-2.302734404802322388e-01 5.552305579185485840e-01 -1.068009734153747559e-01
-2.636244893074035645e-01 7.400177717208862305e-01 -1.571105569601058960e-01
-1.337629556655883789e-02 7.298248410224914551e-01 5.751028284430503845e-02
-8.783984184265136719e-02 8.083313107490539551e-01 -6.270818412303924561e-03
-2.337790429592132568e-01 5.769324302673339844e-01 1.759548187255859375e-01
-2.342016100883483887e-01 7.639162540435791016e-01 3.569159284234046936e-02
-2.544960975646972656e-01 5.922849178314208984e-01 -1.580884754657745361e-01
-5.337536334991455078e-02 7.989163398742675781e-01 -1.103086322546005249e-01
2.457261085510253906e-03 6.625328063964843750e-01 -4.673269391059875488e-02
-1.774978637695312500e-01 5.906945466995239258e-01 -2.663945853710174561e-01
-5.243776738643646240e-02 6.530840396881103516e-01 2.270503640174865723e-01
-2.004849165678024292e-02 6.308492422103881836e-01 -1.471800804138183594e-01
-2.780866026878356934e-01 7.066264152526855469e-01 3.756992518901824951e-03
