4.251177310943603516e-01 -4.374130070209503174e-01 -6.279410123825073242e-01
3.943769037723541260e-01 -4.125807285308837891e-01 -6.845172047615051270e-01
3.911736905574798584e-01 -4.311381578445434570e-01 -6.890647411346435547e-01
3.727734684944152832e-01 -4.331089258193969727e-01 -6.524159908294677734e-01
4.081024229526519775e-01 -4.502750635147094727e-01 -6.886925697326660156e-01
4.228804111480712891e-01 -4.261033535003662109e-01 -6.614714264869689941e-01
4.180102050304412842e-01 -4.056532084941864014e-01 -6.481739282608032227e-01
4.245738387107849121e-01 -5.669075250625610352e-01 -6.511234641075134277e-01
4.269308447837829590e-01 -5.216968655586242676e-01 -5.991834402084350586e-01
4.038319885730743408e-01 -4.375144839286804199e-01 -6.894707679748535156e-01
3.978570401668548584e-01 -4.658397436141967773e-01 -6.929032802581787109e-01
4.309299290180206299e-01 -5.625973343849182129e-01 -6.274856925010681152e-01
3.745327591896057129e-01 -5.897042751312255859e-01 -6.506149172782897949e-01
4.145284891128540039e-01 -6.259800791740417480e-01 -6.236684918403625488e-01
4.185409247875213623e-01 -5.769650340080261230e-01 -5.882835388183593750e-01
3.772875368595123291e-01 -5.539860129356384277e-01 -6.716529130935668945e-01
4.262939095497131348e-01 -5.797395706176757812e-01 -6.035359501838684082e-01
3.984418213367462158e-01 -4.173725247383117676e-01 -6.186685562133789062e-01
3.896043896675109863e-01 -5.335273742675781250e-01 -6.847301721572875977e-01
4.328939914703369141e-01 -5.428686141967773438e-01 -6.252530217170715332e-01
4.216136038303375244e-01 -5.345691442489624023e-01 -5.903807282447814941e-01
3.992869555950164795e-01 -4.207677841186523438e-01 -6.873308420181274414e-01
4.291074275970458984e-01 -4.603444933891296387e-01 -6.237924695014953613e-01
3.745709657669067383e-01 -5.275444388389587402e-01 -6.018007993698120117e-01
3.648818135261535645e-01 -5.393427610397338867e-01 -6.331240534782409668e-01
4.261774420738220215e-01 -4.364106357097625732e-01 -6.557469964027404785e-01
4.259704947471618652e-01 -4.934995770454406738e-01 -6.027933359146118164e-01
3.663874566555023193e-01 -5.401935577392578125e-01 -6.537715792655944824e-01
4.254264235496520996e-01 -5.944182276725769043e-01 -6.121916770935058594e-01
4.108726978302001953e-01 -5.513328909873962402e-01 -5.817173123359680176e-01
4.179745912551879883e-01 -4.537841379642486572e-01 -6.797710061073303223e-01
4.148446917533874512e-01 -5.766689777374267578e-01 -6.621410250663757324e-01
4.035536944866180420e-01 -4.077346026897430420e-01 -6.250712275505065918e-01
3.782115280628204346e-01 -5.700448155403137207e-01 -5.954127311706542969e-01
3.912789523601531982e-01 -6.320472955703735352e-01 -6.363078951835632324e-01
3.674168288707733154e-01 -4.789341986179351807e-01 -6.326549649238586426e-01
3.834788203239440918e-01 -4.032851159572601318e-01 -6.654992103576660156e-01
4.187550246715545654e-01 -5.939215421676635742e-01 -5.923913121223449707e-01
3.994702100753784180e-01 -3.879995346069335938e-01 -6.496618986129760742e-01
3.707628250122070312e-01 -5.276102423667907715e-01 -6.695472002029418945e-01
4.164387285709381104e-01 -5.564528107643127441e-01 -5.848688483238220215e-01
4.204837679862976074e-01 -6.109021306037902832e-01 -6.262371540069580078e-01
3.661589920520782471e-01 -5.568357706069946289e-01 -6.289303898811340332e-01
4.209013581275939941e-01 -6.119341850280761719e-01 -6.131059527397155762e-01
4.147928357124328613e-01 -4.916558265686035156e-01 -6.832223534584045410e-01
4.114587008953094482e-01 -4.457044005393981934e-01 -6.858044266700744629e-01
3.674091696739196777e-01 -4.959166347980499268e-01 -6.652166843414306641e-01
3.992981314659118652e-01 -5.687159895896911621e-01 -5.802679657936096191e-01
3.799822628498077393e-01 -6.219533085823059082e-01 -6.153566241264343262e-01
4.125628173351287842e-01 -6.030624508857727051e-01 -6.507745981216430664e-01
4.113495945930480957e-01 -5.280562639236450195e-01 -6.805786490440368652e-01
3.807614743709564209e-01 -4.184645414352416992e-01 -6.359854340553283691e-01
3.901587426662445068e-01 -4.003659784793853760e-01 -6.383029818534851074e-01
3.998525142669677734e-01 -5.747205018997192383e-01 -6.724829673767089844e-01
4.170491099357604980e-01 -4.050523042678833008e-01 -6.591952443122863770e-01
3.836136460304260254e-01 -6.293371319770812988e-01 -6.271836757659912109e-01
4.226068258285522461e-01 -4.548900127410888672e-01 -6.115419268608093262e-01
3.901137709617614746e-01 -5.692415833473205566e-01 -6.744818687438964844e-01
3.786310553550720215e-01 -5.840743780136108398e-01 -5.966625213623046875e-01
4.183861613273620605e-01 -4.664885401725769043e-01 -6.800978779792785645e-01
3.644830286502838135e-01 -5.072208046913146973e-01 -6.490401625633239746e-01
3.890750110149383545e-01 -5.571913123130798340e-01 -5.842357277870178223e-01
4.218318164348602295e-01 -6.034377813339233398e-01 -6.041942238807678223e-01
4.092664718627929688e-01 -6.351311802864074707e-01 -6.092976331710815430e-01
4.040605425834655762e-01 -5.953807830810546875e-01 -5.827271342277526855e-01
4.189943373203277588e-01 -6.112837791442871094e-01 -6.023050546646118164e-01
3.734142482280731201e-01 -4.422268271446228027e-01 -6.349812746047973633e-01
4.296225309371948242e-01 -4.824518263339996338e-01 -6.585335731506347656e-01
4.213567376136779785e-01 -4.374981224536895752e-01 -6.711724400520324707e-01
3.913483917713165283e-01 -5.255568623542785645e-01 -5.853154063224792480e-01
3.768362402915954590e-01 -4.300776720046997070e-01 -6.350510120391845703e-01
4.271785318851470947e-01 -4.398980736732482910e-01 -6.342259049415588379e-01
4.120872914791107178e-01 -5.453371405601501465e-01 -6.757541894912719727e-01
3.975382745265960693e-01 -3.918839693069458008e-01 -6.712449193000793457e-01
3.806533515453338623e-01 -4.283052682876586914e-01 -6.799185276031494141e-01
3.853327035903930664e-01 -5.885326862335205078e-01 -6.644459962844848633e-01
4.126539230346679688e-01 -6.287716031074523926e-01 -6.058336496353149414e-01
3.806887865066528320e-01 -4.472042322158813477e-01 -6.850603222846984863e-01
3.818071186542510986e-01 -6.076976060867309570e-01 -5.985729694366455078e-01
3.732972145080566406e-01 -5.055406093597412109e-01 -6.773915886878967285e-01
3.802938163280487061e-01 -4.804837405681610107e-01 -6.868953704833984375e-01
3.742053806781768799e-01 -4.737221002578735352e-01 -6.154958009719848633e-01
3.738095760345458984e-01 -4.838930070400238037e-01 -6.126124858856201172e-01
3.757805228233337402e-01 -5.118916630744934082e-01 -6.798514723777770996e-01
3.783379197120666504e-01 -5.916060805320739746e-01 -6.561335325241088867e-01
4.006675779819488525e-01 -5.902070999145507812e-01 -6.657354235649108887e-01
3.775598704814910889e-01 -4.283784627914428711e-01 -6.742892861366271973e-01
4.066543281078338623e-01 -6.210308670997619629e-01 -5.915421843528747559e-01
3.667015731334686279e-01 -5.056726932525634766e-01 -6.625161170959472656e-01
4.311008155345916748e-01 -5.191414356231689453e-01 -6.505289673805236816e-01
4.232964813709259033e-01 -5.072169899940490723e-01 -6.708999872207641602e-01
4.273269474506378174e-01 -5.386288762092590332e-01 -6.561445593833923340e-01
3.752982318401336670e-01 -5.892148017883300781e-01 -6.042968034744262695e-01
4.334993064403533936e-01 -5.014536976814270020e-01 -6.250578761100769043e-01
4.196529686450958252e-01 -4.098409414291381836e-01 -6.538395881652832031e-01
4.281054735183715820e-01 -5.674813985824584961e-01 -6.406213641166687012e-01
4.293119311332702637e-01 -5.554656386375427246e-01 -6.054132580757141113e-01
3.805366754531860352e-01 -4.572373628616333008e-01 -6.120988726615905762e-01
3.712154328823089600e-01 -4.786460101604461670e-01 -6.201025247573852539e-01
3.985732793807983398e-01 -4.450695514678955078e-01 -6.041785478591918945e-01
4.159312546253204346e-01 -4.789316058158874512e-01 -5.958053469657897949e-01
4.321064352989196777e-01 -5.043454766273498535e-01 -6.157448887825012207e-01
4.135306179523468018e-01 -3.974255621433258057e-01 -6.578270196914672852e-01
4.092472493648529053e-01 -3.913388550281524658e-01 -6.539396047592163086e-01
3.879195451736450195e-01 -3.955512046813964844e-01 -6.512620449066162109e-01
4.311025142669677734e-01 -4.640502929687500000e-01 -6.462690234184265137e-01
4.112099707126617432e-01 -4.261974394321441650e-01 -6.152735352516174316e-01
4.308963119983673096e-01 -5.583481192588806152e-01 -6.139113903045654297e-01
4.325583279132843018e-01 -4.775719344615936279e-01 -6.414613723754882812e-01
4.146713316440582275e-01 -5.283370614051818848e-01 -5.851703286170959473e-01
3.746729493141174316e-01 -5.104471445083618164e-01 -6.042689681053161621e-01
3.801448941230773926e-01 -4.117236137390136719e-01 -6.466980576515197754e-01
4.190689027309417725e-01 -5.827041268348693848e-01 -6.535775065422058105e-01
3.929869532585144043e-01 -4.820917248725891113e-01 -6.924871802330017090e-01
4.046688675880432129e-01 -5.218587517738342285e-01 -5.828627943992614746e-01
3.677460551261901855e-01 -5.654768943786621094e-01 -6.217630505561828613e-01
3.883292973041534424e-01 -3.955370187759399414e-01 -6.660812497138977051e-01
4.070010483264923096e-01 -5.508106350898742676e-01 -6.776562929153442383e-01
4.059634208679199219e-01 -6.014758348464965820e-01 -6.575946807861328125e-01
3.825052678585052490e-01 -5.340201854705810547e-01 -5.908769369125366211e-01
4.048916101455688477e-01 -5.374027490615844727e-01 -6.822679042816162109e-01
3.679203689098358154e-01 -5.293902754783630371e-01 -6.625330448150634766e-01
4.029449522495269775e-01 -4.506402015686035156e-01 -6.013671755790710449e-01
4.285729229450225830e-01 -5.268504619598388672e-01 -6.564236283302307129e-01
3.658869266510009766e-01 -5.294358134269714355e-01 -6.245869398117065430e-01
3.826231658458709717e-01 -5.139655470848083496e-01 -6.855118274688720703e-01
3.949619233608245850e-01 -5.985490083694458008e-01 -5.844139456748962402e-01
3.655043244361877441e-01 -5.122488737106323242e-01 -6.568329930305480957e-01
3.868324160575866699e-01 -4.612950384616851807e-01 -6.038494706153869629e-01
4.294682443141937256e-01 -5.648968219757080078e-01 -6.091538667678833008e-01
3.749376237392425537e-01 -6.083884835243225098e-01 -6.298404335975646973e-01
3.890185952186584473e-01 -5.028738975524902344e-01 -5.904640555381774902e-01
4.136621356010437012e-01 -4.388737082481384277e-01 -6.098886728286743164e-01
4.170659184455871582e-01 -5.862013101577758789e-01 -5.882821083068847656e-01
3.906600177288055420e-01 -6.363939046859741211e-01 -6.290177106857299805e-01
4.080725908279418945e-01 -4.707356393337249756e-01 -6.893593072891235352e-01
3.691161572933197021e-01 -5.004690885543823242e-01 -6.699508428573608398e-01
4.281516075134277344e-01 -4.419817626476287842e-01 -6.474447846412658691e-01
4.177378714084625244e-01 -6.100939512252807617e-01 -6.366800665855407715e-01
3.753164708614349365e-01 -5.989689826965332031e-01 -6.085839867591857910e-01
4.004971385002136230e-01 -5.049373507499694824e-01 -5.857948064804077148e-01
4.253143966197967529e-01 -4.721260368824005127e-01 -6.085171699523925781e-01
3.766961395740509033e-01 -4.203433692455291748e-01 -6.636343598365783691e-01
4.286602735519409180e-01 -4.686387181282043457e-01 -6.600880026817321777e-01
3.991585969924926758e-01 -6.219598054885864258e-01 -5.905192494392395020e-01
4.173411726951599121e-01 -5.115848183631896973e-01 -6.781966090202331543e-01
3.731096684932708740e-01 -5.722152590751647949e-01 -6.050569415092468262e-01
4.185119867324829102e-01 -5.635683536529541016e-01 -5.869147777557373047e-01
4.290609955787658691e-01 -5.431951284408569336e-01 -6.498652100563049316e-01
3.692410886287689209e-01 -4.510128796100616455e-01 -6.516484022140502930e-01
3.746522665023803711e-01 -4.389387667179107666e-01 -6.727081537246704102e-01
3.727645277976989746e-01 -4.336885213851928711e-01 -6.588394045829772949e-01
3.802849054336547852e-01 -5.329111814498901367e-01 -6.802440881729125977e-01
3.708590269088745117e-01 -5.428026914596557617e-01 -6.656885743141174316e-01
3.651594817638397217e-01 -5.429451465606689453e-01 -6.443501114845275879e-01
3.661874532699584961e-01 -4.836333394050598145e-01 -6.368330121040344238e-01
4.339360594749450684e-01 -5.088130831718444824e-01 -6.293829083442687988e-01
3.685043156147003174e-01 -4.861309528350830078e-01 -6.682465672492980957e-01
3.854612708091735840e-01 -5.656540989875793457e-01 -5.869684815406799316e-01
4.113077223300933838e-01 -6.264469027519226074e-01 -6.320809721946716309e-01
3.694857358932495117e-01 -5.628747344017028809e-01 -6.133636832237243652e-01
3.779175579547882080e-01 -5.363910198211669922e-01 -5.959482789039611816e-01
4.062509238719940186e-01 -5.417922139167785645e-01 -5.809361934661865234e-01
4.187264442443847656e-01 -4.103097617626190186e-01 -6.395719647407531738e-01
4.044580161571502686e-01 -6.339693069458007812e-01 -6.321281790733337402e-01
3.854027390480041504e-01 -5.281409025192260742e-01 -5.889165401458740234e-01
3.655857741832733154e-01 -4.948264062404632568e-01 -6.343775987625122070e-01
4.121334850788116455e-01 -4.255092144012451172e-01 -6.812951564788818359e-01
4.136003851890563965e-01 -4.006839394569396973e-01 -6.645026206970214844e-01
4.308286607265472412e-01 -5.645553469657897949e-01 -6.214672327041625977e-01
4.310553967952728271e-01 -4.703089296817779541e-01 -6.257877945899963379e-01
4.247569739818572998e-01 -4.272870719432830811e-01 -6.394331455230712891e-01
3.931010365486145020e-01 -4.933890104293823242e-01 -6.916706562042236328e-01
4.187385737895965576e-01 -5.976476669311523438e-01 -6.449953317642211914e-01
3.785112798213958740e-01 -6.095041036605834961e-01 -6.062705516815185547e-01
4.132722020149230957e-01 -5.032141208648681641e-01 -6.833279132843017578e-01
4.087814390659332275e-01 -6.114581227302551270e-01 -5.885168313980102539e-01
3.928271234035491943e-01 -6.155652999877929688e-01 -6.519033908843994141e-01
4.054687321186065674e-01 -4.177560806274414062e-01 -6.842643022537231445e-01
3.769534230232238770e-01 -5.385725498199462891e-01 -6.758025288581848145e-01
4.325022101402282715e-01 -5.407784581184387207e-01 -6.352319121360778809e-01
3.768670260906219482e-01 -4.946859478950500488e-01 -6.829289197921752930e-01
4.131360650062561035e-01 -5.890853404998779297e-01 -6.581293940544128418e-01
3.766100406646728516e-01 -4.208489656448364258e-01 -6.476787328720092773e-01
3.882558047771453857e-01 -4.170948863029479980e-01 -6.835141777992248535e-01
3.792133629322052002e-01 -5.907646417617797852e-01 -5.971795320510864258e-01
3.913978934288024902e-01 -5.550422072410583496e-01 -6.794449687004089355e-01
4.221155941486358643e-01 -5.603494048118591309e-01 -5.909002423286437988e-01
3.872291743755340576e-01 -6.068158745765686035e-01 -5.914232730865478516e-01
3.724772632122039795e-01 -4.888406991958618164e-01 -6.771799921989440918e-01
4.116019904613494873e-01 -4.563472568988800049e-01 -6.866045594215393066e-01
3.825216591358184814e-01 -5.811275839805603027e-01 -5.909950733184814453e-01
4.007831513881683350e-01 -4.015905857086181641e-01 -6.302856802940368652e-01
4.168912172317504883e-01 -5.431298613548278809e-01 -5.854728817939758301e-01
4.015923738479614258e-01 -5.627314448356628418e-01 -5.799561142921447754e-01
3.670542240142822266e-01 -4.769134819507598877e-01 -6.607876420021057129e-01
3.666057586669921875e-01 -5.228989124298095703e-01 -6.219086050987243652e-01
4.012477397918701172e-01 -4.547259807586669922e-01 -6.919792294502258301e-01
4.334565401077270508e-01 -4.899274706840515137e-01 -6.358100771903991699e-01
3.758877217769622803e-01 -4.539771080017089844e-01 -6.799666285514831543e-01
4.317732751369476318e-01 -5.062990784645080566e-01 -6.501169800758361816e-01
3.689813315868377686e-01 -5.725221037864685059e-01 -6.460208892822265625e-01
3.809597492218017578e-01 -6.068056821823120117e-01 -6.494650244712829590e-01
4.264410436153411865e-01 -5.849917531013488770e-01 -6.327720880508422852e-01
4.027740061283111572e-01 -6.069745421409606934e-01 -6.561340689659118652e-01
3.962448239326477051e-01 -5.201264023780822754e-01 -6.880444884300231934e-01
4.318449497222900391e-01 -4.862895905971527100e-01 -6.206569671630859375e-01
4.106684923171997070e-01 -4.369496703147888184e-01 -6.852125525474548340e-01
3.962014615535736084e-01 -4.348374307155609131e-01 -6.905792355537414551e-01
3.952626585960388184e-01 -6.287727952003479004e-01 -6.414248347282409668e-01
4.086033701896667480e-01 -6.242157816886901855e-01 -6.387963891029357910e-01
4.300990998744964600e-01 -5.680871009826660156e-01 -6.157996058464050293e-01
3.707167208194732666e-01 -5.741776823997497559e-01 -6.121820211410522461e-01
3.674772977828979492e-01 -5.700930953025817871e-01 -6.381406784057617188e-01
3.682205080986022949e-01 -5.576558709144592285e-01 -6.528276205062866211e-01
4.223128557205200195e-01 -4.171184897422790527e-01 -6.469361782073974609e-01
3.749052286148071289e-01 -4.546192586421966553e-01 -6.227996945381164551e-01
4.143132269382476807e-01 -6.281489133834838867e-01 -6.160799264907836914e-01
4.234080612659454346e-01 -5.537270903587341309e-01 -5.923559665679931641e-01
3.786731362342834473e-01 -5.017012953758239746e-01 -6.841186881065368652e-01
4.166494905948638916e-01 -6.227021217346191406e-01 -6.105580925941467285e-01
4.075678288936614990e-01 -3.951510787010192871e-01 -6.398165822029113770e-01
3.852073252201080322e-01 -5.758541822433471680e-01 -5.877247452735900879e-01
4.329270124435424805e-01 -4.805065393447875977e-01 -6.358873844146728516e-01
3.841290771961212158e-01 -4.019075930118560791e-01 -6.499904394149780273e-01
3.724398314952850342e-01 -4.404273331165313721e-01 -6.660130620002746582e-01
4.106376469135284424e-01 -4.314769506454467773e-01 -6.119559407234191895e-01
4.001929163932800293e-01 -5.632148385047912598e-01 -6.765093207359313965e-01
3.984126746654510498e-01 -5.759153366088867188e-01 -5.807245969772338867e-01
3.683421909809112549e-01 -5.661352872848510742e-01 -6.480557918548583984e-01
4.291754364967346191e-01 -4.518157541751861572e-01 -6.512923240661621094e-01
4.154087007045745850e-01 -6.049807071685791016e-01 -5.919139981269836426e-01
3.771898150444030762e-01 -4.849799275398254395e-01 -6.837674975395202637e-01
3.644629716873168945e-01 -5.290829539299011230e-01 -6.447953581809997559e-01
3.911102116107940674e-01 -5.348178148269653320e-01 -5.843752622604370117e-01
3.833660483360290527e-01 -5.087488889694213867e-01 -5.937063694000244141e-01
4.010154306888580322e-01 -3.962169587612152100e-01 -6.753043532371520996e-01
3.653329610824584961e-01 -5.468604564666748047e-01 -6.314085721969604492e-01
4.189563393592834473e-01 -5.208813548088073730e-01 -6.746788620948791504e-01
3.802993595600128174e-01 -6.211150884628295898e-01 -6.324295997619628906e-01
3.988698422908782959e-01 -5.427983999252319336e-01 -5.809682011604309082e-01
4.106499850749969482e-01 -4.104448556900024414e-01 -6.771167516708374023e-01
3.815107345581054688e-01 -6.265937089920043945e-01 -6.205216050148010254e-01
3.973681926727294922e-01 -6.063448786735534668e-01 -5.853996276855468750e-01
3.857613503932952881e-01 -5.040792226791381836e-01 -6.885690689086914062e-01
3.643871545791625977e-01 -5.301489233970642090e-01 -6.378613114356994629e-01
3.861294984817504883e-01 -5.973078608512878418e-01 -5.899713635444641113e-01
3.773013353347778320e-01 -6.161682605743408203e-01 -6.207835078239440918e-01
3.697824478149414062e-01 -4.536419510841369629e-01 -6.402788758277893066e-01
4.145574569702148438e-01 -4.968214929103851318e-01 -5.903431773185729980e-01
4.191464483737945557e-01 -4.468778371810913086e-01 -6.772073507308959961e-01
3.814281225204467773e-01 -4.356653094291687012e-01 -6.217816472053527832e-01
4.080696105957031250e-01 -6.328884959220886230e-01 -6.021533608436584473e-01
3.920254707336425781e-01 -4.551493525505065918e-01 -6.923454403877258301e-01
4.136252999305725098e-01 -5.509006977081298828e-01 -6.728074550628662109e-01
3.972962498664855957e-01 -4.076244533061981201e-01 -6.259595155715942383e-01
4.195611476898193359e-01 -5.655491352081298828e-01 -6.607934832572937012e-01
3.823781907558441162e-01 -4.160259962081909180e-01 -6.764125823974609375e-01
3.727224469184875488e-01 -4.910494983196258545e-01 -6.124857664108276367e-01
3.948059082031250000e-01 -5.442959070205688477e-01 -6.827490925788879395e-01
4.192830026149749756e-01 -5.057319402694702148e-01 -6.767998933792114258e-01
4.088614881038665771e-01 -5.572478771209716797e-01 -6.745654940605163574e-01
4.280871748924255371e-01 -5.827186107635498047e-01 -6.179391145706176758e-01
3.659785389900207520e-01 -5.514101982116699219e-01 -6.453043222427368164e-01
3.738041520118713379e-01 -5.973769426345825195e-01 -6.419786214828491211e-01
3.843015134334564209e-01 -6.189333200454711914e-01 -6.003673672676086426e-01
3.692721724510192871e-01 -5.821839570999145508e-01 -6.364324092864990234e-01
4.149261415004730225e-01 -3.998383283615112305e-01 -6.475902795791625977e-01
4.271397292613983154e-01 -5.603134036064147949e-01 -6.479129791259765625e-01
3.728120923042297363e-01 -5.838893055915832520e-01 -6.089375615119934082e-01
3.876486420631408691e-01 -5.595237612724304199e-01 -6.770578026771545410e-01
3.922596871852874756e-01 -3.922671079635620117e-01 -6.476166844367980957e-01
3.789491951465606689e-01 -5.975779891014099121e-01 -6.532192826271057129e-01
3.649722933769226074e-01 -5.194677710533142090e-01 -6.307535171508789062e-01
3.982073664665222168e-01 -5.127137899398803711e-01 -6.891095638275146484e-01
3.762311637401580811e-01 -4.644921720027923584e-01 -6.155372858047485352e-01
3.765209615230560303e-01 -4.710060060024261475e-01 -6.828318834304809570e-01
3.843201994895935059e-01 -4.086191058158874512e-01 -6.386263370513916016e-01
3.940976858139038086e-01 -3.888294100761413574e-01 -6.540236473083496094e-01
4.277332425117492676e-01 -5.290913581848144531e-01 -6.000708937644958496e-01
3.673697113990783691e-01 -4.870138764381408691e-01 -6.287415623664855957e-01
4.318291842937469482e-01 -5.506470799446105957e-01 -6.164498925209045410e-01
3.888013362884521484e-01 -6.241602301597595215e-01 -5.975069403648376465e-01
3.691797554492950439e-01 -5.153242349624633789e-01 -6.147652864456176758e-01
4.087910950183868408e-01 -5.127752423286437988e-01 -5.849149227142333984e-01
4.255256056785583496e-01 -4.454977214336395264e-01 -6.226679682731628418e-01
4.211596846580505371e-01 -5.714405179023742676e-01 -6.556936502456665039e-01
4.129268825054168701e-01 -4.682766497135162354e-01 -6.858668327331542969e-01
3.773199617862701416e-01 -5.487058162689208984e-01 -5.960977077484130859e-01
4.323414266109466553e-01 -5.128192305564880371e-01 -6.151337623596191406e-01
4.215820729732513428e-01 -4.930285215377807617e-01 -5.969355702400207520e-01
3.773872852325439453e-01 -4.604909420013427734e-01 -6.830886602401733398e-01
4.272844195365905762e-01 -4.367939829826354980e-01 -6.430196762084960938e-01
3.716886043548583984e-01 -5.940331220626831055e-01 -6.358476877212524414e-01
4.163992702960968018e-01 -5.182356238365173340e-01 -5.875428915023803711e-01
4.311429560184478760e-01 -5.553294420242309570e-01 -6.343196630477905273e-01
3.714356720447540283e-01 -5.512955188751220703e-01 -6.639609932899475098e-01
4.279241859912872314e-01 -4.470434486865997314e-01 -6.297839283943176270e-01
4.031719267368316650e-01 -6.041147708892822266e-01 -5.844551920890808105e-01
4.316309690475463867e-01 -5.357773900032043457e-01 -6.431799530982971191e-01
4.101185202598571777e-01 -5.861914157867431641e-01 -5.831072330474853516e-01
4.187353551387786865e-01 -5.127767324447631836e-01 -5.901607275009155273e-01
4.297219514846801758e-01 -5.728247761726379395e-01 -6.206026673316955566e-01
4.257100224494934082e-01 -5.643714070320129395e-01 -5.974627733230590820e-01
4.086173474788665771e-01 -5.295619368553161621e-01 -5.825335979461669922e-01
4.223705232143402100e-01 -5.884063839912414551e-01 -5.968142747879028320e-01
4.335228502750396729e-01 -5.058884620666503906e-01 -6.397644877433776855e-01
4.259050488471984863e-01 -5.581103563308715820e-01 -5.969866514205932617e-01
4.265820086002349854e-01 -4.854565262794494629e-01 -6.666008234024047852e-01
4.029311835765838623e-01 -5.951492786407470703e-01 -6.625442504882812500e-01
3.668136894702911377e-01 -5.491386651992797852e-01 -6.515974998474121094e-01
4.288996160030364990e-01 -5.174306035041809082e-01 -6.577072143554687500e-01
3.894196748733520508e-01 -6.208717226982116699e-01 -6.464670896530151367e-01
3.815420866012573242e-01 -4.477547705173492432e-01 -6.151074171066284180e-01
4.202725887298583984e-01 -4.357680082321166992e-01 -6.185520887374877930e-01
4.249796867370605469e-01 -5.907380580902099609e-01 -6.054363250732421875e-01
3.700414896011352539e-01 -5.866295099258422852e-01 -6.239967942237854004e-01
3.796504139900207520e-01 -4.312252998352050781e-01 -6.276659965515136719e-01
3.920125067234039307e-01 -4.252922534942626953e-01 -6.168106198310852051e-01
3.969760835170745850e-01 -4.708392918109893799e-01 -5.951060652732849121e-01
4.291431009769439697e-01 -4.469491541385650635e-01 -6.424230337142944336e-01
3.898045122623443604e-01 -4.468410015106201172e-01 -6.074228882789611816e-01
3.795466423034667969e-01 -5.188857913017272949e-01 -5.959914326667785645e-01
3.996166884899139404e-01 -5.501770973205566406e-01 -5.804147124290466309e-01
3.841944932937622070e-01 -4.166629910469055176e-01 -6.309589743614196777e-01
4.146523475646972656e-01 -4.144508242607116699e-01 -6.265183687210083008e-01
4.012023508548736572e-01 -5.122549533843994141e-01 -5.843849182128906250e-01
3.884561955928802490e-01 -6.263293027877807617e-01 -6.406225562095642090e-01
4.233252406120300293e-01 -4.744690954685211182e-01 -6.729580760002136230e-01
3.867303431034088135e-01 -6.327390074729919434e-01 -6.093127727508544922e-01
4.246533513069152832e-01 -5.976705551147460938e-01 -6.248564720153808594e-01
3.925815224647521973e-01 -4.032801985740661621e-01 -6.792447566986083984e-01
4.254636168479919434e-01 -4.284975230693817139e-01 -6.458764672279357910e-01
4.092525839805603027e-01 -4.516771137714385986e-01 -6.019488573074340820e-01
3.840469419956207275e-01 -4.285782277584075928e-01 -6.224808692932128906e-01
4.066502749919891357e-01 -5.665246248245239258e-01 -5.804061889648437500e-01
3.700470924377441406e-01 -5.253306031227111816e-01 -6.110993027687072754e-01
4.044992029666900635e-01 -5.002921819686889648e-01 -6.891148686408996582e-01
3.860332667827606201e-01 -4.025502800941467285e-01 -6.427438259124755859e-01
3.886330425739288330e-01 -4.101300835609436035e-01 -6.805799007415771484e-01
3.780500292778015137e-01 -5.257567763328552246e-01 -5.968895554542541504e-01
4.235261082649230957e-01 -5.744509696960449219e-01 -5.950453877449035645e-01
3.936965763568878174e-01 -5.879845023155212402e-01 -6.674758791923522949e-01
3.697048425674438477e-01 -4.571455121040344238e-01 -6.649641394615173340e-01
3.670469224452972412e-01 -4.674169719219207764e-01 -6.466556191444396973e-01
4.295326173305511475e-01 -5.527755022048950195e-01 -6.439840793609619141e-01
3.948395848274230957e-01 -6.142230629920959473e-01 -5.885946154594421387e-01
3.796797692775726318e-01 -5.544044971466064453e-01 -5.928712487220764160e-01
3.928912281990051270e-01 -5.450720191001892090e-01 -5.826704502105712891e-01
4.337084889411926270e-01 -5.202004313468933105e-01 -6.346036791801452637e-01
4.075671732425689697e-01 -5.766919851303100586e-01 -6.683940291404724121e-01
4.260631799697875977e-01 -5.373359322547912598e-01 -5.965149998664855957e-01
4.298173785209655762e-01 -5.461918711662292480e-01 -6.055436730384826660e-01
4.098373055458068848e-01 -4.749589264392852783e-01 -5.939870476722717285e-01
3.642695844173431396e-01 -5.135227441787719727e-01 -6.397424936294555664e-01
3.713442385196685791e-01 -5.595276951789855957e-01 -6.075075864791870117e-01
4.038535654544830322e-01 -4.017355442047119141e-01 -6.780088543891906738e-01
4.049033522605895996e-01 -4.828903079032897949e-01 -5.907733440399169922e-01
3.813474178314208984e-01 -5.000827908515930176e-01 -5.975263118743896484e-01
4.023232758045196533e-01 -4.902319610118865967e-01 -5.888587236404418945e-01
3.675518929958343506e-01 -5.428766608238220215e-01 -6.176251769065856934e-01
3.682942092418670654e-01 -5.549699068069458008e-01 -6.161319017410278320e-01
4.318933486938476562e-01 -5.280975699424743652e-01 -6.120515465736389160e-01
4.125823974609375000e-01 -4.853741228580474854e-01 -6.856317520141601562e-01
4.114685654640197754e-01 -5.198168754577636719e-01 -6.821399331092834473e-01
4.047106802463531494e-01 -3.884726762771606445e-01 -6.612803936004638672e-01
4.331772923469543457e-01 -4.906884729862213135e-01 -6.272855401039123535e-01
3.700213134288787842e-01 -5.808664560317993164e-01 -6.433433890342712402e-01
3.688126802444458008e-01 -5.800807476043701172e-01 -6.269326210021972656e-01
4.154101312160491943e-01 -6.082766056060791016e-01 -6.430116295814514160e-01
4.079372882843017578e-01 -4.177192151546478271e-01 -6.189943552017211914e-01
3.865078389644622803e-01 -4.831953048706054688e-01 -5.970071554183959961e-01
3.709925413131713867e-01 -5.929356813430786133e-01 -6.291947364807128906e-01
4.037346839904785156e-01 -6.385861635208129883e-01 -6.055929064750671387e-01
3.743870556354522705e-01 -4.309657514095306396e-01 -6.660810112953186035e-01
-3.753160834312438965e-01 1.097144931554794312e-01 -6.465794444084167480e-01
-4.077946841716766357e-01 1.033005192875862122e-01 -6.867342591285705566e-01
-4.062988758087158203e-01 1.520666480064392090e-01 -6.361296772956848145e-01
-3.278655409812927246e-01 1.392664313316345215e-01 -6.659811735153198242e-01
-4.049662649631500244e-01 1.529071182012557983e-01 -6.220365762710571289e-01
-3.312770128250122070e-01 1.288722753524780273e-01 -6.783412098884582520e-01
-3.853883743286132812e-01 1.380310505628585815e-01 -6.743375658988952637e-01
-4.323587417602539062e-01 1.002787724137306213e-01 -6.500961780548095703e-01
-3.629246354103088379e-01 1.114565134048461914e-01 -6.524996161460876465e-01
-3.610291481018066406e-01 1.634554862976074219e-01 -6.370152831077575684e-01
-3.872310519218444824e-01 9.161857515573501587e-02 -6.740792989730834961e-01
-3.521624207496643066e-01 1.617769896984100342e-01 -6.457132697105407715e-01
-3.828025758266448975e-01 1.305392682552337646e-01 -6.237055063247680664e-01
-3.619382381439208984e-01 1.081220135092735291e-01 -6.956132650375366211e-01
-3.365298211574554443e-01 1.266556829214096069e-01 -6.591963171958923340e-01
-3.966414332389831543e-01 1.302727907896041870e-01 -6.766175627708435059e-01
-3.852231502532958984e-01 1.088861376047134399e-01 -6.425734162330627441e-01
-3.326873779296875000e-01 1.266060620546340942e-01 -6.666384339332580566e-01
-4.138024747371673584e-01 1.464208811521530151e-01 -6.407747864723205566e-01
-4.024620652198791504e-01 1.430921554565429688e-01 -6.583845019340515137e-01
-4.148476421833038330e-01 1.380784809589385986e-01 -6.551085114479064941e-01
-3.387444317340850830e-01 1.163326501846313477e-01 -6.812383532524108887e-01
-4.046614468097686768e-01 1.156892403960227966e-01 -6.294075846672058105e-01
-4.378730058670043945e-01 1.052872613072395325e-01 -6.485909223556518555e-01
-3.653078377246856689e-01 1.585529297590255737e-01 -6.531736254692077637e-01
-4.029453098773956299e-01 9.580755233764648438e-02 -6.550059914588928223e-01
-3.697850108146667480e-01 1.362287551164627075e-01 -6.814287304878234863e-01
-3.698816597461700439e-01 1.305952519178390503e-01 -6.289561390876770020e-01
-4.063315391540527344e-01 1.212376058101654053e-01 -6.246118545532226562e-01
-4.075984358787536621e-01 9.495618939399719238e-02 -6.554613113403320312e-01
-3.482600152492523193e-01 1.314227879047393799e-01 -6.418690085411071777e-01
-4.257979989051818848e-01 1.078458726406097412e-01 -6.730703115463256836e-01
-4.107736647129058838e-01 1.501592099666595459e-01 -6.342108845710754395e-01
-3.697834014892578125e-01 1.593574285507202148e-01 -6.227337121963500977e-01
-3.444603979587554932e-01 1.113411784172058105e-01 -6.853480935096740723e-01
-3.761147558689117432e-01 1.191858351230621338e-01 -6.355757117271423340e-01
-3.912405967712402344e-01 1.265613585710525513e-01 -6.237986087799072266e-01
-3.943994641304016113e-01 1.061827018857002258e-01 -6.422443985939025879e-01
-4.198641479015350342e-01 1.057091429829597473e-01 -6.383376717567443848e-01
-3.980807363986968994e-01 1.433263123035430908e-01 -6.153199672698974609e-01
-4.272446036338806152e-01 1.080144494771957397e-01 -6.367536187171936035e-01
-3.680639863014221191e-01 1.164068281650543213e-01 -6.428269743919372559e-01
-3.872098624706268311e-01 9.732931852340698242e-02 -6.933084726333618164e-01
-3.607172966003417969e-01 1.376982480287551880e-01 -6.818842291831970215e-01
-4.126318097114562988e-01 9.118530899286270142e-02 -6.641183495521545410e-01
-3.718021214008331299e-01 1.568005084991455078e-01 -6.205983161926269531e-01
-4.278329312801361084e-01 9.506334364414215088e-02 -6.593742966651916504e-01
-3.767743110656738281e-01 1.516721993684768677e-01 -6.608826518058776855e-01
-3.500109016895294189e-01 1.501022428274154663e-01 -6.307669878005981445e-01
-3.712936043739318848e-01 1.117542013525962830e-01 -6.463712453842163086e-01
-3.477559685707092285e-01 1.467092633247375488e-01 -6.734771728515625000e-01
-3.969786167144775391e-01 9.358868002891540527e-02 -6.617476344108581543e-01
-4.353648424148559570e-01 1.088858544826507568e-01 -6.397855281829833984e-01
-4.124299287796020508e-01 1.479559838771820068e-01 -6.207937598228454590e-01
-3.887318670749664307e-01 9.955704957246780396e-02 -6.541647315025329590e-01
-4.018315672874450684e-01 1.539166271686553955e-01 -6.371542215347290039e-01
-3.536754250526428223e-01 1.590699702501296997e-01 -6.540633440017700195e-01
-4.013837575912475586e-01 1.526648849248886108e-01 -6.415568590164184570e-01
-3.634760975837707520e-01 1.011092364788055420e-01 -6.711321473121643066e-01
-3.557702302932739258e-01 1.027548089623451233e-01 -6.822402477264404297e-01
-4.247917234897613525e-01 1.400748491287231445e-01 -6.366919875144958496e-01
-3.567028343677520752e-01 1.291787624359130859e-01 -6.375536322593688965e-01
-4.163314104080200195e-01 1.469460278749465942e-01 -6.335952877998352051e-01
-4.264544248580932617e-01 1.191400140523910522e-01 -6.654533147811889648e-01
-4.267415404319763184e-01 9.401638060808181763e-02 -6.665655374526977539e-01
-4.281591475009918213e-01 1.177831664681434631e-01 -6.284427046775817871e-01
-4.064736962318420410e-01 9.752640873193740845e-02 -6.874392032623291016e-01
-3.730542957782745361e-01 1.430639326572418213e-01 -6.735568642616271973e-01
-3.616578578948974609e-01 1.310701370239257812e-01 -6.329640150070190430e-01
-4.313412904739379883e-01 1.314935088157653809e-01 -6.436152458190917969e-01
-3.303017020225524902e-01 1.286091208457946777e-01 -6.721441149711608887e-01
-4.099932014942169189e-01 9.093761444091796875e-02 -6.808521747589111328e-01
-3.702090084552764893e-01 1.036463379859924316e-01 -6.590048670768737793e-01
-4.376029670238494873e-01 1.176179423928260803e-01 -6.517204642295837402e-01
-4.366322457790374756e-01 1.240068376064300537e-01 -6.452009081840515137e-01
-3.606232404708862305e-01 1.351394355297088623e-01 -6.307034492492675781e-01
-3.392075896263122559e-01 1.489495933055877686e-01 -6.402086019515991211e-01
-3.987591266632080078e-01 1.186687201261520386e-01 -6.845497488975524902e-01
-3.771040141582489014e-01 9.619608521461486816e-02 -6.688841581344604492e-01
-3.979540467262268066e-01 1.247506588697433472e-01 -6.234610676765441895e-01
-3.788446784019470215e-01 1.361847072839736938e-01 -6.787568926811218262e-01
-4.161522984504699707e-01 1.247721090912818909e-01 -6.219460964202880859e-01
-3.660831153392791748e-01 1.220845878124237061e-01 -6.381006836891174316e-01
-3.391560316085815430e-01 1.266447305679321289e-01 -6.556224822998046875e-01
-3.876130580902099609e-01 1.289079040288925171e-01 -6.232395172119140625e-01
-4.230452775955200195e-01 1.000444740056991577e-01 -6.769179105758666992e-01
-3.937871158123016357e-01 1.162785068154335022e-01 -6.881137490272521973e-01
-4.218974411487579346e-01 9.202426671981811523e-02 -6.699312925338745117e-01
-3.944746851921081543e-01 1.031649932265281677e-01 -6.923362016677856445e-01
-3.573983609676361084e-01 1.215712428092956543e-01 -6.442835927009582520e-01
-4.078783690929412842e-01 1.089408621191978455e-01 -6.850540041923522949e-01
-3.412138223648071289e-01 1.300062090158462524e-01 -6.863933801651000977e-01
-3.763180971145629883e-01 1.606311947107315063e-01 -6.231084465980529785e-01
-4.187153875827789307e-01 1.311817467212677002e-01 -6.194846630096435547e-01
-4.094834029674530029e-01 1.292257606983184814e-01 -6.699666976928710938e-01
-3.679021596908569336e-01 1.418676674365997314e-01 -6.233945488929748535e-01
-4.157566428184509277e-01 1.467457413673400879e-01 -6.229456663131713867e-01
-3.283785879611968994e-01 1.348433792591094971e-01 -6.673565506935119629e-01
-3.727588355541229248e-01 9.482935070991516113e-02 -6.818808317184448242e-01
-3.798938393592834473e-01 1.119216978549957275e-01 -6.414576768875122070e-01
-3.619416654109954834e-01 1.178486198186874390e-01 -6.451651453971862793e-01
-3.727200329303741455e-01 1.479746252298355103e-01 -6.677075624465942383e-01
-4.090465009212493896e-01 9.173631668090820312e-02 -6.625971794128417969e-01
-4.194648265838623047e-01 1.437782049179077148e-01 -6.378315687179565430e-01
-4.090933501720428467e-01 1.340159773826599121e-01 -6.651411652565002441e-01
-3.541716337203979492e-01 1.135079488158226013e-01 -6.570804119110107422e-01
-3.684691488742828369e-01 9.693253785371780396e-02 -6.878182291984558105e-01
-3.506697118282318115e-01 1.221273392438888550e-01 -6.920607686042785645e-01
-4.000172019004821777e-01 1.305688023567199707e-01 -6.745328903198242188e-01
-3.453893363475799561e-01 1.380458027124404907e-01 -6.392713785171508789e-01
-3.297525942325592041e-01 1.336881220340728760e-01 -6.630831956863403320e-01
-4.286447167396545410e-01 1.024414971470832825e-01 -6.441586613655090332e-01
-4.305991828441619873e-01 1.180848255753517151e-01 -6.619223356246948242e-01
-3.854787349700927734e-01 9.131649881601333618e-02 -6.785661578178405762e-01
-3.980877399444580078e-01 8.946277201175689697e-02 -6.761162877082824707e-01
-4.220052957534790039e-01 9.366843104362487793e-02 -6.744948029518127441e-01
-4.186479151248931885e-01 1.116610020399093628e-01 -6.319698691368103027e-01
-3.294531702995300293e-01 1.373600363731384277e-01 -6.735223531723022461e-01
-4.209167659282684326e-01 1.003928333520889282e-01 -6.454471349716186523e-01
-3.723337054252624512e-01 9.864965826272964478e-02 -6.672793030738830566e-01
-3.373017609119415283e-01 1.557596474885940552e-01 -6.546802520751953125e-01
-3.766831457614898682e-01 1.343352645635604858e-01 -6.235813498497009277e-01
-4.016082286834716797e-01 8.941709995269775391e-02 -6.738225817680358887e-01
-3.564671874046325684e-01 1.455108225345611572e-01 -6.278271675109863281e-01
-3.546802103519439697e-01 1.050294637680053711e-01 -6.735658049583435059e-01
-3.573710620403289795e-01 1.277747154235839844e-01 -6.897067427635192871e-01
-3.648734688758850098e-01 9.800437837839126587e-02 -6.828888058662414551e-01
-3.749095499515533447e-01 1.236097365617752075e-01 -6.898224949836730957e-01
-4.156717360019683838e-01 9.421522915363311768e-02 -6.807894706726074219e-01
-3.805733025074005127e-01 9.333782643079757690e-02 -6.883580684661865234e-01
-3.590878546237945557e-01 1.128444671630859375e-01 -6.536306142807006836e-01
-4.079114794731140137e-01 1.499398052692413330e-01 -6.402586102485656738e-01
-4.000744521617889404e-01 1.002387702465057373e-01 -6.904582381248474121e-01
-3.971975743770599365e-01 1.531445235013961792e-01 -6.176140308380126953e-01
-3.544306159019470215e-01 1.503730416297912598e-01 -6.278317570686340332e-01
-3.368263840675354004e-01 1.420993953943252563e-01 -6.760514974594116211e-01
-3.651356995105743408e-01 1.585424393415451050e-01 -6.237156987190246582e-01
-3.924763500690460205e-01 9.126082062721252441e-02 -6.708235144615173340e-01
-3.500061631202697754e-01 1.192856878042221069e-01 -6.530522108078002930e-01
-3.601385354995727539e-01 1.592031717300415039e-01 -6.263877153396606445e-01
-3.477400541305541992e-01 1.086221933364868164e-01 -6.859971880912780762e-01
-3.652011752128601074e-01 1.344675868749618530e-01 -6.286517381668090820e-01
-4.123545587062835693e-01 1.254358142614364624e-01 -6.715606451034545898e-01
-4.282301962375640869e-01 1.364005059003829956e-01 -6.389688253402709961e-01
-4.069450199604034424e-01 1.466931849718093872e-01 -6.486448645591735840e-01
-3.477691411972045898e-01 1.280978918075561523e-01 -6.889880895614624023e-01
-3.845827579498291016e-01 1.136932522058486938e-01 -6.373588442802429199e-01
-4.388882517814636230e-01 1.128250658512115479e-01 -6.403802633285522461e-01
-3.502518832683563232e-01 1.619964689016342163e-01 -6.409182548522949219e-01
-4.336819648742675781e-01 1.237843409180641174e-01 -6.518078446388244629e-01
-3.751620352268218994e-01 1.398996859788894653e-01 -6.762964129447937012e-01
-4.110110104084014893e-01 1.463594436645507812e-01 -6.447881460189819336e-01
-4.267525672912597656e-01 9.932341426610946655e-02 -6.732490658760070801e-01
-3.650679588317871094e-01 1.461025476455688477e-01 -6.723012328147888184e-01
-3.753213584423065186e-01 1.626679003238677979e-01 -6.292070746421813965e-01
-4.195629954338073730e-01 1.004632115364074707e-01 -6.797380447387695312e-01
-4.140284061431884766e-01 1.303594559431076050e-01 -6.654602289199829102e-01
-3.392081856727600098e-01 1.230998858809471130e-01 -6.602425575256347656e-01
-3.301410079002380371e-01 1.476481854915618896e-01 -6.552329063415527344e-01
-3.702027499675750732e-01 1.341032832860946655e-01 -6.264494657516479492e-01
-3.767935633659362793e-01 1.290211081504821777e-01 -6.855766773223876953e-01
-4.261874854564666748e-01 1.121324226260185242e-01 -6.706432104110717773e-01
-4.280350208282470703e-01 1.277046501636505127e-01 -6.548751592636108398e-01
-3.465275168418884277e-01 1.109932139515876770e-01 -6.718736290931701660e-01
-4.144487977027893066e-01 1.051025539636611938e-01 -6.825309395790100098e-01
-3.431191444396972656e-01 1.155461966991424561e-01 -6.672992110252380371e-01
-3.589303493499755859e-01 1.246298849582672119e-01 -6.401373147964477539e-01
-3.751876056194305420e-01 1.539552807807922363e-01 -6.188133358955383301e-01
-3.911235034465789795e-01 1.099156588315963745e-01 -6.919195055961608887e-01
-4.008194208145141602e-01 1.086057722568511963e-01 -6.374002099037170410e-01
-4.021273255348205566e-01 9.140722453594207764e-02 -6.652455925941467285e-01
-3.391709923744201660e-01 1.547428369522094727e-01 -6.413205862045288086e-01
-3.695334196090698242e-01 1.199459135532379150e-01 -6.382320523262023926e-01
-4.262844920158386230e-01 1.353813409805297852e-01 -6.454573869705200195e-01
-4.164483845233917236e-01 1.213140562176704407e-01 -6.721524000167846680e-01
-3.431359231472015381e-01 1.571008116006851196e-01 -6.380965113639831543e-01
-3.660917580127716064e-01 9.869331866502761841e-02 -6.749141812324523926e-01
-3.468869626522064209e-01 1.556742787361145020e-01 -6.335107088088989258e-01
-3.677310049533843994e-01 1.210827380418777466e-01 -6.925649642944335938e-01
-4.119789004325866699e-01 1.236387118697166443e-01 -6.225414276123046875e-01
-3.615126907825469971e-01 1.446684151887893677e-01 -6.747162938117980957e-01
-3.440662026405334473e-01 1.526986658573150635e-01 -6.650286316871643066e-01
-3.799941837787628174e-01 1.616678535938262939e-01 -6.265244483947753906e-01
-3.521157801151275635e-01 1.051556169986724854e-01 -6.849856376647949219e-01
-3.980857729911804199e-01 1.039209738373756409e-01 -6.439247727394104004e-01
-3.583454191684722900e-01 1.505592018365859985e-01 -6.680012941360473633e-01
-3.730030953884124756e-01 1.070542484521865845e-01 -6.961835026741027832e-01
-4.020496606826782227e-01 1.421079486608505249e-01 -6.154207587242126465e-01
-3.767265379428863525e-01 9.670151770114898682e-02 -6.926285028457641602e-01
-3.481810688972473145e-01 1.439099758863449097e-01 -6.766037940979003906e-01
-3.945501744747161865e-01 1.278585046529769897e-01 -6.221064925193786621e-01
-4.187142252922058105e-01 9.128225594758987427e-02 -6.730818152427673340e-01
-3.524362146854400635e-01 1.379395723342895508e-01 -6.823575496673583984e-01
-3.754013180732727051e-01 9.451317042112350464e-02 -6.878482699394226074e-01
-3.766211569309234619e-01 9.865085780620574951e-02 -6.634902358055114746e-01
-3.326966464519500732e-01 1.385706663131713867e-01 -6.766261458396911621e-01
-3.360656499862670898e-01 1.492440700531005859e-01 -6.438961029052734375e-01
-3.991703987121582031e-01 1.563456505537033081e-01 -6.260333657264709473e-01
-4.117027521133422852e-01 1.410866826772689819e-01 -6.535906195640563965e-01
-4.252182543277740479e-01 1.038268208503723145e-01 -6.747618317604064941e-01
-4.389114379882812500e-01 1.069172471761703491e-01 -6.531413793563842773e-01
-3.671417534351348877e-01 1.524865776300430298e-01 -6.213159561157226562e-01
-4.057805538177490234e-01 1.490801423788070679e-01 -6.450411677360534668e-01
-3.763621747493743896e-01 1.109672859311103821e-01 -6.952244639396667480e-01
-3.318041563034057617e-01 1.334257274866104126e-01 -6.587392091751098633e-01
-4.394989609718322754e-01 1.088668256998062134e-01 -6.472464203834533691e-01
-3.864630758762359619e-01 1.318625956773757935e-01 -6.798650622367858887e-01
-3.802545666694641113e-01 1.083200648427009583e-01 -6.456804871559143066e-01
-4.319067597389221191e-01 1.096101626753807068e-01 -6.367630362510681152e-01
-4.167317152023315430e-01 1.440748274326324463e-01 -6.202560067176818848e-01
-3.642862141132354736e-01 1.505400836467742920e-01 -6.668123602867126465e-01
-3.833560943603515625e-01 1.221512109041213989e-01 -6.883955001831054688e-01
-3.919746875762939453e-01 1.558617353439331055e-01 -6.433427929878234863e-01
-3.519179522991180420e-01 1.207380890846252441e-01 -6.495448350906372070e-01
-3.987371623516082764e-01 9.169201552867889404e-02 -6.867685914039611816e-01
-4.140443801879882812e-01 1.274610459804534912e-01 -6.684305667877197266e-01
-4.248998761177062988e-01 1.047200858592987061e-01 -6.400788426399230957e-01
-3.982132375240325928e-01 1.188370659947395325e-01 -6.279864311218261719e-01
-4.346184134483337402e-01 1.121881157159805298e-01 -6.611421108245849609e-01
-3.799521625041961670e-01 1.467759907245635986e-01 -6.664334535598754883e-01
-4.094460010528564453e-01 1.508052349090576172e-01 -6.228356957435607910e-01
-3.631865084171295166e-01 1.543723493814468384e-01 -6.613855957984924316e-01
-3.855394124984741211e-01 1.324303597211837769e-01 -6.216699481010437012e-01
-4.242201149463653564e-01 1.342409104108810425e-01 -6.504615545272827148e-01
-4.302254319190979004e-01 1.240295171737670898e-01 -6.565179228782653809e-01
-3.832569122314453125e-01 1.048821210861206055e-01 -6.487714052200317383e-01
-4.058730304241180420e-01 1.484282314777374268e-01 -6.171223521232604980e-01
-3.289640247821807861e-01 1.373212337493896484e-01 -6.612387299537658691e-01
-3.800926506519317627e-01 1.612486541271209717e-01 -6.375201940536499023e-01
-3.809366822242736816e-01 1.433926224708557129e-01 -6.181246638298034668e-01
-3.645732998847961426e-01 1.480583250522613525e-01 -6.228827238082885742e-01
-3.914559483528137207e-01 1.397211849689483643e-01 -6.695782542228698730e-01
-3.718166351318359375e-01 9.730372577905654907e-02 -6.916541457176208496e-01
-3.813104629516601562e-01 1.548524349927902222e-01 -6.178575754165649414e-01
-4.325382113456726074e-01 1.327181309461593628e-01 -6.343550682067871094e-01
-3.513978719711303711e-01 1.317391395568847656e-01 -6.871420741081237793e-01
-3.442177772521972656e-01 1.275169849395751953e-01 -6.490948796272277832e-01
-3.464994430541992188e-01 1.091325134038925171e-01 -6.800265908241271973e-01
-4.040643274784088135e-01 1.364219784736633301e-01 -6.658943891525268555e-01
-3.419821858406066895e-01 1.465504616498947144e-01 -6.380230784416198730e-01
-3.698841631412506104e-01 1.008319035172462463e-01 -6.646867394447326660e-01
-3.467355668544769287e-01 1.364486068487167358e-01 -6.833587288856506348e-01
-3.586236238479614258e-01 1.176698431372642517e-01 -6.943548321723937988e-01
-4.400136470794677734e-01 1.158394664525985718e-01 -6.434269547462463379e-01
-4.234523177146911621e-01 1.323488652706146240e-01 -6.541995406150817871e-01
-3.848688602447509766e-01 9.527088701725006104e-02 -6.648049950599670410e-01
-4.072420597076416016e-01 1.138432919979095459e-01 -6.830858588218688965e-01
-3.503837883472442627e-01 1.162329837679862976e-01 -6.931839585304260254e-01
