-2.646357193589210510e-02 -4.931149780750274658e-01 2.632758021354675293e-01
-1.108321174979209900e-02 -4.861164987087249756e-01 2.663873732089996338e-01
-3.285267576575279236e-02 -4.930097460746765137e-01 2.680880725383758545e-01
-2.576177567243576050e-02 -4.957247674465179443e-01 2.647782266139984131e-01
-2.957080490887165070e-02 -4.883350133895874023e-01 2.670139074325561523e-01
-1.201880164444446564e-02 -4.842345416545867920e-01 2.641643583774566650e-01
-3.069678694009780884e-02 -4.950669705867767334e-01 2.660109400749206543e-01
-2.819714695215225220e-02 -4.890514314174652100e-01 2.681962549686431885e-01
-1.469891984015703201e-02 -4.959307312965393066e-01 2.723375260829925537e-01
-4.407990723848342896e-03 -4.884976446628570557e-01 2.629515230655670166e-01
-2.180475741624832153e-02 -4.988508224487304688e-01 2.669172883033752441e-01
-5.616405047476291656e-03 -4.893666505813598633e-01 2.674627304077148438e-01
-2.911802195012569427e-02 -4.893620312213897705e-01 2.681239545345306396e-01
-1.892267353832721710e-02 -4.978691041469573975e-01 2.728164792060852051e-01
-1.950347609817981720e-02 -4.882422983646392822e-01 2.604631185531616211e-01
-1.461840327829122543e-02 -4.971649646759033203e-01 2.651423811912536621e-01
-2.947822213172912598e-02 -4.954871237277984619e-01 2.657461166381835938e-01
-2.684012986719608307e-03 -4.913200736045837402e-01 2.650890946388244629e-01
-4.444544203579425812e-03 -4.898650646209716797e-01 2.672029137611389160e-01
-7.743659429252147675e-03 -4.936518073081970215e-01 2.636134624481201172e-01
-1.027075387537479401e-02 -4.988491237163543701e-01 2.713015675544738770e-01
-2.823771163821220398e-02 -4.927376806735992432e-01 2.635472714900970459e-01
-1.821703650057315826e-02 -4.844290614128112793e-01 2.651921808719635010e-01
-2.580117061734199524e-02 -4.880242645740509033e-01 2.679896056652069092e-01
-2.846012078225612640e-02 -4.867840409278869629e-01 2.657798528671264648e-01
-3.068624250590801239e-02 -4.968246221542358398e-01 2.679030895233154297e-01
-1.720421575009822845e-02 -4.937617480754852295e-01 2.626491487026214600e-01
-1.247935742139816284e-02 -4.999465644359588623e-01 2.713150978088378906e-01
-2.853109315037727356e-02 -4.888791739940643311e-01 2.623412609100341797e-01
-3.225902095437049866e-02 -4.932318329811096191e-01 2.688307762145996094e-01
-2.648540213704109192e-02 -4.849857687950134277e-01 2.632078528404235840e-01
-1.391598768532276154e-02 -4.932674765586853027e-01 2.624628543853759766e-01
-1.769307628273963928e-02 -4.907118082046508789e-01 2.704405188560485840e-01
-2.413841709494590759e-02 -4.903896749019622803e-01 2.699400782585144043e-01
-3.021481074392795563e-02 -4.976249635219573975e-01 2.697393000125885010e-01
-8.761124685406684875e-03 -4.881477355957031250e-01 2.676465809345245361e-01
-1.948319748044013977e-02 -4.853171706199645996e-01 2.662357091903686523e-01
-1.992346905171871185e-02 -4.985441267490386963e-01 2.664040625095367432e-01
-1.228225138038396835e-02 -4.929227232933044434e-01 2.710945904254913330e-01
-1.052835583686828613e-02 -4.933570325374603271e-01 2.628715336322784424e-01
-1.383746974170207977e-02 -4.897313416004180908e-01 2.696312665939331055e-01
-7.464791648089885712e-03 -4.945225417613983154e-01 2.642794549465179443e-01
-2.732871845364570618e-02 -4.863585829734802246e-01 2.620241343975067139e-01
-3.268914297223091125e-02 -4.910128712654113770e-01 2.670727670192718506e-01
-1.622780412435531616e-02 -4.938413500785827637e-01 2.627011537551879883e-01
-2.691881172358989716e-02 -4.897228777408599854e-01 2.690320014953613281e-01
-2.268928475677967072e-02 -4.925152063369750977e-01 2.623181641101837158e-01
-2.336584031581878662e-02 -4.840122461318969727e-01 2.621284127235412598e-01
-5.619934760034084320e-03 -4.967444539070129395e-01 2.694616913795471191e-01
-1.486789621412754059e-02 -4.847793579101562500e-01 2.603048086166381836e-01
-1.636327616870403290e-02 -4.985979795455932617e-01 2.664138376712799072e-01
-2.001525834202766418e-02 -4.887286424636840820e-01 2.691825330257415771e-01
-9.920390322804450989e-03 -4.899338781833648682e-01 2.613788247108459473e-01
-2.602804079651832581e-02 -4.998166859149932861e-01 2.700801789760589600e-01
-2.804310247302055359e-02 -4.989974498748779297e-01 2.698090672492980957e-01
-1.885039918124675751e-02 -4.861079156398773193e-01 2.670741975307464600e-01
-2.969478815793991089e-02 -4.960965812206268311e-01 2.663758099079132080e-01
-1.905812509357929230e-02 -4.839720427989959717e-01 2.644622921943664551e-01
-8.061840198934078217e-03 -4.862030446529388428e-01 2.655445933341979980e-01
-1.985789649188518524e-02 -4.909817874431610107e-01 2.613621950149536133e-01
-1.372619252651929855e-02 -4.994854032993316650e-01 2.677577137947082520e-01
-1.900457590818405151e-02 -4.832485318183898926e-01 2.624990642070770264e-01
-2.854314073920249939e-02 -4.871168732643127441e-01 2.624224126338958740e-01
-6.291311234235763550e-03 -4.900138974189758301e-01 2.681891620159149170e-01
-1.709451712667942047e-02 -4.950791001319885254e-01 2.634721100330352783e-01
-2.014975249767303467e-02 -4.833698868751525879e-01 2.619957923889160156e-01
-1.307811774313449860e-02 -4.865997731685638428e-01 2.672019600868225098e-01
-2.782368473708629608e-02 -4.988588392734527588e-01 2.689456641674041748e-01
-3.296725451946258545e-02 -4.915606081485748291e-01 2.660064101219177246e-01
-1.924297399818897247e-02 -4.881002902984619141e-01 2.687487304210662842e-01
-2.798851206898689270e-02 -4.859778285026550293e-01 2.627589702606201172e-01
-2.223393134772777557e-02 -4.842973649501800537e-01 2.645011246204376221e-01
-1.982988789677619934e-02 -4.928589165210723877e-01 2.622352838516235352e-01
-1.120130065828561783e-02 -4.928130507469177246e-01 2.708806693553924561e-01
-7.269145920872688293e-03 -4.936725497245788574e-01 2.702590525150299072e-01
-4.083644598722457886e-03 -4.918977916240692139e-01 2.681667804718017578e-01
-7.387069985270500183e-03 -4.864072501659393311e-01 2.615812122821807861e-01
-2.053949795663356781e-02 -4.878513216972351074e-01 2.604655623435974121e-01
-3.449441865086555481e-03 -4.940757751464843750e-01 2.661186754703521729e-01
-2.992316894233226776e-02 -4.870679676532745361e-01 2.637505829334259033e-01
-2.837688475847244263e-02 -4.907549619674682617e-01 2.693327069282531738e-01
-2.909867092967033386e-03 -4.936722218990325928e-01 2.668350040912628174e-01
-2.677292004227638245e-02 -4.967401027679443359e-01 2.658520638942718506e-01
-1.461036503314971924e-02 -4.839373826980590820e-01 2.642444670200347900e-01
-2.515749260783195496e-02 -4.963797330856323242e-01 2.651555538177490234e-01
-2.790663018822669983e-02 -4.943817853927612305e-01 2.711383104324340820e-01
-2.020604349672794342e-02 -4.918872416019439697e-01 2.617805004119873047e-01
-7.989248260855674744e-03 -4.892402589321136475e-01 2.615615427494049072e-01
-8.538087829947471619e-03 -4.976264536380767822e-01 2.668031454086303711e-01
-1.429161988198757172e-02 -4.923097789287567139e-01 2.619339227676391602e-01
-2.287339232861995697e-02 -4.900116026401519775e-01 2.698473036289215088e-01
-2.493086457252502441e-02 -4.954635500907897949e-01 2.720296680927276611e-01
-2.324064262211322784e-02 -4.995408356189727783e-01 2.680383622646331787e-01
-1.921604014933109283e-02 -4.844607114791870117e-01 2.604828774929046631e-01
-2.381938695907592773e-02 -4.961679577827453613e-01 2.647452056407928467e-01
-2.023296989500522614e-02 -4.874010980129241943e-01 2.681699991226196289e-01
-2.465015091001987457e-02 -4.931845068931579590e-01 2.713022828102111816e-01
-7.744931615889072418e-03 -4.984823465347290039e-01 2.692205011844635010e-01
-9.406584315001964569e-03 -4.851398468017578125e-01 2.612536549568176270e-01
-2.012263424694538116e-02 -4.849194884300231934e-01 2.657275795936584473e-01
-2.639039233326911926e-02 -4.862052202224731445e-01 2.616445720195770264e-01
-4.239582456648349762e-03 -4.909113347530364990e-01 2.634921669960021973e-01
-7.180446758866310120e-03 -4.974165856838226318e-01 2.703862190246582031e-01
-5.969332531094551086e-03 -4.861334562301635742e-01 2.630154192447662354e-01
-2.693771943449974060e-02 -4.878694713115692139e-01 2.675740718841552734e-01
-3.089270368218421936e-02 -4.914978742599487305e-01 2.640472948551177979e-01
-2.200786769390106201e-02 -4.885424375534057617e-01 2.689339518547058105e-01
-6.927708163857460022e-03 -4.894227385520935059e-01 2.619048953056335449e-01
-1.841635443270206451e-02 -4.892120063304901123e-01 2.695358097553253174e-01
-1.048699021339416504e-02 -4.856931865215301514e-01 2.657806873321533203e-01
-2.163919992744922638e-02 -4.842518270015716553e-01 2.610116600990295410e-01
-2.549557387828826904e-02 -4.850092530250549316e-01 2.619132399559020996e-01
-1.092796958982944489e-02 -4.845626354217529297e-01 2.643612623214721680e-01
-8.682624436914920807e-03 -4.865651130676269531e-01 2.610760927200317383e-01
-2.346606180071830750e-02 -4.933794736862182617e-01 2.628735005855560303e-01
-3.055776096880435944e-02 -4.903899133205413818e-01 2.682839632034301758e-01
-2.992816641926765442e-02 -4.890706241130828857e-01 2.629941403865814209e-01
-2.594609372317790985e-02 -4.966102838516235352e-01 2.655219733715057373e-01
-1.135942433029413223e-02 -4.888053834438323975e-01 2.608272731304168701e-01
-1.578986085951328278e-02 -4.836654365062713623e-01 2.638870179653167725e-01
-2.486952207982540131e-02 -4.963505864143371582e-01 2.722213268280029297e-01
-1.831637881696224213e-02 -4.872764647006988525e-01 2.602236270904541016e-01
-2.184025198221206665e-02 -4.895872771739959717e-01 2.610305547714233398e-01
-1.224944554269313812e-02 -4.869125783443450928e-01 2.603846788406372070e-01
-1.393929775804281235e-02 -4.896302819252014160e-01 2.608367800712585449e-01
-6.740348413586616516e-03 -4.857430756092071533e-01 2.625263035297393799e-01
-2.998066693544387817e-02 -4.911437928676605225e-01 2.690340280532836914e-01
-2.004873193800449371e-02 -4.995785057544708252e-01 2.725820839405059814e-01
1.790185458958148956e-02 4.691509306430816650e-01 1.049157883971929550e-02
1.033247448503971100e-02 4.185717403888702393e-01 1.644668541848659515e-02
2.415678463876247406e-02 4.045199751853942871e-01 3.160353749990463257e-02
2.673221938312053680e-02 3.827595114707946777e-01 -2.508072927594184875e-02
3.367426991462707520e-02 4.192844033241271973e-01 2.031936496496200562e-02
1.320268213748931885e-02 3.916418850421905518e-01 2.450535632669925690e-02
3.694597631692886353e-02 4.515085220336914062e-01 1.301828585565090179e-02
1.675693318247795105e-02 3.724260628223419189e-01 -1.850406266748905182e-02
3.166908398270606995e-02 4.698679149150848389e-01 2.265834808349609375e-02
3.214810788631439209e-02 4.451580941677093506e-01 2.705262787640094757e-02
1.931908354163169861e-02 3.913279771804809570e-01 -2.722884714603424072e-02
1.604401506483554840e-02 4.477925002574920654e-01 -1.175976544618606567e-02
1.030730735510587692e-02 4.104024171829223633e-01 -4.730602726340293884e-03
1.872779615223407745e-02 4.634766280651092529e-01 2.400399558246135712e-02
3.629494458436965942e-02 4.105108082294464111e-01 3.563001053407788277e-03
3.024502471089363098e-02 4.286493062973022461e-01 -2.996676601469516754e-02
1.421790290623903275e-02 4.468146562576293945e-01 -5.054346285760402679e-03
1.382738631218671799e-02 4.506286382675170898e-01 2.735798945650458336e-03
3.219905495643615723e-02 3.846757411956787109e-01 2.070390619337558746e-04
1.232981774955987930e-02 4.395813047885894775e-01 -4.095863550901412964e-05
3.607832267880439758e-02 4.512204825878143311e-01 1.666516624391078949e-02
2.173958346247673035e-02 4.277192652225494385e-01 -2.888103015720844269e-02
1.388845406472682953e-02 3.743106126785278320e-01 -1.354976743459701538e-02
1.477493159472942352e-02 3.713702261447906494e-01 1.651841215789318085e-02
2.032068558037281036e-02 4.734644591808319092e-01 -1.362697454169392586e-03
3.252106904983520508e-02 4.218256175518035889e-01 2.397016994655132294e-02
2.353256940841674805e-02 4.750104248523712158e-01 -8.949371986091136932e-03
3.850776702165603638e-02 4.366992712020874023e-01 -8.734543807804584503e-04
9.800427593290805817e-03 3.865157067775726318e-01 5.720579996705055237e-03
3.657032176852226257e-02 4.216783344745635986e-01 -1.712439395487308502e-02
1.883300393819808960e-02 4.444781243801116943e-01 3.262010216712951660e-02
1.069907750934362411e-02 4.177371263504028320e-01 -4.688980057835578918e-03
2.611494995653629303e-02 3.784133195877075195e-01 1.724397204816341400e-02
1.438678335398435593e-02 4.353196620941162109e-01 -1.322697009891271591e-02
1.114097889512777328e-02 3.750163614749908447e-01 8.109310874715447426e-04
1.090874895453453064e-02 3.895226716995239258e-01 -8.332332596182823181e-03
2.035890519618988037e-02 4.752400219440460205e-01 2.435031812638044357e-03
1.444353349506855011e-02 4.446336627006530762e-01 2.408143691718578339e-02
3.789075464010238647e-02 4.240394234657287598e-01 -7.216139696538448334e-03
2.984909340739250183e-02 4.504561722278594971e-01 3.009991906583309174e-02
1.896122097969055176e-02 4.720157384872436523e-01 4.564691334962844849e-03
2.946716733276844025e-02 4.413544833660125732e-01 3.115143999457359314e-02
2.565913833677768707e-02 4.088939428329467773e-01 3.148074075579643250e-02
1.050179358571767807e-02 4.029919207096099854e-01 1.911272481083869934e-02
2.229981869459152222e-02 4.776377677917480469e-01 -2.158824121579527855e-03
3.186723217368125916e-02 4.834460318088531494e-01 1.008436270058155060e-02
1.723255217075347900e-02 3.608786761760711670e-01 -8.751250803470611572e-03
9.282020851969718933e-03 4.015817940235137939e-01 6.828871555626392365e-03
3.143034875392913818e-02 4.377633035182952881e-01 2.827220037579536438e-02
2.600661665201187134e-02 3.920284211635589600e-01 -2.897092513740062714e-02
3.200032562017440796e-02 4.549434483051300049e-01 2.640171721577644348e-02
2.698433585464954376e-02 4.110442399978637695e-01 -3.155209496617317200e-02
1.736454293131828308e-02 4.512977600097656250e-01 -1.350500341504812241e-02
1.305853296071290970e-02 4.097184836864471436e-01 2.748194709420204163e-02
3.133160620927810669e-02 3.947872519493103027e-01 -2.351245470345020294e-02
3.673018515110015869e-02 4.660894572734832764e-01 8.511788211762905121e-03
3.622920811176300049e-02 4.064655303955078125e-01 -3.635437926277518272e-03
1.166035141795873642e-02 4.041624665260314941e-01 -1.241426169872283936e-02
3.291651234030723572e-02 3.868934512138366699e-01 -4.312513396143913269e-03
1.793371886014938354e-02 4.351997375488281250e-01 -2.204021811485290527e-02
2.070969343185424805e-02 3.635067641735076904e-01 -1.500861346721649170e-02
1.227685716003179550e-02 4.057475328445434570e-01 2.538751438260078430e-02
1.972929574549198151e-02 3.702023923397064209e-01 -2.024208381772041321e-02
3.615533560514450073e-02 4.725928306579589844e-01 4.744765348732471466e-03
2.637517452239990234e-02 3.734940290451049805e-01 1.226221304386854172e-02
3.612425550818443298e-02 4.317393004894256592e-01 -2.040147967636585236e-02
1.172372326254844666e-02 4.291801452636718750e-01 -4.891357384622097015e-03
1.815637201070785522e-02 4.207275807857513428e-01 -2.578556165099143982e-02
3.317581117153167725e-02 4.667064547538757324e-01 -1.717284508049488068e-02
3.525896742939949036e-02 4.037693440914154053e-01 -1.423118449747562408e-02
3.520937263965606689e-02 4.611817002296447754e-01 1.761639118194580078e-02
2.071280032396316528e-02 3.662951886653900146e-01 -1.775719039142131805e-02
3.584835305809974670e-02 4.672836661338806152e-01 1.258755382150411606e-02
3.834860026836395264e-02 4.369444549083709717e-01 -8.470312692224979401e-03
2.665264904499053955e-02 3.819301724433898926e-01 1.877616345882415771e-02
1.358914282172918320e-02 4.502446949481964111e-01 1.277026068419218063e-02
1.126233860850334167e-02 3.775934875011444092e-01 -4.491142928600311279e-03
3.301563113927841187e-02 3.876830637454986572e-01 -8.397901430726051331e-03
1.010889094322919846e-02 4.210028648376464844e-01 3.010906279087066650e-03
1.152758393436670303e-02 3.743266761302947998e-01 8.603897877037525177e-03
2.688799053430557251e-02 4.020261466503143311e-01 2.817519567906856537e-02
1.602428779006004333e-02 3.797672390937805176e-01 -2.043441124260425568e-02
1.548516191542148590e-02 4.483050704002380371e-01 2.536594681441783905e-02
3.218678385019302368e-02 4.831447899341583252e-01 -1.737724058330059052e-03
1.876173913478851318e-02 4.523955583572387695e-01 3.014833666384220123e-02
1.325559616088867188e-02 4.450022876262664795e-01 -9.372176136821508408e-04
2.612993679940700531e-02 4.298693835735321045e-01 -3.083424456417560577e-02
2.785753831267356873e-02 4.090022444725036621e-01 2.903218753635883331e-02
1.660588197410106659e-02 4.026881158351898193e-01 3.133854269981384277e-02
2.527258172631263733e-02 3.643994331359863281e-01 -9.061499498784542084e-03
2.045473270118236542e-02 3.589915633201599121e-01 -6.922762840986251831e-03
3.760716319084167480e-02 4.328652024269104004e-01 7.978801615536212921e-03
1.496958453208208084e-02 4.206006526947021484e-01 3.100437670946121216e-02
2.979885600507259369e-02 3.761786520481109619e-01 1.705389819107949734e-03
3.097454085946083069e-02 4.224094748497009277e-01 2.727123349905014038e-02
1.644060388207435608e-02 3.618342280387878418e-01 7.835433818399906158e-03
2.716469764709472656e-02 3.680444061756134033e-01 -8.557481691241264343e-03
2.793682739138603210e-02 4.465004801750183105e-01 3.244815766811370850e-02
1.422950718551874161e-02 4.537977576255798340e-01 1.234961673617362976e-02
2.771779708564281464e-02 4.266978204250335693e-01 3.248731046915054321e-02
1.209996733814477921e-02 4.355219006538391113e-01 -2.504383446648716927e-03
3.261005133390426636e-02 4.464832842350006104e-01 -2.542028762400150299e-02
1.193523127585649490e-02 4.160920083522796631e-01 2.453718520700931549e-02
2.816287055611610413e-02 3.777371942996978760e-01 1.163291092962026596e-02
2.170996740460395813e-02 4.493246078491210938e-01 -2.281244471669197083e-02
1.549470145255327225e-02 4.494275748729705811e-01 -8.640047162771224976e-03
1.885398477315902710e-02 3.673216402530670166e-01 1.582651957869529724e-02
1.532036531716585159e-02 3.682483434677124023e-01 1.454124879091978073e-02
3.353950381278991699e-02 4.419990479946136475e-01 -2.515089698135852814e-02
3.224793821573257446e-02 3.899083733558654785e-01 -1.757144182920455933e-02
1.332102902233600616e-02 4.046676456928253174e-01 -1.776255480945110321e-02
3.739652410149574280e-02 4.376651644706726074e-01 -1.553324423730373383e-02
2.170155197381973267e-02 4.561530351638793945e-01 -1.967567764222621918e-02
1.951627433300018311e-02 4.740536808967590332e-01 9.337220340967178345e-03
1.483963895589113235e-02 4.008941352367401123e-01 -2.150271646678447723e-02
9.849593974649906158e-03 3.899148106575012207e-01 1.102724205702543259e-02
3.535817563533782959e-02 4.184661209583282471e-01 1.424598693847656250e-02
1.338504347950220108e-02 4.237906038761138916e-01 -1.445836760103702545e-02
1.784771867096424103e-02 3.886727690696716309e-01 -2.523109689354896545e-02
3.657155483961105347e-02 4.319523274898529053e-01 1.348390989005565643e-02
2.670107968151569366e-02 3.692992031574249268e-01 -1.393233612179756165e-02
2.925704978406429291e-02 4.071604311466217041e-01 2.634027972817420959e-02
3.848626092076301575e-02 4.395885765552520752e-01 1.189117087051272392e-03
2.239193581044673920e-02 4.650766253471374512e-01 -1.541705243289470673e-02
1.494027022272348404e-02 4.555427134037017822e-01 1.220620120875537395e-03
2.908238396048545837e-02 3.928117156028747559e-01 2.051788195967674255e-02
2.350386604666709900e-02 3.985488414764404297e-01 -3.052322380244731903e-02
3.372185677289962769e-02 4.573374092578887939e-01 2.256875112652778625e-02
3.246665000915527344e-02 3.880877494812011719e-01 -1.449096202850341797e-02
2.395048364996910095e-02 3.715521693229675293e-01 -2.085350081324577332e-02
1.117776054888963699e-02 4.056099951267242432e-01 2.209210395812988281e-02
3.249025344848632812e-02 4.110700190067291260e-01 -2.645553089678287506e-02
2.455373480916023254e-02 3.795388936996459961e-01 -2.516891621053218842e-02
1.107941661030054092e-02 4.238829314708709717e-01 -4.063861444592475891e-03
1.619888283312320709e-02 4.587979912757873535e-01 1.975184679031372070e-02
1.564910635352134705e-02 4.143341481685638428e-01 3.184909746050834656e-02
1.373268105089664459e-02 3.830150365829467773e-01 -1.665752194821834564e-02
1.385685522109270096e-02 3.762659728527069092e-01 1.855760812759399414e-02
3.321476280689239502e-02 3.931515216827392578e-01 -1.612838730216026306e-02
3.550399467349052429e-02 4.351004362106323242e-01 1.825138740241527557e-02
1.198686659336090088e-02 4.170283973217010498e-01 -1.141183357685804367e-02
1.184261590242385864e-02 4.218174219131469727e-01 -9.204811416566371918e-03
1.641607470810413361e-02 4.525577127933502197e-01 -9.665101766586303711e-03
3.392346203327178955e-02 4.041133522987365723e-01 -2.076014317572116852e-02
1.365162618458271027e-02 4.178053438663482666e-01 -1.687753573060035706e-02
1.486724521964788437e-02 3.621762990951538086e-01 3.358714282512664795e-03
1.517778821289539337e-02 4.090449810028076172e-01 -2.190794050693511963e-02
1.158632431179285049e-02 4.364831149578094482e-01 1.333209220319986343e-02
3.472278639674186707e-02 4.518740475177764893e-01 2.088457718491554260e-02
2.190827392041683197e-02 4.355351626873016357e-01 -2.743611112236976624e-02
1.263631600886583328e-02 3.697734177112579346e-01 8.673653006553649902e-03
3.429501876235008240e-02 4.281153082847595215e-01 2.079223282635211945e-02
2.045196481049060822e-02 3.758430182933807373e-01 -2.355441637337207794e-02
9.693357162177562714e-03 4.107944369316101074e-01 1.327563542872667313e-02
9.662959724664688110e-03 3.894790112972259521e-01 2.277916995808482170e-03
1.709843799471855164e-02 4.657422304153442383e-01 1.365560479462146759e-02
1.233271881937980652e-02 4.294828474521636963e-01 2.318116836249828339e-02
3.247236087918281555e-02 3.944335281848907471e-01 -2.020428329706192017e-02
1.842527464032173157e-02 3.819590806961059570e-01 2.545380033552646637e-02
3.245926648378372192e-02 4.024093747138977051e-01 1.688048988580703735e-02
2.159156277775764465e-02 4.598260521888732910e-01 3.020814806222915649e-02
1.046533975750207901e-02 4.249490797519683838e-01 1.362796034663915634e-02
2.478067018091678619e-02 3.746697604656219482e-01 1.666698232293128967e-02
3.052027896046638489e-02 3.814801275730133057e-01 -1.609745621681213379e-02
3.637077659368515015e-02 4.423836767673492432e-01 1.580638997256755829e-02
2.567170932888984680e-02 4.164091646671295166e-01 3.299641236662864685e-02
2.718123421072959900e-02 3.676146268844604492e-01 -5.109941586852073669e-03
1.484712958335876465e-02 3.634533286094665527e-01 -6.138466298580169678e-03
2.793781086802482605e-02 3.722726702690124512e-01 5.266064777970314026e-03
3.339114785194396973e-02 4.011206626892089844e-01 1.274765934795141220e-02
2.158248238265514374e-02 4.645889699459075928e-01 2.795459702610969543e-02
1.500279922038316727e-02 4.562155604362487793e-01 1.583630219101905823e-02
3.023570775985717773e-02 4.758946597576141357e-01 -1.319951750338077545e-02
1.508748624473810196e-02 4.380063116550445557e-01 2.855898812413215637e-02
9.507202543318271637e-03 3.989348113536834717e-01 1.153354905545711517e-02
1.984607428312301636e-02 3.609824180603027344e-01 -1.157047972083091736e-02
3.702178969979286194e-02 4.210273325443267822e-01 6.541673094034194946e-03
1.114731095731258392e-02 3.781662583351135254e-01 1.096485275775194168e-02
3.649624437093734741e-02 4.402332305908203125e-01 -1.895795203745365143e-02
3.405310958623886108e-02 4.256510138511657715e-01 -2.531108446419239044e-02
3.386321663856506348e-02 3.915266692638397217e-01 -6.091309711337089539e-03
2.550134621560573578e-02 3.841022849082946777e-01 2.205468527972698212e-02
3.222834691405296326e-02 4.406687319278717041e-01 2.693328447639942169e-02
3.511083126068115234e-02 4.076449871063232422e-01 -1.790145039558410645e-02
2.093527279794216156e-02 3.948805034160614014e-01 3.035556524991989136e-02
1.302076224237680435e-02 4.475367665290832520e-01 9.102419018745422363e-03
1.181116700172424316e-02 4.223281145095825195e-01 2.318947389721870422e-02
1.627948507666587830e-02 4.363919496536254883e-01 -1.812428794801235199e-02
1.082369685173034668e-02 4.309663474559783936e-01 9.463186375796794891e-03
1.365363411605358124e-02 4.177662432193756104e-01 2.878705225884914398e-02
3.259307891130447388e-02 4.704843461513519287e-01 -1.554286666214466095e-02
1.746701821684837341e-02 4.600060880184173584e-01 2.337054535746574402e-02
3.204339742660522461e-02 4.783739149570465088e-01 1.655591093003749847e-02
1.090642716735601425e-02 4.115380346775054932e-01 2.107699774205684662e-02
2.961960062384605408e-02 4.094460904598236084e-01 -2.993392013013362885e-02
1.616862975060939789e-02 3.639955520629882812e-01 -1.102099660784006119e-02
1.873154006898403168e-02 4.655603468418121338e-01 -5.924560129642486572e-03
3.711408004164695740e-02 4.295099973678588867e-01 -1.630631275475025177e-02
2.289832569658756256e-02 4.290485382080078125e-01 3.552143648266792297e-02
3.699750453233718872e-02 4.606474339962005615e-01 -1.070856768637895584e-02
3.703413903713226318e-02 4.507876932621002197e-01 -1.501762680709362030e-02
3.732125088572502136e-02 4.659472405910491943e-01 1.766720088198781013e-03
9.432002902030944824e-03 3.934000134468078613e-01 6.485582329332828522e-03
1.104759424924850464e-02 4.164733886718750000e-01 2.115405909717082977e-02
3.705517202615737915e-02 4.159594178199768066e-01 -1.051396597176790237e-02
1.717340573668479919e-02 3.864117264747619629e-01 2.700345031917095184e-02
3.483932837843894958e-02 4.662944674491882324e-01 1.690208725631237030e-02
1.504728291183710098e-02 4.451653957366943359e-01 -9.997043758630752563e-03
3.054985031485557556e-02 3.899674713611602783e-01 -2.278989367187023163e-02
3.157935291528701782e-02 4.265704154968261719e-01 2.687945775687694550e-02
2.031178958714008331e-02 4.759198129177093506e-01 5.687845870852470398e-03
1.581972651183605194e-02 4.535834789276123047e-01 -6.445205770432949066e-03
3.024788945913314819e-02 4.833315610885620117e-01 -4.577480256557464600e-03
2.444633655250072479e-02 3.626165688037872314e-01 -4.433961585164070129e-04
3.090751171112060547e-02 3.848332762718200684e-01 8.982604369521141052e-03
3.813812881708145142e-02 4.550219476222991943e-01 3.448969218879938126e-03
3.794451802968978882e-02 4.357145130634307861e-01 -1.218499708920717239e-02
3.096696734428405762e-02 4.205584824085235596e-01 -2.953070588409900665e-02
3.522330522537231445e-02 4.384888112545013428e-01 -2.257602289319038391e-02
1.122230757027864456e-02 4.256118535995483398e-01 1.942108199000358582e-02
1.014737039804458618e-02 4.172536134719848633e-01 -5.982774309813976288e-04
3.219740837812423706e-02 3.848734200000762939e-01 -1.100061088800430298e-02
3.512362390756607056e-02 4.552333652973175049e-01 1.927006989717483521e-02
3.818112611770629883e-02 4.508475363254547119e-01 4.846250638365745544e-03
3.501877188682556152e-02 4.037923514842987061e-01 6.565418094396591187e-03
3.130028396844863892e-02 4.339154660701751709e-01 -2.871892601251602173e-02
1.020958274602890015e-02 4.000443220138549805e-01 1.723487675189971924e-02
3.392665833234786987e-02 3.982415497303009033e-01 7.828293368220329285e-03
1.147851347923278809e-02 4.335570931434631348e-01 7.076411275193095207e-04
3.509198129177093506e-02 4.230187833309173584e-01 1.693635992705821991e-02
2.466069720685482025e-02 4.682546257972717285e-01 -1.633652485907077789e-02
1.106985285878181458e-02 4.319570958614349365e-01 1.317513827234506607e-02
2.578245103359222412e-02 4.521926641464233398e-01 3.299439698457717896e-02
2.152515202760696411e-02 4.687219858169555664e-01 2.532030828297138214e-02
1.975012384355068207e-02 3.857137560844421387e-01 -2.644902653992176056e-02
1.174027379602193832e-02 3.737707734107971191e-01 -3.870189888402819633e-03
2.653080224990844727e-02 3.961117863655090332e-01 2.645884826779365540e-02
3.775864094495773315e-02 4.501922130584716797e-01 8.581023663282394409e-03
1.405178941786289215e-02 4.312702417373657227e-01 -1.390924304723739624e-02
2.932200208306312561e-02 4.801128208637237549e-01 -9.245690889656543732e-03
1.014610845595598221e-02 3.831286132335662842e-01 7.288267835974693298e-03
1.764933019876480103e-02 3.946098685264587402e-01 -2.584185078740119934e-02
1.886525005102157593e-02 4.264461994171142578e-01 -2.580401487648487091e-02
2.888946607708930969e-02 3.725290298461914062e-01 -8.760727010667324066e-03
3.776340931653976440e-02 4.234844446182250977e-01 9.263907559216022491e-04
1.783554255962371826e-02 4.576303660869598389e-01 2.599796094000339508e-02
1.311786472797393799e-02 4.463931918144226074e-01 2.433868590742349625e-03
1.048875786364078522e-02 4.270543456077575684e-01 5.442213267087936401e-03
2.099383808672428131e-02 4.670610725879669189e-01 -1.114562619477510452e-02
3.713279217481613159e-02 4.643140435218811035e-01 -6.848413497209548950e-03
3.086366131901741028e-02 3.818181753158569336e-01 5.278836004436016083e-03
1.231472659856081009e-02 3.700486421585083008e-01 -2.664504339918494225e-03
3.673744946718215942e-02 4.122118651866912842e-01 -9.859804995357990265e-03
2.711265161633491516e-02 3.916131258010864258e-01 2.359993569552898407e-02
3.568166866898536682e-02 4.026730656623840332e-01 -2.481192583218216896e-03
9.503142908215522766e-03 3.935726284980773926e-01 2.114038681611418724e-03
2.948068827390670776e-02 3.801751136779785156e-01 9.686588309705257416e-03
3.807170689105987549e-02 4.453630149364471436e-01 -1.084157172590494156e-02
9.960769675672054291e-03 4.121045768260955811e-01 -1.468208152800798416e-03
2.882718481123447418e-02 3.719303607940673828e-01 -3.632343607023358345e-03
3.333323821425437927e-02 4.008066654205322266e-01 -2.107268199324607849e-02
1.532711368054151535e-02 4.582434892654418945e-01 3.167700488120317459e-03
2.502131089568138123e-02 4.620397686958312988e-01 3.059801459312438965e-02
2.084444835782051086e-02 4.127770662307739258e-01 -2.969619445502758026e-02
3.351793438196182251e-02 4.162844121456146240e-01 -2.541725151240825653e-02
1.573210209608078003e-02 4.134455919265747070e-01 -2.259609661996364594e-02
3.231883794069290161e-02 4.611110389232635498e-01 -2.092451043426990509e-02
1.925381459295749664e-02 4.157143831253051758e-01 3.452981635928153992e-02
2.052233740687370300e-02 4.037015438079833984e-01 3.280726447701454163e-02
2.612192556262016296e-02 4.401285350322723389e-01 3.416988253593444824e-02
1.261569000780582428e-02 4.447106122970581055e-01 1.147776097059249878e-02
3.259738534688949585e-02 4.071477353572845459e-01 1.883191987872123718e-02
9.315726347267627716e-03 3.979712426662445068e-01 5.032499320805072784e-03
3.728860989212989807e-02 4.185516834259033203e-01 1.928335754200816154e-03
1.250106375664472580e-02 3.980545699596405029e-01 -1.547005586326122284e-02
3.228545561432838440e-02 4.181531965732574463e-01 2.358218096196651459e-02
1.325862668454647064e-02 4.398557245731353760e-01 2.221594378352165222e-02
3.554602712392807007e-02 4.443492889404296875e-01 -2.103898487985134125e-02
3.546746447682380676e-02 4.719927310943603516e-01 1.081834454089403152e-02
2.959158830344676971e-02 4.843286871910095215e-01 1.333468966186046600e-02
2.939720451831817627e-02 3.817091882228851318e-01 -2.001158334314823151e-02
1.491646934300661087e-02 3.817555904388427734e-01 2.318494766950607300e-02
1.900078915059566498e-02 3.900218307971954346e-01 2.886679023504257202e-02
3.510405123233795166e-02 4.426900744438171387e-01 2.016179636120796204e-02
2.634294144809246063e-02 3.687672615051269531e-01 6.118609569966793060e-03
1.219180971384048462e-02 4.414727985858917236e-01 1.260397117584943771e-02
2.979343384504318237e-02 3.788681924343109131e-01 6.668534129858016968e-03
1.871514879167079926e-02 3.583800196647644043e-01 7.105128606781363487e-04
1.945403963327407837e-02 4.071269035339355469e-01 3.342850133776664734e-02
2.084597200155258179e-02 4.377291500568389893e-01 3.502093628048896790e-02
2.037965320050716400e-02 4.698163568973541260e-01 2.237361110746860504e-02
3.722742199897766113e-02 4.574379920959472656e-01 -1.144057419151067734e-02
3.838339447975158691e-02 4.528307318687438965e-01 -3.510479116812348366e-03
3.439129516482353210e-02 4.249021410942077637e-01 1.977423019707202911e-02
3.655507043004035950e-02 4.558036327362060547e-01 1.402465440332889557e-02
1.660326495766639709e-02 4.295319914817810059e-01 -2.113465964794158936e-02
1.127463020384311676e-02 3.813576996326446533e-01 -7.194470614194869995e-03
3.766865283250808716e-02 4.254711270332336426e-01 -1.143638975918292999e-02
1.391842868179082870e-02 3.655469715595245361e-01 7.537864148616790771e-03
3.139339014887809753e-02 3.865792453289031982e-01 -1.794167608022689819e-02
1.440572552382946014e-02 4.144783020019531250e-01 -1.951129361987113953e-02
1.007128413766622543e-02 3.969938158988952637e-01 1.578085869550704956e-02
2.526911720633506775e-02 4.847537875175476074e-01 7.345969788730144501e-03
3.593995422124862671e-02 4.505638778209686279e-01 -1.865474134683609009e-02
2.358687482774257660e-02 3.761670589447021484e-01 1.952918246388435364e-02
2.334495447576045990e-02 3.693099319934844971e-01 1.411657314747571945e-02
2.348599210381507874e-02 4.822975993156433105e-01 1.005156803876161575e-02
1.248800195753574371e-02 3.763505220413208008e-01 -1.001506298780441284e-02
2.027211338281631470e-02 4.611061215400695801e-01 -1.416334882378578186e-02
1.026447769254446030e-02 3.856191933155059814e-01 -2.666655229404568672e-03
1.864966750144958496e-02 4.140145480632781982e-01 -2.727197483181953430e-02
2.274334058165550232e-02 4.468452632427215576e-01 -2.492450736463069916e-02
1.551889907568693161e-02 4.210596084594726562e-01 -2.089752070605754852e-02
2.557479962706565857e-02 4.225820302963256836e-01 -3.149631246924400330e-02
2.725052461028099060e-02 4.053156077861785889e-01 2.876273170113563538e-02
2.015698142349720001e-02 4.188978075981140137e-01 3.502723947167396545e-02
3.616175055503845215e-02 4.064387083053588867e-01 -8.213856257498264313e-03
1.467201858758926392e-02 4.388253688812255859e-01 -1.243694685399532318e-02
1.620587334036827087e-02 4.176924824714660645e-01 -2.293487451970577240e-02
2.860695309937000275e-02 4.391120374202728271e-01 -2.931708842515945435e-02
3.416188061237335205e-02 3.934430181980133057e-01 -2.173954388126730919e-03
2.132762968540191650e-02 4.731163978576660156e-01 -5.710915662348270416e-03
3.857495263218879700e-02 4.410805702209472656e-01 -4.988040775060653687e-03
1.818247884511947632e-02 4.119710326194763184e-01 3.370689228177070618e-02
3.197228163480758667e-02 3.868236541748046875e-01 5.960523150861263275e-03
3.450659662485122681e-02 4.763502776622772217e-01 1.081559620797634125e-02
1.171345915645360947e-02 4.105620980262756348e-01 -1.179926097393035889e-02
2.534356154501438141e-02 4.840128123760223389e-01 1.584454439580440521e-03
1.771510578691959381e-02 4.658335447311401367e-01 1.796303875744342804e-02
1.518957223743200302e-02 4.301296174526214600e-01 3.048747032880783081e-02
1.359308883547782898e-02 3.987568318843841553e-01 -1.857841201126575470e-02
3.012827783823013306e-02 3.765026628971099854e-01 -9.349433705210685730e-03
2.477665618062019348e-02 4.118934571743011475e-01 3.285243734717369080e-02
2.075713872909545898e-02 4.314434826374053955e-01 -2.717122249305248260e-02
3.689288347959518433e-02 4.251516163349151611e-01 -1.650846377015113831e-02
1.027203071862459183e-02 3.869248926639556885e-01 1.262515597045421600e-02
1.389056630432605743e-02 4.066436290740966797e-01 2.877971902489662170e-02
1.480823010206222534e-02 4.007177948951721191e-01 2.919461019337177277e-02
3.449385240674018860e-02 4.482207000255584717e-01 2.179689705371856689e-02
1.875519938766956329e-02 4.708274900913238525e-01 1.457536499947309494e-02
3.451419621706008911e-02 4.064145088195800781e-01 1.145185716450214386e-02
3.823290020227432251e-02 4.413208365440368652e-01 4.899212624877691269e-03
3.008751571178436279e-02 3.901480734348297119e-01 1.640358380973339081e-02
2.274465933442115784e-02 4.163033664226531982e-01 -3.087079338729381561e-02
1.728556491434574127e-02 4.666284024715423584e-01 4.831921309232711792e-03
2.185354009270668030e-02 3.790845870971679688e-01 2.302656881511211395e-02
1.533075142651796341e-02 4.548562467098236084e-01 -2.591642783954739571e-03
2.097725123167037964e-02 4.774255752563476562e-01 1.138208061456680298e-02
1.836720108985900879e-02 4.568238258361816406e-01 -1.255914289504289627e-02
1.632003299891948700e-02 4.272917211055755615e-01 3.248436748981475830e-02
1.006450876593589783e-02 4.063583016395568848e-01 -3.992577083408832550e-03
3.845424950122833252e-02 4.338151216506958008e-01 -2.727375132963061333e-03
2.796860225498676300e-02 4.671225249767303467e-01 -1.927078142762184143e-02
1.139792054891586304e-02 3.959044516086578369e-01 -1.144761033356189728e-02
2.450141869485378265e-02 4.793269932270050049e-01 1.939680054783821106e-02
2.494489401578903198e-02 4.652555584907531738e-01 2.937211655080318451e-02
3.492546826601028442e-02 4.488144218921661377e-01 -2.144512534141540527e-02
3.070238046348094940e-02 4.031598269939422607e-01 -2.755437418818473816e-02
2.761629596352577209e-02 4.548636376857757568e-01 3.153173625469207764e-02
2.227183245122432709e-02 4.800824522972106934e-01 4.639009479433298111e-03
1.987558789551258087e-02 4.082341790199279785e-01 -2.893958427011966705e-02
1.500500552356243134e-02 3.925544619560241699e-01 -2.133519202470779419e-02
1.296522933989763260e-02 3.873396813869476318e-01 2.253223955631256104e-02
3.398972004652023315e-02 4.645482599735260010e-01 1.999462023377418518e-02
2.784838713705539703e-02 3.734333515167236328e-01 -1.608585007488727570e-02
3.417880833148956299e-02 4.132433533668518066e-01 1.649580150842666626e-02
1.487834099680185318e-02 4.294889867305755615e-01 -1.703971065580844879e-02
2.185520157217979431e-02 3.705481886863708496e-01 1.707000844180583954e-02
2.386436425149440765e-02 4.638002514839172363e-01 -1.828719303011894226e-02
3.749453276395797729e-02 4.610522389411926270e-01 6.378930993378162384e-03
3.755769133567810059e-02 4.413875341415405273e-01 1.002690102905035019e-02
2.040312066674232483e-02 4.685481190681457520e-01 -8.206075057387351990e-03
3.522367402911186218e-02 4.007663726806640625e-01 6.962949410080909729e-04
3.602849319577217102e-02 4.161096215248107910e-01 9.886341169476509094e-03
1.156459935009479523e-02 3.996516466140747070e-01 -1.222578343003988266e-02
3.216012567281723022e-02 4.132538437843322754e-01 2.239064313471317291e-02
3.078157268464565277e-02 3.959056735038757324e-01 1.812900975346565247e-02
1.357993669807910919e-02 4.131840169429779053e-01 2.866862155497074127e-02
1.295019872486591339e-02 3.666875064373016357e-01 8.265093201771378517e-04
1.118429377675056458e-02 3.808969259262084961e-01 1.368695311248302460e-02
3.821041435003280640e-02 4.282855391502380371e-01 -2.952449256554245949e-03
2.972026169300079346e-02 3.962422013282775879e-01 -2.693758346140384674e-02
3.509145975112915039e-02 4.111920297145843506e-01 1.176491007208824158e-02
1.313700526952743530e-02 3.702214360237121582e-01 -7.950420491397380829e-03
1.551234722137451172e-02 3.884916603565216064e-01 -2.171180397272109985e-02
1.273567881435155869e-02 4.389391839504241943e-01 -3.691253019496798515e-03
1.422001328319311142e-02 4.414775371551513672e-01 -9.197845123708248138e-03
1.523019373416900635e-02 4.550836682319641113e-01 1.905509643256664276e-02
1.379035878926515579e-02 4.105671942234039307e-01 -1.849279180169105530e-02
1.138386409729719162e-02 3.911709189414978027e-01 1.982444338500499725e-02
2.373426407575607300e-02 4.732440710067749023e-01 2.442654035985469818e-02
2.707700431346893311e-02 4.168488979339599609e-01 -3.168872371315956116e-02
1.031450554728507996e-02 3.807731568813323975e-01 4.415185190737247467e-03
1.410621404647827148e-02 4.511388540267944336e-01 1.675554737448692322e-02
3.567114099860191345e-02 4.253333210945129395e-01 -2.130675874650478363e-02
2.016556076705455780e-02 4.743939042091369629e-01 1.516974437981843948e-02
3.651230037212371826e-02 4.597985744476318359e-01 1.308199018239974976e-02
1.556912343949079514e-02 3.952299952507019043e-01 2.876709960401058197e-02
2.175880968570709229e-02 4.430714249610900879e-01 -2.514980360865592957e-02
1.321232877671718597e-02 3.895737528800964355e-01 -1.674423180520534515e-02
1.394405122846364975e-02 4.279544055461883545e-01 2.835667319595813751e-02
3.280295059084892273e-02 4.301743507385253906e-01 -2.736014500260353088e-02
1.486391946673393250e-02 4.241992831230163574e-01 3.062741272151470184e-02
3.598275780677795410e-02 4.381094276905059814e-01 1.694279164075851440e-02
2.594157308340072632e-02 4.053948521614074707e-01 -3.134481608867645264e-02
3.492347896099090576e-02 3.979457914829254150e-01 -1.721331849694252014e-03
3.428593277931213379e-02 4.318184256553649902e-01 -2.491905540227890015e-02
1.095142308622598648e-02 4.281325042247772217e-01 1.602250337600708008e-02
2.804879844188690186e-02 4.489158987998962402e-01 -2.698454633355140686e-02
1.007849629968404770e-02 4.214550256729125977e-01 1.147146150469779968e-02
1.894458383321762085e-02 4.695351123809814453e-01 -1.372271683067083359e-03
9.548630565404891968e-03 4.039834141731262207e-01 2.775934990495443344e-04
3.573785349726676941e-02 4.216741323471069336e-01 -2.049819752573966980e-02
3.696842864155769348e-02 4.387491047382354736e-01 1.288655307143926620e-02
2.989755012094974518e-02 3.863950967788696289e-01 1.416742429137229919e-02
3.452084586024284363e-02 4.785244166851043701e-01 6.999211385846138000e-03
1.988728903234004974e-02 4.519954621791839600e-01 -1.880591921508312225e-02
2.853356674313545227e-02 4.781575202941894531e-01 2.127782814204692841e-02
3.277081623673439026e-02 3.900249302387237549e-01 5.339086987078189850e-03
2.414319291710853577e-02 4.500729441642761230e-01 -2.502043731510639191e-02
1.197494007647037506e-02 4.259235262870788574e-01 -8.054949343204498291e-03
1.224640011787414551e-02 4.424504935741424561e-01 7.365292869508266449e-03
9.534889832139015198e-03 4.074886739253997803e-01 1.431307988241314888e-03
3.482544794678688049e-02 4.779991209506988525e-01 -9.327982552349567413e-04
1.567184552550315857e-02 3.895357847213745117e-01 2.712813392281532288e-02
1.071231346577405930e-02 4.223296344280242920e-01 1.764336228370666504e-02
3.609640151262283325e-02 4.068936705589294434e-01 6.648056441918015480e-04
3.592573106288909912e-02 4.642588496208190918e-01 -1.275589503347873688e-02
2.356444485485553741e-02 3.611790239810943604e-01 -5.744032561779022217e-03
3.646561503410339355e-02 4.716440141201019287e-01 7.019159384071826935e-04
3.823740035295486450e-02 4.367046356201171875e-01 3.771686227992177010e-03
9.780751541256904602e-03 4.181360602378845215e-01 7.095835171639919281e-03
1.901271007955074310e-02 4.539900124073028564e-01 -1.596406474709510803e-02
3.795505315065383911e-02 4.586973190307617188e-01 -4.618884064257144928e-03
3.539044782519340515e-02 4.178735017776489258e-01 -2.080981619656085968e-02
1.269208732992410660e-02 3.793058693408966064e-01 1.794517785310745239e-02
1.597952470183372498e-02 4.619829356670379639e-01 1.145519223064184189e-02
2.858522348105907440e-02 3.880169987678527832e-01 -2.531899698078632355e-02
3.304459527134895325e-02 4.709924757480621338e-01 1.946285553276538849e-02
3.422110155224800110e-02 4.801201224327087402e-01 4.123160615563392639e-03
3.137392178177833557e-02 3.880315124988555908e-01 1.030514668673276901e-02
3.111375495791435242e-02 3.796742558479309082e-01 -8.113630115985870361e-03
3.117374144494533539e-02 4.640845954418182373e-01 2.559816278517246246e-02
3.803203254938125610e-02 4.318639338016510010e-01 -1.065780408680438995e-02
3.356952965259552002e-02 4.759318232536315918e-01 1.478405110538005829e-02
2.759325876832008362e-02 4.856887459754943848e-01 1.095852721482515335e-02
2.306197583675384521e-02 4.416563808917999268e-01 3.499057888984680176e-02
2.496229670941829681e-02 3.681916594505310059e-01 9.617874398827552795e-03
3.680612519383430481e-02 4.240008294582366943e-01 9.582135826349258423e-03
1.835563406348228455e-02 4.494745433330535889e-01 -1.700654439628124237e-02
3.775636106729507446e-02 4.577200710773468018e-01 -7.830253802239894867e-03
2.397226542234420776e-02 3.635883927345275879e-01 4.850247874855995178e-03
1.190823037177324295e-02 3.887565433979034424e-01 -1.246215123683214188e-02
1.197381038218736649e-02 4.399998784065246582e-01 5.155957769602537155e-03
1.902938075363636017e-02 4.042612016201019287e-01 -2.805717848241329193e-02
2.712736837565898895e-02 4.203011095523834229e-01 3.228842467069625854e-02
2.188099734485149384e-02 4.197393953800201416e-01 -3.004713915288448334e-02
3.520416468381881714e-02 4.134176075458526611e-01 -2.011301741003990173e-02
3.746444731950759888e-02 4.180161654949188232e-01 -6.284195929765701294e-03
3.445839881896972656e-02 4.324858486652374268e-01 2.110442146658897400e-02
2.736156061291694641e-02 4.747912883758544922e-01 2.420832961797714233e-02
3.028132766485214233e-02 4.857777655124664307e-01 8.165323175489902496e-03
2.309302426874637604e-02 4.335314631462097168e-01 3.548558056354522705e-02
2.850840054452419281e-02 4.172921478748321533e-01 3.013461269438266754e-02
2.585924789309501648e-02 3.702297806739807129e-01 -1.729984395205974579e-02
9.598792530596256256e-03 4.140560030937194824e-01 9.630959481000900269e-03
1.550150755792856216e-02 3.693293333053588867e-01 -1.440676674246788025e-02
2.898775227367877960e-02 4.591309130191802979e-01 2.951072156429290771e-02
1.013596821576356888e-02 4.001441597938537598e-01 -5.124614574015140533e-03
9.648492559790611267e-03 3.967281281948089600e-01 -9.415803942829370499e-04
1.688845641911029816e-02 4.418587982654571533e-01 3.082199953496456146e-02
1.475096773356199265e-02 3.621312081813812256e-01 -1.003082841634750366e-03
9.529517032206058502e-03 4.031871855258941650e-01 1.241103932261466980e-02
1.764978840947151184e-02 4.364516437053680420e-01 3.294823318719863892e-02
2.625326812267303467e-02 4.618674516677856445e-01 -2.138677425682544708e-02
1.772693917155265808e-02 4.648010134696960449e-01 -2.463585929945111275e-03
1.133257243782281876e-02 3.737376630306243896e-01 4.486444871872663498e-03
1.657384447753429413e-02 4.467998147010803223e-01 2.867151424288749695e-02
2.468989789485931396e-02 4.809899032115936279e-01 -3.442930290475487709e-03
2.744836546480655670e-02 4.533042311668395996e-01 -2.548116631805896759e-02
1.051354967057704926e-02 4.036499857902526855e-01 -7.203538902103900909e-03
9.400152601301670074e-03 4.096041321754455566e-01 6.618262268602848053e-03
3.795805200934410095e-02 4.441135823726654053e-01 7.510650902986526489e-03
3.777235001325607300e-02 4.517119228839874268e-01 -1.101303566247224808e-02
3.623750433325767517e-02 4.688312411308288574e-01 -7.715101353824138641e-03
1.884260773658752441e-02 4.461077451705932617e-01 -1.963060721755027771e-02
2.738803997635841370e-02 3.860654234886169434e-01 2.006380818784236908e-02
1.432198844850063324e-02 4.488606154918670654e-01 2.063202857971191406e-02
3.846110403537750244e-02 4.495612978935241699e-01 1.146839931607246399e-03
2.834017574787139893e-02 4.826087057590484619e-01 1.689314283430576324e-02
3.852896392345428467e-02 4.452998340129852295e-01 -5.656412802636623383e-03
3.780957683920860291e-02 4.221025109291076660e-01 -2.876835176721215248e-03
3.242064267396926880e-02 4.492005407810211182e-01 2.632889524102210999e-02
2.874124981462955475e-02 4.315745234489440918e-01 3.176467120647430420e-02
2.030930109322071075e-02 4.377937912940979004e-01 -2.499843388795852661e-02
3.583375364542007446e-02 4.112890362739562988e-01 7.806878536939620972e-03
1.746699400246143341e-02 3.826989531517028809e-01 -2.340676262974739075e-02
2.927491068840026855e-02 4.024859666824340820e-01 2.463134378194808960e-02
1.321218628436326981e-02 4.276703298091888428e-01 -1.247567031532526016e-02
1.209033280611038208e-02 4.353778958320617676e-01 1.905468106269836426e-02
-2.587701380252838135e-02 -3.834450840950012207e-01 1.430144160985946655e-01
-3.676989674568176270e-02 -2.685109674930572510e-01 1.229601800441741943e-01
-1.777503266930580139e-02 -1.410904824733734131e-01 1.002546846866607666e-01
-2.322280779480934143e-02 -2.313632369041442871e-01 8.575331419706344604e-02
-2.579668909311294556e-02 -1.436613798141479492e-01 1.110769361257553101e-01
