-2.038823515176773071e-01 -6.533579826354980469e-01 -2.457837760448455811e-02
-3.478710949420928955e-01 -4.900299310684204102e-01 -2.255211025476455688e-01
-3.607632815837860107e-01 -1.820916533470153809e-01 -7.060193270444869995e-02
-3.231083154678344727e-01 -2.262214720249176025e-01 -2.279408872127532959e-01
-3.422081470489501953e-01 -2.383343577384948730e-01 -5.111224949359893799e-02
-3.458713889122009277e-01 -6.768509745597839355e-02 -1.685447394847869873e-01
-2.538079023361206055e-01 -2.962683141231536865e-01 -4.170816391706466675e-02
-3.226215839385986328e-01 -7.331331372261047363e-01 -1.972821354866027832e-02
-1.730626225471496582e-01 -8.166743516921997070e-01 -1.114695072174072266e-01
-3.663969635963439941e-01 -3.325408101081848145e-01 -3.558152914047241211e-02
-4.187870621681213379e-01 -2.508640289306640625e-01 -2.021947056055068970e-01
-4.729069471359252930e-01 -3.007876276969909668e-01 -1.495986878871917725e-01
-3.086767792701721191e-01 -7.292265295982360840e-01 -1.892420053482055664e-01
-2.444728165864944458e-01 -7.276018857955932617e-01 -1.889993846416473389e-01
-1.579456925392150879e-01 -7.082504034042358398e-01 -5.445287376642227173e-02
-1.759169250726699829e-01 -8.006795644760131836e-01 -6.862497329711914062e-02
-4.363453686237335205e-01 -1.640243530273437500e-01 -1.403731703758239746e-01
-4.465678632259368896e-01 -5.382704734802246094e-01 -5.342964828014373779e-02
-4.682222008705139160e-01 -4.918683469295501709e-01 -7.440810650587081909e-02
-4.414938092231750488e-01 -3.860197961330413818e-01 -1.950204372406005859e-01
-4.202735126018524170e-01 -3.824765682220458984e-01 -2.079561352729797363e-01
-4.255889654159545898e-01 -1.547694802284240723e-01 -1.663179248571395874e-01
-3.003375530242919922e-01 -4.375125467777252197e-01 -2.342852354049682617e-01
-3.119401633739471436e-01 -6.578423976898193359e-01 -2.061555683612823486e-01
-2.517624497413635254e-01 -5.052955746650695801e-01 -2.275363504886627197e-01
-3.289890885353088379e-01 -1.393405199050903320e-01 -8.207347244024276733e-02
-1.348736435174942017e-01 -4.315926134586334229e-01 -1.833042055368423462e-01
-3.833649456501007080e-01 -5.698660612106323242e-01 -2.140583097934722900e-02
-2.770525515079498291e-01 -1.807286143302917480e-01 -2.201795876026153564e-01
-1.132393330335617065e-01 -5.913959741592407227e-01 -1.406622976064682007e-01
-2.375009506940841675e-01 -6.988208293914794922e-01 -1.953068077564239502e-01
-4.545822143554687500e-01 -2.612479329109191895e-01 -1.728177964687347412e-01
-3.039455711841583252e-01 -1.204591989517211914e-01 -2.064609378576278687e-01
-4.280110597610473633e-01 -2.879922986030578613e-01 -6.697814166545867920e-02
-3.603087365627288818e-01 -7.886598110198974609e-01 -4.202198237180709839e-02
-4.272121489048004150e-01 -6.806643009185791016e-01 -5.559273064136505127e-02
-3.744615912437438965e-01 -2.104150354862213135e-01 -2.161207199096679688e-01
-4.586529731750488281e-01 -3.264006078243255615e-01 -8.238710463047027588e-02
-4.562027454376220703e-01 -2.386485338211059570e-01 -1.624541431665420532e-01
-4.158913195133209229e-01 -7.661994695663452148e-01 -8.511927723884582520e-02
-3.764144182205200195e-01 -8.328781127929687500e-01 -8.886555582284927368e-02
-3.879000842571258545e-01 -6.386653184890747070e-01 -2.606017142534255981e-02
-2.345399856567382812e-01 -1.053750216960906982e-01 -1.267253607511520386e-01
-3.888331651687622070e-01 -4.127077758312225342e-01 -3.044221550226211548e-02
-3.101375699043273926e-01 -5.923137068748474121e-01 -2.180782407522201538e-01
-4.054179787635803223e-01 -2.809807062149047852e-01 -5.721691250801086426e-02
-1.928479969501495361e-01 -5.826458930969238281e-01 -2.704311907291412354e-02
-2.521742284297943115e-01 -8.488491773605346680e-01 -1.422261446714401245e-01
-2.782962918281555176e-01 -5.573241710662841797e-01 -2.238595187664031982e-01
-2.381866723299026489e-01 -8.083141446113586426e-01 -3.752809762954711914e-02
-2.138087153434753418e-01 -2.369378656148910522e-01 -2.139040231704711914e-01
-4.619256258010864258e-01 -5.214988589286804199e-01 -6.758663058280944824e-02
-1.611503660678863525e-01 -7.979363799095153809e-01 -1.062855720520019531e-01
-3.514015078544616699e-01 -5.216771364212036133e-01 -2.215848118066787720e-01
-1.229463964700698853e-01 -3.601246476173400879e-01 -1.125426515936851501e-01
-2.483640760183334351e-01 -2.360088080167770386e-01 -5.763501673936843872e-02
-4.473898112773895264e-01 -4.193014204502105713e-01 -1.895157098770141602e-01
-1.507864445447921753e-01 -4.052364230155944824e-01 -6.465378403663635254e-02
-4.104453325271606445e-01 -2.692851722240447998e-01 -2.088622897863388062e-01
-4.724172353744506836e-01 -5.142818093299865723e-01 -1.508648097515106201e-01
-1.648239195346832275e-01 -5.249226689338684082e-01 -2.005285024642944336e-01
-1.709361821413040161e-01 -6.334659457206726074e-01 -3.795568645000457764e-02
-4.084477424621582031e-01 -4.331869482994079590e-01 -2.115561962127685547e-01
-4.202418923377990723e-01 -6.447830200195312500e-01 -1.719659268856048584e-01
-2.906240522861480713e-01 -8.898177146911621094e-01 -1.025672554969787598e-01
-2.515020668506622314e-01 -2.285151332616806030e-01 -2.240042090415954590e-01
-2.217144668102264404e-01 -8.424971103668212891e-01 -1.370750963687896729e-01
-3.918360471725463867e-01 -4.715752005577087402e-01 -2.652762085199356079e-02
-1.815158426761627197e-01 -1.688164770603179932e-01 -1.395986080169677734e-01
-3.940188884735107422e-01 -7.704353332519531250e-01 -5.638408660888671875e-02
-2.766974270343780518e-01 -2.983123064041137695e-01 -2.339632809162139893e-01
-3.257677555084228516e-01 -8.618407845497131348e-01 -1.241922751069068909e-01
-4.323617517948150635e-01 -1.777526736259460449e-01 -1.711947023868560791e-01
-3.633863329887390137e-01 -7.675269246101379395e-02 -1.332684755325317383e-01
-3.225879669189453125e-01 -7.868273854255676270e-01 -3.002182394266128540e-02
-4.064715206623077393e-01 -4.570051729679107666e-01 -3.271164745092391968e-02
-2.242859601974487305e-01 -4.371239542961120605e-01 -2.271812260150909424e-01
-1.140508949756622314e-01 -6.364953517913818359e-01 -1.090418547391891479e-01
-4.434771537780761719e-01 -3.405474424362182617e-01 -1.931427270174026489e-01
-3.487282395362854004e-01 -4.425833523273468018e-01 -1.878948509693145752e-02
-3.864566683769226074e-01 -5.042617917060852051e-01 -2.140028774738311768e-01
-3.037673234939575195e-01 -2.902874052524566650e-01 -2.342886924743652344e-01
-4.446293711662292480e-01 -2.820574343204498291e-01 -8.042668551206588745e-02
-3.787479996681213379e-01 -7.246063947677612305e-01 -1.712119132280349731e-01
-2.629452049732208252e-01 -8.891658782958984375e-01 -1.048566102981567383e-01
-4.567745327949523926e-01 -6.399801373481750488e-01 -1.314030587673187256e-01
-1.806723475456237793e-01 -7.550851702690124512e-01 -1.597124487161636353e-01
-3.554363250732421875e-01 -2.003622353076934814e-01 -2.196448445320129395e-01
-1.247487813234329224e-01 -6.828175187110900879e-01 -9.322036802768707275e-02
-3.981269598007202148e-01 -2.360811382532119751e-01 -6.553099304437637329e-02
-1.729687452316284180e-01 -7.139244079589843750e-01 -1.694948971271514893e-01
-2.470216304063796997e-01 -2.745643258094787598e-01 -4.801627248525619507e-02
-1.572466790676116943e-01 -5.850263833999633789e-01 -4.481247067451477051e-02
-2.603410482406616211e-01 -8.019434213638305664e-01 -3.177016228437423706e-02
-3.029206395149230957e-01 -5.157759189605712891e-01 -2.282547652721405029e-01
-1.255295574665069580e-01 -4.119000136852264404e-01 -1.713541001081466675e-01
-3.480432331562042236e-01 -2.549822330474853516e-01 -2.276687473058700562e-01
-4.388743937015533447e-01 -6.174415349960327148e-01 -1.648017764091491699e-01
-3.663381040096282959e-01 -3.310936093330383301e-01 -2.277484238147735596e-01
-2.532931566238403320e-01 -5.131571888923645020e-01 -1.389770209789276123e-02
-4.200692176818847656e-01 -3.159874677658081055e-01 -2.071870416402816772e-01
-3.623916208744049072e-01 -3.041521310806274414e-01 -3.980889916419982910e-02
-1.382396668195724487e-01 -2.891044020652770996e-01 -1.193318217992782593e-01
-1.764978319406509399e-01 -5.155202150344848633e-01 -3.642008453607559204e-02
-1.955521404743194580e-01 -5.476651191711425781e-01 -2.678924053907394409e-02
-3.399569392204284668e-01 -1.861673295497894287e-01 -6.577007472515106201e-02
-1.451093107461929321e-01 -5.339183807373046875e-01 -1.874886304140090942e-01
-1.415634900331497192e-01 -6.797263026237487793e-01 -6.448218226432800293e-02
-3.806433379650115967e-01 -4.251340925693511963e-01 -2.222533971071243286e-01
-3.191254436969757080e-01 -1.696777939796447754e-01 -6.987182796001434326e-02
-3.063886463642120361e-01 -6.060063838958740234e-01 -9.006083011627197266e-03
-2.912387251853942871e-01 -7.070592641830444336e-01 -1.964772492647171021e-01
-2.079617083072662354e-01 -1.265591084957122803e-01 -1.416785866022109985e-01
-3.097002208232879639e-01 -5.597224235534667969e-01 -9.162224829196929932e-03
-1.104767769575119019e-01 -5.763941407203674316e-01 -9.956121444702148438e-02
-1.921941041946411133e-01 -2.129866182804107666e-01 -9.064584970474243164e-02
-4.437059164047241211e-01 -6.907032132148742676e-01 -1.245723590254783630e-01
-4.085079431533813477e-01 -2.002185285091400146e-01 -1.994211673736572266e-01
-2.597894072532653809e-01 -1.733472943305969238e-01 -7.517014443874359131e-02
-3.830598592758178711e-01 -4.975391328334808350e-01 -2.249772846698760986e-02
-3.760546445846557617e-01 -5.225523710250854492e-01 -2.152490615844726562e-01
-2.212221622467041016e-01 -3.487592339515686035e-01 -3.961797803640365601e-02
-2.466592490673065186e-01 -8.251914978027343750e-01 -1.542083621025085449e-01
-4.758232831954956055e-01 -5.433233380317687988e-01 -9.392105787992477417e-02
-3.151677846908569336e-01 -3.764996230602264404e-01 -2.355349063873291016e-01
-4.770943224430084229e-01 -5.586153268814086914e-01 -1.115968525409698486e-01
-1.539045870304107666e-01 -6.439327001571655273e-01 -4.929132759571075439e-02
-1.363028138875961304e-01 -3.424074053764343262e-01 -1.754148453474044800e-01
-2.837153077125549316e-01 -4.648456275463104248e-01 -1.413421332836151123e-02
-2.041961848735809326e-01 -1.460588276386260986e-01 -1.762339770793914795e-01
-4.819936156272888184e-01 -3.596966862678527832e-01 -1.371305882930755615e-01
-1.295933276414871216e-01 -5.709721446037292480e-01 -1.694639921188354492e-01
-2.226782888174057007e-01 -8.750375509262084961e-01 -9.230743348598480225e-02
-1.341353058815002441e-01 -6.815986037254333496e-01 -1.464220583438873291e-01
-2.558973431587219238e-01 -6.822773814201354980e-01 -1.440107822418212891e-02
-1.216668337583541870e-01 -6.250067949295043945e-01 -1.475520730018615723e-01
-3.580192029476165771e-01 -7.415826320648193359e-01 -1.741027981042861938e-01
-2.692231535911560059e-01 -6.253521442413330078e-01 -1.026302576065063477e-02
-1.940810978412628174e-01 -3.314409255981445312e-01 -5.331742018461227417e-02
-2.822431921958923340e-01 -5.064301490783691406e-01 -2.294521927833557129e-01
-2.136944979429244995e-01 -6.800044775009155273e-01 -2.314659953117370605e-02
-2.870979905128479004e-01 -1.811254322528839111e-01 -6.739693880081176758e-02
-2.516488730907440186e-01 -3.176900148391723633e-01 -3.780051320791244507e-02
-4.124276041984558105e-01 -3.570826649665832520e-01 -2.120172977447509766e-01
-1.869560778141021729e-01 -2.683723270893096924e-01 -7.350099831819534302e-02
-4.522044658660888672e-01 -6.734759211540222168e-01 -9.566228836774826050e-02
-2.064761668443679810e-01 -7.979146242141723633e-01 -4.570387303829193115e-02
-4.076026976108551025e-01 -1.286949217319488525e-01 -1.720199882984161377e-01
-1.246423721313476562e-01 -5.919271707534790039e-01 -1.600808501243591309e-01
-1.102304011583328247e-01 -6.069670319557189941e-01 -1.185702905058860779e-01
-3.459594845771789551e-01 -1.413019597530364990e-01 -2.090615034103393555e-01
-2.204402387142181396e-01 -2.769141793251037598e-01 -5.525400489568710327e-02
-2.293862104415893555e-01 -1.558137834072113037e-01 -2.003691345453262329e-01
-1.244062930345535278e-01 -6.588302254676818848e-01 -1.400559246540069580e-01
-3.957397043704986572e-01 -1.047877073287963867e-01 -1.311171948909759521e-01
-2.132728695869445801e-01 -5.174756050109863281e-01 -2.233555912971496582e-02
-3.881542980670928955e-01 -1.874678134918212891e-01 -7.698599994182586670e-02
-3.444983959197998047e-01 -7.190998792648315430e-01 -1.853909492492675781e-01
-3.062356412410736084e-01 -7.951690554618835449e-01 -1.675236225128173828e-01
-3.003969788551330566e-01 -5.799278616905212402e-02 -1.516101956367492676e-01
-2.939007282257080078e-01 -2.147752642631530762e-01 -5.628515779972076416e-02
-3.684900999069213867e-01 -4.743609130382537842e-01 -2.002444863319396973e-02
-3.852629363536834717e-01 -8.164937496185302734e-01 -7.917369157075881958e-02
-4.828677177429199219e-01 -4.539764523506164551e-01 -1.387616991996765137e-01
-4.353102147579193115e-01 -2.131518125534057617e-01 -9.637227654457092285e-02
-4.129700958728790283e-01 -6.706163883209228516e-01 -4.242850095033645630e-02
-4.797202944755554199e-01 -5.309728980064392090e-01 -1.247930601239204407e-01
-3.620226979255676270e-01 -7.184465527534484863e-01 -2.636165916919708252e-02
-4.564443230628967285e-01 -4.612600505352020264e-01 -6.231402978301048279e-02
-4.834833145141601562e-01 -4.321793317794799805e-01 -1.390178203582763672e-01
-1.747142970561981201e-01 -6.735267639160156250e-01 -3.868733346462249756e-02
-4.594981670379638672e-01 -4.532816112041473389e-01 -1.764526516199111938e-01
-2.840709090232849121e-01 -5.280815958976745605e-01 -2.273316234350204468e-01
-1.686698794364929199e-01 -3.907171189785003662e-01 -5.509141832590103149e-02
-2.402525544166564941e-01 -3.688887357711791992e-01 -3.125882148742675781e-02
-1.996594220399856567e-01 -3.980190753936767578e-01 -2.209275364875793457e-01
-4.382784068584442139e-01 -5.707815289497375488e-01 -1.769224554300308228e-01
-4.068670570850372314e-01 -3.278137445449829102e-01 -4.843953251838684082e-02
-3.634347319602966309e-01 -6.626718044281005859e-01 -2.002716809511184692e-02
-3.720508217811584473e-01 -6.730851531028747559e-01 -1.892196983098983765e-01
-2.397282272577285767e-01 -6.643786430358886719e-01 -1.577915996313095093e-02
-2.827103137969970703e-01 -2.377671748399734497e-01 -5.103199183940887451e-02
-3.802345395088195801e-01 -8.051209449768066406e-01 -6.222398951649665833e-02
-2.181712090969085693e-01 -2.772268652915954590e-01 -2.210466265678405762e-01
-4.182434082031250000e-01 -3.777901232242584229e-01 -4.565262794494628906e-02
-2.272872179746627808e-01 -1.360819637775421143e-01 -1.907362788915634155e-01
-1.484193801879882812e-01 -6.161655187606811523e-01 -5.169234424829483032e-02
-3.134690523147583008e-01 -4.739633798599243164e-01 -1.312199980020523071e-02
-1.562489420175552368e-01 -4.700581133365631104e-01 -5.155448615550994873e-02
-4.150428473949432373e-01 -4.550277590751647949e-01 -2.069782316684722900e-01
-2.682238519191741943e-01 -7.975952625274658203e-01 -1.684409528970718384e-01
-1.749003827571868896e-01 -4.353372454643249512e-01 -4.485866427421569824e-02
-3.813992142677307129e-01 -8.464956283569335938e-02 -1.475060284137725830e-01
-4.758747220039367676e-01 -3.388718366622924805e-01 -1.051456779241561890e-01
-2.034621685743331909e-01 -4.428789317607879639e-01 -2.213944643735885620e-01
-2.579639852046966553e-01 -7.557547092437744141e-01 -2.257368713617324829e-02
-2.213023602962493896e-01 -7.638450264930725098e-01 -3.171066939830780029e-02
-3.372249305248260498e-01 -8.684880733489990234e-01 -1.056980416178703308e-01
-3.265998959541320801e-01 -1.149266958236694336e-01 -9.334543347358703613e-02
-4.520682692527770996e-01 -5.437135696411132812e-01 -1.704654395580291748e-01
-1.519340127706527710e-01 -7.744833827018737793e-01 -9.013064950704574585e-02
-4.582786560058593750e-01 -6.532945036888122559e-01 -1.114161461591720581e-01
-3.044896125793457031e-01 -1.382658183574676514e-01 -8.227327466011047363e-02
-3.931236267089843750e-01 -3.727041184902191162e-01 -2.198682129383087158e-01
-2.889193594455718994e-01 -7.652145624160766602e-01 -2.242451906204223633e-02
-4.186331033706665039e-01 -6.498202085494995117e-01 -4.289647936820983887e-02
-2.650028169155120850e-01 -8.761423230171203613e-01 -1.233460083603858948e-01
-1.444401890039443970e-01 -3.191108107566833496e-01 -9.297775477170944214e-02
-2.570712566375732422e-01 -7.766094803810119629e-02 -1.619158685207366943e-01
-2.604118287563323975e-01 -7.504416108131408691e-01 -1.841517835855484009e-01
-2.625568211078643799e-01 -2.526361048221588135e-01 -2.288797795772552490e-01
-2.567411065101623535e-01 -2.860304117202758789e-01 -2.309564650058746338e-01
-1.518325656652450562e-01 -3.630930185317993164e-01 -7.259455323219299316e-02
-3.343802988529205322e-01 -8.726255893707275391e-01 -8.537252247333526611e-02
-3.164791166782379150e-01 -2.490133196115493774e-01 -4.674771428108215332e-02
-3.248236477375030518e-01 -1.540797352790832520e-01 -2.154124081134796143e-01
-2.983666956424713135e-01 -8.116811513900756836e-02 -1.156807467341423035e-01
-3.788675367832183838e-01 -7.806575298309326172e-01 -1.474429816007614136e-01
-1.061253398656845093e-01 -5.276937484741210938e-01 -1.299021691083908081e-01
-2.384782582521438599e-01 -1.772112548351287842e-01 -8.042782545089721680e-02
-4.312516450881958008e-01 -4.951248168945312500e-01 -4.280593246221542358e-02
-1.175317913293838501e-01 -6.020318269729614258e-01 -8.594571053981781006e-02
-3.592963516712188721e-01 -2.056705355644226074e-01 -6.276039779186248779e-02
-3.602402806282043457e-01 -3.908196687698364258e-01 -2.606668323278427124e-02
-4.786882996559143066e-01 -4.686306715011596680e-01 -9.134396910667419434e-02
-3.781952559947967529e-01 -2.396510690450668335e-01 -2.188100218772888184e-01
-2.831796407699584961e-01 -3.423647880554199219e-01 -2.358775734901428223e-01
-3.098527789115905762e-01 -6.796647310256958008e-01 -1.255039870738983154e-02
-1.578229069709777832e-01 -5.706222057342529297e-01 -1.914634108543395996e-01
-4.614434242248535156e-01 -4.796539843082427979e-01 -1.715229600667953491e-01
-3.063074648380279541e-01 -5.232768654823303223e-01 -1.012369990348815918e-02
-2.257404029369354248e-01 -5.180578231811523438e-01 -2.222372442483901978e-01
-3.910525143146514893e-01 -3.852711319923400879e-01 -3.425934910774230957e-02
-1.200005114078521729e-01 -5.058472752571105957e-01 -8.166813850402832031e-02
-2.195132374763488770e-01 -6.108906269073486328e-01 -1.849534362554550171e-02
-3.604728579521179199e-01 -5.881056189537048340e-01 -2.102866768836975098e-01
-2.849557101726531982e-01 -4.224393963813781738e-01 -1.810425519943237305e-02
-3.030144274234771729e-01 -8.839231729507446289e-01 -7.531163096427917480e-02
-1.770517677068710327e-01 -1.946471035480499268e-01 -1.168896555900573730e-01
-1.486577987670898438e-01 -7.458618879318237305e-01 -7.553769648075103760e-02
-2.844649255275726318e-01 -7.239899039268493652e-02 -1.766438186168670654e-01
-4.088527262210845947e-01 -3.576077520847320557e-01 -4.439955204725265503e-02
-1.660116016864776611e-01 -5.466814637184143066e-01 -1.989301741123199463e-01
-3.397987782955169678e-01 -5.305251479148864746e-01 -1.236847788095474243e-02
-3.952203989028930664e-01 -8.065946102142333984e-01 -1.011606082320213318e-01
-4.228418469429016113e-01 -6.846678256988525391e-01 -1.565865278244018555e-01
-3.741340041160583496e-01 -3.595784306526184082e-01 -2.259536087512969971e-01
-3.256851136684417725e-01 -4.241721630096435547e-01 -1.808298379182815552e-02
-4.189205765724182129e-01 -1.957337856292724609e-01 -9.018389135599136353e-02
-2.585934996604919434e-01 -3.111928105354309082e-01 -2.327353954315185547e-01
-4.415025115013122559e-01 -4.718158841133117676e-01 -5.012416839599609375e-02
-2.469660937786102295e-01 -6.412857770919799805e-01 -1.344176381826400757e-02
-4.015175998210906982e-01 -7.447644472122192383e-01 -5.251723527908325195e-02
-4.364724755287170410e-01 -3.304901123046875000e-01 -6.319616734981536865e-02
-1.988137513399124146e-01 -6.992137432098388672e-01 -1.854082643985748291e-01
-2.577703297138214111e-01 -6.062693595886230469e-01 -1.111728698015213013e-02
-3.363358676433563232e-01 -3.799893558025360107e-01 -2.410057187080383301e-02
-2.418954968452453613e-01 -1.460773646831512451e-01 -9.306617826223373413e-02
-1.421007663011550903e-01 -7.528104782104492188e-01 -1.113431453704833984e-01
-1.946644186973571777e-01 -8.269266486167907715e-01 -6.559370458126068115e-02
-4.728237986564636230e-01 -3.929054141044616699e-01 -1.633329689502716064e-01
-4.155846834182739258e-01 -6.217126846313476562e-01 -3.770425915718078613e-02
-2.510736584663391113e-01 -6.823515892028808594e-01 -2.009336054325103760e-01
-3.586570024490356445e-01 -4.289413988590240479e-01 -2.277457416057586670e-01
-1.533294469118118286e-01 -4.173726439476013184e-01 -1.981245875358581543e-01
-4.517456293106079102e-01 -5.219852924346923828e-01 -1.748123914003372192e-01
-3.364989161491394043e-01 -2.604118287563323975e-01 -4.521295428276062012e-02
-3.059201836585998535e-01 -3.665919303894042969e-01 -2.448648214340209961e-02
-2.645899951457977295e-01 -1.436473429203033447e-01 -8.624505996704101562e-02
-1.353053152561187744e-01 -6.578528285026550293e-01 -6.777542829513549805e-02
-1.598983407020568848e-01 -3.169188499450683594e-01 -7.813345640897750854e-02
-2.358443588018417358e-01 -5.511483550071716309e-01 -1.529187709093093872e-02
-3.345563113689422607e-01 -4.135793447494506836e-01 -2.326464056968688965e-01
-4.851567149162292480e-01 -4.024643898010253906e-01 -1.277110725641250610e-01
-3.707314133644104004e-01 -5.204911828041076660e-01 -1.838508993387222290e-02
-4.141368269920349121e-01 -4.816586971282958984e-01 -3.451786190271377563e-02
-2.682112753391265869e-01 -3.886447548866271973e-01 -2.350346744060516357e-01
-2.377928197383880615e-01 -1.874929368495941162e-01 -2.129090726375579834e-01
-2.290529012680053711e-01 -4.747997820377349854e-01 -2.117676287889480591e-02
-3.124621808528900146e-01 -1.916228234767913818e-01 -2.236635982990264893e-01
-2.045673727989196777e-01 -3.041438460350036621e-01 -5.481225997209548950e-02
-4.025010168552398682e-01 -4.294412136077880859e-01 -3.338520973920822144e-02
-4.658386409282684326e-01 -5.644204616546630859e-01 -1.481781601905822754e-01
-4.674187600612640381e-01 -2.721151709556579590e-01 -1.522559225559234619e-01
-4.326371252536773682e-01 -7.294972538948059082e-01 -8.952683210372924805e-02
-4.731723666191101074e-01 -5.800385475158691406e-01 -1.206983104348182678e-01
-4.047919511795043945e-01 -2.217967510223388672e-01 -2.055888026952743530e-01
-3.450305461883544922e-01 -8.454324007034301758e-01 -1.272983998060226440e-01
-3.688648045063018799e-01 -1.803891658782958984e-01 -2.125437855720520020e-01
-1.599500775337219238e-01 -3.432632088661193848e-01 -7.092161476612091064e-02
-1.129216402769088745e-01 -4.063714742660522461e-01 -1.217545196413993835e-01
-1.875452101230621338e-01 -7.884361743927001953e-01 -5.337229371070861816e-02
-4.102402925491333008e-01 -7.155241966247558594e-01 -5.031378567218780518e-02
-4.435749053955078125e-01 -6.188762784004211426e-01 -5.842021852731704712e-02
-3.088454902172088623e-01 -5.695449709892272949e-01 -2.214969396591186523e-01
-3.837547898292541504e-01 -9.941059350967407227e-02 -1.738546341657638550e-01
-2.160632014274597168e-01 -2.124424874782562256e-01 -7.657206058502197266e-02
-1.621706038713455200e-01 -7.471425533294677734e-01 -1.495762020349502563e-01
-4.179304242134094238e-01 -7.516112327575683594e-01 -1.248877793550491333e-01
-4.839028120040893555e-01 -3.827065825462341309e-01 -1.182283237576484680e-01
-4.251880049705505371e-01 -5.148023366928100586e-01 -1.952540874481201172e-01
-1.730689853429794312e-01 -5.498237013816833496e-01 -3.644955158233642578e-02
-4.239421188831329346e-01 -7.234990596771240234e-01 -6.694217026233673096e-02
-2.976505458354949951e-01 -8.339892029762268066e-01 -1.510060727596282959e-01
-3.291638493537902832e-01 -2.894401550292968750e-01 -3.840374201536178589e-02
-4.222614169120788574e-01 -5.476478338241577148e-01 -1.920483112335205078e-01
-4.498649239540100098e-01 -6.641707420349121094e-01 -1.308928728103637695e-01
-4.447682201862335205e-01 -5.603812336921691895e-01 -5.302298069000244141e-02
-1.696860492229461670e-01 -4.987765848636627197e-01 -2.051237970590591431e-01
-2.780363857746124268e-01 -1.247492134571075439e-01 -9.202566742897033691e-02
-3.983657062053680420e-01 -1.693837046623229980e-01 -1.975072920322418213e-01
-1.930652856826782227e-01 -5.148456692695617676e-01 -2.135846614837646484e-01
-3.500401079654693604e-01 -7.011474967002868652e-01 -2.060621231794357300e-02
-4.015375971794128418e-01 -6.659134626388549805e-01 -1.777327060699462891e-01
-4.018460512161254883e-01 -3.309781551361083984e-01 -2.163126468658447266e-01
-2.760031223297119141e-01 -6.567053794860839844e-01 -2.078790813684463501e-01
-1.794682592153549194e-01 -6.522607207298278809e-01 -1.885320544242858887e-01
-3.125360608100891113e-01 -4.839934408664703369e-01 -2.305913865566253662e-01
-2.262616455554962158e-01 -1.031432747840881348e-01 -1.540840119123458862e-01
-2.661229968070983887e-01 -7.150563597679138184e-01 -1.625897735357284546e-02
-3.576310873031616211e-01 -4.113950431346893311e-01 -2.324756234884262085e-02
-4.766389131546020508e-01 -3.191332817077636719e-01 -1.165444105863571167e-01
-1.963290572166442871e-01 -3.371663689613342285e-01 -2.179231643676757812e-01
-2.793359756469726562e-01 -4.881649613380432129e-01 -1.266191899776458740e-02
-2.203798294067382812e-01 -1.204693913459777832e-01 -1.738957762718200684e-01
-2.989585995674133301e-01 -8.300371170043945312e-01 -3.952073305845260620e-02
-2.235505282878875732e-01 -2.545867264270782471e-01 -6.005782634019851685e-02
-3.359037935733795166e-01 -6.484975218772888184e-01 -2.046024352312088013e-01
-2.471702545881271362e-01 -9.466582536697387695e-02 -1.763650178909301758e-01
-1.955158710479736328e-01 -2.101822793483734131e-01 -1.983322501182556152e-01
-2.194599956274032593e-01 -7.584835290908813477e-01 -1.746647208929061890e-01
-2.401063144207000732e-01 -8.664734363555908203e-01 -1.261909157037734985e-01
-3.897891938686370850e-01 -6.606813073158264160e-01 -2.891593426465988159e-02
-2.735478281974792480e-01 -3.324949741363525391e-01 -3.172040730714797974e-02
-4.214038550853729248e-01 -5.895105004310607910e-01 -1.847701370716094971e-01
-3.400628566741943359e-01 -8.095186948776245117e-02 -1.173039898276329041e-01
-2.152403295040130615e-01 -1.419247686862945557e-01 -1.122368872165679932e-01
-3.020131886005401611e-01 -3.929018676280975342e-01 -2.097168564796447754e-02
-2.838649749755859375e-01 -8.191469311714172363e-01 -1.594093292951583862e-01
-3.781390190124511719e-01 -1.274715065956115723e-01 -1.938448250293731689e-01
-4.582419395446777344e-01 -2.426453232765197754e-01 -1.130281910300254822e-01
-3.390253186225891113e-01 -8.111280202865600586e-01 -1.523407846689224243e-01
-3.603893518447875977e-01 -5.007653236389160156e-01 -1.687727123498916626e-02
-2.110544741153717041e-01 -4.733352065086364746e-01 -2.221589386463165283e-01
-1.951777487993240356e-01 -7.119899988174438477e-01 -3.304190933704376221e-02
-4.676815867424011230e-01 -3.188362419605255127e-01 -1.655945628881454468e-01
-3.494334518909454346e-01 -1.675579249858856201e-01 -2.148339450359344482e-01
-1.206247508525848389e-01 -4.045138955116271973e-01 -9.935266524553298950e-02
-3.787480294704437256e-01 -5.650218129158020020e-01 -2.085917592048645020e-01
-4.636027812957763672e-01 -3.834341168403625488e-01 -7.677870243787765503e-02
-2.964544594287872314e-01 -7.209222316741943359e-01 -1.598998159170150757e-02
-2.514846324920654297e-01 -3.459389209747314453e-01 -2.329493761062622070e-01
-4.032763540744781494e-01 -5.965595245361328125e-01 -1.932735741138458252e-01
-4.652308821678161621e-01 -2.494535744190216064e-01 -1.334056556224822998e-01
-3.233435153961181641e-01 -5.052099227905273438e-01 -2.277130484580993652e-01
-2.660547196865081787e-01 -2.115057408809661865e-01 -6.086698547005653381e-02
-1.936402022838592529e-01 -6.148651838302612305e-01 -2.692133933305740356e-02
-3.862183690071105957e-01 -2.589807510375976562e-01 -2.181165963411331177e-01
-1.069772690534591675e-01 -5.332111716270446777e-01 -1.091827750205993652e-01
-3.888169229030609131e-01 -6.226923465728759766e-01 -1.944090425968170166e-01
-3.008219599723815918e-01 -3.245443105697631836e-01 -3.123522549867630005e-02
-4.385215044021606445e-01 -7.045489549636840820e-01 -8.085887134075164795e-02
-2.817705869674682617e-01 -2.692852616310119629e-01 -2.323837876319885254e-01
-1.824458837509155273e-01 -6.101344227790832520e-01 -1.977116465568542480e-01
-1.396603286266326904e-01 -7.319303750991821289e-01 -1.284346878528594971e-01
-4.003478884696960449e-01 -1.058942675590515137e-01 -1.562468707561492920e-01
-3.824304938316345215e-01 -2.200515568256378174e-01 -6.446802616119384766e-02
-1.285354942083358765e-01 -3.905812501907348633e-01 -1.730991899967193604e-01
-2.235504090785980225e-01 -3.295755982398986816e-01 -2.266174703836441040e-01
-2.430678009986877441e-01 -7.351090908050537109e-01 -2.179411053657531738e-02
-3.458009660243988037e-01 -1.251730918884277344e-01 -9.063020348548889160e-02
-3.344416618347167969e-01 -5.809476971626281738e-01 -2.168608903884887695e-01
-2.005444020032882690e-01 -8.501200675964355469e-01 -1.137455478310585022e-01
-3.120246529579162598e-01 -8.523273468017578125e-01 -5.142886191606521606e-02
-2.978491783142089844e-01 -3.626108765602111816e-01 -2.362773269414901733e-01
-3.361374139785766602e-01 -5.450714826583862305e-01 -2.215607464313507080e-01
-2.276259064674377441e-01 -8.081122636795043945e-01 -1.578349173069000244e-01
-2.819371223449707031e-01 -6.297072172164916992e-01 -2.130228579044342041e-01
-2.148107588291168213e-01 -7.203423976898193359e-01 -1.848741769790649414e-01
-2.719859182834625244e-01 -6.965537071228027344e-01 -1.991334259510040283e-01
-1.566617339849472046e-01 -4.595740139484405518e-01 -1.999599635601043701e-01
-2.195041626691818237e-01 -1.989833414554595947e-01 -2.085595726966857910e-01
-1.387381255626678467e-01 -6.055659055709838867e-01 -1.722059100866317749e-01
-1.783190965652465820e-01 -2.820032536983489990e-01 -2.030021846294403076e-01
-3.623400032520294189e-01 -8.550792932510375977e-02 -1.781928241252899170e-01
-4.656272232532501221e-01 -5.758429765701293945e-01 -7.909609377384185791e-02
-1.952269971370697021e-01 -5.783510804176330566e-01 -2.072605043649673462e-01
-4.503209888935089111e-01 -3.655575215816497803e-01 -6.708794832229614258e-02
-1.882738173007965088e-01 -2.563244104385375977e-01 -2.046518176794052124e-01
-4.665488004684448242e-01 -6.072481274604797363e-01 -9.246677160263061523e-02
-1.179494261741638184e-01 -4.464247822761535645e-01 -9.337580949068069458e-02
-2.685278952121734619e-01 -8.240298032760620117e-01 -3.729241341352462769e-02
-4.307028055191040039e-01 -7.247528433799743652e-01 -1.241441369056701660e-01
-3.753984868526458740e-01 -1.212224662303924561e-01 -1.016723960638046265e-01
-1.894548535346984863e-01 -7.970504760742187500e-01 -1.461709886789321899e-01
-3.304744362831115723e-01 -5.022321343421936035e-01 -1.248318701982498169e-02
-4.033329486846923828e-01 -5.554492473602294922e-01 -2.005346715450286865e-01
-3.777979612350463867e-01 -2.998142242431640625e-01 -2.236523330211639404e-01
-1.777044236660003662e-01 -2.172833085060119629e-01 -1.860940456390380859e-01
-1.342224180698394775e-01 -3.134610652923583984e-01 -1.628573685884475708e-01
-2.479983121156692505e-01 -5.694854259490966797e-01 -2.201309502124786377e-01
-4.351328015327453613e-01 -2.422564774751663208e-01 -8.487421274185180664e-02
-3.878706395626068115e-01 -1.552761197090148926e-01 -8.982141315937042236e-02
-2.727289497852325439e-01 -8.690323829650878906e-01 -5.739742517471313477e-02
-3.280184566974639893e-01 -5.776375532150268555e-02 -1.530758291482925415e-01
-3.843776583671569824e-01 -5.981317162513732910e-01 -2.242799103260040283e-02
-3.468686342239379883e-01 -3.103554546833038330e-01 -2.311914563179016113e-01
-2.385588288307189941e-01 -4.450386464595794678e-01 -2.183590084314346313e-02
-2.565870583057403564e-01 -4.139322340488433838e-01 -2.333756089210510254e-01
-3.119466304779052734e-01 -6.282221078872680664e-01 -2.118996977806091309e-01
-3.719804286956787109e-01 -4.786581695079803467e-01 -2.209925651550292969e-01
-3.804055452346801758e-01 -7.510310411453247070e-01 -1.603663116693496704e-01
-1.923632323741912842e-01 -3.815283179283142090e-01 -4.456592351198196411e-02
-1.168114244937896729e-01 -4.861700534820556641e-01 -8.864530920982360840e-02
-1.237417310476303101e-01 -6.884865164756774902e-01 -1.167976409196853638e-01
-2.978565990924835205e-01 -1.097566187381744385e-01 -9.666292369365692139e-02
-4.825035333633422852e-01 -4.959089159965515137e-01 -1.057759523391723633e-01
-1.347841769456863403e-01 -4.890262782573699951e-01 -1.825311630964279175e-01
-2.217817008495330811e-01 -7.016316056251525879e-01 -2.273322641849517822e-02
-4.475944638252258301e-01 -3.166394829750061035e-01 -1.884408295154571533e-01
-1.144138127565383911e-01 -4.174708425998687744e-01 -1.508225798606872559e-01
-2.848125994205474854e-01 -5.830003023147583008e-01 -8.908115327358245850e-03
-1.884723156690597534e-01 -4.171442985534667969e-01 -2.166609466075897217e-01
-2.229863703250885010e-01 -5.803004503250122070e-01 -1.757701486349105835e-02
-1.192296743392944336e-01 -5.678386688232421875e-01 -8.069220185279846191e-02
-3.534518778324127197e-01 -6.406559944152832031e-01 -1.597769558429718018e-02
-4.470763504505157471e-01 -1.935131251811981201e-01 -1.289999336004257202e-01
-3.794876635074615479e-01 -7.620490193367004395e-01 -4.329644888639450073e-02
-1.473814994096755981e-01 -6.282331943511962891e-01 -1.747007817029953003e-01
-2.039939016103744507e-01 -8.567658662796020508e-01 -8.410742878913879395e-02
-3.175920546054840088e-01 -7.351365685462951660e-02 -1.823685914278030396e-01
-3.141933977603912354e-01 6.259652972221374512e-01 -3.240610063076019287e-01
-2.915969491004943848e-01 6.218166351318359375e-01 -3.513244092464447021e-01
-3.157165050506591797e-01 6.274502873420715332e-01 -3.210471272468566895e-01
-3.400448262691497803e-01 6.260150074958801270e-01 -3.026079535484313965e-01
-3.280867040157318115e-01 6.310216188430786133e-01 -3.064168393611907959e-01
-3.160638511180877686e-01 6.161420941352844238e-01 -3.366728127002716064e-01
-3.082442283630371094e-01 6.278282999992370605e-01 -3.356106877326965332e-01
-2.991271913051605225e-01 6.248176097869873047e-01 -3.398509025573730469e-01
-3.454813659191131592e-01 6.301857829093933105e-01 -2.964272201061248779e-01
-3.225779235363006592e-01 6.368693113327026367e-01 -3.091971576213836670e-01
-3.081757128238677979e-01 6.347504258155822754e-01 -3.246249258518218994e-01
-3.176189363002777100e-01 6.267217993736267090e-01 -3.201039433479309082e-01
-3.098834455013275146e-01 6.348769068717956543e-01 -3.234327733516693115e-01
-3.393950760364532471e-01 6.316952705383300781e-01 -3.017452359199523926e-01
-3.283701837062835693e-01 6.299243569374084473e-01 -3.149911463260650635e-01
-3.064375519752502441e-01 6.175056695938110352e-01 -3.422837853431701660e-01
-3.285145461559295654e-01 6.354321241378784180e-01 -3.070802390575408936e-01
-3.068254590034484863e-01 6.326241493225097656e-01 -3.251335024833679199e-01
-3.038415312767028809e-01 6.217925548553466797e-01 -3.387055099010467529e-01
-3.036579191684722900e-01 6.312893033027648926e-01 -3.345077037811279297e-01
-3.169557452201843262e-01 6.176556944847106934e-01 -3.375369310379028320e-01
-3.460211753845214844e-01 6.286885738372802734e-01 -2.960881590843200684e-01
-3.086221218109130859e-01 6.289249062538146973e-01 -3.339051604270935059e-01
-3.238845467567443848e-01 6.297537088394165039e-01 -3.113192915916442871e-01
-3.226930499076843262e-01 6.258529424667358398e-01 -3.165935277938842773e-01
-3.070868551731109619e-01 6.210132837295532227e-01 -3.366183042526245117e-01
-3.206235468387603760e-01 6.188582777976989746e-01 -3.277648091316223145e-01
-2.936393320560455322e-01 6.265486478805541992e-01 -3.440582752227783203e-01
-3.018106818199157715e-01 6.316482424736022949e-01 -3.352050185203552246e-01
-3.300104141235351562e-01 6.241130828857421875e-01 -3.196857869625091553e-01
-3.267741203308105469e-01 6.316556334495544434e-01 -3.069595098495483398e-01
-3.343417346477508545e-01 6.249771118164062500e-01 -3.144441545009613037e-01
-3.306469619274139404e-01 6.345791220664978027e-01 -3.064619898796081543e-01
-3.265782892704010010e-01 6.336732506752014160e-01 -3.116664886474609375e-01
-3.118937909603118896e-01 6.331126093864440918e-01 -3.252664506435394287e-01
-3.243970870971679688e-01 6.337937712669372559e-01 -3.072792291641235352e-01
-3.072607219219207764e-01 6.250163316726684570e-01 -3.397590517997741699e-01
-3.060752749443054199e-01 6.157060265541076660e-01 -3.460925817489624023e-01
-2.933977544307708740e-01 6.247715353965759277e-01 -3.509626090526580811e-01
-3.239926993846893311e-01 6.192120313644409180e-01 -3.296263813972473145e-01
-3.083408772945404053e-01 6.153572797775268555e-01 -3.456072211265563965e-01
-3.290110230445861816e-01 6.310860514640808105e-01 -3.129253983497619629e-01
-3.188777565956115723e-01 6.337159872055053711e-01 -3.124205470085144043e-01
-3.309472203254699707e-01 6.276714801788330078e-01 -3.151192665100097656e-01
-3.035629391670227051e-01 6.277667880058288574e-01 -3.323597311973571777e-01
-3.441283404827117920e-01 6.283606290817260742e-01 -3.002145886421203613e-01
-2.951117455959320068e-01 6.194649934768676758e-01 -3.505530357360839844e-01
-3.166953325271606445e-01 6.348921060562133789e-01 -3.183815181255340576e-01
-3.213052153587341309e-01 6.257582902908325195e-01 -3.264215588569641113e-01
-3.133026957511901855e-01 6.207963228225708008e-01 -3.386895656585693359e-01
-3.128653466701507568e-01 6.249369382858276367e-01 -3.349756300449371338e-01
-3.391682803630828857e-01 6.308284997940063477e-01 -3.030882477760314941e-01
-3.191944658756256104e-01 6.274088621139526367e-01 -3.265189528465270996e-01
-3.018779158592224121e-01 6.176302433013916016e-01 -3.464253544807434082e-01
-3.020311892032623291e-01 6.305583715438842773e-01 -3.315780460834503174e-01
-3.019205629825592041e-01 6.188856363296508789e-01 -3.444662392139434814e-01
-2.926738262176513672e-01 6.258007884025573730e-01 -3.458460569381713867e-01
-3.349333703517913818e-01 6.276099681854248047e-01 -3.111901879310607910e-01
-2.889132797718048096e-01 6.215969920158386230e-01 -3.572305142879486084e-01
-2.922038435935974121e-01 6.282179951667785645e-01 -3.448892533779144287e-01
-3.067349791526794434e-01 6.273401975631713867e-01 -3.296437561511993408e-01
-3.311826884746551514e-01 6.230626106262207031e-01 -3.131002783775329590e-01
-3.192495405673980713e-01 6.221096515655517578e-01 -3.319975137710571289e-01
-3.102633655071258545e-01 6.161649823188781738e-01 -3.412763476371765137e-01
-2.984153926372528076e-01 6.297600269317626953e-01 -3.361263275146484375e-01
-3.089258968830108643e-01 6.263365745544433594e-01 -3.285790383815765381e-01
-3.046216368675231934e-01 6.264365911483764648e-01 -3.326369822025299072e-01
-3.361358642578125000e-01 6.262443661689758301e-01 -3.113511204719543457e-01
-3.080513179302215576e-01 6.167500615119934082e-01 -3.420992791652679443e-01
-3.447319865226745605e-01 6.318297982215881348e-01 -2.953233718872070312e-01
-3.215104639530181885e-01 6.355947852134704590e-01 -3.130759596824645996e-01
-3.122321963310241699e-01 6.224217414855957031e-01 -3.381406366825103760e-01
-2.903069257736206055e-01 6.213153004646301270e-01 -3.534845709800720215e-01
-3.219848871231079102e-01 6.178556084632873535e-01 -3.284611999988555908e-01
-3.125817477703094482e-01 6.262163519859313965e-01 -3.252717554569244385e-01
-2.994054257869720459e-01 6.250674724578857422e-01 -3.461494445800781250e-01
-2.961682379245758057e-01 6.252484321594238281e-01 -3.484041690826416016e-01
-3.124767839908599854e-01 6.273668408393859863e-01 -3.241367936134338379e-01
-3.363480269908905029e-01 6.272684931755065918e-01 -3.100906312465667725e-01
-3.308941721916198730e-01 6.368378400802612305e-01 -3.017987012863159180e-01
-3.122376501560211182e-01 6.155264973640441895e-01 -3.419470489025115967e-01
-3.094504475593566895e-01 6.331173777580261230e-01 -3.220979869365692139e-01
-3.034790754318237305e-01 6.328272819519042969e-01 -3.319142162799835205e-01
-2.947820425033569336e-01 6.263188719749450684e-01 -3.480406999588012695e-01
-3.233967125415802002e-01 6.308390498161315918e-01 -3.184906840324401855e-01
-2.906034886837005615e-01 6.234614849090576172e-01 -3.506098389625549316e-01
-3.405731320381164551e-01 6.268211603164672852e-01 -3.011895418167114258e-01
-3.239599466323852539e-01 6.296874284744262695e-01 -3.194258809089660645e-01
-3.243964612483978271e-01 6.214699149131774902e-01 -3.207461833953857422e-01
-3.182924687862396240e-01 6.321414113044738770e-01 -3.141784965991973877e-01
-3.404417037963867188e-01 6.327742338180541992e-01 -2.991435825824737549e-01
-3.043738901615142822e-01 6.160849928855895996e-01 -3.468163907527923584e-01
-3.432959914207458496e-01 6.323825120925903320e-01 -2.963939905166625977e-01
-3.279695808887481689e-01 6.247484683990478516e-01 -3.211035132408142090e-01
-3.354173898696899414e-01 6.268998980522155762e-01 -3.048443198204040527e-01
-3.012559413909912109e-01 6.247946023941040039e-01 -3.449932336807250977e-01
-3.191734552383422852e-01 6.315488815307617188e-01 -3.213569521903991699e-01
-3.157049417495727539e-01 6.259775161743164062e-01 -3.226659595966339111e-01
-2.896001935005187988e-01 6.232171058654785156e-01 -3.551759123802185059e-01
-3.371811807155609131e-01 6.352932453155517578e-01 -2.986559271812438965e-01
-2.962539494037628174e-01 6.274284720420837402e-01 -3.455220162868499756e-01
-3.350540399551391602e-01 6.234686374664306641e-01 -3.096347153186798096e-01
-3.120788037776947021e-01 6.288014650344848633e-01 -3.230581581592559814e-01
-2.946206033229827881e-01 6.231843233108520508e-01 -3.519410490989685059e-01
-3.111531734466552734e-01 6.315314769744873047e-01 -3.282560408115386963e-01
-3.148628473281860352e-01 6.212339997291564941e-01 -3.368720710277557373e-01
-3.386603593826293945e-01 6.284077763557434082e-01 -3.006117641925811768e-01
-3.372422754764556885e-01 6.319603919982910156e-01 -2.980028390884399414e-01
-3.404690623283386230e-01 6.290463209152221680e-01 -3.037784099578857422e-01
-3.214496076107025146e-01 6.277794837951660156e-01 -3.155252635478973389e-01
-3.045057654380798340e-01 6.301809549331665039e-01 -3.355288207530975342e-01
-3.386157751083374023e-01 6.343132257461547852e-01 -2.988049089908599854e-01
-3.260204792022705078e-01 6.316280364990234375e-01 -3.150354325771331787e-01
-3.191378712654113770e-01 6.257918477058410645e-01 -3.197890520095825195e-01
-2.975291013717651367e-01 6.209784150123596191e-01 -3.459920287132263184e-01
-3.206268250942230225e-01 6.252173185348510742e-01 -3.191426098346710205e-01
-2.920237481594085693e-01 6.228748559951782227e-01 -3.495882451534271240e-01
-3.100789785385131836e-01 6.154720783233642578e-01 -3.443077802658081055e-01
-3.267523944377899170e-01 6.229254007339477539e-01 -3.168135285377502441e-01
-3.402788937091827393e-01 6.237238645553588867e-01 -3.059827685356140137e-01
-3.071987330913543701e-01 6.199238896369934082e-01 -3.379772007465362549e-01
-2.991634905338287354e-01 6.191875934600830078e-01 -3.522882163524627686e-01
-3.115362226963043213e-01 6.278215050697326660e-01 -3.328164815902709961e-01
-3.190446496009826660e-01 6.264255642890930176e-01 -3.277735114097595215e-01
-3.060832321643829346e-01 6.294182538986206055e-01 -3.353376090526580811e-01
-3.251255154609680176e-01 6.228558421134948730e-01 -3.182463347911834717e-01
-3.363396227359771729e-01 6.209565401077270508e-01 -3.142386972904205322e-01
-3.156151175498962402e-01 6.239444017410278320e-01 -3.251150250434875488e-01
-3.294289708137512207e-01 6.227803826332092285e-01 -3.148614168167114258e-01
-3.350752592086791992e-01 6.290895342826843262e-01 -3.093996047973632812e-01
-3.154499530792236328e-01 6.330620646476745605e-01 -3.161532282829284668e-01
-3.183614611625671387e-01 6.291997432708740234e-01 -3.251258730888366699e-01
-3.170176446437835693e-01 6.241632699966430664e-01 -3.235941231250762939e-01
-3.066954612731933594e-01 6.195625066757202148e-01 -3.456494510173797607e-01
-3.423381447792053223e-01 6.335065364837646484e-01 -2.958339750766754150e-01
-3.166162371635437012e-01 6.207787990570068359e-01 -3.283044993877410889e-01
-2.935540974140167236e-01 6.281321644783020020e-01 -3.429898917675018311e-01
-3.304582834243774414e-01 6.356459856033325195e-01 -3.048589527606964111e-01
-3.330554068088531494e-01 6.292350888252258301e-01 -3.040668666362762451e-01
-3.164845108985900879e-01 6.362178325653076172e-01 -3.156144320964813232e-01
-3.291692435741424561e-01 6.342403292655944824e-01 -3.027488887310028076e-01
-2.948487102985382080e-01 6.232837438583374023e-01 -3.460098206996917725e-01
-3.256734609603881836e-01 6.189259290695190430e-01 -3.237359225749969482e-01
-3.159067928791046143e-01 6.353157758712768555e-01 -3.144872486591339111e-01
-3.370628952980041504e-01 6.280894875526428223e-01 -3.084715604782104492e-01
-3.215492367744445801e-01 6.190314292907714844e-01 -3.322162628173828125e-01
-3.318157494068145752e-01 6.368990540504455566e-01 -3.004860281944274902e-01
-3.395608961582183838e-01 6.304271221160888672e-01 -2.977431416511535645e-01
-3.380662798881530762e-01 6.282684206962585449e-01 -3.072217106819152832e-01
-3.354911208152770996e-01 6.249372363090515137e-01 -3.072750568389892578e-01
-2.982994318008422852e-01 6.297763586044311523e-01 -3.406585156917572021e-01
-3.385262787342071533e-01 6.333903074264526367e-01 -3.003285527229309082e-01
-3.245970904827117920e-01 6.323341727256774902e-01 -3.153964877128601074e-01
-3.156875967979431152e-01 6.309610009193420410e-01 -3.252072930335998535e-01
-2.902721762657165527e-01 6.193021535873413086e-01 -3.583622872829437256e-01
-3.321631550788879395e-01 6.197344064712524414e-01 -3.180088996887207031e-01
-3.177299499511718750e-01 6.295412778854370117e-01 -3.170654475688934326e-01
-3.266144990921020508e-01 6.271260976791381836e-01 -3.117591142654418945e-01
-3.027016818523406982e-01 6.296321749687194824e-01 -3.377027511596679688e-01
-3.439094424247741699e-01 6.300035715103149414e-01 -2.952677607536315918e-01
-3.113276958465576172e-01 6.191016435623168945e-01 -3.418943881988525391e-01
-3.011120855808258057e-01 6.275212764739990234e-01 -3.417891561985015869e-01
-3.079454004764556885e-01 6.168799996376037598e-01 -3.463836014270782471e-01
-3.249659240245819092e-01 6.255981326103210449e-01 -3.231436312198638916e-01
-3.205721676349639893e-01 6.213912963867187500e-01 -3.313835263252258301e-01
-3.070353567600250244e-01 6.161381006240844727e-01 -3.474397659301757812e-01
-3.121282458305358887e-01 6.214029192924499512e-01 -3.314602375030517578e-01
-2.917031049728393555e-01 6.193686723709106445e-01 -3.545287847518920898e-01
-3.099060356616973877e-01 6.342285275459289551e-01 -3.248493671417236328e-01
-3.008294999599456787e-01 6.191499829292297363e-01 -3.509661853313446045e-01
-3.204336166381835938e-01 6.197719573974609375e-01 -3.264936208724975586e-01
-3.230070471763610840e-01 6.171084046363830566e-01 -3.295541405677795410e-01
-3.073097169399261475e-01 6.254043579101562500e-01 -3.311343193054199219e-01
-3.005252778530120850e-01 6.170845031738281250e-01 -3.486831188201904297e-01
-3.183694183826446533e-01 6.232433319091796875e-01 -3.235282599925994873e-01
-3.425911068916320801e-01 6.341683268547058105e-01 -2.942464649677276611e-01
-3.374992012977600098e-01 6.259879469871520996e-01 -3.101456761360168457e-01
-3.003469109535217285e-01 6.299114227294921875e-01 -3.390385210514068604e-01
-3.031246066093444824e-01 6.178632974624633789e-01 -3.448436856269836426e-01
-3.262710571289062500e-01 6.255483031272888184e-01 -3.138896822929382324e-01
-3.014495074748992920e-01 6.284158825874328613e-01 -3.403463959693908691e-01
-3.166230320930480957e-01 6.336686611175537109e-01 -3.204876184463500977e-01
-3.202324807643890381e-01 6.199872493743896484e-01 -3.328517079353332520e-01
-2.919882535934448242e-01 6.274769902229309082e-01 -3.480075895786285400e-01
-2.976001799106597900e-01 6.198760271072387695e-01 -3.473806977272033691e-01
-2.998276054859161377e-01 6.186856031417846680e-01 -3.468225598335266113e-01
