-4.821467697620391846e-01 5.704756826162338257e-02 -7.660050392150878906e-01
-2.639652192592620850e-01 1.829493641853332520e-01 -8.041833639144897461e-01
-4.734275341033935547e-01 -5.356843024492263794e-02 -5.149747729301452637e-01
-2.908866703510284424e-01 2.413624823093414307e-01 -1.086441874504089355e-01
5.766113996505737305e-01 4.165011644363403320e-02 -5.147563219070434570e-01
2.483894675970077515e-01 7.154991477727890015e-02 -9.215523004531860352e-01
-3.858946859836578369e-01 1.577447354793548584e-01 -7.708802223205566406e-01
4.256893098354339600e-01 -6.988491863012313843e-02 -5.136354565620422363e-01
4.226613938808441162e-01 -7.430037111043930054e-02 -4.614157378673553467e-01
6.177179515361785889e-02 -1.312404572963714600e-01 -5.474292635917663574e-01
-1.708172410726547241e-01 -1.237969622015953064e-01 -5.503466129302978516e-01
3.864085674285888672e-01 1.326740831136703491e-01 -7.794049978256225586e-01
4.804089367389678955e-01 -1.083858311176300049e-03 -1.000234186649322510e-01
3.290157318115234375e-01 2.549159526824951172e-02 9.599760174751281738e-02
5.306174159049987793e-01 -2.244121581315994263e-02 -3.347076177597045898e-01
-3.722696900367736816e-01 -5.406128615140914917e-02 -7.327461242675781250e-01
-8.941250294446945190e-02 2.173091173171997070e-01 9.207999706268310547e-02
5.340583994984626770e-02 1.857494413852691650e-01 -8.537352085113525391e-01
3.227975964546203613e-02 7.840868085622787476e-02 -9.800916910171508789e-01
2.644193470478057861e-01 -1.071519181132316589e-01 -2.817644774913787842e-01
1.716375201940536499e-01 1.936616152524948120e-01 1.228450536727905273e-01
5.200445279479026794e-02 -1.336733102798461914e-01 -5.055398941040039062e-01
-2.214165925979614258e-01 1.744606792926788330e-01 1.244286894798278809e-01
1.687572002410888672e-01 2.679326832294464111e-01 -4.774488210678100586e-01
-1.093899831175804138e-01 2.034986913204193115e-01 -8.102527856826782227e-01
4.353390634059906006e-01 1.904089376330375671e-02 -2.510726451873779297e-03
-5.743248388171195984e-02 -7.725747674703598022e-02 -1.850819587707519531e-02
-5.785982608795166016e-01 2.833896130323410034e-02 -2.911506593227386475e-01
2.865289449691772461e-01 1.416600793600082397e-01 1.382482647895812988e-01
3.944764435291290283e-01 -7.852367311716079712e-02 -2.945726811885833740e-01
2.947859466075897217e-02 2.125940620899200439e-01 -7.916266322135925293e-01
-4.848733246326446533e-01 1.496280729770660400e-01 -7.990023493766784668e-02
4.876573383808135986e-01 -1.207403838634490967e-03 -6.665319204330444336e-01
1.061552017927169800e-02 -7.507711648941040039e-03 -9.601158499717712402e-01
-5.820270776748657227e-01 7.659851014614105225e-02 -5.732812285423278809e-01
2.219841331243515015e-01 -8.998494595289230347e-02 -1.239927113056182861e-01
-2.536579668521881104e-01 -9.437795728445053101e-02 -6.954420208930969238e-01
3.084694743156433105e-01 -8.085335046052932739e-02 -1.569782346487045288e-01
-3.336054980754852295e-01 1.712060347199440002e-02 -8.856644034385681152e-01
2.195212692022323608e-01 2.514700889587402344e-01 -5.562482476234436035e-01
2.572315037250518799e-01 -5.452176183462142944e-02 -1.464751362800598145e-02
-4.336315393447875977e-01 1.034304499626159668e-02 -7.944737672805786133e-01
6.039986759424209595e-02 -1.249834522604942322e-01 -6.194400787353515625e-01
8.278076536953449249e-03 2.498087584972381592e-01 3.588408231735229492e-03
-4.316708445549011230e-01 9.323614835739135742e-02 3.053504228591918945e-02
-2.978738248348236084e-01 -7.549739629030227661e-02 -7.370104193687438965e-01
-7.722881436347961426e-02 2.072760835289955139e-02 -9.774411320686340332e-01
2.056445032358169556e-01 -4.120959341526031494e-02 -8.681463003158569336e-01
5.386154651641845703e-01 7.313256710767745972e-02 -6.306335926055908203e-01
-2.829225957393646240e-01 3.880529478192329407e-02 -9.250006675720214844e-01
1.782119646668434143e-02 -1.349164843559265137e-01 -4.016782343387603760e-01
1.980186700820922852e-01 -1.208923831582069397e-01 -3.362625837326049805e-01
5.461772084236145020e-01 3.031730651855468750e-03 -5.333168506622314453e-01
-1.952594369649887085e-01 1.553322672843933105e-01 -8.858067989349365234e-01
-1.459785699844360352e-01 2.275707721710205078e-01 4.800510406494140625e-02
-5.037485957145690918e-01 -3.455601632595062256e-02 -3.128787577152252197e-01
5.987661480903625488e-01 7.664570957422256470e-02 -3.153497874736785889e-01
2.740546166896820068e-01 2.388913631439208984e-01 -7.219183444976806641e-02
2.501867711544036865e-01 2.122453749179840088e-01 4.431474208831787109e-02
1.364160180091857910e-01 -1.241168752312660217e-01 -2.973926663398742676e-01
-1.480404734611511230e-01 7.687263935804367065e-02 -9.700428843498229980e-01
-3.006487190723419189e-01 -1.075901016592979431e-01 -4.690485000610351562e-01
-1.579192727804183960e-01 2.781899273395538330e-01 -3.178088963031768799e-01
2.988676130771636963e-01 2.087443470954895020e-01 1.837807893753051758e-02
3.849182426929473877e-01 2.348378896713256836e-01 -3.089541792869567871e-01
3.509933650493621826e-01 -8.925174921751022339e-02 -2.820108532905578613e-01
4.218830466270446777e-01 -2.230027318000793457e-02 -7.124233245849609375e-02
-4.089111685752868652e-01 -2.823974192142486572e-02 -9.414610266685485840e-02
-2.003719806671142578e-01 2.303297519683837891e-01 1.349696516990661621e-02
-5.039791464805603027e-01 1.889046281576156616e-01 -4.556809067726135254e-01
2.555628120899200439e-01 2.546769380569458008e-01 -4.876703321933746338e-01
9.681445360183715820e-02 -1.323511600494384766e-01 -4.009234309196472168e-01
-3.427242934703826904e-01 2.253877222537994385e-01 -9.575068950653076172e-02
-2.634836435317993164e-01 -1.137193962931632996e-01 -3.972724676132202148e-01
-4.611689448356628418e-01 -5.616807192564010620e-02 -3.277334570884704590e-01
-4.727894663810729980e-01 -3.580559790134429932e-02 -2.268708646297454834e-01
2.845833450555801392e-02 1.257699877023696899e-01 -9.480027556419372559e-01
-8.846575021743774414e-02 -1.332730948925018311e-01 -4.402647614479064941e-01
5.130203440785408020e-03 -7.590014487504959106e-02 -8.473998904228210449e-01
3.306945860385894775e-01 -5.423434823751449585e-02 -6.944715976715087891e-02
-8.562972396612167358e-02 9.871095418930053711e-02 -9.693616032600402832e-01
-2.973960936069488525e-01 2.588972747325897217e-01 -3.429143428802490234e-01
-5.191486328840255737e-02 2.839236259460449219e-01 -2.841635346412658691e-01
3.714263904839754105e-03 -1.278168261051177979e-01 -6.053411364555358887e-01
7.996094226837158203e-02 2.822879552841186523e-01 -2.790508866310119629e-01
3.668278455734252930e-01 5.026351660490036011e-02 -8.479685783386230469e-01
-1.168317049741744995e-01 2.504056394100189209e-01 -2.139309048652648926e-02
3.779247105121612549e-01 8.686858415603637695e-02 9.859883785247802734e-02
1.089423447847366333e-01 1.033999025821685791e-02 1.633740067481994629e-01
3.616065084934234619e-01 -4.553980380296707153e-02 -7.428764104843139648e-01
6.012048572301864624e-02 2.469977736473083496e-01 -6.656990647315979004e-01
-3.681676983833312988e-01 2.285113036632537842e-01 -1.524197012186050415e-01
-5.478991866111755371e-01 -7.352188229560852051e-03 -3.184876441955566406e-01
8.323293924331665039e-02 -2.857359498739242554e-02 1.059989631175994873e-01
2.564938068389892578e-01 1.460753828287124634e-01 -8.543695211410522461e-01
3.864552676677703857e-01 1.986803114414215088e-01 -6.208539009094238281e-01
-5.253741145133972168e-01 1.516525447368621826e-01 -1.648420244455337524e-01
-2.918262407183647156e-02 5.090844631195068359e-02 -9.871839880943298340e-01
2.134459465742111206e-02 1.901222616434097290e-01 1.553910970687866211e-01
1.040793210268020630e-01 -1.323968470096588135e-01 -4.513656198978424072e-01
-1.513874381780624390e-01 -4.606664180755615234e-02 -8.928508162498474121e-01
4.909903742372989655e-03 2.310004532337188721e-01 6.736364960670471191e-02
6.363762915134429932e-02 2.276090085506439209e-01 7.304987311363220215e-02
-2.984426021575927734e-01 2.509614527225494385e-01 -1.872850060462951660e-01
-1.453800201416015625e-01 -1.292540729045867920e-01 -4.696735739707946777e-01
5.884891003370285034e-02 -8.781603723764419556e-02 -8.066145181655883789e-01
2.209469676017761230e-01 2.654055356979370117e-01 -2.048460096120834351e-01
2.993979752063751221e-01 2.068687081336975098e-01 -6.876891851425170898e-01
-5.452395677566528320e-01 1.080173403024673462e-01 -6.390886306762695312e-01
4.784348309040069580e-01 1.876410543918609619e-01 -1.734053939580917358e-01
-1.610116213560104370e-01 -1.219961792230606079e-02 1.103182733058929443e-01
-1.547517180442810059e-01 2.586105763912200928e-01 -5.821212530136108398e-01
4.575608670711517334e-01 2.087182402610778809e-01 -2.829110622406005859e-01
-3.554937243461608887e-01 2.312673032283782959e-01 -5.458843708038330078e-01
4.757404625415802002e-01 -3.645810484886169434e-02 -5.872202515602111816e-01
3.422445356845855713e-01 2.413007616996765137e-01 -2.018518149852752686e-01
-1.232411116361618042e-01 -1.184906736016273499e-01 -6.482335329055786133e-01
-1.512504369020462036e-01 2.057034522294998169e-02 1.582939624786376953e-01
-4.283679649233818054e-02 -1.387670636177062988e-02 1.332953572273254395e-01
1.839565038681030273e-01 2.721950113773345947e-01 -3.954254686832427979e-01
-5.131520628929138184e-01 1.956887915730476379e-02 -1.356447935104370117e-01
2.499582916498184204e-01 2.629630863666534424e-01 -2.377142310142517090e-01
-5.927633047103881836e-01 3.425532951951026917e-02 -3.562810420989990234e-01
-3.364473953843116760e-02 1.568819284439086914e-01 1.943643689155578613e-01
3.258447945117950439e-01 1.336109936237335205e-01 1.206764578819274902e-01
5.658867955207824707e-01 1.340409666299819946e-01 -4.479926526546478271e-01
-5.539397522807121277e-02 -1.342072188854217529e-01 -4.075710475444793701e-01
-5.031259059906005859e-01 -3.536848723888397217e-02 -5.471671819686889648e-01
-5.729845166206359863e-01 1.290471851825714111e-01 -5.145474672317504883e-01
3.933932185173034668e-01 1.901523396372795105e-02 3.897720575332641602e-02
-2.049496769905090332e-01 -4.157686233520507812e-02 -8.824060559272766113e-01
-7.980672270059585571e-02 2.388804256916046143e-01 -7.029479742050170898e-01
5.136045813560485840e-01 1.606395542621612549e-01 -1.530293673276901245e-01
-3.505978286266326904e-01 -8.688115328550338745e-02 -2.791058421134948730e-01
-1.588284820318222046e-01 7.997044175863265991e-02 1.951342225074768066e-01
5.981395840644836426e-01 6.651150435209274292e-02 -4.166066050529479980e-01
1.322166621685028076e-01 -8.822806924581527710e-02 -7.113328576087951660e-02
3.370420932769775391e-01 9.775726497173309326e-02 -8.562118411064147949e-01
3.422592878341674805e-01 2.186197340488433838e-01 -5.954821705818176270e-01
3.214440345764160156e-01 -2.709063142538070679e-02 -8.191027045249938965e-01
-3.034801185131072998e-01 2.218956351280212402e-01 -6.577923297882080078e-01
-3.832807242870330811e-01 1.340619027614593506e-01 5.990275740623474121e-02
-5.674696564674377441e-01 3.856986761093139648e-03 -4.853415489196777344e-01
-5.645912140607833862e-02 -7.160890847444534302e-02 -8.568203449249267578e-01
1.173504143953323364e-01 1.537787616252899170e-01 1.893210411071777344e-01
-5.213533043861389160e-01 8.875630050897598267e-02 -8.753976225852966309e-02
-6.000315546989440918e-01 6.162592768669128418e-02 -4.907661080360412598e-01
-2.054804414510726929e-01 -8.347243815660476685e-02 -7.767127752304077148e-01
4.055392742156982422e-01 2.280837595462799072e-01 -3.564945757389068604e-01
2.423922270536422729e-01 -1.142592951655387878e-01 -3.257996439933776855e-01
-1.306173801422119141e-01 -1.270766258239746094e-01 -3.396260142326354980e-01
-3.763275146484375000e-01 -8.374746888875961304e-02 -5.710569024085998535e-01
3.405968546867370605e-01 -9.882359951734542847e-02 -4.161384403705596924e-01
1.594385206699371338e-01 -7.251889258623123169e-02 -2.326798439025878906e-02
1.067361682653427124e-01 -5.989661067724227905e-02 2.962863445281982422e-02
9.727060049772262573e-02 2.786234319210052490e-01 -2.146445810794830322e-01
1.512530297040939331e-01 2.701047360897064209e-01 -1.618577986955642700e-01
-3.569607734680175781e-01 2.417022883892059326e-01 -4.497675895690917969e-01
-5.610653758049011230e-01 1.012957766652107239e-01 -1.727992594242095947e-01
-2.427096515893936157e-01 2.189913690090179443e-01 -7.142724990844726562e-01
-1.583472341299057007e-01 2.727954685688018799e-01 -1.942531168460845947e-01
5.717502236366271973e-01 1.340968757867813110e-01 -2.844820618629455566e-01
-3.661502003669738770e-01 2.417958676815032959e-01 -2.746512293815612793e-01
1.354132890701293945e-01 -1.110258176922798157e-01 -1.868699640035629272e-01
1.824740767478942871e-01 -1.239482983946800232e-01 -5.130743384361267090e-01
3.718802630901336670e-01 2.280003428459167480e-01 -1.570423394441604614e-01
4.556234478950500488e-01 1.781059503555297852e-01 -5.881823897361755371e-01
2.267061322927474976e-01 -6.136889010667800903e-02 -8.146264553070068359e-01
-3.481641709804534912e-01 -9.702830761671066284e-02 -4.714773893356323242e-01
4.549832642078399658e-01 -2.535267174243927002e-02 -1.276121735572814941e-01
2.620895206928253174e-01 2.524549961090087891e-01 -1.421000361442565918e-01
-4.106012880802154541e-01 -2.226273715496063232e-02 -7.700802087783813477e-01
2.877414971590042114e-02 4.644336923956871033e-02 2.051380872726440430e-01
2.769643962383270264e-01 -7.781175523996353149e-02 -1.115820407867431641e-01
-3.719170391559600830e-01 -8.785531669855117798e-02 -3.491454422473907471e-01
3.947393298149108887e-01 -1.144985854625701904e-02 -1.488441228866577148e-02
9.005303680896759033e-02 2.608550190925598145e-01 -5.846521258354187012e-01
-1.602544784545898438e-01 2.592674493789672852e-01 -8.760902285575866699e-02
1.142666768282651901e-02 -3.950975090265274048e-02 8.813846111297607422e-02
2.602164745330810547e-01 9.662215411663055420e-02 1.700589060783386230e-01
-2.026987373828887939e-01 1.870424002408981323e-01 -8.231638073921203613e-01
-4.948281943798065186e-01 1.629734933376312256e-01 -6.161778569221496582e-01
-5.485435724258422852e-01 1.270467936992645264e-01 -5.976572036743164062e-01
-1.063189953565597534e-01 7.897324860095977783e-03 1.547060608863830566e-01
4.955838918685913086e-01 1.865060031414031982e-01 -2.290070205926895142e-01
-1.485356539487838745e-01 -7.880983501672744751e-02 -8.173946142196655273e-01
2.074583917856216431e-01 -2.935305237770080566e-04 -9.198217391967773438e-01
-1.729073524475097656e-01 -8.641468733549118042e-02 -9.053325653076171875e-02
-4.041139781475067139e-01 -6.951486319303512573e-02 -2.645346224308013916e-01
-5.434057712554931641e-01 -2.173408865928649902e-03 -5.747559666633605957e-01
1.932043284177780151e-01 6.639128178358078003e-02 -9.465000033378601074e-01
1.175161227583885193e-01 2.748545408248901367e-01 -4.529531896114349365e-01
-2.653570473194122314e-01 -6.149704009294509888e-02 -5.711576342582702637e-02
3.302197158336639404e-01 2.119289934635162354e-01 -2.059090137481689453e-02
-3.675501942634582520e-01 1.999565958976745605e-01 -3.459727764129638672e-02
7.959537953138351440e-02 -1.158468946814537048e-01 -1.960799843072891235e-01
4.416985437273979187e-02 -5.690858513116836548e-02 -8.875449895858764648e-01
-6.016406416893005371e-01 9.053087979555130005e-02 -3.243032097816467285e-01
-1.032155528664588928e-01 2.605251371860504150e-01 -5.929154753684997559e-01
4.255892336368560791e-01 -4.410831630229949951e-02 -6.604453325271606445e-01
-1.344725638628005981e-01 -1.025509908795356750e-01 -1.458035558462142944e-01
-3.418825864791870117e-01 1.639556884765625000e-01 -7.948122024536132812e-01
5.213329195976257324e-01 1.048119366168975830e-02 -6.217733025550842285e-01
2.308477908372879028e-01 2.660540342330932617e-01 -3.937872648239135742e-01
-1.088394820690155029e-01 2.816018164157867432e-01 -3.529695272445678711e-01
2.391862273216247559e-01 2.155144512653350830e-01 -7.054079174995422363e-01
-4.062856733798980713e-01 2.291742563247680664e-01 -4.350388348102569580e-01
9.949225932359695435e-04 2.548471093177795410e-03 1.606696844100952148e-01
3.472228348255157471e-01 1.289481818675994873e-01 -8.180435895919799805e-01
2.001264989376068115e-01 -1.001619473099708557e-01 -1.612451821565628052e-01
-3.773230910301208496e-01 -8.791010826826095581e-02 -5.130437612533569336e-01
3.492819070816040039e-01 1.669136881828308105e-01 6.654286384582519531e-02
-1.836149543523788452e-01 -6.200202554464340210e-02 -8.489212989807128906e-01
2.720237076282501221e-01 -1.014820709824562073e-01 -6.118072271347045898e-01
-4.384187459945678711e-01 2.145076394081115723e-01 -4.807820022106170654e-01
2.602544426918029785e-01 -9.394180029630661011e-02 -6.732069253921508789e-01
1.807502955198287964e-01 5.806507170200347900e-02 1.893675327301025391e-01
4.952813386917114258e-01 1.905654519796371460e-01 -3.882809877395629883e-01
1.576963663101196289e-01 1.259722709655761719e-01 1.988729238510131836e-01
-5.075635313987731934e-01 3.001653030514717102e-02 -7.166315317153930664e-01
-3.168170750141143799e-01 2.540031969547271729e-01 -2.831750810146331787e-01
5.314049720764160156e-01 1.704602241516113281e-01 -2.990900874137878418e-01
1.070522293448448181e-01 -1.195000186562538147e-01 -2.334687709808349609e-01
6.059383600950241089e-02 3.481599316000938416e-02 -9.793160557746887207e-01
1.339357942342758179e-01 2.495850026607513428e-01 -6.274384856224060059e-01
5.107686519622802734e-01 1.526691019535064697e-01 -5.620374083518981934e-01
5.456726253032684326e-02 2.800256311893463135e-01 -4.309477806091308594e-01
-3.055843114852905273e-01 8.777109533548355103e-02 -9.074960947036743164e-01
-2.631755769252777100e-01 -1.135754659771919250e-01 -5.043956041336059570e-01
7.594203948974609375e-02 2.101051211357116699e-01 1.140845715999603271e-01
1.750765591859817505e-01 2.750297486782073975e-01 -3.335524499416351318e-01
-5.638113617897033691e-01 1.542398035526275635e-01 -3.867563009262084961e-01
4.073880314826965332e-01 -9.001232683658599854e-03 -7.662101984024047852e-01
-4.966116696596145630e-02 2.814705371856689453e-01 -4.200400710105895996e-01
1.766961440443992615e-02 2.779665589332580566e-01 -1.687234342098236084e-01
2.655225396156311035e-01 2.463611587882041931e-02 -9.082493782043457031e-01
-2.103518247604370117e-01 2.578921616077423096e-01 -5.470522642135620117e-01
1.687363535165786743e-01 2.740966081619262695e-01 -2.410120218992233276e-01
-4.599805176258087158e-02 -1.033749058842658997e-01 -7.543401718139648438e-01
4.726792275905609131e-01 1.351741850376129150e-01 -6.740779876708984375e-01
3.711086511611938477e-01 -8.825247734785079956e-02 -3.332712948322296143e-01
-3.032950162887573242e-01 -8.817616850137710571e-02 -6.736879348754882812e-01
-3.539396077394485474e-02 -1.129023805260658264e-01 -1.711226999759674072e-01
-2.665568888187408447e-01 2.606436014175415039e-01 -4.419510960578918457e-01
1.614742428064346313e-01 -1.238799020648002625e-01 -5.523091554641723633e-01
-3.158756494522094727e-01 1.515784561634063721e-01 9.704917669296264648e-02
5.045363306999206543e-01 9.439402818679809570e-02 -6.797914505004882812e-01
-2.243206351995468140e-01 1.353158205747604370e-01 7.165611386299133301e-01
7.315435260534286499e-02 1.680357754230499268e-01 6.753612160682678223e-01
4.251310974359512329e-02 1.368370205163955688e-01 3.446871042251586914e-01
1.081828996539115906e-01 7.046055793762207031e-02 9.046601057052612305e-01
3.182737827301025391e-01 5.834117531776428223e-02 2.454693615436553955e-01
7.827398926019668579e-02 3.514765948057174683e-02 6.425956487655639648e-01
6.865694373846054077e-02 1.442117094993591309e-01 3.527334034442901611e-01
-6.581860780715942383e-02 1.561784148216247559e-01 5.771515965461730957e-01
1.835716366767883301e-01 8.475919067859649658e-02 2.102332115173339844e-01
6.878316402435302734e-03 4.901739582419395447e-02 8.435775041580200195e-01
-1.262593269348144531e-02 1.264696717262268066e-01 9.727467298507690430e-01
6.419269740581512451e-02 1.558538675308227539e-01 4.221579432487487793e-01
-9.209385514259338379e-02 1.088495329022407532e-01 4.140579700469970703e-01
2.372879087924957275e-01 1.267915815114974976e-01 2.035388946533203125e-01
-2.520708441734313965e-01 9.754195064306259155e-02 9.563321471214294434e-01
4.938584566116333008e-01 9.296640008687973022e-02 5.718757510185241699e-01
2.669761478900909424e-01 5.429616197943687439e-02 7.254335880279541016e-01
-6.826180219650268555e-02 8.157534897327423096e-02 4.011253714561462402e-01
5.146905779838562012e-01 6.976969540119171143e-02 3.976910710334777832e-01
-5.431592464447021484e-03 1.606589406728744507e-01 7.940834760665893555e-01
2.300261259078979492e-01 1.207229048013687134e-01 8.604681491851806641e-01
-1.182603091001510620e-01 1.474701464176177979e-01 5.790750980377197266e-01
3.699292838573455811e-01 5.069160833954811096e-02 5.660037994384765625e-01
2.744390368461608887e-01 3.975792229175567627e-02 5.689358711242675781e-01
8.866135030984878540e-02 1.568652838468551636e-01 4.099899530410766602e-01
3.344609737396240234e-01 5.220931023359298706e-02 6.349663734436035156e-01
8.436402678489685059e-02 7.085567712783813477e-02 9.175084829330444336e-01
-1.757930666208267212e-01 1.473788022994995117e-01 7.337566018104553223e-01
3.352489322423934937e-02 5.198715999722480774e-02 4.084281921386718750e-01
1.680403351783752441e-01 4.600793123245239258e-02 7.519201636314392090e-01
3.809864819049835205e-01 1.567136645317077637e-01 3.569307923316955566e-01
-2.077518403530120850e-02 1.279560774564743042e-01 3.736203908920288086e-01
3.905067443847656250e-01 5.262928083539009094e-02 5.490454435348510742e-01
-6.698270142078399658e-02 5.161983892321586609e-02 5.184732079505920410e-01
4.619174450635910034e-02 7.756942510604858398e-02 9.505333900451660156e-01
-1.850340813398361206e-01 7.930019497871398926e-02 5.540896058082580566e-01
4.459042549133300781e-01 1.508773267269134521e-01 3.745977282524108887e-01
2.401908934116363525e-01 7.055285573005676270e-02 8.179776072502136230e-01
4.700518846511840820e-01 1.363921314477920532e-01 2.395972013473510742e-01
4.600766301155090332e-01 7.160248607397079468e-02 5.641353130340576172e-01
-1.214110851287841797e-02 1.605281233787536621e-01 5.479677915573120117e-01
3.853072524070739746e-01 4.788526147603988647e-02 4.827926456928253174e-01
3.305910527706146240e-02 1.500765085220336914e-01 4.116508960723876953e-01
-9.652997553348541260e-02 6.241905689239501953e-02 4.911395609378814697e-01
4.087984561920166016e-01 6.401918828487396240e-02 6.084865331649780273e-01
7.314638793468475342e-02 3.590310364961624146e-02 6.697506308555603027e-01
4.058427810668945312e-01 5.243688821792602539e-02 5.125703215599060059e-01
3.286519646644592285e-01 4.174403846263885498e-02 4.754350185394287109e-01
-1.141895353794097900e-02 3.862238675355911255e-02 6.104177832603454590e-01
3.552870750427246094e-01 7.602907717227935791e-02 7.247837185859680176e-01
-7.956345379352569580e-02 4.928157851099967957e-02 5.571283102035522461e-01
-6.189362704753875732e-02 1.537259221076965332e-01 8.527951240539550781e-01
3.275159597396850586e-01 6.949579715728759766e-02 1.981047987937927246e-01
-2.155245989561080933e-01 1.400601267814636230e-01 7.951777577400207520e-01
3.889125585556030273e-01 5.188589543104171753e-02 3.145917654037475586e-01
3.210725784301757812e-01 6.762516498565673828e-02 7.342110276222229004e-01
-7.298186421394348145e-03 4.207141324877738953e-02 7.758743762969970703e-01
3.192978799343109131e-01 4.748019576072692871e-02 3.244524896144866943e-01
5.705422759056091309e-01 9.381625056266784668e-02 3.304640650749206543e-01
-1.454183012247085571e-01 1.373419314622879028e-01 9.343233108520507812e-01
8.879312872886657715e-02 1.664898991584777832e-01 7.121020555496215820e-01
1.110474392771720886e-01 1.560980528593063354e-01 3.881517946720123291e-01
1.492990553379058838e-01 5.676011741161346436e-02 3.041327297687530518e-01
1.948366165161132812e-01 5.284849554300308228e-02 7.785993814468383789e-01
6.741107255220413208e-02 1.615353226661682129e-01 4.688500463962554932e-01
-2.794224619865417480e-01 8.311505615711212158e-02 8.492702245712280273e-01
-5.693608522415161133e-02 5.362676456570625305e-02 8.791007399559020996e-01
1.886858642101287842e-01 1.575609892606735229e-01 3.549856543540954590e-01
4.691963195800781250e-01 1.459391862154006958e-01 4.535893201828002930e-01
1.343198865652084351e-01 1.633494049310684204e-01 4.365459084510803223e-01
1.509705334901809692e-01 8.019961416721343994e-02 2.337642014026641846e-01
-1.290004700422286987e-01 7.346159219741821289e-02 4.902817904949188232e-01
4.942500591278076172e-01 6.412552297115325928e-02 3.525407910346984863e-01
4.780980944633483887e-01 6.405805796384811401e-02 2.915172874927520752e-01
3.062103390693664551e-01 7.634294033050537109e-02 1.823179423809051514e-01
-2.271751612424850464e-01 7.323807477951049805e-02 6.592116355895996094e-01
4.804894328117370605e-03 1.094154715538024902e-01 9.900078177452087402e-01
-5.092342197895050049e-02 7.020603120326995850e-02 9.571025967597961426e-01
-2.572141885757446289e-01 7.297699898481369019e-02 8.235364556312561035e-01
1.992819756269454956e-01 6.489676237106323242e-02 8.305874466896057129e-01
4.221341609954833984e-01 1.544746756553649902e-01 4.028043746948242188e-01
-5.924318730831146240e-02 1.408292502164840698e-01 4.576698243618011475e-01
-2.396337240934371948e-01 6.976749747991561890e-02 8.567860722541809082e-01
2.817443758249282837e-02 7.515598088502883911e-02 3.256382942199707031e-01
3.713727593421936035e-01 1.552165448665618896e-01 5.726577043533325195e-01
-1.569035202264785767e-01 6.670230627059936523e-02 5.565062761306762695e-01
5.293142199516296387e-01 1.043291464447975159e-01 1.961667239665985107e-01
9.541213512420654297e-05 1.496444642543792725e-01 4.404611587524414062e-01
5.448525547981262207e-01 1.272849738597869873e-01 3.115478754043579102e-01
2.650926709175109863e-01 7.019402086734771729e-02 7.960776686668395996e-01
8.153233677148818970e-02 4.475046694278717041e-02 4.201686978340148926e-01
-1.941432505846023560e-01 5.989294126629829407e-02 8.415209054946899414e-01
1.073456406593322754e-01 8.342945575714111328e-02 2.545046806335449219e-01
4.395654797554016113e-02 4.465351626276969910e-02 8.005341887474060059e-01
-1.043764650821685791e-01 6.587651371955871582e-02 9.417421817779541016e-01
9.078672528266906738e-02 5.421983450651168823e-02 3.519964218139648438e-01
3.734978735446929932e-01 1.077784523367881775e-01 7.414232492446899414e-01
5.023521780967712402e-01 1.376407146453857422e-01 4.518561363220214844e-01
1.518014669418334961e-01 1.073755472898483276e-01 2.182896435260772705e-01
-1.046372354030609131e-01 1.570603698492050171e-01 7.525716423988342285e-01
-1.466687172651290894e-01 5.063908547163009644e-02 7.790733575820922852e-01
-1.244273334741592407e-01 5.604150146245956421e-02 8.784694671630859375e-01
1.890288889408111572e-01 3.846586495637893677e-02 6.549112200736999512e-01
-1.450738310813903809e-02 4.162235930562019348e-02 5.514206886291503906e-01
4.420706033706665039e-01 9.224706888198852539e-02 6.511260271072387695e-01
3.025702834129333496e-01 4.060552641749382019e-02 4.252498149871826172e-01
3.771788477897644043e-01 1.589571833610534668e-01 4.007467627525329590e-01
1.742890775203704834e-01 3.914351761341094971e-02 6.774398088455200195e-01
5.258074998855590820e-01 7.648482918739318848e-02 2.696455419063568115e-01
-5.029900372028350830e-02 1.485779881477355957e-01 8.936227560043334961e-01
4.589294195175170898e-01 7.955839484930038452e-02 5.984593033790588379e-01
-1.639844924211502075e-01 1.239449679851531982e-01 5.302462577819824219e-01
-7.817894220352172852e-03 3.786822408437728882e-02 6.388825774192810059e-01
-9.246365725994110107e-02 1.429243683815002441e-01 9.211871027946472168e-01
3.725322186946868896e-01 1.279870867729187012e-01 7.154242992401123047e-01
1.130941361188888550e-01 4.520423710346221924e-02 3.945884704589843750e-01
2.146712541580200195e-01 9.721697866916656494e-02 8.816787600517272949e-01
3.725597858428955078e-01 5.614368617534637451e-02 6.115717291831970215e-01
3.351066708564758301e-01 1.253713220357894897e-01 1.744298934936523438e-01
-3.465759754180908203e-02 6.430419534444808960e-02 4.134828448295593262e-01
4.178231954574584961e-01 8.614148944616317749e-02 6.737619638442993164e-01
5.421818494796752930e-01 7.898701727390289307e-02 3.870294094085693359e-01
2.742782235145568848e-01 1.493782699108123779e-01 2.742394208908081055e-01
-6.765143573284149170e-02 4.386044666171073914e-02 6.079484820365905762e-01
4.822461605072021484e-01 1.328867822885513306e-01 5.382851362228393555e-01
3.851884305477142334e-01 1.248931288719177246e-01 1.701838076114654541e-01
2.288095057010650635e-01 5.474921688437461853e-02 7.623791694641113281e-01
1.895433813333511353e-01 3.503097593784332275e-02 5.602734088897705078e-01
1.556936651468276978e-02 3.807411342859268188e-02 7.118243575096130371e-01
-2.318312227725982666e-02 8.451919257640838623e-02 3.528890609741210938e-01
2.519531846046447754e-01 5.116869509220123291e-02 2.950483560562133789e-01
-2.156295031309127808e-01 1.398428082466125488e-01 7.631034851074218750e-01
-2.612738013267517090e-01 1.264236420392990112e-01 8.446162939071655273e-01
4.605355262756347656e-01 1.354471147060394287e-01 5.666675567626953125e-01
3.577286601066589355e-01 4.533426091074943542e-02 5.064560174942016602e-01
4.195260405540466309e-01 7.658772915601730347e-02 6.474275588989257812e-01
7.854886353015899658e-02 1.342969685792922974e-01 9.229701757431030273e-01
4.415335059165954590e-01 1.375435143709182739e-01 2.272159159183502197e-01
-2.411368042230606079e-01 7.456973940134048462e-02 6.884779334068298340e-01
1.644286811351776123e-01 9.775026142597198486e-02 9.155938625335693359e-01
1.248469948768615723e-02 1.408797204494476318e-01 3.852602839469909668e-01
4.875813424587249756e-02 6.541614234447479248e-02 9.153966307640075684e-01
-2.123665064573287964e-01 1.358787119388580322e-01 8.836622238159179688e-01
7.880993187427520752e-02 3.794612735509872437e-02 7.122863531112670898e-01
4.577366709709167480e-01 1.435905843973159790e-01 5.169220566749572754e-01
1.588393151760101318e-01 1.290433108806610107e-01 2.448886334896087646e-01
8.776596188545227051e-02 1.664518266916275024e-01 5.156205892562866211e-01
3.833460062742233276e-02 1.414727866649627686e-01 9.146233797073364258e-01
3.435713648796081543e-01 1.617100238800048828e-01 5.213502645492553711e-01
2.085127830505371094e-01 7.321982085704803467e-02 2.200750410556793213e-01
2.897599637508392334e-01 1.542544066905975342e-01 3.032849133014678955e-01
2.673210501670837402e-01 7.327973842620849609e-02 1.990916132926940918e-01
2.478248924016952515e-01 4.553469270467758179e-02 6.801123023033142090e-01
-1.046830862760543823e-01 1.547748893499374390e-01 6.360868215560913086e-01
-7.584808766841888428e-02 4.949805140495300293e-02 8.419178724288940430e-01
3.920479118824005127e-02 1.552361398935317993e-01 4.397334456443786621e-01
4.699777066707611084e-02 3.697538375854492188e-02 5.519566535949707031e-01
1.703212261199951172e-01 1.476759910583496094e-01 8.259708881378173828e-01
3.128442168235778809e-01 7.345370203256607056e-02 7.617194652557373047e-01
1.371216177940368652e-01 1.576515585184097290e-01 3.826613426208496094e-01
1.479719579219818115e-02 4.596119374036788940e-02 4.686573743820190430e-01
-1.006797701120376587e-01 1.377112269401550293e-01 4.937205314636230469e-01
1.695743501186370850e-01 1.645207107067108154e-01 7.034109830856323242e-01
-4.877313971519470215e-02 8.425412327051162720e-02 9.902785420417785645e-01
3.312455415725708008e-01 1.629257202148437500e-01 4.283559322357177734e-01
1.283621639013290405e-01 3.712027519941329956e-02 6.781526803970336914e-01
1.235056072473526001e-01 3.433685749769210815e-02 5.906252861022949219e-01
2.011724114418029785e-01 5.062956735491752625e-02 3.130834400653839111e-01
6.359231472015380859e-02 1.364230513572692871e-01 3.268928527832031250e-01
5.186586976051330566e-01 7.102749496698379517e-02 3.143853545188903809e-01
3.912754058837890625e-01 4.769486933946609497e-02 4.162358045578002930e-01
4.483038783073425293e-01 5.834514275193214417e-02 4.825285971164703369e-01
7.813426852226257324e-02 1.466663032770156860e-01 8.784995675086975098e-01
-5.199694633483886719e-02 1.595322191715240479e-01 5.997078418731689453e-01
4.632396101951599121e-01 1.485100686550140381e-01 3.955428600311279297e-01
-6.271675229072570801e-03 4.376637935638427734e-02 5.131947994232177734e-01
4.760726094245910645e-01 1.438332945108413696e-01 3.148513436317443848e-01
4.780613183975219727e-01 1.296299695968627930e-01 2.113030552864074707e-01
2.359003573656082153e-01 1.636696308851242065e-01 3.997695446014404297e-01
-1.023816764354705811e-01 1.548627018928527832e-01 8.124887943267822266e-01
4.855230450630187988e-03 4.551049694418907166e-02 8.146214485168457031e-01
1.749932765960693359e-03 1.647999286651611328e-01 6.026939153671264648e-01
2.626011371612548828e-01 4.352923110127449036e-02 6.434488296508789062e-01
3.807175904512405396e-02 1.438775062561035156e-01 3.757786154747009277e-01
-1.361846923828125000e-02 1.579805463552474976e-01 5.203939080238342285e-01
6.722372770309448242e-02 3.527040779590606689e-02 5.805574655532836914e-01
3.377283811569213867e-01 1.401717960834503174e-01 7.152144908905029297e-01
3.013774752616882324e-01 1.612568497657775879e-01 3.721137046813964844e-01
1.763109564781188965e-01 4.150980338454246521e-02 7.045490145683288574e-01
7.353679835796356201e-02 1.687879860401153564e-01 6.149435639381408691e-01
1.830267161130905151e-01 6.639221310615539551e-02 2.503593266010284424e-01
2.050751596689224243e-01 1.692670732736587524e-01 5.489072203636169434e-01
1.144978478550910950e-01 1.572746932506561279e-01 8.015074729919433594e-01
2.350247204303741455e-01 4.781477898359298706e-02 3.220817744731903076e-01
5.058808922767639160e-01 6.964166462421417236e-02 2.885722219944000244e-01
-2.338870316743850708e-01 1.251254826784133911e-01 9.252116084098815918e-01
2.990486621856689453e-01 5.125271528959274292e-02 6.715382933616638184e-01
-1.363054066896438599e-01 9.820405393838882446e-02 1.009255290031433105e+00
1.512189060449600220e-01 1.553423702716827393e-01 3.578814864158630371e-01
5.223616361618041992e-01 7.433339208364486694e-02 4.285745918750762939e-01
1.190672516822814941e-01 3.871886432170867920e-02 7.080042362213134766e-01
5.502897500991821289e-01 1.219374984502792358e-01 2.763664424419403076e-01
2.953232526779174805e-01 3.935458511114120483e-02 4.884652495384216309e-01
-8.136054873466491699e-02 1.596982032060623169e-01 7.116459608078002930e-01
-1.286223083734512329e-01 6.599533557891845703e-02 5.175158977508544922e-01
7.642843574285507202e-02 8.139604330062866211e-02 9.452647566795349121e-01
2.571045160293579102e-01 3.896443545818328857e-02 4.254240393638610840e-01
4.311509728431701660e-01 1.441909968852996826e-01 5.663272738456726074e-01
8.164912462234497070e-03 5.495421215891838074e-02 8.814793825149536133e-01
5.458161234855651855e-03 1.643466055393218994e-01 7.385588884353637695e-01
3.109648823738098145e-01 5.060241371393203735e-02 2.949739396572113037e-01
2.226108759641647339e-01 1.410292983055114746e-01 8.168555498123168945e-01
-1.475549787282943726e-01 8.302898705005645752e-02 9.895187616348266602e-01
-1.046079844236373901e-01 1.017425656318664551e-01 1.011028885841369629e+00
5.077847242355346680e-01 1.169971078634262085e-01 5.428496599197387695e-01
8.952790498733520508e-02 1.069593876600265503e-01 2.561158537864685059e-01
-4.784972965717315674e-02 1.357351839542388916e-01 9.534426927566528320e-01
3.304407000541687012e-01 1.532016247510910034e-01 2.955293655395507812e-01
1.547742486000061035e-01 3.472911566495895386e-02 5.959902405738830566e-01
-1.982782334089279175e-01 7.582417875528335571e-02 9.499971270561218262e-01
-2.092974334955215454e-01 6.887209415435791016e-02 9.050241708755493164e-01
2.662305831909179688e-01 4.738149791955947876e-02 3.207551538944244385e-01
-1.048203855752944946e-01 7.910662144422531128e-02 4.459943175315856934e-01
1.015147268772125244e-01 3.657390922307968140e-02 5.043621659278869629e-01
1.539265811443328857e-01 1.691803932189941406e-01 5.278418064117431641e-01
1.972840726375579834e-01 3.626898676156997681e-02 6.021665334701538086e-01
-5.194456875324249268e-02 1.436191797256469727e-01 9.211245179176330566e-01
4.113156348466873169e-02 3.986720368266105652e-02 5.070588588714599609e-01
-2.723721861839294434e-01 8.914282172918319702e-02 9.113125205039978027e-01
8.982640504837036133e-02 1.552126109600067139e-01 8.265637159347534180e-01
2.109765559434890747e-01 1.638080477714538574e-01 6.799890398979187012e-01
2.303672432899475098e-01 5.029860883951187134e-02 7.339389324188232422e-01
5.806390196084976196e-02 5.261323601007461548e-02 3.846107423305511475e-01
1.472130417823791504e-03 3.878043591976165771e-02 5.789214968681335449e-01
3.283680081367492676e-01 1.570405960083007812e-01 6.207067370414733887e-01
5.244877338409423828e-01 1.321678459644317627e-01 4.292747378349304199e-01
-1.457812637090682983e-01 1.003392785787582397e-01 4.736519455909729004e-01
-1.696377843618392944e-01 5.342718586325645447e-02 7.282901406288146973e-01
-5.143034458160400391e-02 4.120249301195144653e-02 7.288618683815002441e-01
1.782298088073730469e-01 1.297255605459213257e-01 8.803689479827880859e-01
-8.612096309661865234e-02 5.855806916952133179e-02 9.071797728538513184e-01
2.764071226119995117e-01 1.622997969388961792e-01 3.813092112541198730e-01
5.729267001152038574e-01 1.055658012628555298e-01 3.626761436462402344e-01
-7.553873956203460693e-02 6.520025432109832764e-02 9.404424428939819336e-01
-1.406026035547256470e-01 4.924509301781654358e-02 7.210118770599365234e-01
4.791885614395141602e-03 3.724107146263122559e-02 6.644550561904907227e-01
-4.091408848762512207e-02 1.580051630735397339e-01 5.588936209678649902e-01
2.360492646694183350e-01 4.014098644256591797e-02 4.000286757946014404e-01
2.849809527397155762e-01 5.278102308511734009e-02 2.798076868057250977e-01
-1.119996756315231323e-01 1.147542819380760193e-01 4.430963993072509766e-01
5.246503949165344238e-01 8.470793813467025757e-02 2.212110757827758789e-01
4.851004481315612793e-01 1.405097693204879761e-01 4.758028090000152588e-01
2.984285056591033936e-01 4.387193918228149414e-02 6.001848578453063965e-01
1.052589491009712219e-01 1.623206734657287598e-01 4.455813765525817871e-01
2.911161184310913086e-01 1.400714814662933350e-01 2.267321050167083740e-01
5.109854787588119507e-02 1.516308486461639404e-01 8.623684644699096680e-01
4.140379428863525391e-01 1.246232613921165466e-01 6.730481982231140137e-01
-1.765949577093124390e-01 8.085706084966659546e-02 9.766880273818969727e-01
4.370206594467163086e-01 1.294726133346557617e-01 1.909845173358917236e-01
1.623359024524688721e-01 3.656971454620361328e-02 6.445212960243225098e-01
1.199231147766113281e-01 1.672714650630950928e-01 6.893832683563232422e-01
2.000718712806701660e-01 1.671530604362487793e-01 4.606026411056518555e-01
1.969288289546966553e-01 1.679936349391937256e-01 6.237379908561706543e-01
-2.238583564758300781e-02 3.892381489276885986e-02 6.970690488815307617e-01
-1.339996904134750366e-01 5.538115277886390686e-02 5.923518538475036621e-01
-4.773238301277160645e-02 1.606367081403732300e-01 7.716101408004760742e-01
5.237317830324172974e-02 7.900032401084899902e-02 2.992743551731109619e-01
-2.257460802793502808e-01 1.308039724826812744e-01 6.779015064239501953e-01
2.516378164291381836e-01 1.678181588649749756e-01 5.015183687210083008e-01
-3.547523915767669678e-02 1.623016297817230225e-01 6.210669875144958496e-01
4.125061631202697754e-01 1.482331901788711548e-01 2.835504412651062012e-01
1.879214346408843994e-01 3.494914621114730835e-02 5.294764041900634766e-01
5.485180020332336426e-01 8.583581447601318359e-02 4.204928874969482422e-01
-2.669993638992309570e-01 1.160034760832786560e-01 9.115036725997924805e-01
-2.694943547248840332e-02 4.066348820924758911e-02 7.442679405212402344e-01
-2.064055204391479492e-02 1.643906831741333008e-01 6.554778218269348145e-01
2.347284257411956787e-01 1.568776518106460571e-01 3.331898152828216553e-01
4.795129299163818359e-01 1.024549007415771484e-01 1.612048447132110596e-01
3.415789008140563965e-01 9.494403004646301270e-02 1.498676538467407227e-01
2.444206327199935913e-01 9.629490226507186890e-02 1.746318638324737549e-01
4.512882828712463379e-01 5.588808655738830566e-02 3.823496103286743164e-01
1.329016387462615967e-01 6.319492310285568237e-02 8.672670125961303711e-01
4.682092070579528809e-01 1.241835579276084900e-01 1.864919960498809814e-01
1.528407633304595947e-01 3.503895550966262817e-02 5.139334201812744141e-01
8.057461678981781006e-02 4.107702150940895081e-02 4.559828341007232666e-01
5.680620670318603516e-03 1.564628183841705322e-01 4.833271801471710205e-01
2.587841749191284180e-01 1.560477912425994873e-01 7.088208198547363281e-01
1.892048716545104980e-01 1.686686575412750244e-01 4.997842609882354736e-01
-1.509128957986831665e-01 1.197439432144165039e-01 9.914985895156860352e-01
2.849259078502655029e-01 1.130750551819801331e-01 8.245196342468261719e-01
-1.669876426458358765e-01 5.404104664921760559e-02 8.041424751281738281e-01
1.646974384784698486e-01 1.672682762145996094e-01 4.746404290199279785e-01
-1.968672722578048706e-01 1.229124814271926880e-01 5.796082615852355957e-01
-2.781657874584197998e-02 1.611519753932952881e-01 5.818976759910583496e-01
6.237342953681945801e-03 1.313215941190719604e-01 3.581112623214721680e-01
4.983337521553039551e-01 6.742134690284729004e-02 4.392948150634765625e-01
1.450857818126678467e-01 5.066675320267677307e-02 3.383564352989196777e-01
4.640266299247741699e-03 6.663796305656433105e-02 3.684272468090057373e-01
-5.117489397525787354e-02 4.425547644495964050e-02 5.705686211585998535e-01
-1.105001866817474365e-01 4.717876017093658447e-02 7.815891504287719727e-01
-6.447780132293701172e-02 4.679715633392333984e-02 8.176051378250122070e-01
-5.055402219295501709e-02 1.623120605945587158e-01 6.793861985206604004e-01
4.656156897544860840e-02 4.204951226711273193e-02 4.750187993049621582e-01
-2.918449044227600098e-01 1.094603985548019409e-01 8.081853389739990234e-01
3.184847235679626465e-01 4.103422164916992188e-02 4.487621188163757324e-01
-2.051665335893630981e-01 1.400018334388732910e-01 8.509026765823364258e-01
3.266530036926269531e-01 1.597457975149154663e-01 3.607587814331054688e-01
3.141566812992095947e-01 1.625245213508605957e-01 3.981347680091857910e-01
3.787356019020080566e-01 4.901320487260818481e-02 3.437321782112121582e-01
1.901183128356933594e-01 1.006783992052078247e-01 8.999934196472167969e-01
1.145559549331665039e-02 1.643588244915008545e-01 5.740076899528503418e-01
4.459680318832397461e-01 1.484902948141098022e-01 4.909083843231201172e-01
4.863498806953430176e-01 6.356684118509292603e-02 3.212511241436004639e-01
-1.944483965635299683e-01 1.303610652685165405e-01 6.050470471382141113e-01
-1.243187934160232544e-01 4.741446301341056824e-02 6.998397111892700195e-01
-2.146220207214355469e-02 1.486939191818237305e-01 4.572750926017761230e-01
2.302019596099853516e-01 1.491218656301498413e-01 7.760902643203735352e-01
-9.267930686473846436e-02 7.762043178081512451e-02 9.812673330307006836e-01
2.788345217704772949e-01 6.111524254083633423e-02 7.494289875030517578e-01
1.765162646770477295e-01 6.814119219779968262e-02 8.573342561721801758e-01
1.904571801424026489e-02 1.025622263550758362e-01 3.066037595272064209e-01
-1.127697974443435669e-01 1.417058706283569336e-01 5.305364131927490234e-01
1.524150222539901733e-01 4.132395610213279724e-02 7.196824550628662109e-01
1.480101644992828369e-01 1.691937893629074097e-01 6.283928751945495605e-01
4.524502158164978027e-01 6.214779242873191833e-02 5.150002241134643555e-01
2.878096103668212891e-01 1.539351791143417358e-01 6.950239539146423340e-01
3.854262530803680420e-01 1.333383172750473022e-01 6.849992871284484863e-01
2.335478365421295166e-01 3.915604948997497559e-02 6.183662414550781250e-01
3.146423101425170898e-01 1.642203181982040405e-01 5.240626335144042969e-01
4.627335071563720703e-02 1.569149196147918701e-01 8.280872702598571777e-01
1.324523985385894775e-02 3.942105174064636230e-02 7.390817403793334961e-01
5.155844688415527344e-01 9.235577285289764404e-02 5.297375917434692383e-01
3.310360908508300781e-01 1.315471529960632324e-01 7.509034276008605957e-01
2.823535501956939697e-01 1.288072168827056885e-01 1.934466660022735596e-01
2.197571396827697754e-01 4.472136870026588440e-02 6.997879743576049805e-01
-2.223231941461563110e-01 6.483137607574462891e-02 7.217377424240112305e-01
5.190672278404235840e-01 7.778383791446685791e-02 4.678405523300170898e-01
-2.047115564346313477e-02 1.618576645851135254e-01 7.707899808883666992e-01
2.493030130863189697e-01 3.774784505367279053e-02 4.522216618061065674e-01
6.650804728269577026e-02 1.634068936109542847e-01 7.611562013626098633e-01
3.722566962242126465e-01 6.833350658416748047e-02 6.790587306022644043e-01
1.332285106182098389e-01 5.052338540554046631e-02 8.055608868598937988e-01
6.965585052967071533e-02 4.373420402407646179e-02 7.846256494522094727e-01
3.789658844470977783e-01 1.430568993091583252e-01 2.362126410007476807e-01
3.646424114704132080e-01 1.506050527095794678e-01 6.255464553833007812e-01
1.136664003133773804e-01 3.488579392433166504e-02 6.299210786819458008e-01
1.458681672811508179e-01 7.765048742294311523e-02 9.015405178070068359e-01
3.584467172622680664e-01 1.423722952604293823e-01 6.820229291915893555e-01
-4.915876686573028564e-02 1.328293532133102417e-01 4.155936837196350098e-01
4.418602585792541504e-01 7.369406521320343018e-02 1.977173984050750732e-01
-2.191701680421829224e-01 1.385822147130966187e-01 8.256512284278869629e-01
1.275789439678192139e-01 1.600463837385177612e-01 7.732646465301513672e-01
1.452930867671966553e-01 3.441549092531204224e-02 5.502716302871704102e-01
5.613819360733032227e-01 1.203737854957580566e-01 3.397798836231231689e-01
-1.185330599546432495e-01 5.090393498539924622e-02 8.315957784652709961e-01
-1.716109961271286011e-01 1.293120980262756348e-01 5.603874325752258301e-01
1.521131992340087891e-01 1.697524189949035645e-01 5.944781899452209473e-01
7.163435220718383789e-04 6.501090526580810547e-02 9.292215108871459961e-01
1.419090926647186279e-01 6.566288322210311890e-02 2.737323045730590820e-01
-7.458399236202239990e-02 4.233830422163009644e-02 7.033798694610595703e-01
-1.529909670352935791e-02 8.911857008934020996e-02 9.896787405014038086e-01
1.999472081661224365e-02 1.219670400023460388e-01 9.719141721725463867e-01
3.821094334125518799e-01 8.345109224319458008e-02 1.604159772396087646e-01
3.419473767280578613e-01 1.587479412555694580e-01 5.801221728324890137e-01
4.122084379196166992e-01 6.845930963754653931e-02 2.085943818092346191e-01
1.790312677621841431e-01 1.645370721817016602e-01 4.267750978469848633e-01
-1.497632265090942383e-02 1.469461768865585327e-01 9.019737243652343750e-01
5.310107022523880005e-02 1.225728243589401245e-01 2.998890280723571777e-01
-2.369956672191619873e-02 4.854902997612953186e-02 8.422285318374633789e-01
-1.402888745069503784e-01 1.516401916742324829e-01 6.813023686408996582e-01
2.247896343469619751e-01 5.842815339565277100e-02 2.634896636009216309e-01
-1.351539939641952515e-01 1.309028118848800659e-01 5.119285583496093750e-01
5.107618570327758789e-01 1.285709291696548462e-01 4.973819851875305176e-01
1.914770305156707764e-01 1.627343147993087769e-01 4.005905389785766602e-01
3.301443159580230713e-02 3.603663295507431030e-02 6.435459852218627930e-01
5.031123757362365723e-02 6.072777137160301208e-02 3.520833849906921387e-01
3.975306749343872070e-01 1.500407159328460693e-01 5.789572000503540039e-01
-1.243884116411209106e-01 1.454261094331741333e-01 8.945486545562744141e-01
5.132151395082473755e-02 3.541401028633117676e-02 6.165121197700500488e-01
2.663214802742004395e-01 1.587328761816024780e-01 6.793905496597290039e-01
9.035021066665649414e-03 5.768286809325218201e-02 3.999072611331939697e-01
1.239395290613174438e-01 1.645980179309844971e-01 7.282803058624267578e-01
7.705913484096527100e-02 5.332665890455245972e-02 8.500823974609375000e-01
2.468534559011459351e-01 9.992657601833343506e-02 8.586540222167968750e-01
-7.950419187545776367e-02 6.328120827674865723e-02 4.663597643375396729e-01
