-3.259857594966888428e-01 -8.228144794702529907e-02 2.002069354057312012e-02
2.757863700389862061e-01 -2.807015776634216309e-01 -6.394192576408386230e-01
-2.970447242259979248e-01 -1.825717985630035400e-01 2.051474452018737793e-01
3.302485644817352295e-01 -3.394975662231445312e-01 -1.857065707445144653e-01
-6.403427571058273315e-03 2.906139492988586426e-01 -5.129145085811614990e-02
2.630215287208557129e-01 -3.717471957206726074e-01 1.428781747817993164e-01
-1.379826068878173828e-01 -4.514283537864685059e-01 -3.722592294216156006e-01
1.102372482419013977e-01 -4.895365834236145020e-01 -1.970299035310745239e-01
-2.031127512454986572e-01 1.470616906881332397e-01 -3.711678683757781982e-01
-1.329720020294189453e-01 -3.555617332458496094e-01 -6.629538536071777344e-01
2.713895440101623535e-01 -3.227162361145019531e-01 -5.728690624237060547e-01
-2.187674492597579956e-02 4.136352241039276123e-02 6.050209999084472656e-01
3.284575939178466797e-01 1.647062152624130249e-01 1.203634440898895264e-01
3.022201359272003174e-01 -6.934055685997009277e-02 -7.181736230850219727e-01
1.364969462156295776e-02 -4.714534878730773926e-01 -4.680866003036499023e-01
-8.292666822671890259e-02 -4.890971183776855469e-01 -2.208947241306304932e-01
-2.141596078872680664e-01 -4.178624153137207031e-01 -1.881366223096847534e-01
4.149515926837921143e-01 -1.571458876132965088e-01 -1.985919475555419922e-01
-6.053756177425384521e-02 -3.594253063201904297e-01 -7.280521392822265625e-01
4.165410399436950684e-01 -7.986031472682952881e-03 -2.623325586318969727e-01
2.632527351379394531e-01 8.023123443126678467e-02 -6.870521903038024902e-01
3.325375616550445557e-01 -3.330806195735931396e-01 -2.454633265733718872e-01
1.533252894878387451e-01 -4.718251824378967285e-01 -2.640777826309204102e-01
3.721430599689483643e-01 -4.340466484427452087e-02 2.662743926048278809e-01
2.797848880290985107e-01 -1.560139060020446777e-01 -7.454257011413574219e-01
-1.858519315719604492e-01 -4.395054578781127930e-01 -8.691529184579849243e-02
2.497480809688568115e-01 2.501849532127380371e-01 -2.325529456138610840e-01
-1.991477310657501221e-01 1.228739172220230103e-01 2.566817402839660645e-01
3.105453252792358398e-01 1.333449929952621460e-01 2.692581415176391602e-01
2.410077452659606934e-01 1.911499649286270142e-01 -5.220760107040405273e-01
3.964886069297790527e-01 -4.642443731427192688e-02 1.650939881801605225e-01
-2.243428677320480347e-02 -4.932646155357360840e-01 1.919582486152648926e-03
1.205951422452926636e-01 -3.758829236030578613e-01 3.858146071434020996e-01
3.245421051979064941e-01 -2.154847383499145508e-01 3.124779462814331055e-01
-2.809650599956512451e-01 8.311703801155090332e-03 1.879940330982208252e-01
4.021369218826293945e-01 -9.054815024137496948e-02 -4.100918471813201904e-01
1.651839017868041992e-01 -4.474182724952697754e-01 9.450070559978485107e-02
9.314437210559844971e-02 -1.532421708106994629e-01 6.413078308105468750e-01
-4.998015612363815308e-02 2.247818857431411743e-01 2.870191037654876709e-01
1.330493688583374023e-01 4.044815897941589355e-03 -8.695854544639587402e-01
2.137277424335479736e-01 -2.162744998931884766e-01 -8.046956658363342285e-01
-1.317189633846282959e-01 -3.359473049640655518e-01 4.085619449615478516e-01
-5.876074731349945068e-02 3.014278411865234375e-02 -8.243775963783264160e-01
3.407364487648010254e-01 -5.742522701621055603e-02 -6.325256228446960449e-01
-1.206951364874839783e-01 -1.609097272157669067e-01 5.768177509307861328e-01
-1.206443086266517639e-01 -4.560348987579345703e-01 8.740538358688354492e-02
-1.963759958744049072e-01 -3.135122358798980713e-03 4.482468366622924805e-01
4.222348034381866455e-01 -2.248215675354003906e-02 -7.052893191576004028e-02
6.970814615488052368e-02 -4.962623119354248047e-01 -7.430057227611541748e-02
1.551974713802337646e-01 2.779054641723632812e-01 -3.129996061325073242e-01
3.131662011146545410e-01 -2.084497809410095215e-01 -6.436516642570495605e-01
2.528463304042816162e-01 -2.737163305282592773e-01 -6.938383579254150391e-01
-2.180126905441284180e-01 -3.764367103576660156e-01 -4.293937981128692627e-01
2.435367107391357422e-01 2.290564328432083130e-01 -3.882366418838500977e-01
-2.197068631649017334e-01 8.114700019359588623e-02 2.871189415454864502e-01
-1.880998015403747559e-01 -3.156982362270355225e-03 -6.932737231254577637e-01
-2.848176360130310059e-01 5.964364111423492432e-02 -2.155154645442962646e-01
2.145475447177886963e-01 2.737181782722473145e-01 -8.687785267829895020e-02
3.176544308662414551e-01 3.404058516025543213e-02 3.811568021774291992e-01
-5.904223024845123291e-02 -3.484874963760375977e-02 6.245642304420471191e-01
3.037891983985900879e-01 -1.913804411888122559e-01 3.896160125732421875e-01
-1.789450645446777344e-01 -1.016683354973793030e-01 -7.610019445419311523e-01
-7.978451997041702271e-02 -1.176263764500617981e-01 6.196998357772827148e-01
2.696970105171203613e-01 -1.027880609035491943e-01 -7.738969922065734863e-01
5.650138854980468750e-02 1.310817897319793701e-02 6.376985907554626465e-01
-2.138155102729797363e-01 -4.053921699523925781e-01 2.697068452835083008e-02
1.062662377953529358e-01 -4.626023173332214355e-01 1.294822394847869873e-01
4.169899821281433105e-01 -5.917470529675483704e-02 -3.054952323436737061e-01
-1.691209971904754639e-01 -8.408364653587341309e-02 5.274712443351745605e-01
3.894485235214233398e-01 -2.050367593765258789e-01 -3.518154025077819824e-01
-1.745612174272537231e-02 -4.580166935920715332e-01 -5.155860185623168945e-01
-3.111668527126312256e-01 -2.582220733165740967e-01 -2.619145214557647705e-01
-2.159560620784759521e-01 -9.934425354003906250e-03 -6.426018476486206055e-01
-3.899689018726348877e-02 -4.996257424354553223e-01 -1.341935396194458008e-01
-3.200883865356445312e-01 -2.202264219522476196e-01 1.524363458156585693e-02
3.690201044082641602e-01 -2.803359627723693848e-01 -1.918614059686660767e-01
-9.902285784482955933e-02 1.995417028665542603e-01 -4.904947578907012939e-01
3.966900706291198730e-01 7.899194955825805664e-02 -3.862085193395614624e-02
-4.802171140909194946e-02 -4.960005283355712891e-01 -7.386274635791778564e-02
-1.928750872611999512e-01 1.122963726520538330e-01 -5.108319520950317383e-01
1.376537978649139404e-01 2.882370948791503906e-01 -2.583538293838500977e-01
3.908908367156982422e-01 -1.447679698467254639e-01 -4.382798671722412109e-01
-3.304159343242645264e-01 -1.307708323001861572e-01 3.799751400947570801e-03
6.170307844877243042e-02 -4.875583052635192871e-01 -3.568702042102813721e-01
6.676236540079116821e-02 -4.921340942382812500e-01 -1.401797682046890259e-02
-1.533250212669372559e-01 1.835251897573471069e-01 2.112518846988677979e-01
-7.778941094875335693e-02 2.571468949317932129e-01 -2.645255923271179199e-01
-1.491644978523254395e-01 3.168602287769317627e-02 4.980776906013488770e-01
9.445947408676147461e-02 -2.525518834590911865e-01 -8.649608492851257324e-01
2.726068496704101562e-01 -4.002184867858886719e-01 -2.086957246065139771e-01
-1.578105986118316650e-01 -4.545010328292846680e-01 -4.301350563764572144e-02
6.717164814472198486e-02 -3.686212301254272461e-01 4.314563274383544922e-01
-2.617514431476593018e-01 -1.344630122184753418e-01 3.438939452171325684e-01
4.762980714440345764e-02 2.984339594841003418e-01 -1.684163957834243774e-01
9.418863803148269653e-02 2.909733057022094727e-01 7.631072402000427246e-02
-2.864853739738464355e-01 2.017841041088104248e-01 1.451016068458557129e-01
-2.398649007081985474e-01 2.431938499212265015e-01 -4.102086126804351807e-01
-7.223535794764757156e-03 2.644791305065155029e-01 6.617959141731262207e-01
6.757234781980514526e-02 1.954316198825836182e-01 -3.274565339088439941e-01
-2.476124465465545654e-01 1.968003660440444946e-01 2.333749532699584961e-01
-1.749621480703353882e-01 2.378393262624740601e-01 8.250098228454589844e-01
-2.312143594026565552e-01 1.945017129182815552e-01 1.807039082050323486e-01
-3.347704112529754639e-01 2.152405828237533569e-01 1.773053705692291260e-01
-2.142406255006790161e-01 1.956164985895156860e-01 -1.568040549755096436e-01
1.543824821710586548e-01 2.053874433040618896e-01 -3.908291757106781006e-01
2.360053919255733490e-02 2.745850682258605957e-01 2.058897912502288818e-01
-1.007684990763664246e-01 1.916051208972930908e-01 -2.652502655982971191e-01
4.035180807113647461e-02 2.065934985876083374e-01 7.941045165061950684e-01
-1.659978479146957397e-01 2.664184868335723877e-01 3.237347900867462158e-01
-4.856396466493606567e-02 2.040109038352966309e-01 -5.521067380905151367e-01
-2.200661227107048035e-02 2.646788656711578369e-01 -3.861750662326812744e-01
7.505960017442703247e-02 2.524687945842742920e-01 -5.646613836288452148e-01
2.228136211633682251e-01 2.128761708736419678e-01 -3.253956437110900879e-01
1.960223466157913208e-01 2.592694163322448730e-01 -2.814625203609466553e-01
-1.315897610038518906e-02 2.598140835762023926e-01 7.498961091041564941e-01
-2.580510377883911133e-01 2.049641758203506470e-01 -2.634766697883605957e-01
-4.378289356827735901e-02 1.888552457094192505e-01 -1.847459077835083008e-01
2.963814139366149902e-01 2.502888143062591553e-01 2.079186141490936279e-01
-4.066020995378494263e-02 2.736524939537048340e-01 2.492499351501464844e-01
1.585013568401336670e-01 2.701445519924163818e-01 2.156801819801330566e-01
-3.621855378150939941e-02 2.715216279029846191e-01 4.174069464206695557e-01
-8.450845628976821899e-02 1.889669895172119141e-01 3.872034251689910889e-01
2.407924085855484009e-01 2.055626511573791504e-01 2.492787837982177734e-01
-2.244913205504417419e-02 2.688043415546417236e-01 5.390430092811584473e-01
-3.142142295837402344e-01 2.440705001354217529e-01 2.680140733718872070e-01
-1.525420397520065308e-01 2.226702719926834106e-01 8.623241782188415527e-01
-1.773262023925781250e-01 1.924318671226501465e-01 -1.496468484401702881e-01
-2.991502173244953156e-03 2.728912532329559326e-01 3.683170378208160400e-01
2.365412861108779907e-01 2.122482806444168091e-01 -2.618351578712463379e-01
2.384020835161209106e-01 2.551816403865814209e-01 4.966284036636352539e-01
-5.315463244915008545e-02 2.691797912120819092e-01 4.998058676719665527e-01
7.304389774799346924e-02 1.972554326057434082e-01 -3.677112162113189697e-01
8.517680317163467407e-02 2.731912434101104736e-01 2.717871963977813721e-01
-1.110440567135810852e-01 1.869509816169738770e-01 7.952924817800521851e-02
-6.536303460597991943e-02 2.233952581882476807e-01 -6.906409859657287598e-01
1.374500095844268799e-01 1.952137947082519531e-01 3.725917637348175049e-01
1.100709140300750732e-01 1.914718449115753174e-01 2.547200322151184082e-01
-1.498133093118667603e-01 2.103400975465774536e-01 7.870130538940429688e-01
9.458503127098083496e-02 2.350094318389892578e-01 9.080815315246582031e-01
-2.399538010358810425e-01 2.274785786867141724e-01 -4.898916184902191162e-01
-1.640225760638713837e-02 2.244143486022949219e-01 9.420740604400634766e-01
1.672254502773284912e-01 2.122430056333541870e-01 -4.652944505214691162e-01
-1.611624360084533691e-01 2.084391862154006958e-01 -5.266154408454895020e-01
2.092926800251007080e-01 2.631213963031768799e-01 -1.183241233229637146e-01
1.209154874086380005e-01 1.918982863426208496e-01 5.215913057327270508e-03
3.238389641046524048e-02 1.946637034416198730e-01 -3.489487171173095703e-01
-2.395420335233211517e-02 1.901110112667083740e-01 -2.373399436473846436e-01
-1.873442679643630981e-01 2.530229389667510986e-01 -4.057327210903167725e-01
-1.663057208061218262e-01 1.893293410539627075e-01 5.847553163766860962e-02
-3.759371116757392883e-02 2.714329957962036133e-01 -1.501314938068389893e-01
1.813706606626510620e-01 2.534495890140533447e-01 -4.178498685359954834e-01
-9.429040551185607910e-02 2.420482933521270752e-01 -6.431882381439208984e-01
3.452111780643463135e-02 2.023625522851943970e-01 7.357803583145141602e-01
-1.462240517139434814e-01 2.685455083847045898e-01 2.749443054199218750e-01
3.334581106901168823e-02 2.587667107582092285e-01 7.657508254051208496e-01
-2.821178138256072998e-01 2.248267680406570435e-01 -3.720718324184417725e-01
-3.398238420486450195e-01 2.176866829395294189e-01 7.356401532888412476e-02
-3.223022222518920898e-01 2.155385166406631470e-01 3.448750972747802734e-01
-1.199835985898971558e-01 1.879286020994186401e-01 2.532196938991546631e-01
-1.183792501688003540e-01 2.500258982181549072e-01 8.084113001823425293e-01
8.786141872406005859e-03 1.934682130813598633e-01 5.568342208862304688e-01
3.152134269475936890e-02 1.878515332937240601e-01 -4.228322952985763550e-02
-1.310331374406814575e-01 2.668815255165100098e-01 -1.751626431941986084e-01
2.261780761182308197e-02 2.627589702606201172e-01 6.990152001380920410e-01
2.665501832962036133e-01 2.531175613403320312e-01 4.060558676719665527e-01
-5.843367427587509155e-02 2.734368145465850830e-01 6.577777862548828125e-02
-9.128119051456451416e-02 2.545185685157775879e-01 7.827646136283874512e-01
2.352924086153507233e-02 1.898646205663681030e-01 -1.888303756713867188e-01
1.343312412500381470e-01 2.660600543022155762e-01 -2.498715519905090332e-01
-2.787311375141143799e-01 2.270160615444183350e-01 6.186050176620483398e-01
-2.691314816474914551e-01 2.447955906391143799e-01 5.401875376701354980e-01
1.658215969800949097e-01 1.951983571052551270e-01 1.108132675290107727e-01
2.309815883636474609e-01 2.102042883634567261e-01 4.841340482234954834e-01
-1.308553814888000488e-01 2.245158404111862183e-01 8.898138403892517090e-01
-1.979328542947769165e-01 2.588370144367218018e-01 -2.511293292045593262e-01
-3.902116417884826660e-02 2.647237479686737061e-01 6.428071856498718262e-01
-2.579251825809478760e-01 2.087483406066894531e-01 -3.297641277313232422e-01
-2.145452201366424561e-01 2.527533173561096191e-01 -3.421931862831115723e-01
1.146590113639831543e-01 1.952772289514541626e-01 4.523102641105651855e-01
-2.572174668312072754e-01 2.109416723251342773e-01 5.855655074119567871e-01
-2.024993598461151123e-01 1.989502906799316406e-01 -2.998001277446746826e-01
-4.124065488576889038e-02 1.892196238040924072e-01 4.199745357036590576e-01
-2.231575101613998413e-01 2.619038820266723633e-01 2.046665251255035400e-01
7.635051012039184570e-02 2.738362550735473633e-01 6.059396266937255859e-02
1.247806996107101440e-01 2.005363553762435913e-01 -3.552570044994354248e-01
-2.659132480621337891e-01 2.498701661825180054e-01 4.609498083591461182e-01
7.565865665674209595e-02 1.888688802719116211e-01 7.295288890600204468e-02
-1.231969520449638367e-01 2.609279751777648926e-01 6.344845294952392578e-01
-5.415090173482894897e-02 1.928585320711135864e-01 -3.317509591579437256e-01
-3.128391206264495850e-01 2.233942896127700806e-01 -2.432885766029357910e-01
3.920544683933258057e-02 1.886842250823974609e-01 -9.172546118497848511e-02
1.506819278001785278e-01 2.587747573852539062e-01 -3.917547166347503662e-01
2.074082493782043457e-01 2.526637613773345947e-01 -3.693408668041229248e-01
-8.638101816177368164e-02 1.941362023353576660e-01 -3.536011576652526855e-01
3.192905783653259277e-01 2.382068634033203125e-01 8.807863295078277588e-02
8.102867752313613892e-02 2.674472928047180176e-01 -2.864960730075836182e-01
2.442428320646286011e-01 2.510368227958679199e-01 5.469765663146972656e-01
7.525648921728134155e-03 2.034510225057601929e-01 7.663548588752746582e-01
-2.398953735828399658e-01 2.103026509284973145e-01 6.264193058013916016e-01
1.667587459087371826e-01 2.697419822216033936e-01 1.756869256496429443e-01
-2.070122659206390381e-01 2.354988604784011841e-01 -5.387273430824279785e-01
4.361970722675323486e-02 1.928714066743850708e-01 5.050006508827209473e-01
9.573389589786529541e-02 2.680773138999938965e-01 5.215043425559997559e-01
1.889554858207702637e-01 2.140579372644424438e-01 -4.382587373256683350e-01
2.472375482320785522e-01 2.061704248189926147e-01 2.021628171205520630e-01
1.825031191110610962e-01 2.685635387897491455e-01 1.233669221401214600e-01
-1.250136941671371460e-01 1.879514157772064209e-01 -2.288595587015151978e-02
1.081202849745750427e-01 2.608198821544647217e-01 6.830368041992187500e-01
1.888235807418823242e-01 2.583045661449432373e-01 5.903930068016052246e-01
-2.801922857761383057e-01 2.500358819961547852e-01 3.732273578643798828e-01
-1.171233057975769043e-01 2.660569250583648682e-01 5.058439970016479492e-01
2.458541542291641235e-01 2.577653825283050537e-01 -1.241553649306297302e-01
1.787955313920974731e-02 1.869343966245651245e-01 2.879732847213745117e-02
1.282141953706741333e-01 2.189093828201293945e-01 -5.884446501731872559e-01
-8.824724704027175903e-02 2.690791785717010498e-01 -1.821708679199218750e-01
-1.156640984117984772e-02 2.667727172374725342e-01 6.044209003448486328e-01
1.190051734447479248e-01 2.295006662607192993e-01 -6.358193159103393555e-01
2.791379094123840332e-01 2.544475197792053223e-01 2.488873302936553955e-01
-1.387066394090652466e-01 1.945286542177200317e-01 -3.099914491176605225e-01
-7.515519857406616211e-02 2.547010779380798340e-01 -5.355024933815002441e-01
2.157546430826187134e-01 2.650265991687774658e-01 2.217678725719451904e-01
6.240171939134597778e-02 1.923776865005493164e-01 4.580729305744171143e-01
1.232501715421676636e-01 2.039948552846908569e-01 -4.284376204013824463e-01
3.178912997245788574e-01 2.335432320833206177e-01 1.761242747306823730e-02
5.072166025638580322e-02 1.881490796804428101e-01 2.209065854549407959e-01
7.904589176177978516e-02 2.163350731134414673e-01 8.641648888587951660e-01
8.780267834663391113e-02 2.634503245353698730e-01 -3.825884759426116943e-01
6.554895639419555664e-02 2.174282222986221313e-01 -6.428991556167602539e-01
-1.956367790699005127e-01 2.540221214294433594e-01 6.227366924285888672e-01
7.679376006126403809e-02 1.897405982017517090e-01 2.711273729801177979e-01
-1.601038873195648193e-01 2.039595842361450195e-01 -4.717893302440643311e-01
-1.161163449287414551e-01 2.011357843875885010e-01 -4.769175946712493896e-01
1.887579075992107391e-02 2.675828933715820312e-01 -3.165167868137359619e-01
1.204246580600738525e-01 2.079705297946929932e-01 -4.947175085544586182e-01
1.171915382146835327e-01 2.013820111751556396e-01 6.197893023490905762e-01
-2.272546887397766113e-01 1.976975500583648682e-01 4.018614888191223145e-01
6.346982717514038086e-02 1.884171217679977417e-01 1.789187639951705933e-01
-1.266445498913526535e-02 2.738774716854095459e-01 -9.166903793811798096e-03
-1.037076339125633240e-01 2.713960707187652588e-01 2.548961341381072998e-02
2.914271354675292969e-01 2.348554879426956177e-01 4.694981575012207031e-01
2.213994860649108887e-01 2.589345276355743408e-01 -2.051110565662384033e-01
6.053744256496429443e-02 2.503672838211059570e-01 8.549245595932006836e-01
-1.151501312851905823e-01 2.130113095045089722e-01 -6.137212514877319336e-01
-2.737586796283721924e-01 2.109269201755523682e-01 5.298687815666198730e-01
1.607488691806793213e-01 2.478571832180023193e-01 -5.157161951065063477e-01
2.083988785743713379e-01 2.557355761528015137e-01 -3.177971243858337402e-01
2.398400157690048218e-01 2.622053921222686768e-01 9.068903326988220215e-02
3.123382925987243652e-01 2.243257761001586914e-01 1.303979158401489258e-01
3.783486783504486084e-02 2.586477100849151611e-01 -5.017895698547363281e-01
1.361927017569541931e-02 1.950369030237197876e-01 5.973944067955017090e-01
-8.766053617000579834e-02 2.718648612499237061e-01 -7.035128772258758545e-03
-2.258481457829475403e-03 2.716571390628814697e-01 -1.648652553558349609e-01
4.834633320569992065e-02 2.418114393949508667e-01 -6.627117395401000977e-01
3.062409460544586182e-01 2.403311729431152344e-01 -8.418486267328262329e-02
-6.380367279052734375e-02 1.986371725797653198e-01 6.867947578430175781e-01
2.825618386268615723e-01 2.529326081275939941e-01 2.835825681686401367e-01
2.704273462295532227e-01 2.476920187473297119e-01 -2.201853394508361816e-01
1.602119207382202148e-01 1.948503702878952026e-01 1.833290755748748779e-01
-1.445506811141967773e-01 2.496204972267150879e-01 7.801605463027954102e-01
-2.304597496986389160e-01 2.581952810287475586e-01 3.898382782936096191e-01
-5.633760709315538406e-03 1.864061504602432251e-01 1.755540072917938232e-01
-9.058909863233566284e-02 2.072755247354507446e-01 -5.771481394767761230e-01
9.889233112335205078e-02 2.522976398468017578e-01 8.103966116905212402e-01
-8.895652368664741516e-03 1.883855164051055908e-01 3.658198416233062744e-01
-1.637612134218215942e-01 2.673795819282531738e-01 5.443215370178222656e-03
1.518972963094711304e-01 2.544657886028289795e-01 -4.570585191249847412e-01
1.061140373349189758e-01 2.480223774909973145e-01 -5.823218226432800293e-01
-2.801240086555480957e-01 2.063116878271102905e-01 4.181367754936218262e-01
-2.766424715518951416e-01 2.028337121009826660e-01 3.333787620067596436e-01
-1.514895558357238770e-01 2.476526498794555664e-01 -5.392630100250244141e-01
2.544703483581542969e-01 2.371665984392166138e-01 -3.630044460296630859e-01
2.265229672193527222e-01 2.635217010974884033e-01 2.811241149902343750e-02
1.218833476305007935e-01 2.720214724540710449e-01 2.460541725158691406e-01
-9.501534700393676758e-02 2.082995027303695679e-01 8.138328194618225098e-01
-1.420100629329681396e-01 2.402226328849792480e-01 -6.103406548500061035e-01
1.531912088394165039e-01 2.704138755798339844e-01 4.729050397872924805e-02
-1.548690628260374069e-02 1.876599788665771484e-01 3.249000012874603271e-01
-1.054366976022720337e-01 2.031872272491455078e-01 -5.166836380958557129e-01
4.674576967954635620e-02 2.081931084394454956e-01 -5.770899653434753418e-01
5.406703799962997437e-02 2.554563879966735840e-01 8.039801120758056641e-01
-1.766991466283798218e-01 1.898614764213562012e-01 1.106865778565406799e-01
-2.918841540813446045e-01 2.311253249645233154e-01 5.668203234672546387e-01
-1.139871776103973389e-01 1.900798529386520386e-01 -1.879653036594390869e-01
-1.272893790155649185e-02 2.713520228862762451e-01 4.456571638584136963e-01
1.037541851401329041e-01 1.968277245759963989e-01 -3.029461503028869629e-01
-1.467665880918502808e-01 2.679290473461151123e-01 -5.849847942590713501e-02
4.625591635704040527e-02 2.741717100143432617e-01 2.593535184860229492e-02
-2.328633666038513184e-01 2.078876197338104248e-01 -3.891616165637969971e-01
-3.938356041908264160e-02 1.953127086162567139e-01 6.195113062858581543e-01
-1.324510723352432251e-01 2.701728940010070801e-01 1.210889816284179688e-01
-7.274007424712181091e-03 2.079820334911346436e-01 8.294703364372253418e-01
-1.598876863718032837e-01 1.905788779258728027e-01 -1.071187034249305725e-01
2.808797061443328857e-01 2.129437476396560669e-01 1.061759814620018005e-01
-9.317105263471603394e-02 2.719094157218933105e-01 2.411728799343109131e-01
1.642140932381153107e-02 1.925793439149856567e-01 -3.016288578510284424e-01
4.954648017883300781e-02 2.711129784584045410e-01 4.534648954868316650e-01
1.846272647380828857e-01 2.238206565380096436e-01 -5.233728289604187012e-01
-1.750375032424926758e-01 2.668870985507965088e-01 6.921829283237457275e-02
-2.181414663791656494e-01 2.614497542381286621e-01 -4.659131914377212524e-02
1.451005488634109497e-01 2.011883109807968140e-01 -3.238255977630615234e-01
1.522116959095001221e-01 2.676260471343994141e-01 -1.490011811256408691e-01
2.288407534360885620e-01 2.551426589488983154e-01 -2.645433843135833740e-01
2.716291248798370361e-01 2.254158109426498413e-01 5.296722054481506348e-01
4.430602490901947021e-02 2.736405134201049805e-01 3.077405393123626709e-01
-6.581678986549377441e-02 2.733528316020965576e-01 1.490758061408996582e-01
6.921228766441345215e-02 1.914620101451873779e-01 4.042556583881378174e-01
8.196663856506347656e-02 2.692490220069885254e-01 -2.253165841102600098e-01
2.948873676359653473e-02 1.870546340942382812e-01 1.338050216436386108e-01
8.610562980175018311e-02 1.893588453531265259e-01 1.245308369398117065e-01
2.276547551155090332e-01 2.183525115251541138e-01 -3.794915378093719482e-01
1.114738211035728455e-01 1.951959729194641113e-01 -2.311483025550842285e-01
-3.359242528676986694e-02 1.906783431768417358e-01 4.804894924163818359e-01
7.095628231763839722e-02 2.665091753005981445e-01 -3.226760327816009521e-01
1.371667385101318359e-01 2.473039031028747559e-01 8.143970966339111328e-01
-1.473118662834167480e-01 2.645291090011596680e-01 -2.224203348159790039e-01
1.723399162292480469e-01 1.962272524833679199e-01 1.459474116563796997e-02
-2.342148572206497192e-01 1.961895525455474854e-01 -8.291562646627426147e-02
2.149868309497833252e-01 2.020389735698699951e-01 2.817047834396362305e-01
-1.971077173948287964e-02 2.631468176841735840e-01 -4.212395250797271729e-01
-9.720322489738464355e-02 1.949622184038162231e-01 5.870482325553894043e-01
1.135560125112533569e-01 1.910130381584167480e-01 8.679065108299255371e-02
-1.876813359558582306e-02 2.704090476036071777e-01 4.826641678810119629e-01
1.773307323455810547e-01 2.683950364589691162e-01 2.607946097850799561e-01
-6.967317312955856323e-02 1.902115792036056519e-01 4.545852541923522949e-01
4.634227603673934937e-02 2.503353357315063477e-01 -6.017963290214538574e-01
1.454527676105499268e-01 2.691898941993713379e-01 -9.388721734285354614e-02
-2.265856862068176270e-01 1.938258111476898193e-01 1.270325928926467896e-01
-4.952551424503326416e-02 1.934522688388824463e-01 5.697317719459533691e-01
-2.322697788476943970e-01 2.588956356048583984e-01 3.473540246486663818e-01
6.958039104938507080e-02 1.948449164628982544e-01 5.322839617729187012e-01
-3.173347115516662598e-01 2.447951436042785645e-01 1.091430187225341797e-01
-1.881320923566818237e-01 2.456268817186355591e-01 7.501661181449890137e-01
1.286841370165348053e-02 1.906138509511947632e-01 -2.340345382690429688e-01
-3.192629516124725342e-01 2.307667583227157593e-01 -2.026075720787048340e-01
-6.194861233234405518e-02 2.092739790678024292e-01 8.393466472625732422e-01
8.881864696741104126e-02 1.906023919582366943e-01 -6.807450205087661743e-02
-1.287336051464080811e-01 2.128804624080657959e-01 8.317148685455322266e-01
-1.634904146194458008e-01 1.897276788949966431e-01 -2.559513598680496216e-02
-1.812154501676559448e-01 2.644922733306884766e-01 -9.795647114515304565e-02
1.708156615495681763e-01 2.252669781446456909e-01 8.023186326026916504e-01
-1.681702584028244019e-01 1.940524131059646606e-01 4.572600126266479492e-01
-7.680244743824005127e-02 2.584065496921539307e-01 7.384922504425048828e-01
-1.137079969048500061e-01 1.964188218116760254e-01 -3.878802955150604248e-01
4.883854836225509644e-02 1.952404081821441650e-01 5.717967152595520020e-01
-2.199460566043853760e-02 2.487302422523498535e-01 8.808991312980651855e-01
1.302638053894042969e-01 2.139892727136611938e-01 7.870968580245971680e-01
-1.819533556699752808e-01 1.908677369356155396e-01 2.407067418098449707e-01
2.167086862027645111e-02 2.162050604820251465e-01 -6.593589186668395996e-01
1.912041753530502319e-01 1.979500353336334229e-01 1.623211801052093506e-01
-1.536263227462768555e-01 1.902644038200378418e-01 3.234900832176208496e-01
-7.626281119883060455e-03 1.865982562303543091e-01 2.150607109069824219e-01
-5.423112958669662476e-02 2.141469717025756836e-01 -6.513605117797851562e-01
-3.371077477931976318e-01 2.182936370372772217e-01 2.393494695425033569e-01
2.919057905673980713e-01 2.272370606660842896e-01 -1.867095828056335449e-01
-1.991609632968902588e-01 2.647498250007629395e-01 1.019552499055862427e-01
-1.167939454317092896e-01 2.497189939022064209e-01 -5.594732761383056641e-01
-1.052558124065399170e-01 1.906491816043853760e-01 4.411060810089111328e-01
1.291058212518692017e-01 2.720191776752471924e-01 9.435768425464630127e-02
7.786660641431808472e-02 2.633922398090362549e-01 6.615223288536071777e-01
-3.693211078643798828e-02 1.917731761932373047e-01 5.193835496902465820e-01
-9.786903113126754761e-02 1.885454058647155762e-01 -1.320137083530426025e-01
-1.218456476926803589e-01 2.030526101589202881e-01 7.256303429603576660e-01
-1.640522293746471405e-02 2.666108608245849609e-01 -3.391835391521453857e-01
-1.495833694934844971e-01 2.667121291160583496e-01 3.843537569046020508e-01
-1.749077439308166504e-01 2.666900753974914551e-01 2.287926077842712402e-01
1.692474186420440674e-01 2.689419090747833252e-01 5.899220705032348633e-03
-7.344317436218261719e-02 1.896148175001144409e-01 -2.098861038684844971e-01
-3.692620992660522461e-02 1.859886348247528076e-01 1.162813827395439148e-01
7.852675765752792358e-02 2.046354264020919800e-01 -5.025476813316345215e-01
9.042569249868392944e-02 1.948767006397247314e-01 4.957776069641113281e-01
-2.896628156304359436e-02 2.003348618745803833e-01 -4.976943433284759521e-01
-2.085567414760589600e-01 2.637970447540283203e-01 1.376950740814208984e-01
-1.527376025915145874e-01 2.606711387634277344e-01 5.839889049530029297e-01
-4.523880779743194580e-04 1.863454282283782959e-01 1.117411628365516663e-01
-2.233133167028427124e-01 2.000540345907211304e-01 4.879475831985473633e-01
-2.705865502357482910e-01 2.547976374626159668e-01 2.341839671134948730e-02
-1.870284788310527802e-03 2.727065682411193848e-01 -1.081897243857383728e-01
-2.631414830684661865e-01 2.432736009359359741e-01 -3.375499248504638672e-01
-1.001183316111564636e-01 2.268066704273223877e-01 -6.789173483848571777e-01
1.263627260923385620e-01 1.953139603137969971e-01 -1.910981535911560059e-01
-1.599621325731277466e-01 1.892191469669342041e-01 1.252362877130508423e-02
-2.201999872922897339e-01 2.092503011226654053e-01 -4.358862936496734619e-01
1.478706449270248413e-01 2.702925205230712891e-01 2.807578444480895996e-01
1.216363906860351562e-01 2.656407654285430908e-01 -2.853381931781768799e-01
2.361107431352138519e-02 1.958076506853103638e-01 -3.860235512256622314e-01
1.468271315097808838e-01 2.568260133266448975e-01 6.977089047431945801e-01
-2.319449186325073242e-02 2.005726546049118042e-01 7.268940806388854980e-01
4.068322479724884033e-02 1.883947849273681641e-01 2.849555909633636475e-01
2.029281295835971832e-02 2.091984152793884277e-01 -6.026091575622558594e-01
-2.690196931362152100e-01 2.005604952573776245e-01 -7.034631818532943726e-02
1.116109490394592285e-01 2.415084987878799438e-01 8.757257461547851562e-01
9.524758905172348022e-02 2.734677493572235107e-01 1.122676804661750793e-01
-1.142179220914840698e-02 2.431699335575103760e-01 -6.669701933860778809e-01
-2.166314795613288879e-02 2.734380066394805908e-01 3.113650679588317871e-01
4.831124097108840942e-02 2.686855196952819824e-01 -2.733931243419647217e-01
2.965064644813537598e-01 2.236568927764892578e-01 -1.165548190474510193e-01
-7.268034666776657104e-02 2.707237601280212402e-01 4.013242423534393311e-01
-2.635239362716674805e-01 2.004405111074447632e-01 -1.050243601202964783e-01
3.143543601036071777e-01 2.325046062469482422e-01 2.891119718551635742e-01
1.736537069082260132e-01 1.976421177387237549e-01 3.203998804092407227e-01
-2.154409512877464294e-02 2.559119760990142822e-01 -5.442786812782287598e-01
-6.159729510545730591e-02 2.576043605804443359e-01 -5.021988153457641602e-01
1.787657290697097778e-01 2.576380968093872070e-01 6.259615421295166016e-01
-1.571556478738784790e-01 1.969484537839889526e-01 5.636781454086303711e-01
1.596058607101440430e-01 2.629097700119018555e-01 -2.857065200805664062e-01
1.978332698345184326e-01 2.095737755298614502e-01 5.902056694030761719e-01
2.949156463146209717e-01 2.207760363817214966e-01 3.260844051837921143e-01
-1.939460486173629761e-01 1.920759230852127075e-01 -5.678611248731613159e-02
-1.150211617350578308e-01 2.696250081062316895e-01 -8.078231662511825562e-02
2.038841247558593750e-01 2.600651383399963379e-01 -2.383079528808593750e-01
-5.876265466213226318e-02 2.621579766273498535e-01 -4.214006364345550537e-01
1.041007600724697113e-02 2.461063265800476074e-01 9.023282527923583984e-01
2.780620753765106201e-01 2.197991609573364258e-01 4.327820241451263428e-01
8.542944490909576416e-02 2.104024738073348999e-01 8.034999370574951172e-01
-7.313148677349090576e-02 2.138576805591583252e-01 8.761100172996520996e-01
-1.285632401704788208e-01 2.621262371540069580e-01 -3.359448313713073730e-01
-2.064871191978454590e-01 2.637009322643280029e-01 4.002050310373306274e-02
1.062448471784591675e-01 2.720255851745605469e-01 -3.760606795549392700e-02
-9.553460031747817993e-02 2.485733181238174438e-01 8.447279334068298340e-01
-2.298647165298461914e-01 2.161251753568649292e-01 7.057253122329711914e-01
-3.232466802000999451e-02 1.981346160173416138e-01 -4.580318629741668701e-01
-2.591196000576019287e-01 2.570679485797882080e-01 1.837481558322906494e-01
1.637426204979419708e-02 2.517475783824920654e-01 8.552618622779846191e-01
2.562401890754699707e-01 2.597779929637908936e-01 1.262642145156860352e-01
1.995929516851902008e-02 2.621729671955108643e-01 -4.443622529506683350e-01
-1.275214999914169312e-01 1.952951848506927490e-01 -3.457857370376586914e-01
2.151488512754440308e-01 2.031522840261459351e-01 -1.071015521883964539e-01
-5.736199766397476196e-02 1.909755468368530273e-01 -2.704246342182159424e-01
1.955782920122146606e-01 2.632919251918792725e-01 -1.705634593963623047e-01
-1.160017326474189758e-01 2.701002061367034912e-01 3.083578944206237793e-01
-1.378796994686126709e-01 1.912036687135696411e-01 4.121234118938446045e-01
8.845082670450210571e-02 2.732231616973876953e-01 1.858306676149368286e-02
2.782698571681976318e-01 2.542044818401336670e-01 -4.716940224170684814e-03
5.293107032775878906e-02 2.003034949302673340e-01 -4.565604031085968018e-01
1.121813654899597168e-01 2.039669901132583618e-01 6.789157390594482422e-01
-6.717599928379058838e-02 2.595578730106353760e-01 -4.654029309749603271e-01
1.934864968061447144e-01 2.114936560392379761e-01 -3.938919603824615479e-01
5.415676534175872803e-02 2.741324603557586670e-01 2.392019033432006836e-01
-3.197544515132904053e-01 2.409156262874603271e-01 3.077560663223266602e-01
8.675050735473632812e-02 2.597575187683105469e-01 7.221068143844604492e-01
2.441393285989761353e-01 2.602831125259399414e-01 -2.879805117845535278e-02
-3.010153770446777344e-01 2.060559093952178955e-01 -4.181774705648422241e-02
1.239461302757263184e-01 2.003610879182815552e-01 5.833197832107543945e-01
6.777814775705337524e-02 1.905282139778137207e-01 -1.360863149166107178e-01
-1.969310939311981201e-01 2.641761004924774170e-01 -1.561509817838668823e-02
-1.207445003092288971e-02 2.498461008071899414e-01 -6.155303716659545898e-01
2.461328357458114624e-01 2.098370045423507690e-01 -1.563809514045715332e-01
1.102152466773986816e-01 1.926908940076828003e-01 -1.202082708477973938e-01
1.947690546512603760e-01 2.654214203357696533e-01 3.580785691738128662e-01
1.992666870355606079e-01 2.442984580993652344e-01 7.339503765106201172e-01
-1.385303586721420288e-01 1.969990134239196777e-01 5.928876399993896484e-01
-4.052411764860153198e-02 1.878017932176589966e-01 -1.266278326511383057e-01
3.028815984725952148e-01 2.377444803714752197e-01 3.907894790172576904e-01
-2.541170269250869751e-02 2.599133253097534180e-01 -4.814582169055938721e-01
-6.436754763126373291e-02 2.670115530490875244e-01 -2.934985756874084473e-01
2.569349706172943115e-01 2.078914791345596313e-01 4.785260558128356934e-02
-2.704220414161682129e-01 2.553619444370269775e-01 1.320833861827850342e-01
4.608517140150070190e-02 1.976927816867828369e-01 6.362529397010803223e-01
-2.355933040380477905e-01 2.605629563331604004e-01 1.046041548252105713e-01
-1.720094084739685059e-01 2.066776752471923828e-01 7.162669897079467773e-01
-1.961875557899475098e-01 2.198612242937088013e-01 7.914521098136901855e-01
1.305847465991973877e-01 1.930804252624511719e-01 -4.386634379625320435e-02
2.785659432411193848e-01 2.133637368679046631e-01 2.448717206716537476e-01
-2.611721754074096680e-01 2.538847029209136963e-01 -1.179318353533744812e-01
-1.006186679005622864e-01 2.637968361377716064e-01 6.018387675285339355e-01
-6.809882074594497681e-02 2.034801840782165527e-01 7.663261890411376953e-01
2.589926123619079590e-01 2.087543606758117676e-01 5.044549703598022461e-03
2.569056749343872070e-01 2.528172135353088379e-01 4.641873836517333984e-01
3.646581619977951050e-02 2.304206490516662598e-01 -6.965388059616088867e-01
-1.629785448312759399e-01 1.929691582918167114e-01 -2.131083607673645020e-01
2.296226173639297485e-01 2.088140696287155151e-01 -2.174642384052276611e-01
3.087395429611206055e-01 2.251441180706024170e-01 -1.594436913728713989e-02
2.028440088033676147e-01 2.656779587268829346e-01 2.926467657089233398e-01
-4.991317167878150940e-03 2.687510251998901367e-01 -2.787314057350158691e-01
-2.035759687423706055e-01 1.919002234935760498e-01 4.898000508546829224e-02
-2.940374612808227539e-01 2.486665099859237671e-01 -6.063386052846908569e-02
-2.206534147262573242e-01 2.518568634986877441e-01 5.930225253105163574e-01
-2.101559638977050781e-01 2.155345529317855835e-01 7.414220571517944336e-01
-2.442293763160705566e-01 1.968495696783065796e-01 2.681245505809783936e-01
-7.464505266398191452e-03 1.888126134872436523e-01 -1.695452928543090820e-01
-1.076937392354011536e-01 2.715390324592590332e-01 1.730899214744567871e-01
2.422177940607070923e-01 2.410793453454971313e-01 6.453616023063659668e-01
8.669310808181762695e-02 2.556498944759368896e-01 -5.175960659980773926e-01
2.769791483879089355e-01 2.280706018209457397e-01 -2.701490223407745361e-01
5.904948711395263672e-02 2.721082270145416260e-01 3.969117105007171631e-01
1.118897274136543274e-01 2.643714249134063721e-01 -3.335028588771820068e-01
2.287525981664657593e-01 2.319060713052749634e-01 6.983603835105895996e-01
2.004347592592239380e-01 2.591398656368255615e-01 5.417549610137939453e-01
7.244449853897094727e-02 2.661769092082977295e-01 6.008599996566772461e-01
5.426084995269775391e-02 2.732616364955902100e-01 -5.350361019372940063e-02
-1.479844748973846436e-01 2.510734796524047852e-01 -5.048040151596069336e-01
-1.504607200622558594e-01 1.913212835788726807e-01 -1.736370325088500977e-01
-1.705873310565948486e-01 2.161761373281478882e-01 -5.780953168869018555e-01
1.288933902978897095e-01 2.586567401885986328e-01 -4.273734390735626221e-01
1.352063715457916260e-01 2.686497569084167480e-01 4.261328279972076416e-01
-9.126772731542587280e-02 2.626980543136596680e-01 -3.780173957347869873e-01
1.641616523265838623e-01 2.671229839324951172e-01 4.063004255294799805e-01
-1.986336261034011841e-01 1.943966299295425415e-01 3.814319372177124023e-01
2.104544192552566528e-01 2.659230828285217285e-01 1.436560451984405518e-01
7.197692990303039551e-03 2.734890878200531006e-01 -5.793932825326919556e-02
-1.533571779727935791e-01 2.589071094989776611e-01 -3.643958866596221924e-01
1.629621088504791260e-01 2.571510076522827148e-01 6.655751466751098633e-01
-5.280939489603042603e-02 2.573626637458801270e-01 7.720040082931518555e-01
-3.286240100860595703e-01 2.182865738868713379e-01 -1.072018668055534363e-01
-3.873757272958755493e-02 2.725563645362854004e-01 -8.237139135599136353e-02
-2.769026719033718109e-02 2.563621103763580322e-01 7.974077463150024414e-01
-1.673342585563659668e-01 2.021244466304779053e-01 6.547788381576538086e-01
-1.541306227445602417e-01 2.640427947044372559e-01 4.822986721992492676e-01
1.970198154449462891e-01 2.098814696073532104e-01 -3.591521680355072021e-01
2.634117938578128815e-02 2.695564925670623779e-01 5.233201384544372559e-01
-1.781315058469772339e-01 1.970980763435363770e-01 5.277676582336425781e-01
-4.832784831523895264e-02 2.703969776630401611e-01 -1.870463192462921143e-01
1.173688471317291260e-01 2.695844471454620361e-01 -1.530780196189880371e-01
-2.113679796457290649e-02 2.741740047931671143e-01 4.429674148559570312e-02
1.354554295539855957e-01 2.643457651138305664e-01 5.683178901672363281e-01
4.524688422679901123e-02 1.993625164031982422e-01 6.728667616844177246e-01
-9.975261241197586060e-02 2.718605399131774902e-01 7.338158786296844482e-02
2.183932662010192871e-01 2.633247971534729004e-01 3.303913772106170654e-01
2.487962990999221802e-01 2.061596959829330444e-01 1.554290056228637695e-01
1.341603696346282959e-01 2.670292556285858154e-01 4.912612140178680420e-01
-4.315489530563354492e-02 2.668754160404205322e-01 5.842133760452270508e-01
1.386991590261459351e-01 1.999336481094360352e-01 5.386943817138671875e-01
7.373258471488952637e-02 1.900373995304107666e-01 3.078559637069702148e-01
-1.072406545281410217e-01 1.938833445310592651e-01 5.488753318786621094e-01
-1.057271063327789307e-01 1.869555264711380005e-01 1.795830428600311279e-01
9.112771600484848022e-02 1.984083354473114014e-01 5.961185097694396973e-01
-2.857670187950134277e-01 2.498032748699188232e-01 3.387131392955780029e-01
-1.916048228740692139e-01 1.909156292676925659e-01 1.453448534011840820e-01
1.616749167442321777e-01 2.134271711111068726e-01 7.295902967453002930e-01
3.116498589515686035e-01 2.384004145860671997e-01 -4.837449640035629272e-02
1.890375167131423950e-01 2.025424987077713013e-01 4.538388550281524658e-01
2.430806308984756470e-01 2.212003171443939209e-01 6.036668419837951660e-01
2.928632199764251709e-01 2.517326176166534424e-01 1.679392158985137939e-01
-1.411396414041519165e-01 2.675489485263824463e-01 -1.081491485238075256e-01
-2.784402370452880859e-01 2.524415552616119385e-01 2.901960909366607666e-01
-1.336331814527511597e-01 2.546789050102233887e-01 7.311443686485290527e-01
-2.333335429430007935e-01 1.961641460657119751e-01 3.031436204910278320e-01
2.360577583312988281e-01 2.040014863014221191e-01 8.051575720310211182e-02
1.959876269102096558e-01 1.984970271587371826e-01 7.187418639659881592e-02
-1.699433773756027222e-01 1.996315270662307739e-01 -3.826583921909332275e-01
-1.405223608016967773e-01 2.666451930999755859e-01 4.204902350902557373e-01
2.040888518095016479e-01 2.000942230224609375e-01 2.434862256050109863e-01
2.129882425069808960e-01 2.009233534336090088e-01 2.082412242889404297e-01
-1.898147314786911011e-01 2.032520323991775513e-01 -4.134426414966583252e-01
-2.724255025386810303e-01 2.548218369483947754e-01 6.467390060424804688e-02
-2.659554779529571533e-01 2.022950053215026855e-01 3.788987696170806885e-01
-3.000869750976562500e-01 2.264308780431747437e-01 -3.060988187789916992e-01
1.265103071928024292e-01 1.944742500782012939e-01 -1.523493528366088867e-01
1.851288825273513794e-01 2.477066367864608765e-01 -4.745592772960662842e-01
-1.681623756885528564e-01 2.608453333377838135e-01 5.419560670852661133e-01
2.851918637752532959e-01 2.536144852638244629e-01 7.319551706314086914e-02
-1.978574097156524658e-01 1.926362514495849609e-01 2.903445065021514893e-01
-4.422017186880111694e-02 2.686444222927093506e-01 -2.600000500679016113e-01
1.994272135198116302e-02 2.641221284866333008e-01 -4.039126932621002197e-01
-1.212259158492088318e-01 1.897908300161361694e-01 3.775584697723388672e-01
-2.221113890409469604e-01 2.588170468807220459e-01 -1.536853313446044922e-01
-1.004845425486564636e-01 2.470597326755523682e-01 -6.009613275527954102e-01
-2.095955908298492432e-01 1.943392753601074219e-01 3.329791128635406494e-01
-2.756141424179077148e-01 2.538749575614929199e-01 2.298003435134887695e-01
-1.178569346666336060e-01 1.931366920471191406e-01 5.146989226341247559e-01
2.489669173955917358e-01 2.091641873121261597e-01 -1.154256388545036316e-01
2.441609352827072144e-01 2.068358063697814941e-01 -5.418828874826431274e-02
2.084393352270126343e-01 2.094022631645202637e-01 5.536221861839294434e-01
-8.509926497936248779e-02 1.878253817558288574e-01 3.188243210315704346e-01
8.378338813781738281e-02 2.717889547348022461e-01 -1.068927869200706482e-01
-1.748149469494819641e-02 1.868090927600860596e-01 2.552523612976074219e-01
3.846102952957153320e-02 2.654866278171539307e-01 -3.677664697170257568e-01
-8.353266865015029907e-02 2.411013394594192505e-01 9.052360057830810547e-01
-3.193868100643157959e-01 2.437686473131179810e-01 1.914533078670501709e-01
-1.750473082065582275e-01 1.954133808612823486e-01 -2.686966955661773682e-01
-1.545734889805316925e-02 2.031433135271072388e-01 -5.397815704345703125e-01
-1.602539718151092529e-01 2.610770463943481445e-01 -2.964265346527099609e-01
1.652662009000778198e-01 2.099582850933074951e-01 6.778541803359985352e-01
2.347013950347900391e-01 2.060430794954299927e-01 3.347436487674713135e-01
-7.403246313333511353e-02 2.687433063983917236e-01 -2.209096550941467285e-01
2.774508297443389893e-01 2.530023157596588135e-01 3.317089676856994629e-01
2.592251002788543701e-01 2.528088092803955078e-01 -1.849772930145263672e-01
-2.915663719177246094e-01 2.447880208492279053e-01 4.337339103221893311e-01
9.069857001304626465e-02 2.723898887634277344e-01 3.280248641967773438e-01
1.436277478933334351e-01 2.616325020790100098e-01 -3.474682271480560303e-01
-1.004033759236335754e-01 2.599047124385833740e-01 6.876605153083801270e-01
-8.423042297363281250e-02 1.865103244781494141e-01 3.113984316587448120e-02
1.204404532909393311e-01 2.166465818881988525e-01 8.238224387168884277e-01
-2.300929576158523560e-01 2.525684237480163574e-01 5.493729114532470703e-01
-2.373133450746536255e-01 2.533824443817138672e-01 -2.527616024017333984e-01
1.361949294805526733e-01 2.153454273939132690e-01 -5.511311888694763184e-01
-4.064295440912246704e-02 1.961811333894729614e-01 -4.175309836864471436e-01
4.144858568906784058e-02 2.132516950368881226e-01 8.649146556854248047e-01
7.438634335994720459e-02 2.697847485542297363e-01 4.864243566989898682e-01
-7.476887851953506470e-02 2.703816592693328857e-01 -1.466509699821472168e-01
1.903516054153442383e-01 2.675160169601440430e-01 4.130423814058303833e-02
-5.999668966978788376e-03 1.891522854566574097e-01 4.046295583248138428e-01
-2.922107279300689697e-01 2.033006548881530762e-01 1.401215791702270508e-02
7.141625881195068359e-02 2.076422274112701416e-01 -5.505179166793823242e-01
-7.687137275934219360e-02 1.862566173076629639e-01 1.467082798480987549e-01
-7.702240347862243652e-02 2.137036174535751343e-01 3.265548944473266602e-01
-5.855690687894821167e-03 2.782489955425262451e-01 -7.096512615680694580e-02
1.828633695840835571e-01 2.724632322788238525e-01 -1.301178485155105591e-01
-1.860731244087219238e-01 2.723901271820068359e-01 -1.011419445276260376e-01
1.790784150362014771e-01 2.692739963531494141e-01 2.855745851993560791e-01
-1.165900304913520813e-01 2.667331695556640625e-01 4.103739261627197266e-01
1.106314584612846375e-01 2.567709088325500488e-01 -6.559774279594421387e-01
-1.684290617704391479e-01 2.703767716884613037e-01 2.139510214328765869e-01
-1.307701170444488525e-01 2.304845154285430908e-01 5.431630611419677734e-01
-1.340168714523315430e-01 2.692177891731262207e-01 -4.405083358287811279e-01
2.468197047710418701e-01 2.582977712154388428e-01 3.915661871433258057e-01
8.528472483158111572e-02 2.240855842828750610e-01 5.621456503868103027e-01
-1.442482769489288330e-01 2.145267874002456665e-01 -3.895497322082519531e-01
-7.309672236442565918e-02 2.087156772613525391e-01 1.146135032176971436e-01
1.771876066923141479e-01 2.119698822498321533e-01 -2.528822422027587891e-01
-1.452493965625762939e-01 2.109968215227127075e-01 -1.876675486564636230e-01
1.875969171524047852e-01 2.221198529005050659e-01 -5.152068734169006348e-01
6.737576425075531006e-02 2.740579247474670410e-01 2.793202698230743408e-01
-2.566240131855010986e-01 2.656731009483337402e-01 -1.334484070539474487e-01
6.299502402544021606e-02 2.064706385135650635e-01 -9.567277133464813232e-02
3.809722512960433960e-02 2.211751788854598999e-01 -6.368854641914367676e-01
1.161753907799720764e-01 2.147771269083023071e-01 3.776564300060272217e-01
-2.350769937038421631e-03 2.741974294185638428e-01 2.944253981113433838e-01
-1.996518671512603760e-01 2.143045663833618164e-01 -1.155174523591995239e-01
-3.010039217770099640e-02 2.068340480327606201e-01 2.799372747540473938e-02
-6.965192407369613647e-02 2.181637436151504517e-01 4.408291876316070557e-01
1.484781205654144287e-01 2.129845917224884033e-01 -3.668293356895446777e-01
2.619189321994781494e-01 2.244136631488800049e-01 -3.846561312675476074e-01
-1.487967520952224731e-01 2.746720314025878906e-01 -7.697767764329910278e-02
3.021956980228424072e-01 2.220398783683776855e-01 2.287011966109275818e-02
3.373421430587768555e-01 2.516304850578308105e-01 -1.191017180681228638e-01
1.519797593355178833e-01 2.142444849014282227e-01 3.207294642925262451e-01
4.085686057806015015e-02 2.779434919357299805e-01 2.153063192963600159e-02
2.240573614835739136e-01 2.142594307661056519e-01 -1.870649605989456177e-01
1.055660247802734375e-01 2.128797322511672974e-01 3.330991864204406738e-01
1.614715307950973511e-01 2.711849808692932129e-01 -2.951857447624206543e-01
