4.226428270339965820e-01 -2.964357137680053711e-01 1.790134608745574951e-01
4.337574839591979980e-01 6.629121303558349609e-02 -2.071667015552520752e-01
3.449360132217407227e-01 -1.681500822305679321e-01 1.715856492519378662e-01
3.685815334320068359e-01 -5.168963670730590820e-01 7.506009936332702637e-02
1.936907321214675903e-01 1.540268063545227051e-01 -3.354891836643218994e-01
8.526965975761413574e-02 -8.960883319377899170e-02 -6.530225276947021484e-02
4.928699731826782227e-01 -1.247378960251808167e-01 -7.807414531707763672e-01
4.992183446884155273e-01 -6.210908293724060059e-01 -3.638260066509246826e-01
3.433932363986968994e-01 8.510953187942504883e-02 -1.099996864795684814e-01
2.087320089340209961e-01 -4.940422773361206055e-01 -2.065284699201583862e-01
2.942025661468505859e-01 -1.480918228626251221e-01 1.658761799335479736e-01
4.833013415336608887e-01 -3.741254806518554688e-01 -7.798285484313964844e-01
4.293929934501647949e-01 -1.771335303783416748e-02 -7.580029964447021484e-01
1.117823719978332520e-01 -3.335072398185729980e-01 -3.922765851020812988e-01
3.961422145366668701e-01 -5.620189905166625977e-01 1.344761252403259277e-02
5.905991792678833008e-02 -8.731369674205780029e-02 -1.674223095178604126e-01
5.524352192878723145e-01 -5.562666058540344238e-02 -5.753770470619201660e-01
6.517311334609985352e-01 -2.808219194412231445e-01 -2.422157078981399536e-01
3.841091394424438477e-01 -2.783470153808593750e-01 -8.383305072784423828e-01
1.081041991710662842e-01 -1.016041636466979980e-01 -6.288319826126098633e-03
3.444503545761108398e-01 -3.892979323863983154e-01 1.743202507495880127e-01
2.244406938552856445e-01 1.311477124691009521e-01 -1.858814805746078491e-01
6.868529319763183594e-02 -9.937532246112823486e-02 -4.959446191787719727e-01
3.440543115139007568e-01 -5.757022500038146973e-01 -4.375064373016357422e-01
6.001480817794799805e-01 -5.648636221885681152e-01 -3.889947831630706787e-01
5.016417503356933594e-01 9.517714381217956543e-03 -5.827372670173645020e-01
2.930319309234619141e-01 -4.906997680664062500e-01 -5.775448679924011230e-01
4.619587063789367676e-01 -7.127514481544494629e-02 -7.764047384262084961e-01
3.492661118507385254e-01 -3.849247097969055176e-02 7.691028714179992676e-02
1.591047495603561401e-01 -8.907467126846313477e-04 -6.876584291458129883e-01
1.982223987579345703e-01 -2.620181441307067871e-01 1.287899017333984375e-01
1.177599281072616577e-01 1.045953631401062012e-01 -4.230242967605590820e-01
5.184150934219360352e-01 -5.126407146453857422e-01 4.011458158493041992e-02
5.392439961433410645e-01 -6.774640083312988281e-02 -6.444997787475585938e-01
3.844565749168395996e-01 -4.979401826858520508e-02 6.777065992355346680e-02
1.498349010944366455e-01 -2.228224873542785645e-01 7.400402426719665527e-02
1.409122943878173828e-01 -2.961896061897277832e-01 -5.763010978698730469e-01
2.151983678340911865e-01 -5.020029544830322266e-01 -2.648738026618957520e-01
2.044154703617095947e-01 1.563850641250610352e-01 -4.407933354377746582e-01
1.777502149343490601e-01 -4.345758259296417236e-01 -4.176851511001586914e-01
5.781649351119995117e-01 -5.830560922622680664e-01 -1.889223903417587280e-01
1.549484133720397949e-01 -4.034633338451385498e-01 -1.001352071762084961e-01
5.035191178321838379e-01 -5.036506652832031250e-01 -6.536105871200561523e-01
4.376111924648284912e-01 -3.523226976394653320e-01 1.709502339363098145e-01
1.031161248683929443e-01 -2.185582667589187622e-01 -2.287155389785766602e-02
4.238868057727813721e-01 -5.611725449562072754e-01 -5.605370998382568359e-01
4.422243833541870117e-01 1.736372709274291992e-02 -9.717419743537902832e-02
1.938291043043136597e-01 -3.169712424278259277e-01 1.017946600914001465e-01
7.381826639175415039e-02 -2.463302165269851685e-01 -1.899492591619491577e-01
2.840613722801208496e-01 -1.956423372030258179e-01 -8.275878429412841797e-01
1.576676219701766968e-01 -4.296033978462219238e-01 -2.146467119455337524e-01
3.068934381008148193e-01 -5.252082347869873047e-01 -5.237228870391845703e-01
6.552559137344360352e-01 -2.568489909172058105e-01 -4.091782569885253906e-01
2.693079710006713867e-01 -4.139729738235473633e-01 -6.668775081634521484e-01
5.994576215744018555e-02 -1.248381659388542175e-01 -4.433106482028961182e-01
5.844517350196838379e-01 -3.334854841232299805e-01 -7.021325230598449707e-01
5.274343490600585938e-02 -9.790036082267761230e-02 -2.070849239826202393e-01
1.299485117197036743e-01 9.244912862777709961e-02 -5.198929309844970703e-01
5.195287466049194336e-01 -2.788872718811035156e-01 -7.889294624328613281e-01
4.422583580017089844e-01 -6.277806758880615234e-01 -2.057597339153289795e-01
1.961005777120590210e-01 -1.922485679388046265e-01 -7.499537467956542969e-01
4.902021288871765137e-01 -2.991683483123779297e-01 -8.069890737533569336e-01
2.101335823535919189e-01 -4.338491559028625488e-01 9.055793285369873047e-03
2.532302141189575195e-01 1.510810256004333496e-01 -2.597822844982147217e-01
3.337961733341217041e-01 -5.687284469604492188e-01 -6.143015623092651367e-02
2.446593642234802246e-01 -3.610378503799438477e-02 8.648324012756347656e-02
5.453776121139526367e-01 -1.055148094892501831e-01 -9.468117356300354004e-02
3.737017810344696045e-01 1.135255396366119385e-01 -2.408604770898818970e-01
6.290552616119384766e-01 -1.968125700950622559e-01 -2.492795884609222412e-01
3.217954933643341064e-01 3.753557801246643066e-02 -5.934506654739379883e-03
3.752860426902770996e-01 1.137824952602386475e-01 -5.664535760879516602e-01
1.359334141016006470e-01 -1.402060538530349731e-01 5.313357710838317871e-02
1.957103908061981201e-01 -4.491884708404541016e-01 -6.247466802597045898e-02
6.363457441329956055e-01 -2.603796720504760742e-01 -1.813393831253051758e-01
5.672987699508666992e-01 -5.839480459690093994e-02 -3.025821745395660400e-01
1.064656674861907959e-01 -2.938011586666107178e-01 -8.077937364578247070e-02
2.954991459846496582e-01 -5.520255565643310547e-01 -4.135174751281738281e-01
1.245291680097579956e-01 -3.125376403331756592e-01 -5.020302534103393555e-01
1.506295055150985718e-01 -2.061831504106521606e-01 -6.742070913314819336e-01
5.759603977203369141e-01 -2.751228511333465576e-01 4.911661148071289062e-03
4.322656393051147461e-01 -1.184952408075332642e-01 9.431436657905578613e-02
5.980539917945861816e-01 -1.838831603527069092e-01 -1.308284252882003784e-01
2.673473656177520752e-01 -3.848099708557128906e-01 -6.992434859275817871e-01
4.962195754051208496e-01 -5.683467388153076172e-01 -5.466498136520385742e-01
1.335597783327102661e-01 -4.359930753707885742e-04 -3.281202912330627441e-02
4.124833047389984131e-01 -6.136981248855590820e-01 -3.815504610538482666e-01
6.418548822402954102e-01 -3.567916750907897949e-01 -5.633652210235595703e-01
8.291411399841308594e-02 -1.621288359165191650e-01 -6.448060274124145508e-02
7.678830623626708984e-02 1.987609267234802246e-02 -2.061311304569244385e-01
3.194476962089538574e-01 -2.950291037559509277e-01 -8.116360902786254883e-01
4.520819187164306641e-01 -6.078422069549560547e-01 -9.062708914279937744e-02
1.231870949268341064e-01 -3.743786811828613281e-01 -2.368366867303848267e-01
7.168075442314147949e-02 -1.368947923183441162e-01 -1.017110496759414673e-01
6.595106124877929688e-01 -3.581343591213226318e-01 -2.278990149497985840e-01
1.945602148771286011e-01 1.329315006732940674e-01 -2.130359411239624023e-01
4.784507155418395996e-01 4.189699888229370117e-02 -5.543459653854370117e-01
5.464476346969604492e-01 -2.611338794231414795e-01 -7.610989809036254883e-01
1.892705708742141724e-01 -2.247410118579864502e-01 -7.269712686538696289e-01
5.850020647048950195e-01 -4.217817485332489014e-01 4.786193370819091797e-03
1.475003957748413086e-01 1.229184269905090332e-01 -2.614771723747253418e-01
6.144317388534545898e-01 -5.347309708595275879e-01 -1.771595925092697144e-01
1.298401802778244019e-01 -3.753546476364135742e-01 -3.622526228427886963e-01
6.335522532463073730e-01 -5.042680501937866211e-01 -1.986290216445922852e-01
5.526092052459716797e-01 -6.090588569641113281e-01 -3.145072758197784424e-01
1.249493062496185303e-01 -2.259670048952102661e-01 2.739006280899047852e-02
1.642301380634307861e-01 -3.658682703971862793e-01 4.109740257263183594e-03
6.421664953231811523e-01 -2.383642196655273438e-01 -5.065318942070007324e-01
6.632099151611328125e-01 -3.157286345958709717e-01 -4.328042864799499512e-01
5.095443129539489746e-02 -4.261399805545806885e-02 -3.354194164276123047e-01
6.664739847183227539e-01 -3.273287713527679443e-01 -3.932223916053771973e-01
5.687923431396484375e-01 -6.003679037094116211e-01 -2.820990085601806641e-01
5.970993638038635254e-02 -1.426369249820709229e-01 -1.616166085004806519e-01
6.460025906562805176e-01 -4.313020408153533936e-01 -1.678384691476821899e-01
6.157474517822265625e-01 -1.374624073505401611e-01 -3.999277949333190918e-01
2.820047736167907715e-01 -4.853729903697967529e-01 4.842388629913330078e-02
6.661558747291564941e-01 -3.632057905197143555e-01 -2.854630649089813232e-01
4.325868189334869385e-01 -5.811940431594848633e-01 -1.777705550193786621e-02
3.420283198356628418e-01 -4.525335133075714111e-01 -6.905851364135742188e-01
5.703552961349487305e-01 -5.812728404998779297e-01 -4.264552295207977295e-01
6.572428941726684570e-01 -4.616070091724395752e-01 -2.902226746082305908e-01
3.880058228969573975e-01 1.321515440940856934e-02 -7.563371658325195312e-01
4.355929195880889893e-01 -8.178251981735229492e-02 5.677878856658935547e-02
1.884873509407043457e-01 1.987519860267639160e-02 -7.102854251861572266e-01
8.634325861930847168e-02 -2.542209327220916748e-01 -1.167880147695541382e-01
2.610595524311065674e-01 -5.455513000488281250e-01 -2.438614666461944580e-01
4.114515185356140137e-01 -6.232868432998657227e-01 -2.985277473926544189e-01
4.072559475898742676e-01 -6.205981969833374023e-01 -1.878583133220672607e-01
1.708213239908218384e-01 -2.527816593647003174e-02 -7.159764170646667480e-01
4.654091298580169678e-01 5.299210548400878906e-03 -6.806736588478088379e-01
5.465086698532104492e-01 -7.164189219474792480e-02 -1.613851040601730347e-01
9.320855140686035156e-02 -2.838012874126434326e-01 -4.131386876106262207e-01
3.771121501922607422e-01 -3.886023759841918945e-01 -7.744638919830322266e-01
4.716119766235351562e-01 6.148323416709899902e-03 -1.316915750503540039e-01
2.908889055252075195e-01 6.872379779815673828e-02 -7.182960510253906250e-01
7.435965538024902344e-02 -1.787891983985900879e-01 -1.023880243301391602e-01
2.211182266473770142e-01 -3.118714988231658936e-01 -7.118214964866638184e-01
3.339240252971649170e-01 -2.950875461101531982e-01 1.963827311992645264e-01
5.122727155685424805e-01 -6.105918288230895996e-01 -1.403237581253051758e-01
6.386442780494689941e-01 -5.126340389251708984e-01 -3.707765638828277588e-01
5.190357565879821777e-01 -4.366253614425659180e-01 -7.167835235595703125e-01
2.992762327194213867e-01 -6.753964722156524658e-02 -8.248136043548583984e-01
5.905312299728393555e-01 -4.213728308677673340e-01 -6.518166065216064453e-01
5.058051943778991699e-01 1.670175790786743164e-02 -5.390025377273559570e-01
4.884613752365112305e-01 4.050680994987487793e-02 -5.121629238128662109e-01
5.201803445816040039e-01 -1.378005743026733398e-01 -7.547318935394287109e-01
5.576276183128356934e-01 -1.897102594375610352e-01 -7.263965606689453125e-01
3.091516494750976562e-01 -4.356155395507812500e-01 1.307481527328491211e-01
2.529630661010742188e-01 -5.203393101692199707e-01 -9.300145506858825684e-02
4.910108447074890137e-01 2.274662256240844727e-04 -6.377083063125610352e-01
2.156062722206115723e-01 -4.706799983978271484e-01 -4.503500163555145264e-01
2.097117006778717041e-01 -4.763312041759490967e-01 -4.073688089847564697e-01
4.480907320976257324e-01 -5.873858332633972168e-01 -5.041538476943969727e-01
3.484618663787841797e-01 -4.596354961395263672e-01 1.296364068984985352e-01
5.420545339584350586e-01 -5.731234550476074219e-01 -5.007249116897583008e-01
4.676306247711181641e-01 -4.363737106323242188e-01 1.311909854412078857e-01
5.298488140106201172e-01 -7.107929885387420654e-02 -1.138754040002822876e-01
6.311373710632324219e-01 -3.297449350357055664e-01 -6.013278961181640625e-01
2.416962087154388428e-01 8.238676190376281738e-02 -6.864599585533142090e-01
5.518503189086914062e-01 -2.626660466194152832e-02 -4.103618264198303223e-01
1.762139797210693359e-01 -3.473970293998718262e-01 5.094352364540100098e-02
3.787582516670227051e-01 -6.093168258666992188e-01 -3.418426513671875000e-01
2.509934008121490479e-01 -5.489823222160339355e-02 -7.997637987136840820e-01
3.807663619518280029e-01 5.716496706008911133e-02 -8.882826566696166992e-02
2.833873927593231201e-01 1.525546610355377197e-01 -2.836940884590148926e-01
5.694934725761413574e-01 -5.589176714420318604e-02 -3.415595293045043945e-01
5.573782920837402344e-01 -3.939148783683776855e-02 -4.810780286788940430e-01
1.117233037948608398e-01 -1.796146929264068604e-01 1.017320156097412109e-02
3.620952367782592773e-01 -5.933382511138916016e-01 -1.054628044366836548e-01
5.568946599960327148e-01 -3.393675684928894043e-01 5.757954716682434082e-02
1.685102581977844238e-01 -1.788167804479598999e-01 -7.164105772972106934e-01
5.791609287261962891e-01 -1.165019124746322632e-01 -1.804362088441848755e-01
1.163032501935958862e-01 -2.609352767467498779e-01 -1.242187619209289551e-02
1.799595504999160767e-01 -4.608114957809448242e-01 -2.268994450569152832e-01
1.112124174833297729e-01 -3.474436998367309570e-01 -1.987496316432952881e-01
5.791597366333007812e-01 -1.846960186958312988e-01 -7.399490475654602051e-02
5.208970308303833008e-01 -6.011431813240051270e-01 -4.387221336364746094e-01
5.041457414627075195e-01 -4.376052618026733398e-01 1.044023334980010986e-01
3.813455402851104736e-01 1.279792189598083496e-01 -3.723533451557159424e-01
6.206752061843872070e-01 -4.714553058147430420e-01 -1.042141020298004150e-01
6.422172784805297852e-01 -4.064795374870300293e-01 -5.403412580490112305e-01
5.672360062599182129e-01 -1.639679372310638428e-01 -6.917726993560791016e-01
6.624997258186340332e-01 -2.916115224361419678e-01 -3.794530034065246582e-01
5.962577462196350098e-01 -3.579914569854736328e-01 -6.755787730216979980e-01
4.701207578182220459e-01 6.205329298973083496e-02 -4.837194085121154785e-01
3.211300969123840332e-01 1.392197310924530029e-01 -2.590138912200927734e-01
6.685463190078735352e-01 -3.511315286159515381e-01 -3.518136739730834961e-01
7.390514016151428223e-02 -2.578420937061309814e-01 -2.389267086982727051e-01
5.500683784484863281e-01 -3.386861979961395264e-01 -7.464361190795898438e-01
3.032428920269012451e-01 -5.737776756286621094e-01 -3.119487762451171875e-01
5.425108671188354492e-01 -4.435923695564270020e-02 -2.171037495136260986e-01
6.460690498352050781e-01 -3.216353654861450195e-01 -1.717457324266433716e-01
3.803936839103698730e-01 -4.783444404602050781e-01 -6.810907721519470215e-01
6.285188198089599609e-01 -2.772153019905090332e-01 -1.324485540390014648e-01
1.424917429685592651e-01 -3.125871419906616211e-01 1.132172346115112305e-02
3.504903912544250488e-01 1.401775479316711426e-01 -3.388367295265197754e-01
3.207340240478515625e-01 -4.706635773181915283e-01 -6.466298103332519531e-01
6.318309903144836426e-01 -2.640359401702880859e-01 -5.818816423416137695e-01
5.183395147323608398e-01 -3.632162213325500488e-01 1.082372069358825684e-01
6.655138731002807617e-02 -6.337162852287292480e-02 -4.845025241374969482e-01
5.694224238395690918e-01 -1.243647336959838867e-01 -1.313052326440811157e-01
9.133577346801757812e-02 -2.642330825328826904e-01 -4.447079002857208252e-01
2.729725241661071777e-01 -1.513805091381072998e-01 -8.264528512954711914e-01
6.792953610420227051e-02 1.417562365531921387e-02 -2.484670877456665039e-01
2.843642830848693848e-01 -7.614031434059143066e-03 6.246075034141540527e-02
2.793461680412292480e-01 -4.604497551918029785e-01 -6.120876073837280273e-01
4.752921760082244873e-01 -5.995239019393920898e-01 -4.696599245071411133e-01
4.033060371875762939e-01 2.720049023628234863e-02 -5.786597728729248047e-02
1.927793771028518677e-01 1.340212821960449219e-01 -5.380342006683349609e-01
4.757698774337768555e-01 3.147014975547790527e-02 -2.123994529247283936e-01
3.012339472770690918e-01 -5.755441188812255859e-01 -2.433410435914993286e-01
2.976493537425994873e-01 -5.323052406311035156e-01 -4.873075783252716064e-01
4.176740646362304688e-01 -5.967500209808349609e-01 -4.603183567523956299e-01
4.940741360187530518e-01 2.811089158058166504e-02 -2.714211344718933105e-01
2.338616847991943359e-01 1.572251319885253906e-01 -4.822761416435241699e-01
5.600302219390869141e-01 -5.983817577362060547e-02 -2.491665333509445190e-01
1.182551383972167969e-01 -3.362101614475250244e-01 -1.054467111825942993e-01
5.963605642318725586e-02 -1.162014901638031006e-02 -3.960734307765960693e-01
4.725580215454101562e-01 -3.418546020984649658e-01 -8.007526397705078125e-01
2.660907208919525146e-01 4.740601778030395508e-02 -7.390781641006469727e-01
5.139073133468627930e-01 -5.934820771217346191e-01 -8.535078167915344238e-02
5.181983709335327148e-01 -4.794272184371948242e-01 6.802058219909667969e-02
4.156799912452697754e-01 -3.220368027687072754e-01 -8.217321634292602539e-01
5.963689088821411133e-02 -1.864647865295410156e-01 -3.724186122417449951e-01
6.514308452606201172e-01 -4.330711960792541504e-01 -4.773317277431488037e-01
5.716525912284851074e-01 -5.599504709243774414e-02 -3.838843405246734619e-01
6.308374404907226562e-01 -4.039207696914672852e-01 -5.781432390213012695e-01
2.540117800235748291e-01 -3.115914165973663330e-01 1.640255153179168701e-01
5.362607240676879883e-01 -2.391424775123596191e-02 -5.501413941383361816e-01
5.486807227134704590e-01 -6.054408550262451172e-01 -1.958586871623992920e-01
4.393890798091888428e-01 -3.650456666946411133e-03 -5.295157432556152344e-02
2.455234229564666748e-01 1.051215231418609619e-01 -1.118253320455551147e-01
5.639517307281494141e-01 -3.717856407165527344e-01 -7.177029848098754883e-01
1.129608601331710815e-01 -7.671788334846496582e-02 -6.311159133911132812e-01
1.824443340301513672e-01 -4.579330086708068848e-01 -1.626286953687667847e-01
3.196730613708496094e-01 1.541053652763366699e-01 -3.917961716651916504e-01
1.284718066453933716e-01 9.530529379844665527e-02 -2.100750058889389038e-01
5.584505200386047363e-02 -1.792919635772705078e-01 -2.347896546125411987e-01
7.737550139427185059e-02 -6.311063468456268311e-02 -1.029605269432067871e-01
3.705296814441680908e-01 -5.523537397384643555e-01 -5.432779788970947266e-01
4.678882658481597900e-01 -5.214340686798095703e-01 -6.387066841125488281e-01
5.199368000030517578e-01 -2.160319536924362183e-01 -7.861535549163818359e-01
5.159754157066345215e-01 -3.055691719055175781e-02 -6.382948756217956543e-01
6.434627175331115723e-01 -2.146617770195007324e-01 -3.335615694522857666e-01
2.245527803897857666e-01 2.691283822059631348e-03 -7.544370293617248535e-01
5.681247711181640625e-01 -5.980366468429565430e-01 -2.325194776058197021e-01
9.755277633666992188e-02 -1.435353606939315796e-01 -2.137947082519531250e-02
2.131930142641067505e-01 -4.918975234031677246e-01 -3.496465682983398438e-01
6.201169490814208984e-01 -5.258749723434448242e-01 -4.421206414699554443e-01
3.639106750488281250e-01 -1.307171881198883057e-01 -8.493698835372924805e-01
4.879097640514373779e-01 4.851230978965759277e-02 -4.397889077663421631e-01
1.638064980506896973e-01 -3.094037175178527832e-01 5.905175209045410156e-02
4.656516611576080322e-01 -1.472512185573577881e-01 8.448430895805358887e-02
1.122042983770370483e-01 -1.322083175182342529e-02 -6.094770431518554688e-01
1.154643744230270386e-01 1.060234010219573975e-01 -3.838479518890380859e-01
2.674554586410522461e-01 -5.478389859199523926e-01 -1.814963966608047485e-01
8.658164739608764648e-02 -2.275371849536895752e-01 -4.799169898033142090e-01
2.092928588390350342e-01 5.137759447097778320e-02 -7.023395299911499023e-01
3.851357996463775635e-01 -5.754780769348144531e-01 -4.977535009384155273e-01
2.555332779884338379e-01 -5.337314605712890625e-01 -3.442276716232299805e-01
5.944821834564208984e-01 -9.645612537860870361e-02 -3.563492298126220703e-01
5.890322923660278320e-01 -2.907051742076873779e-01 -6.984084844589233398e-01
8.034047484397888184e-02 -2.691596448421478271e-01 -3.514181375503540039e-01
3.419044017791748047e-01 1.150277256965637207e-01 -1.911404430866241455e-01
6.664774417877197266e-01 -3.727898597717285156e-01 -4.173526763916015625e-01
2.027280032634735107e-01 -4.090718626976013184e-01 -5.588244199752807617e-01
2.394108772277832031e-01 1.283320188522338867e-01 -5.978287458419799805e-01
3.191399872303009033e-01 1.041402220726013184e-01 -1.353651434183120728e-01
4.322876930236816406e-01 -6.210011243820190430e-01 -1.558230668306350708e-01
1.278804987668991089e-01 -2.377718091011047363e-01 -6.037549972534179688e-01
2.509751021862030029e-01 -5.059779286384582520e-01 -4.513355195522308350e-01
2.279879897832870483e-01 -2.296332418918609619e-01 -7.719675302505493164e-01
2.849567532539367676e-01 3.550267219543457031e-02 8.905827999114990234e-03
6.570604443550109863e-02 -1.909141093492507935e-01 -1.570481956005096436e-01
1.756204664707183838e-01 -1.034977138042449951e-01 8.980676531791687012e-02
3.411214649677276611e-01 -4.292878508567810059e-01 1.507349014282226562e-01
1.778088510036468506e-01 7.659801840782165527e-02 -6.391371488571166992e-01
6.675182580947875977e-01 -4.015717506408691406e-01 -3.257344663143157959e-01
9.571605920791625977e-02 -2.921303212642669678e-01 -1.322680562734603882e-01
1.190104186534881592e-01 4.343840479850769043e-02 -1.159532219171524048e-01
5.983767509460449219e-01 -1.129528656601905823e-01 -4.961392581462860107e-01
5.217320322990417480e-01 5.210101604461669922e-03 -5.019965767860412598e-01
6.131904125213623047e-01 -2.191065251827239990e-01 -1.369162052869796753e-01
1.947799921035766602e-01 -1.905016005039215088e-01 1.304507255554199219e-01
3.499937057495117188e-01 1.339443922042846680e-01 -5.234888792037963867e-01
3.881505727767944336e-01 1.184809505939483643e-01 -5.076434612274169922e-01
6.020942330360412598e-01 -2.801678180694580078e-01 -5.064725875854492188e-02
3.981089591979980469e-01 8.685842156410217285e-02 -1.928723752498626709e-01
5.906194448471069336e-01 -1.576696634292602539e-01 -6.254578232765197754e-01
1.512029469013214111e-01 -3.749518394470214844e-01 -4.827398061752319336e-02
5.946297645568847656e-01 -2.261584103107452393e-01 -7.203385233879089355e-02
3.238017559051513672e-01 -1.081422418355941772e-01 1.430898308753967285e-01
4.395185410976409912e-01 -5.413732528686523438e-01 5.145859718322753906e-02
2.068006843328475952e-01 -3.605788946151733398e-01 8.996772766113281250e-02
4.242970943450927734e-01 3.355062007904052734e-02 -6.941124200820922852e-01
4.906464219093322754e-01 -8.553479611873626709e-02 -7.554475069046020508e-01
7.591104507446289062e-02 -2.357938885688781738e-02 -5.064071416854858398e-01
2.442191243171691895e-01 7.552257180213928223e-02 -5.274754762649536133e-02
6.101444363594055176e-01 -4.301876127719879150e-01 -6.092627048492431641e-01
4.589672684669494629e-01 -6.307655572891235352e-01 -2.492220997810363770e-01
1.625728160142898560e-01 -2.865231931209564209e-01 -6.371157169342041016e-01
2.563623189926147461e-01 -2.560835778713226318e-01 1.753808557987213135e-01
4.186604917049407959e-01 1.058153510093688965e-01 -4.426249563694000244e-01
2.576711475849151611e-01 -2.491590380668640137e-01 -7.915397882461547852e-01
1.604510396718978882e-01 -1.168260872364044189e-01 -7.174119949340820312e-01
4.681972265243530273e-01 -6.275957226753234863e-01 -3.298033475875854492e-01
5.468263626098632812e-01 -2.155257761478424072e-02 -3.566585481166839600e-01
1.357505321502685547e-01 -2.633824944496154785e-03 -6.512272357940673828e-01
4.112014472484588623e-01 -2.328103035688400269e-01 1.722718179225921631e-01
5.173295736312866211e-01 1.074963808059692383e-02 -3.170821964740753174e-01
4.107205867767333984e-01 8.814910054206848145e-02 -5.868288278579711914e-01
3.117313086986541748e-01 -3.969823122024536133e-01 -7.301278710365295410e-01
6.560735702514648438e-01 -3.109033107757568359e-01 -4.918228387832641602e-01
3.408732712268829346e-01 7.261016964912414551e-02 -7.020717859268188477e-01
5.799600481986999512e-01 -5.162496566772460938e-01 -5.034458637237548828e-02
6.251136064529418945e-01 -3.706574141979217529e-01 -6.097953319549560547e-01
2.763042151927947998e-01 1.607261598110198975e-01 -4.545893073081970215e-01
8.316051959991455078e-02 -1.057386398315429688e-04 -1.456707566976547241e-01
4.018217325210571289e-01 -5.866603851318359375e-01 -4.031068086624145508e-02
5.249365568161010742e-01 -1.324555873870849609e-01 -1.432994008064270020e-02
6.023655533790588379e-01 -5.699723362922668457e-01 -2.619794309139251709e-01
1.003602147102355957e-01 -3.288653492927551270e-01 -2.733756601810455322e-01
5.082425475120544434e-01 -1.805720329284667969e-01 -7.894370555877685547e-01
4.498153328895568848e-01 -4.789042472839355469e-01 -6.972702145576477051e-01
3.409237265586853027e-01 -5.582119822502136230e-01 -4.905324578285217285e-01
6.084561347961425781e-01 -5.231759548187255859e-01 -4.890231490135192871e-01
7.646900415420532227e-02 -2.151449322700500488e-01 -1.195993721485137939e-01
3.017225265502929688e-01 -2.726909518241882324e-02 -8.067292571067810059e-01
2.905356884002685547e-01 1.222869753837585449e-01 -1.660965234041213989e-01
6.158066987991333008e-01 -3.225931525230407715e-01 -6.609013676643371582e-02
5.277567505836486816e-01 5.186453461647033691e-03 -4.151540696620941162e-01
6.022952795028686523e-01 -1.367512494325637817e-01 -2.402792274951934814e-01
8.853343129158020020e-02 -1.201931759715080261e-01 -5.641009211540222168e-01
9.532427787780761719e-02 -2.580161392688751221e-01 -7.988652586936950684e-02
4.695321023464202881e-01 -3.867760896682739258e-01 1.470600664615631104e-01
2.835724353790283203e-01 1.620423197746276855e-01 -4.024253785610198975e-01
3.315510153770446777e-01 -5.906746387481689453e-01 -1.804159432649612427e-01
5.876677036285400391e-01 -1.043123900890350342e-01 -5.395458936691284180e-01
4.116765856742858887e-01 -4.107169806957244873e-02 -7.931691408157348633e-01
3.854207992553710938e-01 -1.018338799476623535e-01 -8.384251594543457031e-01
1.764546632766723633e-01 1.409734785556793213e-01 -4.766821861267089844e-01
1.423415392637252808e-01 -2.717475295066833496e-01 -6.071633100509643555e-01
1.055968403816223145e-01 9.489336609840393066e-02 -3.340825140476226807e-01
4.598801732063293457e-01 7.388129830360412598e-02 -3.739833235740661621e-01
3.127680420875549316e-01 -5.522361397743225098e-01 -4.569413065910339355e-01
1.975036710500717163e-01 1.232187747955322266e-01 -5.758196711540222168e-01
4.562756419181823730e-01 3.891363739967346191e-02 -6.288862824440002441e-01
6.532012224197387695e-01 -3.540158569812774658e-01 -5.166695117950439453e-01
6.045866012573242188e-01 -2.063568681478500366e-01 -6.316932439804077148e-01
4.328215718269348145e-01 -5.463396906852722168e-01 -5.938920974731445312e-01
9.549251198768615723e-02 7.828187942504882812e-02 -4.018953740596771240e-01
3.840853571891784668e-01 -5.408749580383300781e-01 -5.801781415939331055e-01
6.264358758926391602e-01 -4.475644230842590332e-01 -5.543535351753234863e-01
3.407840132713317871e-01 -8.128628134727478027e-03 4.692286252975463867e-02
6.154847145080566406e-02 -1.987936943769454956e-01 -2.031811773777008057e-01
5.705516934394836426e-01 -1.040700823068618774e-01 -6.123198270797729492e-01
3.745120167732238770e-01 8.902442455291748047e-02 -1.578253954648971558e-01
5.005692243576049805e-01 -5.785636305809020996e-01 -3.760558366775512695e-02
2.669331431388854980e-01 -3.330224752426147461e-01 -7.477086186408996582e-01
3.294486701488494873e-01 1.242334842681884766e-01 -5.934773683547973633e-01
1.786687076091766357e-01 -3.494130671024322510e-01 -5.982499122619628906e-01
5.533796548843383789e-02 -8.898387849330902100e-02 -4.233095943927764893e-01
1.650024950504302979e-01 -3.153345584869384766e-01 -6.113845109939575195e-01
4.673375189304351807e-01 -1.359917521476745605e-01 -8.103684186935424805e-01
5.125818252563476562e-01 -3.009664118289947510e-01 1.092941164970397949e-01
9.482207894325256348e-02 -3.113087713718414307e-01 -2.041162401437759399e-01
5.568236708641052246e-01 -4.749869108200073242e-01 -6.476773023605346680e-01
4.211157858371734619e-01 -4.619414210319519043e-01 -7.149387001991271973e-01
2.611998915672302246e-01 1.451831161975860596e-01 -5.518918037414550781e-01
5.525262951850891113e-01 -5.173117518424987793e-01 -5.976487398147583008e-01
3.269174396991729736e-01 1.290213167667388916e-01 -2.220550775527954102e-01
3.569107949733734131e-01 5.036184191703796387e-02 -5.080369114875793457e-02
1.369132548570632935e-01 -3.502231538295745850e-01 -4.758867621421813965e-01
3.064377009868621826e-01 -4.423497319221496582e-01 -6.723318099975585938e-01
8.181473612785339355e-02 5.878737568855285645e-02 -3.592549860477447510e-01
4.453778266906738281e-01 -2.908454835414886475e-02 -2.085679769515991211e-02
5.508706569671630859e-01 -4.759041070938110352e-01 3.270846605300903320e-02
5.689578056335449219e-01 -3.061853051185607910e-01 -7.299283742904663086e-01
6.300024390220642090e-01 -4.062907993793487549e-01 -9.868690371513366699e-02
3.987142145633697510e-01 -4.904961287975311279e-01 1.120951473712921143e-01
5.992598533630371094e-01 -3.114183247089385986e-01 -2.873688936233520508e-02
1.597466915845870972e-01 -3.932070136070251465e-01 -4.643069505691528320e-01
5.545870065689086914e-01 -4.177735447883605957e-01 5.497688055038452148e-02
1.154203861951828003e-01 -1.944000124931335449e-01 -6.049070954322814941e-01
2.724544703960418701e-01 1.808959245681762695e-02 -7.683001756668090820e-01
-1.864111125469207764e-01 1.236543357372283936e-01 -1.078758016228675842e-01
-2.116767615079879761e-01 -2.562978267669677734e-01 3.624521195888519287e-02
-2.870644330978393555e-01 2.034153044223785400e-02 -2.231025695800781250e-01
-1.481500864028930664e-01 -3.360559642314910889e-01 5.078202858567237854e-02
-2.732407450675964355e-01 -8.436135947704315186e-03 4.057137668132781982e-01
-1.664845496416091919e-01 9.990492463111877441e-02 4.287329688668251038e-02
-2.027879059314727783e-01 1.860301941633224487e-02 4.096352159976959229e-01
-2.827628552913665771e-01 -1.245190948247909546e-02 -2.112919986248016357e-01
-2.835468947887420654e-01 6.577279418706893921e-02 -2.503233253955841064e-01
-2.338508367538452148e-01 -2.199141234159469604e-01 7.157688587903976440e-02
-1.320491731166839600e-01 2.373937517404556274e-02 -5.224189907312393188e-02
-3.112624883651733398e-01 1.113425046205520630e-01 3.492645621299743652e-01
-1.286967545747756958e-01 -3.150092363357543945e-01 -1.495039761066436768e-01
-3.320318460464477539e-01 3.871186822652816772e-02 6.317757070064544678e-02
-1.702873557806015015e-01 9.813900291919708252e-02 1.306088268756866455e-01
-1.823300421237945557e-01 -9.762648493051528931e-02 4.299361705780029297e-01
-1.875793784856796265e-01 -2.921885848045349121e-01 9.234374761581420898e-02
-1.511576026678085327e-01 -9.678646177053451538e-02 3.868652582168579102e-01
-8.997058868408203125e-02 -3.492347896099090576e-01 -4.451895505189895630e-02
-3.109658956527709961e-01 -3.727900236845016479e-02 5.966283008456230164e-02
-3.397883474826812744e-01 7.323680818080902100e-02 8.841379731893539429e-02
-2.773968577384948730e-01 -4.142164811491966248e-02 3.714897930622100830e-01
-2.781397700309753418e-01 2.390922307968139648e-01 1.496395617723464966e-01
-9.153940528631210327e-02 -8.754914999008178711e-02 -2.342754602432250977e-02
-1.852402091026306152e-01 -2.823748290538787842e-01 2.015665471553802490e-01
-1.403417587280273438e-01 3.288912773132324219e-02 1.371931433677673340e-01
-2.792347371578216553e-01 -1.047187745571136475e-01 -5.902706086635589600e-02
-2.225901633501052856e-01 -2.137612849473953247e-01 -1.051763817667961121e-01
-1.395840346813201904e-01 3.353999555110931396e-02 -1.032686606049537659e-01
-2.345162481069564819e-01 -2.134903073310852051e-01 1.693648248910903931e-01
-2.685077488422393799e-01 -3.885817155241966248e-02 -2.347235977649688721e-01
-6.539553403854370117e-02 -2.046556025743484497e-01 2.364104613661766052e-02
-2.038833200931549072e-01 -8.374352008104324341e-02 -3.299963176250457764e-01
-2.733189463615417480e-01 -8.461157977581024170e-02 3.287266492843627930e-01
-6.060196459293365479e-02 -2.521849572658538818e-01 -1.980982720851898193e-03
-1.287830770015716553e-01 -5.861461907625198364e-02 -2.535395622253417969e-01
-1.002037823200225830e-01 -2.109180986881256104e-01 -2.491051256656646729e-01
-3.368754982948303223e-01 7.459871470928192139e-02 1.942354440689086914e-01
-1.335932016372680664e-01 -3.450032472610473633e-01 -1.055791974067687988e-03
-2.978222072124481201e-01 -2.795566059648990631e-02 -1.186388060450553894e-01
-3.242689371109008789e-01 1.369363665580749512e-01 -1.321035921573638916e-01
-2.520202994346618652e-01 5.448969453573226929e-02 -3.001564145088195801e-01
-1.663003861904144287e-01 6.322195380926132202e-02 2.329869270324707031e-01
-2.683235704898834229e-01 1.310952603816986084e-01 3.757131993770599365e-01
-3.170992732048034668e-01 1.439541876316070557e-01 -1.580496728420257568e-01
-2.610979974269866943e-01 -1.655493974685668945e-01 5.879937857389450073e-02
-1.664080023765563965e-01 -4.228523373603820801e-02 3.878878355026245117e-01
-8.388699591159820557e-02 -1.931216865777969360e-01 -1.912783384323120117e-01
-3.406370878219604492e-01 8.302566409111022949e-02 5.077138543128967285e-02
-9.024768322706222534e-02 -1.662600040435791016e-01 -2.042916417121887207e-01
-6.231908500194549561e-02 -2.418999969959259033e-01 -4.647897928953170776e-02
-1.396006792783737183e-01 -9.449494630098342896e-02 -3.076795041561126709e-01
-1.461753547191619873e-01 -3.111734688282012939e-01 2.307546734809875488e-01
-8.372606337070465088e-02 -1.164009794592857361e-01 -3.331308811902999878e-02
-8.715458214282989502e-02 -1.145227625966072083e-01 -9.529978781938552856e-02
-2.216924428939819336e-01 1.676488667726516724e-02 4.313507974147796631e-01
-2.613453567028045654e-01 -6.439228355884552002e-02 3.925906121730804443e-01
-1.004007160663604736e-01 -3.092086911201477051e-01 -1.687916815280914307e-01
-1.106560230255126953e-01 -3.733858466148376465e-02 -9.179941564798355103e-02
-1.482002139091491699e-01 -2.336347699165344238e-01 -2.674849331378936768e-01
-3.048877120018005371e-01 -2.697367221117019653e-02 -6.950981169939041138e-02
-2.282342314720153809e-01 1.712959557771682739e-01 2.253163456916809082e-01
-9.887800365686416626e-02 -1.132210716605186462e-01 2.067910730838775635e-01
-2.278484851121902466e-01 3.258838504552841187e-02 -3.205963671207427979e-01
-8.212298899888992310e-02 -2.641386985778808594e-01 2.163781225681304932e-01
-2.362812906503677368e-01 1.126959770917892456e-01 -2.690193653106689453e-01
-2.771432697772979736e-01 9.138897061347961426e-02 -2.614098191261291504e-01
-3.469190597534179688e-01 1.211384981870651245e-01 8.071383833885192871e-02
-2.652024030685424805e-01 -1.149869561195373535e-01 3.076082170009613037e-01
-1.527701318264007568e-01 -2.000665217638015747e-01 3.837370574474334717e-01
-1.826526075601577759e-01 -1.158550009131431580e-01 -3.318741023540496826e-01
-1.220116242766380310e-01 -1.801791936159133911e-01 3.453139364719390869e-01
-1.337952166795730591e-01 9.665187448263168335e-03 1.669926792383193970e-01
-2.275546342134475708e-01 -1.845878213644027710e-01 -1.615197956562042236e-01
-2.151422500610351562e-01 -2.083786725997924805e-01 -1.592318415641784668e-01
-2.892746329307556152e-01 -7.497556507587432861e-02 -6.829122453927993774e-02
-2.946762442588806152e-01 1.403857916593551636e-01 -2.150101661682128906e-01
-1.290348172187805176e-01 -2.676011621952056885e-02 -2.067857682704925537e-01
-2.983256280422210693e-01 1.266602724790573120e-01 3.670713901519775391e-01
-2.988990545272827148e-01 2.554418444633483887e-01 8.600488305091857910e-02
-2.485754936933517456e-01 2.368839085102081299e-02 -3.062721490859985352e-01
-1.509568542242050171e-01 6.715511530637741089e-02 6.352534890174865723e-02
-2.801909148693084717e-01 2.457586228847503662e-01 2.932287752628326416e-03
-2.127804458141326904e-01 1.776209473609924316e-01 2.049706131219863892e-02
-7.819651067256927490e-02 -2.454593330621719360e-01 -1.751372516155242920e-01
-2.415847480297088623e-01 4.557631909847259521e-02 4.278838932514190674e-01
-1.218769103288650513e-01 -1.386431902647018433e-01 3.332859277725219727e-01
-1.474321782588958740e-01 6.129100918769836426e-02 -9.968146681785583496e-03
-1.342097818851470947e-01 -3.314299881458282471e-01 1.834237873554229736e-01
-2.961073815822601318e-01 4.038735479116439819e-02 3.765628039836883545e-01
-1.699630916118621826e-01 -4.454829171299934387e-02 -3.281266987323760986e-01
-2.621634304523468018e-01 1.748270243406295776e-01 -2.015238702297210693e-01
-1.642002761363983154e-01 -2.956718504428863525e-01 -1.170798018574714661e-01
-1.232919394969940186e-01 -1.451146304607391357e-01 -2.939580976963043213e-01
-7.346907258033752441e-02 -2.068235874176025391e-01 1.503849923610687256e-01
-8.443685621023178101e-02 -2.406501173973083496e-01 -1.998956799507141113e-01
-1.779143512248992920e-01 -1.323840767145156860e-02 3.901590406894683838e-01
-3.415117561817169189e-01 1.036600023508071899e-01 8.175134658813476562e-03
-2.320278286933898926e-01 -1.772741526365280151e-01 3.164789974689483643e-01
-1.453527510166168213e-01 -5.825207009911537170e-02 -2.983551025390625000e-01
-1.786843091249465942e-01 2.646909654140472412e-02 -2.896387875080108643e-01
-3.222858905792236328e-01 2.846031635999679565e-02 2.465192079544067383e-01
-7.655198872089385986e-02 -3.047014474868774414e-01 1.621032059192657471e-01
-3.281818628311157227e-01 6.063278764486312866e-02 2.543631196022033691e-01
-8.970244973897933960e-02 -2.597320079803466797e-01 2.467405200004577637e-01
-1.124312877655029297e-01 -1.020250022411346436e-01 2.671282887458801270e-01
-1.589805334806442261e-01 -2.278213500976562500e-01 3.641011714935302734e-01
-7.970567047595977783e-02 -1.814713925123214722e-01 1.713037788867950439e-01
-3.151897788047790527e-01 -2.565947547554969788e-02 1.004762202501296997e-01
-2.303727716207504272e-01 -2.164123207330703735e-01 1.978424489498138428e-01
-2.233441621065139771e-01 1.247199773788452148e-01 3.215694725513458252e-01
-1.977243870496749878e-01 -1.633287593722343445e-02 4.245526492595672607e-01
-2.494035214185714722e-01 -5.906628444790840149e-02 -2.707947492599487305e-01
-1.579697430133819580e-01 -3.243609070777893066e-01 1.183006018400192261e-01
-3.118473291397094727e-01 4.725597798824310303e-03 2.795750498771667480e-01
-1.657167822122573853e-01 -2.047084271907806396e-04 3.459736704826354980e-01
-2.593661248683929443e-01 -1.606545448303222656e-01 -1.863602548837661743e-02
-9.802947938442230225e-02 -1.641952842473983765e-01 2.610979676246643066e-01
-2.484401017427444458e-01 -1.872415095567703247e-01 5.697816610336303711e-03
-9.685537964105606079e-02 -6.937863677740097046e-02 6.855607032775878906e-03
-6.118570268154144287e-02 -2.862479090690612793e-01 4.026561975479125977e-02
-2.972033023834228516e-01 -7.462790608406066895e-02 2.873436547815799713e-02
-1.140323355793952942e-01 -2.415445148944854736e-01 -2.575193047523498535e-01
-1.561311781406402588e-01 1.448547840118408203e-02 2.896708548069000244e-01
-2.473245561122894287e-01 -1.786775141954421997e-01 -5.632194876670837402e-02
-3.473305702209472656e-01 1.424462646245956421e-01 1.600298583507537842e-01
-2.600244581699371338e-01 1.948208361864089966e-01 2.616965770721435547e-01
-6.047131121158599854e-02 -2.823396921157836914e-01 6.391182541847229004e-03
-1.265911757946014404e-01 4.006482660770416260e-03 -9.658036381006240845e-02
-3.496331274509429932e-01 1.771251261234283447e-01 1.064808219671249390e-01
-2.482245117425918579e-01 1.928712576627731323e-01 -1.431311070919036865e-01
-1.243939101696014404e-01 -3.025496006011962891e-02 2.100866436958312988e-01
-3.017411828041076660e-01 7.376659661531448364e-03 3.353374898433685303e-01
-2.848986685276031494e-01 1.674249619245529175e-01 3.389455974102020264e-01
-1.533313095569610596e-01 -2.296875044703483582e-02 3.341554105281829834e-01
-2.764537632465362549e-01 -9.003897756338119507e-02 3.034242391586303711e-01
-1.841906011104583740e-01 1.235321611166000366e-01 1.333726048469543457e-01
-2.201532572507858276e-01 6.657946854829788208e-02 3.939193189144134521e-01
-2.694160938262939453e-01 2.208418548107147217e-01 -1.010389700531959534e-01
-2.228389382362365723e-01 -1.291801631450653076e-01 -2.676072418689727783e-01
-3.468113541603088379e-01 1.248334348201751709e-01 1.407006382942199707e-01
-7.787001132965087891e-02 -1.713633537292480469e-01 -1.319809556007385254e-01
-1.472204178571701050e-01 8.459199219942092896e-03 2.593345642089843750e-01
-9.961567819118499756e-02 -8.681981265544891357e-02 1.562606096267700195e-01
-2.755528986454010010e-01 -1.322531998157501221e-01 1.420422941446304321e-01
-7.738134264945983887e-02 -1.473507881164550781e-01 -6.502226740121841431e-02
-1.183731853961944580e-01 -1.808567717671394348e-02 1.143170744180679321e-01
-1.954122781753540039e-01 -2.573816180229187012e-01 -1.086425408720970154e-01
-9.645397216081619263e-02 -2.636880278587341309e-01 -2.183470726013183594e-01
-3.349331319332122803e-01 8.756878972053527832e-02 -3.884199261665344238e-02
-3.143479824066162109e-01 2.217719256877899170e-01 -9.273719042539596558e-02
-7.640342414379119873e-02 -2.168475985527038574e-01 1.806059181690216064e-01
-6.279994547367095947e-02 -2.796609103679656982e-01 7.808157801628112793e-02
-2.412217408418655396e-01 -2.050635367631912231e-01 1.290154457092285156e-01
-3.460793495178222656e-01 1.126687228679656982e-01 1.056140214204788208e-01
-2.840596437454223633e-01 2.496254742145538330e-01 3.018973022699356079e-02
-2.864726781845092773e-01 -9.485615044832229614e-02 2.148317098617553711e-01
-1.334853768348693848e-01 -2.706348299980163574e-01 3.144589364528656006e-01
-1.229322552680969238e-01 -2.188108861446380615e-03 9.318064153194427490e-02
-3.456496000289916992e-01 1.789505779743194580e-01 6.536878645420074463e-03
-8.112658560276031494e-02 -1.250127553939819336e-01 -4.969432950019836426e-03
-2.662262320518493652e-01 -1.569638028740882874e-02 -2.600117921829223633e-01
-1.196515411138534546e-01 -4.017062485218048096e-03 6.540287286043167114e-03
-3.018647730350494385e-01 -6.208755448460578918e-02 1.650559753179550171e-01
-1.902115195989608765e-01 -2.385983914136886597e-01 -1.826531291007995605e-01
-6.749147176742553711e-02 -3.098156750202178955e-01 9.400995820760726929e-02
-3.339018821716308594e-01 1.387913078069686890e-01 -8.461732417345046997e-02
-2.111427187919616699e-01 -2.504196465015411377e-01 -2.720470726490020752e-02
-2.697464525699615479e-01 1.264613121747970581e-02 4.186553061008453369e-01
-7.681834697723388672e-02 -2.632989287376403809e-01 1.918299496173858643e-01
-2.947667539119720459e-01 -6.742201745510101318e-02 2.353760302066802979e-01
-9.348619729280471802e-02 -1.202033236622810364e-01 1.803606748580932617e-01
-2.030844092369079590e-01 1.626865416765213013e-01 -3.916885703802108765e-03
-6.535901129245758057e-02 -2.188922315835952759e-01 -6.641732901334762573e-02
-2.087335884571075439e-01 9.578490257263183594e-02 -2.585770189762115479e-01
-3.251022994518280029e-01 2.613861858844757080e-02 -1.086916774511337280e-02
-3.193782567977905273e-01 -8.107490837574005127e-03 1.568618118762969971e-01
-6.829945743083953857e-02 -2.317421436309814453e-01 1.268428564071655273e-01
-2.751356363296508789e-01 -1.187449991703033447e-01 2.313722670078277588e-01
-1.717754006385803223e-01 -2.194473743438720703e-01 -2.585631012916564941e-01
-2.834763228893280029e-01 9.852103888988494873e-02 3.952088356018066406e-01
-1.341519355773925781e-01 -3.330876231193542480e-01 -7.746399194002151489e-02
-1.453333050012588501e-01 2.637127786874771118e-02 -1.753468215465545654e-01
-1.752355396747589111e-01 -3.036911487579345703e-01 -1.084139198064804077e-02
-2.410189509391784668e-01 1.445195376873016357e-01 3.267971575260162354e-01
-1.770218312740325928e-01 -3.056688010692596436e-01 4.861292243003845215e-02
-1.381969153881072998e-01 4.028997570276260376e-02 4.210097342729568481e-02
-2.590824663639068604e-01 2.251667678356170654e-01 1.405387967824935913e-01
-1.471913456916809082e-01 5.638022720813751221e-02 -6.552617996931076050e-02
-3.379383683204650879e-01 1.302637308835983276e-01 2.461615204811096191e-01
-8.508980274200439453e-02 -3.326973915100097656e-01 1.470104306936264038e-01
-1.635672152042388916e-01 -2.576615810394287109e-01 3.235332667827606201e-01
-1.741515100002288818e-01 1.126952469348907471e-01 7.225001603364944458e-02
-2.472833693027496338e-01 -1.912979781627655029e-01 1.552128195762634277e-01
-2.504707574844360352e-01 -1.799333244562149048e-01 1.930535137653350830e-01
-2.491050809621810913e-01 -1.446288824081420898e-01 3.178741633892059326e-01
-1.675452440977096558e-01 -1.373057067394256592e-01 -3.284094929695129395e-01
-1.283791810274124146e-01 1.980546861886978149e-03 1.436018645763397217e-01
-8.894777297973632812e-02 -3.249464631080627441e-01 1.768487989902496338e-01
-1.658110618591308594e-01 4.655778408050537109e-02 -2.264028787612915039e-01
-1.303304135799407959e-01 -2.781115472316741943e-02 2.417815029621124268e-01
-9.458966553211212158e-02 -8.097197115421295166e-02 -5.972754955291748047e-02
-1.013940051198005676e-01 -1.104997992515563965e-01 -2.012140452861785889e-01
-3.334538340568542480e-01 1.079942584037780762e-01 2.645846009254455566e-01
-3.485508561134338379e-01 1.886877119541168213e-01 6.320343911647796631e-02
-2.972849607467651367e-01 -7.893699407577514648e-02 1.109889745712280273e-01
-1.944918334484100342e-01 9.543336927890777588e-02 2.877314388751983643e-01
-2.789437472820281982e-01 1.935534179210662842e-02 -2.467103898525238037e-01
-1.023474782705307007e-01 -6.303284317255020142e-02 -9.697359055280685425e-02
-3.056018650531768799e-01 4.869543015956878662e-02 3.531165122985839844e-01
-2.004353255033493042e-01 1.252206265926361084e-01 -1.793574988842010498e-01
-2.774416506290435791e-01 -3.914365172386169434e-02 -2.026150822639465332e-01
-7.041499018669128418e-02 -2.242981940507888794e-01 -1.271926462650299072e-01
-2.098978608846664429e-01 -2.057891488075256348e-01 3.296458423137664795e-01
-1.954084783792495728e-01 -1.253659725189208984e-01 4.287185966968536377e-01
-9.541435539722442627e-02 -1.882880330085754395e-01 -2.349562346935272217e-01
-6.501536071300506592e-02 -2.128730565309524536e-01 5.055962502956390381e-02
-1.656893640756607056e-01 -1.643218994140625000e-01 -3.159050941467285156e-01
-3.195197284221649170e-01 1.083578765392303467e-01 -1.478911340236663818e-01
-2.339608669281005859e-01 -2.124597132205963135e-01 -1.552812755107879639e-02
-3.094069659709930420e-01 -3.380358964204788208e-02 2.960335463285446167e-03
-2.291535437107086182e-01 1.768387258052825928e-01 -1.343807578086853027e-01
-8.385647088289260864e-02 -2.089822292327880859e-01 2.200891077518463135e-01
-1.228969469666481018e-01 2.775296568870544434e-03 -3.573457896709442139e-02
-3.335350155830383301e-01 1.601946651935577393e-01 2.667484581470489502e-01
-2.961348295211791992e-01 -6.522466242313385010e-02 -3.478872776031494141e-02
-3.161540627479553223e-01 2.248396277427673340e-01 2.314273715019226074e-01
-3.276149034500122070e-01 1.012258827686309814e-01 2.925398349761962891e-01
-2.180662304162979126e-01 -2.105726897716522217e-01 2.922736406326293945e-01
-3.247477710247039795e-01 4.903230071067810059e-02 -6.611915677785873413e-02
-2.459314167499542236e-01 -1.609119474887847900e-01 2.949757575988769531e-01
-1.112062409520149231e-01 -2.750467322766780853e-02 3.305078670382499695e-02
-1.646915525197982788e-01 -3.033590614795684814e-01 -8.542690426111221313e-02
-2.384016364812850952e-01 -3.975341469049453735e-02 -3.052980303764343262e-01
-3.300119042396545410e-01 1.701140850782394409e-01 -1.004089191555976868e-01
-1.660628020763397217e-01 -8.214615285396575928e-02 4.082835018634796143e-01
-2.095116227865219116e-01 1.542087048292160034e-01 -1.272175610065460205e-01
-2.617877125740051270e-01 -1.360133588314056396e-01 2.744047641754150391e-01
-3.193834125995635986e-01 2.527302503585815430e-01 1.138295307755470276e-01
-3.467004299163818359e-01 1.944532841444015503e-01 1.496073901653289795e-01
-1.841851770877838135e-01 6.462881714105606079e-02 -2.523005306720733643e-01
