2.593334019184112549e-01 -8.731641769409179688e-01 1.482146829366683960e-01
3.818215727806091309e-01 -5.952924489974975586e-01 2.613273262977600098e-01
4.536586999893188477e-01 -5.046052932739257812e-01 -1.579516977071762085e-01
5.304204225540161133e-01 -6.222042441368103027e-01 1.270470023155212402e-01
4.020330607891082764e-01 -5.580518245697021484e-01 1.792597323656082153e-01
4.148665666580200195e-01 -6.179617047309875488e-01 2.863925099372863770e-01
3.222757577896118164e-01 -8.172503709793090820e-01 -3.521542549133300781e-01
2.283983528614044189e-01 -5.941596031188964844e-01 3.921618312597274780e-02
5.435464382171630859e-01 -5.600827932357788086e-01 -2.543476819992065430e-01
1.715572625398635864e-01 -8.582463264465332031e-01 -1.041187494993209839e-01
4.772964119911193848e-01 -5.605021119117736816e-01 1.416639536619186401e-01
1.958166211843490601e-01 -8.155543804168701172e-01 -2.947534918785095215e-01
3.055317401885986328e-01 -8.716606497764587402e-01 1.174706518650054932e-01
2.884604930877685547e-01 -8.814486265182495117e-01 -4.714205861091613770e-02
2.689324617385864258e-01 -8.585301041603088379e-01 2.120914608240127563e-01
4.447321295738220215e-01 -7.595609426498413086e-01 2.377550452947616577e-01
4.692395031452178955e-01 -5.109826326370239258e-01 -5.885019898414611816e-02
4.823397994041442871e-01 -6.199882030487060547e-01 2.248136550188064575e-01
3.477420210838317871e-01 -7.578796148300170898e-01 3.523858785629272461e-01
2.994706630706787109e-01 -5.727681517601013184e-01 1.464096158742904663e-01
1.984336376190185547e-01 -7.069733738899230957e-01 -3.736246228218078613e-01
5.569469332695007324e-01 -6.558574438095092773e-01 -2.175498306751251221e-01
2.001690268516540527e-01 -8.645412325859069824e-01 1.469765603542327881e-01
1.785121858119964600e-01 -7.341513633728027344e-01 2.509827017784118652e-01
2.404503226280212402e-01 -6.848763823509216309e-01 3.049681186676025391e-01
2.915835678577423096e-01 -7.767559289932250977e-01 -4.312298297882080078e-01
3.250168561935424805e-01 -6.190720796585083008e-01 -4.789153933525085449e-01
3.273434638977050781e-01 -5.504167675971984863e-01 -3.406313061714172363e-01
5.426561832427978516e-01 -6.341158747673034668e-01 9.038500487804412842e-02
5.418595671653747559e-01 -6.684756875038146973e-01 -2.795179486274719238e-01
1.646722555160522461e-01 -6.758797168731689453e-01 -2.349407970905303955e-01
4.124120473861694336e-01 -6.700259447097778320e-01 3.267479538917541504e-01
3.634837865829467773e-01 -6.486026048660278320e-01 -5.125134587287902832e-01
4.640075862407684326e-01 -5.646439790725708008e-01 -4.228217005729675293e-01
1.598275750875473022e-01 -8.292891979217529297e-01 1.693370193243026733e-01
5.121794342994689941e-01 -5.837963819503784180e-01 -3.840819001197814941e-01
5.374180078506469727e-01 -6.301279067993164062e-01 -3.358951210975646973e-01
4.969426989555358887e-01 -7.682211399078369141e-01 -1.898963004350662231e-02
5.240229368209838867e-01 -5.312032699584960938e-01 -8.141095936298370361e-02
4.528589844703674316e-01 -8.080183863639831543e-01 3.773093223571777344e-03
4.727773070335388184e-01 -6.708471775054931641e-01 -4.463213682174682617e-01
5.042064189910888672e-01 -6.676508188247680664e-01 1.993438154458999634e-01
4.952967166900634766e-01 -5.926398038864135742e-01 1.748888492584228516e-01
3.773778676986694336e-01 -7.593569755554199219e-01 3.315622210502624512e-01
5.317326188087463379e-01 -7.244734168052673340e-01 -4.206779599189758301e-02
3.900887966156005859e-01 -8.411060571670532227e-01 1.000653207302093506e-01
2.336167693138122559e-01 -8.813438415527343750e-01 -7.366779446601867676e-02
3.228738605976104736e-01 -8.493503332138061523e-01 -2.450827658176422119e-01
3.138022720813751221e-01 -5.360558032989501953e-01 -2.961315587162971497e-02
5.613955259323120117e-01 -5.928431153297424316e-01 -2.190518528223037720e-01
3.894136846065521240e-01 -7.684082984924316406e-01 3.103507757186889648e-01
1.396981626749038696e-01 -8.286443948745727539e-01 8.803564310073852539e-02
1.744993180036544800e-01 -8.475044369697570801e-01 -1.672929078340530396e-01
1.325059980154037476e-01 -7.273117899894714355e-01 -1.574164479970932007e-01
3.942261636257171631e-01 -6.903968453407287598e-01 -5.017766356468200684e-01
5.614811778068542480e-01 -5.748589634895324707e-01 -1.389030516147613525e-01
2.796295881271362305e-01 -7.521263360977172852e-01 -4.543815851211547852e-01
2.170694470405578613e-01 -6.286476850509643555e-01 1.531429886817932129e-01
3.707630336284637451e-01 -5.158338546752929688e-01 -4.671134054660797119e-02
5.627005100250244141e-01 -5.851141810417175293e-01 -1.886897087097167969e-01
4.543271660804748535e-01 -7.661674022674560547e-01 2.023664563894271851e-01
3.774753212928771973e-01 -5.700250864028930664e-01 -4.433383345603942871e-01
4.379664957523345947e-01 -6.683911085128784180e-01 -4.857340455055236816e-01
5.296481251716613770e-01 -5.397979617118835449e-01 -4.823537915945053101e-02
5.397685766220092773e-01 -6.956310272216796875e-01 3.706835955381393433e-02
1.664562225341796875e-01 -8.537733554840087891e-01 1.092181354761123657e-01
1.919041126966476440e-01 -7.821468114852905273e-01 2.819722890853881836e-01
4.590908288955688477e-01 -5.891633629798889160e-01 2.162146717309951782e-01
3.859945833683013916e-01 -7.962332963943481445e-01 2.710666656494140625e-01
4.026564061641693115e-01 -5.305027961730957031e-01 -3.523492813110351562e-01
3.751206994056701660e-01 -8.252968192100524902e-01 2.144290655851364136e-01
3.737805485725402832e-01 -8.557295799255371094e-01 2.527755498886108398e-02
3.620328009128570557e-01 -7.494942545890808105e-01 -4.615210294723510742e-01
3.108541369438171387e-01 -8.772687315940856934e-01 3.449182212352752686e-02
2.326284646987915039e-01 -5.893450379371643066e-01 -2.220298349857330322e-01
5.515390038490295410e-01 -5.617495775222778320e-01 -6.846491992473602295e-02
2.756800055503845215e-01 -8.778993487358093262e-01 -1.145345345139503479e-01
1.462864875793457031e-01 -7.238925099372863770e-01 -2.307650595903396606e-01
2.843178510665893555e-01 -8.819410800933837891e-01 4.232773184776306152e-02
5.147727131843566895e-01 -7.477092742919921875e-01 -2.945654839277267456e-02
1.281934380531311035e-01 -8.188905715942382812e-01 -3.735039755702018738e-02
3.539259433746337891e-01 -6.235497593879699707e-01 3.033666610717773438e-01
2.094550579786300659e-01 -7.282938957214355469e-01 3.009527325630187988e-01
5.098702907562255859e-01 -7.549190521240234375e-01 -6.366020441055297852e-02
3.510385453701019287e-01 -7.821160554885864258e-01 3.284276127815246582e-01
4.703107774257659912e-01 -7.675052285194396973e-01 -2.719202041625976562e-01
3.159225583076477051e-01 -5.318502783775329590e-01 -8.220367878675460815e-02
4.849334359169006348e-01 -7.143445014953613281e-01 -3.726807236671447754e-01
2.666853964328765869e-01 -8.507221341133117676e-01 2.374760955572128296e-01
1.966084986925125122e-01 -6.453403234481811523e-01 1.426045298576354980e-01
1.828265488147735596e-01 -8.284962177276611328e-01 -2.444547861814498901e-01
1.203513592481613159e-01 -7.659571170806884766e-01 3.485088795423507690e-02
3.450798392295837402e-01 -8.665145635604858398e-01 -7.410991936922073364e-02
3.700377345085144043e-01 -5.123678445816040039e-01 -1.483902484178543091e-01
4.722151756286621094e-01 -5.347684025764465332e-01 -3.505895733833312988e-01
4.630435705184936523e-01 -5.219947099685668945e-01 2.602516859769821167e-02
5.165535211563110352e-01 -5.322297811508178711e-01 -2.544401884078979492e-01
1.542710959911346436e-01 -7.970753908157348633e-01 -2.360667586326599121e-01
4.566947221755981445e-01 -7.081764340400695801e-01 -4.320100545883178711e-01
5.360698699951171875e-01 -6.644827127456665039e-01 -3.097044825553894043e-01
3.527552485466003418e-01 -5.547260046005249023e-01 1.490098387002944946e-01
4.898657202720642090e-01 -7.759537100791931152e-01 -9.551870077848434448e-02
5.378050804138183594e-01 -5.436380505561828613e-01 -2.120266109704971313e-01
4.470354616641998291e-01 -5.441526174545288086e-01 1.258552521467208862e-01
3.905440866947174072e-01 -6.793870925903320312e-01 3.433381915092468262e-01
3.720422089099884033e-01 -8.498858213424682617e-01 -1.495093703269958496e-01
2.289492785930633545e-01 -6.498855352401733398e-01 -3.868920207023620605e-01
2.838315963745117188e-01 -5.511606335639953613e-01 -2.160744369029998779e-02
3.042857646942138672e-01 -5.538124442100524902e-01 7.214991748332977295e-02
4.857501983642578125e-01 -5.104064941406250000e-01 -1.585688889026641846e-01
3.758064210414886475e-01 -8.445015549659729004e-01 -1.784016340970993042e-01
2.323403060436248779e-01 -8.604043722152709961e-01 -2.091084420680999756e-01
2.576133012771606445e-01 -6.086186766624450684e-01 -3.738840222358703613e-01
3.973276913166046143e-01 -5.306887030601501465e-01 8.338819444179534912e-02
3.093498945236206055e-01 -8.530226349830627441e-01 2.094518989324569702e-01
2.923765182495117188e-01 -6.204315423965454102e-01 -4.493148326873779297e-01
2.563292086124420166e-01 -5.638034939765930176e-01 -9.614747017621994019e-02
2.286463379859924316e-01 -8.740556240081787109e-01 1.330078989267349243e-01
3.388915359973907471e-01 -5.694130659103393555e-01 -4.132309556007385254e-01
1.473428010940551758e-01 -7.455711364746093750e-01 1.750746667385101318e-01
1.567887961864471436e-01 -6.951138377189636230e-01 1.317046135663986206e-01
4.497717022895812988e-01 -5.150627493858337402e-01 -2.398736774921417236e-03
3.481222689151763916e-01 -5.486698746681213379e-01 -3.664940595626831055e-01
3.465093970298767090e-01 -5.243026614189147949e-01 -2.349892854690551758e-01
5.525065064430236816e-01 -6.504527926445007324e-01 -2.564101815223693848e-01
3.910515308380126953e-01 -5.084596872329711914e-01 -1.779738962650299072e-01
4.451645612716674805e-01 -5.083584189414978027e-01 -2.372450083494186401e-01
4.434849619865417480e-01 -8.115052580833435059e-01 -1.387863457202911377e-01
2.961454987525939941e-01 -8.810720443725585938e-01 -1.066340506076812744e-02
2.692593932151794434e-01 -6.433154344558715820e-01 -4.460316896438598633e-01
2.213031351566314697e-01 -5.906064510345458984e-01 -1.278150081634521484e-01
3.061022758483886719e-01 -8.739227652549743652e-01 -1.130185574293136597e-01
3.706025183200836182e-01 -7.352578639984130859e-01 3.521421551704406738e-01
3.186410367488861084e-01 -8.678974509239196777e-01 -1.435541808605194092e-01
2.728583812713623047e-01 -8.838889002799987793e-01 -2.683391049504280090e-02
2.228201925754547119e-01 -8.195121884346008301e-01 2.844792008399963379e-01
5.265566706657409668e-01 -7.194077372550964355e-01 -2.108088433742523193e-01
2.053154408931732178e-01 -6.060188412666320801e-01 -3.411620855331420898e-02
3.370197117328643799e-01 -7.335163950920104980e-01 -4.838945865631103516e-01
3.521744608879089355e-01 -8.543715476989746094e-01 -1.729130446910858154e-01
1.685558855533599854e-01 -6.481065750122070312e-01 -2.649173140525817871e-03
2.833838388323783875e-02 -7.494410276412963867e-01 -3.693362772464752197e-01
-1.441651731729507446e-01 -7.543211579322814941e-01 -3.813250958919525146e-01
-5.684053897857666016e-02 -7.451660633087158203e-01 -3.744602799415588379e-01
-6.416842341423034668e-02 -7.636054158210754395e-01 -4.278599619865417480e-01
-1.521301567554473877e-01 -7.832823395729064941e-01 -3.822100162506103516e-01
2.598974481225013733e-02 -7.742367386817932129e-01 -3.665775954723358154e-01
4.061993584036827087e-02 -7.633752822875976562e-01 -3.654937446117401123e-01
2.451674267649650574e-02 -7.886472344398498535e-01 -4.036182761192321777e-01
8.645114302635192871e-02 -7.759636044502258301e-01 -3.839040994644165039e-01
-1.538455337285995483e-01 -7.499139308929443359e-01 -3.898647725582122803e-01
2.741457149386405945e-02 -7.664461135864257812e-01 -3.646295070648193359e-01
4.585325345396995544e-02 -7.775683999061584473e-01 -3.708129525184631348e-01
-1.104980558156967163e-01 -7.916563749313354492e-01 -4.176674783229827881e-01
-1.096148937940597534e-01 -7.413957715034484863e-01 -3.923288285732269287e-01
1.449151709675788879e-02 -7.817199826240539551e-01 -3.702894747257232666e-01
1.438446342945098877e-04 -7.595795392990112305e-01 -4.217054843902587891e-01
-6.891603767871856689e-02 -7.862492203712463379e-01 -3.732117116451263428e-01
-1.614050716161727905e-01 -7.823026776313781738e-01 -4.224235117435455322e-01
-1.589296609163284302e-01 -7.831592559814453125e-01 -3.837670981884002686e-01
9.954231977462768555e-02 -7.571409940719604492e-01 -3.911290466785430908e-01
-1.646492183208465576e-01 -7.711295485496520996e-01 -4.252251386642456055e-01
5.000467225909233093e-02 -7.546514868736267090e-01 -3.683002591133117676e-01
-1.026821136474609375e-02 -7.855613231658935547e-01 -3.721187412738800049e-01
3.943749144673347473e-02 -7.708679437637329102e-01 -3.665180206298828125e-01
-6.118427217006683350e-02 -7.943195104598999023e-01 -3.833955824375152588e-01
-2.950171008706092834e-02 -7.860544323921203613e-01 -4.188342094421386719e-01
-2.101472020149230957e-01 -7.752401828765869141e-01 -4.053094983100891113e-01
2.175737544894218445e-02 -7.829098105430603027e-01 -3.721150457859039307e-01
-8.196372538805007935e-02 -7.531470060348510742e-01 -4.242236614227294922e-01
-1.661501973867416382e-01 -7.496203780174255371e-01 -4.045892059803009033e-01
-8.709352463483810425e-02 -7.944733500480651855e-01 -4.130679368972778320e-01
-1.293147057294845581e-01 -7.861028313636779785e-01 -3.798738121986389160e-01
-1.788978576660156250e-01 -7.871498465538024902e-01 -4.132356047630310059e-01
3.965831175446510315e-02 -7.529149055480957031e-01 -3.680583536624908447e-01
-4.295645654201507568e-02 -7.368030548095703125e-01 -3.955942392349243164e-01
9.018258750438690186e-02 -7.662718892097473145e-01 -3.999133110046386719e-01
-2.404219657182693481e-02 -7.453493475914001465e-01 -3.720620870590209961e-01
-1.255585402250289917e-01 -7.959293723106384277e-01 -3.972266018390655518e-01
9.680618345737457275e-02 -7.672882676124572754e-01 -3.950980007648468018e-01
4.732451960444450378e-02 -7.851846814155578613e-01 -4.008287787437438965e-01
-4.668946936726570129e-02 -7.527329325675964355e-01 -4.230574667453765869e-01
5.583542957901954651e-02 -7.828170657157897949e-01 -3.793979287147521973e-01
-2.081452012062072754e-01 -7.729784250259399414e-01 -3.996233046054840088e-01
-1.038642451167106628e-01 -7.860075235366821289e-01 -4.235509335994720459e-01
3.422673419117927551e-02 -7.649672627449035645e-01 -4.170541465282440186e-01
-4.350537806749343872e-02 -7.968974709510803223e-01 -3.940178155899047852e-01
-5.782268941402435303e-02 -7.848421931266784668e-01 -3.715089559555053711e-01
-1.822631359100341797e-01 -7.877867817878723145e-01 -3.993078172206878662e-01
-8.112573623657226562e-02 -7.954792380332946777e-01 -4.106302261352539062e-01
-1.159344166517257690e-01 -7.679881453514099121e-01 -4.288076162338256836e-01
-3.335295245051383972e-02 -7.898379564285278320e-01 -4.153784811496734619e-01
4.776179790496826172e-03 -7.503138780593872070e-01 -3.677743077278137207e-01
2.338534966111183167e-02 -7.907000780105590820e-01 -3.975375592708587646e-01
-1.685440391302108765e-01 -7.508501410484313965e-01 -3.966781795024871826e-01
-7.909215241670608521e-02 -7.622923851013183594e-01 -4.280553162097930908e-01
-3.441832959651947021e-04 -7.888215184211730957e-01 -3.768481016159057617e-01
-8.172091841697692871e-02 -7.437340021133422852e-01 -3.794940114021301270e-01
-1.737644970417022705e-01 -7.603750228881835938e-01 -3.860202431678771973e-01
8.150577545166015625e-02 -7.569389939308166504e-01 -4.026733636856079102e-01
-7.700470089912414551e-02 -7.857657670974731445e-01 -3.733419179916381836e-01
-1.066189780831336975e-01 -7.622064352035522461e-01 -3.704779446125030518e-01
7.835778594017028809e-02 -7.627450227737426758e-01 -3.713144361972808838e-01
-3.337309882044792175e-02 -7.636683583259582520e-01 -4.259660840034484863e-01
-6.513053923845291138e-02 -7.891788482666015625e-01 -4.194197654724121094e-01
4.152924939990043640e-02 -7.828239202499389648e-01 -3.752377033233642578e-01
-1.539759784936904907e-01 -7.523791790008544922e-01 -4.172281622886657715e-01
-6.961710751056671143e-02 -7.963602542877197266e-01 -3.888807594776153564e-01
-1.520486474037170410e-01 -7.536504864692687988e-01 -3.842063546180725098e-01
-1.159026622772216797e-01 -7.579879760742187500e-01 -3.732313811779022217e-01
-4.718622937798500061e-02 -7.375305294990539551e-01 -3.884645998477935791e-01
7.335692644119262695e-02 -7.569460868835449219e-01 -3.712137341499328613e-01
-1.718168258666992188e-01 -7.861470580101013184e-01 -4.170899093151092529e-01
-1.322368383407592773e-01 -7.943072319030761719e-01 -4.106411635875701904e-01
-8.640874177217483521e-02 -7.974507808685302734e-01 -4.032191038131713867e-01
1.481844857335090637e-02 -7.381746172904968262e-01 -3.946780264377593994e-01
-1.326006203889846802e-01 -7.892059087753295898e-01 -3.836679458618164062e-01
-5.749826505780220032e-02 -7.974787354469299316e-01 -3.978003859519958496e-01
-1.590359658002853394e-01 -7.493892908096313477e-01 -4.100649654865264893e-01
8.193397521972656250e-02 -7.481532096862792969e-01 -3.844705820083618164e-01
-2.094247564673423767e-02 -7.901971340179443359e-01 -3.771756589412689209e-01
-1.941980272531509399e-01 -7.708417177200317383e-01 -4.188309013843536377e-01
-1.049292534589767456e-01 -7.724633216857910156e-01 -3.700173497200012207e-01
6.848783791065216064e-02 -7.476652860641479492e-01 -3.993623256683349609e-01
-9.509848058223724365e-02 -7.527524828910827637e-01 -3.727677464485168457e-01
-1.732894778251647949e-01 -7.775563597679138184e-01 -4.228492975234985352e-01
-1.703403592109680176e-01 -7.758963108062744141e-01 -3.830327093601226807e-01
-4.070015251636505127e-02 -7.841449975967407227e-01 -4.216142892837524414e-01
-1.763007193803787231e-01 -7.898082137107849121e-01 -4.028813242912292480e-01
-3.234002739191055298e-02 -7.366838455200195312e-01 -3.934932351112365723e-01
-1.461353898048400879e-02 -7.416249513626098633e-01 -4.099134504795074463e-01
6.490698456764221191e-02 -7.738884091377258301e-01 -3.718722760677337646e-01
-1.269742101430892944e-02 -7.944794297218322754e-01 -3.885704874992370605e-01
-1.293764710426330566e-01 -7.744004726409912109e-01 -3.739020526409149170e-01
-8.405294269323348999e-03 -7.383485436439514160e-01 -4.019508063793182373e-01
-5.304258316755294800e-02 -7.767521739006042480e-01 -3.667520880699157715e-01
-3.030426986515522003e-02 -7.372111678123474121e-01 -3.998433351516723633e-01
7.423941791057586670e-02 -7.752728462219238281e-01 -3.756241500377655029e-01
5.459574237465858459e-02 -7.426502704620361328e-01 -3.943945169448852539e-01
-1.763338148593902588e-01 -7.613490223884582520e-01 -4.203135371208190918e-01
-1.181216984987258911e-01 -7.912527918815612793e-01 -4.179321229457855225e-01
3.963550329208374023e-01 -1.632235050201416016e-01 2.075702846050262451e-01
4.462894499301910400e-01 -9.576429426670074463e-02 3.759608566761016846e-01
4.854659736156463623e-01 -1.553408205509185791e-01 -4.004385694861412048e-02
4.612747430801391602e-01 -1.743802279233932495e-01 1.138021424412727356e-02
3.152601122856140137e-01 7.514997571706771851e-02 -8.678542077541351318e-02
4.099899232387542725e-01 5.301682651042938232e-02 -2.514223456382751465e-01
3.816581666469573975e-01 -8.922423422336578369e-02 -3.672716319561004639e-01
2.756039500236511230e-01 -2.521799504756927490e-02 -4.091741517186164856e-02
4.528546333312988281e-01 6.740216910839080811e-02 -8.009891211986541748e-02
3.670395314693450928e-01 -4.863978177309036255e-02 -3.728831112384796143e-01
4.330764114856719971e-01 7.342056930065155029e-02 -1.307184696197509766e-01
4.766254425048828125e-01 5.045219510793685913e-02 1.437199711799621582e-01
3.690355420112609863e-01 -1.545819081366062164e-02 -3.639101982116699219e-01
4.632058739662170410e-01 -7.679285109043121338e-02 -3.218590319156646729e-01
4.784905910491943359e-01 3.462405502796173096e-02 -1.071423888206481934e-01
3.017079830169677734e-01 7.686071842908859253e-02 4.177337884902954102e-02
3.321096003055572510e-01 -1.049678586423397064e-02 -3.116825520992279053e-01
4.934246540069580078e-01 -1.208955273032188416e-01 -1.728601306676864624e-01
3.631000220775604248e-01 -1.004843339323997498e-01 -3.350900709629058838e-01
2.845816910266876221e-01 -6.361615657806396484e-02 1.400721371173858643e-01
3.407174944877624512e-01 9.294003248214721680e-02 -7.658889889717102051e-02
3.520393371582031250e-01 -1.448515951633453369e-01 2.037470936775207520e-01
3.068266510963439941e-01 7.669959217309951782e-03 -2.283722609281539917e-01
2.854697704315185547e-01 -6.821694970130920410e-02 -7.019290328025817871e-02
4.362089335918426514e-01 1.238118112087249756e-02 -3.062650263309478760e-01
3.317132890224456787e-01 9.216944873332977295e-02 2.188091427087783813e-01
3.521980643272399902e-01 -6.117472052574157715e-02 -3.522988855838775635e-01
4.540691673755645752e-01 -1.025697216391563416e-01 -3.239441215991973877e-01
5.146977305412292480e-01 -9.552124142646789551e-02 -2.552178129553794861e-02
2.781665623188018799e-01 6.485022604465484619e-04 -6.929105520248413086e-02
3.784201145172119141e-01 1.045706570148468018e-01 -3.295959904789924622e-02
2.777875959873199463e-01 -2.874172106385231018e-02 -6.882770359516143799e-02
2.896165847778320312e-01 3.227002918720245361e-02 -1.048375219106674194e-01
3.542481362819671631e-01 1.333332434296607971e-02 4.353201985359191895e-01
3.118483126163482666e-01 7.241493463516235352e-02 2.381545901298522949e-01
3.052445650100708008e-01 -1.116299852728843689e-01 -7.147188484668731689e-02
2.772411704063415527e-01 -5.036666989326477051e-02 6.358629465103149414e-02
2.813044488430023193e-01 3.864284604787826538e-03 2.054764926433563232e-01
2.887470126152038574e-01 5.860552936792373657e-02 8.855707198381423950e-02
2.940285801887512207e-01 -5.777185410261154175e-02 2.376047819852828979e-01
4.591412544250488281e-01 -1.272118091583251953e-01 -2.799466550350189209e-01
2.819676399230957031e-01 -4.931592196226119995e-02 -8.575895428657531738e-02
2.827166020870208740e-01 2.282740548253059387e-02 1.960624307394027710e-01
3.892444968223571777e-01 7.835727185010910034e-02 3.374332189559936523e-01
4.950528442859649658e-01 -1.443965286016464233e-01 -1.978661864995956421e-03
3.165373206138610840e-01 8.194273710250854492e-02 -5.323787406086921692e-02
3.041470348834991455e-01 -9.211027994751930237e-03 3.319122493267059326e-01
3.702975809574127197e-01 -1.739054471254348755e-01 -2.803149446845054626e-02
3.695626556873321533e-01 -1.734312921762466431e-01 1.968416571617126465e-02
3.795164823532104492e-01 1.098306030035018921e-01 1.272386908531188965e-01
5.145553350448608398e-01 -4.629943892359733582e-02 -5.786524340510368347e-02
2.775717377662658691e-01 2.934329211711883545e-02 9.214757382869720459e-02
3.009213507175445557e-01 3.793653100728988647e-02 -1.541121155023574829e-01
4.706397652626037598e-01 5.367044359445571899e-03 3.363648056983947754e-01
5.012515783309936523e-01 9.992145001888275146e-03 1.128384917974472046e-01
4.061993360519409180e-01 -1.338390111923217773e-01 3.247154057025909424e-01
3.087590336799621582e-01 -1.142976731061935425e-01 1.227220445871353149e-01
4.131765663623809814e-01 -1.847228407859802246e-01 1.772668957710266113e-02
3.561148345470428467e-01 -1.605489701032638550e-01 1.126195490360260010e-01
2.856679856777191162e-01 6.748449057340621948e-03 2.374767959117889404e-01
3.190227746963500977e-01 -8.913363516330718994e-02 -2.416211813688278198e-01
3.962707817554473877e-01 4.246608912944793701e-02 -2.879542708396911621e-01
3.121217489242553711e-01 9.027794003486633301e-04 3.583478927612304688e-01
3.309756219387054443e-01 6.686402112245559692e-02 3.223204016685485840e-01
4.052684009075164795e-01 6.339963525533676147e-02 -2.249364107847213745e-01
4.731145501136779785e-01 -1.339236497879028320e-01 2.352430969476699829e-01
2.733451724052429199e-01 -1.629807613790035248e-02 -9.060464799404144287e-04
2.858544886112213135e-01 -7.800088077783584595e-02 6.223383173346519470e-02
4.697490334510803223e-01 -1.393605582416057587e-02 -2.716491520404815674e-01
3.141731619834899902e-01 -2.609544433653354645e-02 3.602355718612670898e-01
3.665419220924377441e-01 -1.681337803602218628e-01 -1.037944555282592773e-01
3.331264853477478027e-01 7.706808298826217651e-02 -1.397360563278198242e-01
2.930806875228881836e-01 -7.147592306137084961e-02 -1.373219192028045654e-01
4.797081947326660156e-01 -9.595538675785064697e-02 3.003701865673065186e-01
4.991708695888519287e-01 -4.104014486074447632e-02 2.531563341617584229e-01
5.006889700889587402e-01 -1.344615221023559570e-01 3.932213783264160156e-02
3.029740452766418457e-01 -1.125657558441162109e-01 -2.601902931928634644e-03
2.860119342803955078e-01 -3.879188746213912964e-02 2.181415855884552002e-01
5.124097466468811035e-01 -4.116922989487648010e-02 -7.808266580104827881e-02
3.385930061340332031e-01 -1.314403712749481201e-01 2.178992778062820435e-01
3.750777840614318848e-01 -1.783963851630687714e-02 4.592174291610717773e-01
5.108215808868408203e-01 -4.120856523513793945e-02 1.641625314950942993e-01
4.095764160156250000e-01 -6.788041442632675171e-02 4.390390813350677490e-01
3.590068519115447998e-01 3.881873935461044312e-02 4.162194430828094482e-01
3.949367105960845947e-01 -7.256972789764404297e-02 -3.834817111492156982e-01
4.675767123699188232e-01 3.119904547929763794e-02 2.971230447292327881e-01
3.079549968242645264e-01 4.254744201898574829e-02 -1.725891381502151489e-01
4.676156640052795410e-01 5.560986697673797607e-02 1.967756897211074829e-01
3.399353623390197754e-01 1.020440608263015747e-01 8.452126756310462952e-03
4.032345414161682129e-01 -3.300176560878753662e-02 -3.818299770355224609e-01
3.948758542537689209e-01 1.048238277435302734e-01 -5.587436258792877197e-03
4.166728556156158447e-01 1.011611223220825195e-01 9.775341302156448364e-02
2.934719920158386230e-01 2.416691184043884277e-02 2.688797712326049805e-01
3.361511230468750000e-01 -1.439149230718612671e-01 1.300418972969055176e-01
5.112335681915283203e-01 -6.283476948738098145e-02 -1.143368184566497803e-01
3.973343968391418457e-01 1.056256592273712158e-01 1.480487920343875885e-02
3.628889620304107666e-01 8.166451007127761841e-03 -3.377943634986877441e-01
4.823454022407531738e-01 2.213749662041664124e-02 2.476614564657211304e-01
3.163427114486694336e-01 8.358494192361831665e-02 2.016440629959106445e-01
3.333960473537445068e-01 8.443506807088851929e-02 -1.059380918741226196e-01
3.826885819435119629e-01 4.990601539611816406e-02 4.088366925716400146e-01
3.651278018951416016e-01 -1.425268352031707764e-01 -2.454395145177841187e-01
4.444358050823211670e-01 8.519181609153747559e-02 7.894959300756454468e-02
3.543471097946166992e-01 -9.857271611690521240e-02 3.599037826061248779e-01
3.492634892463684082e-01 -1.469089388847351074e-01 1.813765466213226318e-01
2.926778495311737061e-01 6.441414356231689453e-03 2.793871164321899414e-01
3.034142851829528809e-01 -9.758950769901275635e-02 1.738175898790359497e-01
3.038122355937957764e-01 -5.572124570608139038e-02 2.924636900424957275e-01
3.594622910022735596e-01 9.488347172737121582e-02 2.652683556079864502e-01
4.794276654720306396e-01 -5.316873639822006226e-02 -2.774029374122619629e-01
3.409852683544158936e-01 -1.016153320670127869e-01 -2.893482744693756104e-01
5.026546716690063477e-01 -7.909204065799713135e-02 2.203646451234817505e-01
3.705609440803527832e-01 -1.345528662204742432e-01 2.921021580696105957e-01
3.477691113948822021e-01 -1.589768826961517334e-01 6.227702647447586060e-02
4.189272820949554443e-01 6.981299072504043579e-02 -1.823356747627258301e-01
4.414919316768646240e-01 -1.802131682634353638e-01 -7.940645515918731689e-02
3.308451175689697266e-01 -4.154524952173233032e-02 -3.172974288463592529e-01
5.094943046569824219e-01 -2.252137660980224609e-02 -6.498165428638458252e-02
4.946539402008056641e-01 -4.058912023901939392e-02 -2.084986269474029541e-01
2.787581682205200195e-01 3.083447366952896118e-02 1.175264567136764526e-01
4.284257888793945312e-01 5.789567530155181885e-02 3.463992774486541748e-01
4.727916717529296875e-01 5.841074883937835693e-02 5.408022180199623108e-02
3.439040780067443848e-01 -3.470316529273986816e-03 -3.273547291755676270e-01
4.467667937278747559e-01 5.340562015771865845e-02 3.107199966907501221e-01
4.166325032711029053e-01 1.009441316127777100e-01 5.656225234270095825e-02
4.613141119480133057e-01 -1.603118479251861572e-01 1.615916788578033447e-01
3.154862523078918457e-01 7.090239226818084717e-02 -1.082056909799575806e-01
3.899724185466766357e-01 6.308436393737792969e-02 3.802488148212432861e-01
3.098978996276855469e-01 -1.125673204660415649e-01 1.461683362722396851e-01
3.753001391887664795e-01 -1.762685328722000122e-01 -5.322657525539398193e-04
4.928605854511260986e-01 -5.887246876955032349e-02 -2.288225740194320679e-01
4.398182332515716553e-01 -1.232937797904014587e-01 3.334706425666809082e-01
5.114419460296630859e-01 -1.091156899929046631e-01 4.701854661107063293e-02
4.736744761466979980e-01 -9.336023032665252686e-02 3.224553167819976807e-01
3.338221311569213867e-01 -1.349971443414688110e-01 1.770542114973068237e-01
3.723561167716979980e-01 1.106014251708984375e-01 1.037582159042358398e-01
3.926853239536285400e-01 1.725152507424354553e-02 -3.356681764125823975e-01
4.889337420463562012e-01 -9.017177671194076538e-02 -2.395116239786148071e-01
2.729898989200592041e-01 3.948401659727096558e-03 5.210765451192855835e-02
4.758782684803009033e-01 -1.032635644078254700e-01 -2.730009555816650391e-01
4.656774103641510010e-01 2.210722118616104126e-02 3.256053328514099121e-01
3.315481543540954590e-01 -7.017463445663452148e-02 -3.056536316871643066e-01
3.230965137481689453e-01 -1.204141154885292053e-01 1.956090480089187622e-01
4.024957418441772461e-01 9.394040703773498535e-02 -8.847613632678985596e-02
4.089605808258056641e-01 6.459980458021163940e-02 3.607077598571777344e-01
3.903321921825408936e-01 -1.078250557184219360e-01 3.812927901744842529e-01
5.089900493621826172e-01 -7.172467187047004700e-03 5.771812424063682556e-02
3.553640544414520264e-01 -1.283581256866455078e-01 -2.659827768802642822e-01
4.986852705478668213e-01 1.527054980397224426e-02 -1.268473267555236816e-02
3.788372576236724854e-01 -1.563861370086669922e-01 2.172518372535705566e-01
3.047086000442504883e-01 -7.108160853385925293e-02 -2.097064703702926636e-01
4.629035294055938721e-01 -1.267929673194885254e-01 2.846007347106933594e-01
5.109613537788391113e-01 -1.118035167455673218e-01 -9.563405066728591919e-03
4.165765643119812012e-01 -9.701717644929885864e-02 4.012434184551239014e-01
3.821882307529449463e-01 9.490321576595306396e-02 -1.054245084524154663e-01
2.965950369834899902e-01 -9.846257045865058899e-03 3.006359934806823730e-01
4.567932188510894775e-01 5.765503644943237305e-02 -1.171848773956298828e-01
4.869821369647979736e-01 -7.239710539579391479e-03 2.863431274890899658e-01
4.589874446392059326e-01 -1.675432622432708740e-01 1.216597557067871094e-01
4.863715767860412598e-01 -1.465452015399932861e-01 1.153192818164825439e-01
3.022712171077728271e-01 -3.701211512088775635e-02 3.097916543483734131e-01
3.734902143478393555e-01 4.150444269180297852e-02 -2.907786667346954346e-01
3.327071070671081543e-01 -2.192288450896739960e-02 4.079880118370056152e-01
3.887594044208526611e-01 -1.757893115282058716e-01 1.035086512565612793e-01
2.830382883548736572e-01 -6.795410811901092529e-02 8.918133378028869629e-02
5.176545977592468262e-01 -7.358468323945999146e-02 5.523480474948883057e-02
4.222918748855590820e-01 -1.591627895832061768e-01 2.337056994438171387e-01
3.574785590171813965e-01 1.082203984260559082e-01 1.422447860240936279e-01
3.762593269348144531e-01 1.020001024007797241e-01 -5.710436776280403137e-02
4.401344656944274902e-01 -1.785251051187515259e-01 8.503188192844390869e-02
4.215655326843261719e-01 2.508644759654998779e-02 4.202866554260253906e-01
2.846238911151885986e-01 -7.511976361274719238e-02 -1.222182065248489380e-03
5.000195503234863281e-01 -1.352379918098449707e-01 -4.065800830721855164e-02
3.964392244815826416e-01 -1.648139804601669312e-01 -2.090781331062316895e-01
4.587061107158660889e-01 -7.625374943017959595e-03 -2.925214469432830811e-01
2.984456717967987061e-01 -9.047707915306091309e-02 -1.207448095083236694e-01
5.164668560028076172e-01 -5.100372061133384705e-02 9.152370691299438477e-02
4.645268321037292480e-01 -1.170931756496429443e-01 3.038430809974670410e-01
4.413682222366333008e-01 8.009520918130874634e-02 -5.071771517395973206e-02
3.605926632881164551e-01 -1.662985533475875854e-01 -8.472511172294616699e-02
5.121481418609619141e-01 -2.099302783608436584e-02 8.893575519323348999e-02
2.867799699306488037e-01 5.489613115787506104e-02 5.918828397989273071e-02
4.625132083892822266e-01 -4.719234257936477661e-02 3.862861096858978271e-01
5.066702365875244141e-01 -8.738182485103607178e-02 -1.447687745094299316e-01
4.045455753803253174e-01 1.033851504325866699e-01 1.604331731796264648e-01
4.569346904754638672e-01 -1.498922407627105713e-01 2.241243422031402588e-01
4.705951511859893799e-01 -1.294132173061370850e-01 -2.468317598104476929e-01
4.811362028121948242e-01 -2.256536111235618591e-02 3.269141018390655518e-01
3.654123842716217041e-01 6.755541265010833740e-02 3.680671155452728271e-01
5.114324092864990234e-01 -2.615811303257942200e-02 1.274328827857971191e-01
5.090014934539794922e-01 -8.892387151718139648e-02 1.589908897876739502e-01
4.265487790107727051e-01 9.320989251136779785e-02 1.688610017299652100e-01
2.970445156097412109e-01 5.828802287578582764e-02 2.083458006381988525e-01
3.218919634819030762e-01 -8.146771788597106934e-02 3.143695294857025146e-01
5.101070404052734375e-01 -1.114562004804611206e-01 -4.312636330723762512e-02
3.833994865417480469e-01 1.038767695426940918e-01 2.079990655183792114e-01
3.191783726215362549e-01 -4.735534638166427612e-02 3.585045635700225830e-01
4.751580357551574707e-01 5.418863147497177124e-02 1.190360784530639648e-01
4.850922822952270508e-01 2.587549388408660889e-02 2.155997008085250854e-01
4.977301955223083496e-01 1.147139072418212891e-02 -5.591342225670814514e-02
4.450229406356811523e-01 7.623967528343200684e-02 2.109540402889251709e-01
3.464051485061645508e-01 -1.485371440649032593e-01 1.575708091259002686e-01
4.773524999618530273e-01 -1.611682474613189697e-01 -7.415066659450531006e-02
3.344030678272247314e-01 -4.687441140413284302e-02 3.967520594596862793e-01
4.387109875679016113e-01 5.179013311862945557e-02 -2.052410691976547241e-01
3.600884675979614258e-01 4.545465111732482910e-02 -2.743942737579345703e-01
5.160942673683166504e-01 -3.793504461646080017e-02 5.757769942283630371e-02
4.853561520576477051e-01 2.414748072624206543e-03 -1.805468797683715820e-01
2.903792560100555420e-01 4.072868078947067261e-02 -8.505053818225860596e-02
4.565928280353546143e-01 2.644267678260803223e-02 3.472023308277130127e-01
2.889823615550994873e-01 1.280923187732696533e-02 -1.398136466741561890e-01
4.232549965381622314e-01 -1.380640864372253418e-01 3.092593848705291748e-01
2.997926473617553711e-01 -4.344673454761505127e-02 -2.152919024229049683e-01
2.942665219306945801e-01 -2.524879947304725647e-02 2.829554677009582520e-01
4.399777054786682129e-01 -1.132986508309841156e-02 -3.338563442230224609e-01
4.436292648315429688e-01 8.198727667331695557e-02 1.687893122434616089e-01
2.883300781250000000e-01 -6.140692532062530518e-02 1.870034337043762207e-01
5.180714726448059082e-01 -5.916934087872505188e-02 9.140897542238235474e-03
3.770406246185302734e-01 -1.618191301822662354e-01 1.831900477409362793e-01
2.859658598899841309e-01 -5.607348307967185974e-02 -1.124138981103897095e-01
3.191281855106353760e-01 -1.230636164546012878e-01 -1.334939897060394287e-01
4.873508810997009277e-01 3.800828754901885986e-02 2.525205351412296295e-02
4.461971819400787354e-01 -1.486667394638061523e-01 -2.522989809513092041e-01
4.114871025085449219e-01 -1.748927980661392212e-01 1.451239883899688721e-01
4.480924606323242188e-01 -1.792424470186233521e-01 -5.939871445298194885e-02
4.558827280998229980e-01 7.052671164274215698e-02 -3.314785286784172058e-02
2.903242111206054688e-01 5.273600667715072632e-02 1.740795820951461792e-01
3.364864587783813477e-01 1.026372760534286499e-01 1.286387890577316284e-01
4.832961559295654297e-01 -7.661479711532592773e-02 -2.667783796787261963e-01
4.737443327903747559e-01 -1.458152979612350464e-01 -1.894074976444244385e-01
2.975998222827911377e-01 1.897209882736206055e-02 -1.762870550155639648e-01
3.667534589767456055e-01 1.074792295694351196e-01 2.744272351264953613e-03
4.079590141773223877e-01 -1.204644665122032166e-01 3.587473034858703613e-01
2.928639650344848633e-01 -5.902934074401855469e-02 -1.610602736473083496e-01
4.887825250625610352e-01 -1.435527503490447998e-01 -1.163991540670394897e-01
4.028476476669311523e-01 -1.574195176362991333e-01 2.406737953424453735e-01
3.359433710575103760e-01 -1.466588079929351807e-01 1.026960462331771851e-01
2.941373884677886963e-01 -3.399366885423660278e-02 -1.916014999151229858e-01
4.925262629985809326e-01 3.008583933115005493e-02 7.461360096931457520e-02
2.995646297931671143e-01 -8.399657160043716431e-02 -1.518661528825759888e-01
4.472214579582214355e-01 -1.736841350793838501e-01 -1.315481513738632202e-01
5.048732757568359375e-01 -1.275339722633361816e-01 2.939105033874511719e-03
2.805125713348388672e-01 -6.350246071815490723e-02 1.754426956176757812e-02
4.446807503700256348e-01 8.301169425249099731e-02 1.049375906586647034e-02
4.450380504131317139e-01 -1.324674189090728760e-01 -2.943264245986938477e-01
5.075534582138061523e-01 -3.878127783536911011e-03 1.272309944033622742e-02
4.899044632911682129e-01 -8.077418804168701172e-02 2.826595902442932129e-01
4.304316937923431396e-01 -6.783552467823028564e-02 4.260085821151733398e-01
3.429175019264221191e-01 -1.079750061035156250e-01 3.132861852645874023e-01
3.106313943862915039e-01 -2.495124936103820801e-02 -2.612300813198089600e-01
4.306619763374328613e-01 4.747384041547775269e-02 3.678844571113586426e-01
3.216831088066101074e-01 2.189986407756805420e-04 3.848474323749542236e-01
3.368242681026458740e-01 -1.168521046638488770e-01 -2.436714619398117065e-01
3.564870059490203857e-01 9.248484671115875244e-02 -1.091691255569458008e-01
4.574503302574157715e-01 4.524076730012893677e-02 -1.696022152900695801e-01
4.755801260471343994e-01 -1.465077102184295654e-01 1.774326264858245850e-01
2.729871869087219238e-01 -1.835975795984268188e-03 1.986928097903728485e-02
4.244306087493896484e-01 7.249251753091812134e-02 -1.592257916927337646e-01
3.204341232776641846e-01 -7.543213665485382080e-02 -2.676815092563629150e-01
4.238957166671752930e-01 -6.341325491666793823e-02 -3.782131969928741455e-01
2.751293480396270752e-01 1.869474723935127258e-02 3.611628338694572449e-02
4.690492153167724609e-01 -1.695576161146163940e-01 -3.678562119603157043e-02
3.342522382736206055e-01 -1.469808965921401978e-01 8.110048621892929077e-02
4.642034173011779785e-01 -1.664512157440185547e-01 -1.208398640155792236e-01
4.826321005821228027e-01 3.759934008121490479e-02 1.775947809219360352e-01
4.031516313552856445e-01 1.015236228704452515e-01 1.900423616170883179e-01
4.403470754623413086e-01 -1.731459498405456543e-01 -1.528940200805664062e-01
4.336268305778503418e-01 7.581759244203567505e-02 2.659848034381866455e-01
3.673739433288574219e-01 8.695867657661437988e-02 3.077679276466369629e-01
4.914580583572387695e-01 1.107030734419822693e-02 -1.167538315057754517e-01
5.130901336669921875e-01 -2.969400584697723389e-02 -3.425877168774604797e-02
4.170677363872528076e-01 -1.731891483068466187e-01 -1.750592887401580811e-01
3.987608551979064941e-01 1.017951667308807373e-01 -3.092024102807044983e-02
3.226473331451416016e-01 4.623056948184967041e-02 -2.108240276575088501e-01
4.478884041309356689e-01 -1.314651668071746826e-01 3.019585609436035156e-01
3.846576809883117676e-01 -1.772935539484024048e-01 6.836020946502685547e-02
4.889321327209472656e-01 -1.556926779448986053e-02 -2.015473693609237671e-01
3.116009831428527832e-01 -1.248763501644134521e-01 3.339540958404541016e-02
4.398550093173980713e-01 3.307904303073883057e-02 -2.567765116691589355e-01
3.550048172473907471e-01 -3.314639627933502197e-02 4.389704763889312744e-01
5.172451734542846680e-01 -6.436895579099655151e-02 -2.858893200755119324e-02
2.896222472190856934e-01 -5.703334882855415344e-02 2.091294080018997192e-01
3.456674516201019287e-01 6.426148116588592529e-02 -2.096693217754364014e-01
4.983329772949218750e-01 1.895833760499954224e-02 3.234601393342018127e-02
5.164793133735656738e-01 -7.192680239677429199e-02 9.136259555816650391e-02
4.737802147865295410e-01 -1.639486253261566162e-01 6.370567530393600464e-02
5.054539442062377930e-01 -1.093261614441871643e-01 1.377232223749160767e-01
3.043264150619506836e-01 -8.645533025264739990e-02 -1.763720661401748657e-01
4.237201809883117676e-01 8.495631814002990723e-02 -9.358260035514831543e-02
3.961997926235198975e-01 -1.820390969514846802e-01 -5.582150444388389587e-02
3.294409513473510742e-01 -1.026805266737937927e-01 2.878544628620147705e-01
2.919491529464721680e-01 -4.029775410890579224e-02 2.551309764385223389e-01
4.923250675201416016e-01 -1.301455497741699219e-01 -1.517387926578521729e-01
3.938335776329040527e-01 7.858092337846755981e-02 -1.794953197240829468e-01
4.952740073204040527e-01 -1.223031580448150635e-01 1.714451462030410767e-01
2.767190039157867432e-01 2.710461616516113281e-02 7.041416317224502563e-02
5.090301036834716797e-01 -5.108395218849182129e-02 1.876579672098159790e-01
3.781149983406066895e-01 -8.991946280002593994e-02 4.052160978317260742e-01
4.264955520629882812e-01 -1.771903634071350098e-01 1.228361725807189941e-01
3.444366753101348877e-01 1.039045155048370361e-01 1.610180735588073730e-01
4.397781491279602051e-01 6.628862768411636353e-02 2.876257896423339844e-01
3.431290686130523682e-01 -1.383078992366790771e-01 -1.928021311759948730e-01
4.583637714385986328e-01 -1.112152263522148132e-01 3.294082880020141602e-01
3.844649195671081543e-01 8.452116698026657104e-02 -1.590311974287033081e-01
5.005321502685546875e-01 -4.450400546193122864e-02 -1.805576682090759277e-01
5.050465464591979980e-01 -8.477567136287689209e-02 1.974070370197296143e-01
4.262033700942993164e-01 9.067355096340179443e-02 -3.778178617358207703e-02
4.953377842903137207e-01 1.967578753829002380e-02 1.417555063962936401e-01
2.999007105827331543e-01 6.204688549041748047e-02 -6.527036428451538086e-02
4.051196575164794922e-01 -1.797447651624679565e-01 -1.159446090459823608e-01
5.042479038238525391e-01 -6.078086048364639282e-02 -1.685039103031158447e-01
3.871469795703887939e-01 8.636601269245147705e-02 3.087787628173828125e-01
4.570548236370086670e-01 -1.743037402629852295e-01 6.115492805838584900e-02
2.727570533752441406e-01 -3.414656966924667358e-03 7.756134867668151855e-02
3.989314436912536621e-01 -1.749067902565002441e-01 -1.507802754640579224e-01
4.064563810825347900e-01 -1.780965179204940796e-01 1.143167018890380859e-01
4.911022782325744629e-01 3.103706985712051392e-03 -1.460977494716644287e-01
5.162417888641357422e-01 -4.008749872446060181e-02 2.457194030284881592e-03
2.902138233184814453e-01 5.703903734683990479e-02 1.458757221698760986e-01
5.054118037223815918e-01 1.566335558891296387e-03 8.909839391708374023e-02
4.819254577159881592e-01 -1.081021055579185486e-01 -2.475595027208328247e-01
3.759604096412658691e-01 -1.188405752182006836e-01 3.451396822929382324e-01
5.048828721046447754e-01 -1.203852146863937378e-01 -7.941463589668273926e-02
3.073025047779083252e-01 7.748395949602127075e-02 -2.315796166658401489e-02
2.981507182121276855e-01 5.334136635065078735e-02 2.341195344924926758e-01
3.133198022842407227e-01 5.034856498241424561e-02 3.109336197376251221e-01
4.134743511676788330e-01 -1.560890972614288330e-01 -2.540818154811859131e-01
4.815792739391326904e-01 -1.132524907588958740e-01 2.617247700691223145e-01
2.796014845371246338e-01 -2.382889389991760254e-02 1.831733584403991699e-01
3.331874012947082520e-01 2.313431352376937866e-02 3.980759084224700928e-01
4.570325314998626709e-01 -1.146642416715621948e-01 -3.045187890529632568e-01
5.079355239868164062e-01 -6.370942294597625732e-02 -1.431509107351303101e-01
2.932518720626831055e-01 -8.777992427349090576e-02 -7.768771052360534668e-02
3.646660447120666504e-01 3.399666398763656616e-03 4.493189156055450439e-01
4.581730067729949951e-01 -2.278843522071838379e-02 -3.121721148490905762e-01
2.817674279212951660e-01 -2.082514576613903046e-02 2.059033513069152832e-01
4.873927831649780273e-01 -5.488022789359092712e-02 -2.500039935111999512e-01
4.991539120674133301e-01 -7.991959154605865479e-02 -1.978051662445068359e-01
4.682888388633728027e-01 -7.927190512418746948e-03 3.591817021369934082e-01
4.151514768600463867e-01 -1.820051372051239014e-01 7.568570971488952637e-02
4.636870324611663818e-01 3.213615715503692627e-02 -1.912307739257812500e-01
3.882581293582916260e-01 1.008533984422683716e-01 2.279694080352783203e-01
2.991238832473754883e-01 2.780499309301376343e-02 2.923586666584014893e-01
5.077863335609436035e-01 -9.684243053197860718e-02 -1.226606070995330811e-01
4.621648192405700684e-01 -1.623243987560272217e-01 -1.578483730554580688e-01
4.681238532066345215e-01 5.182444304227828979e-02 -8.377665281295776367e-02
4.758163094520568848e-01 -7.233767211437225342e-02 3.393747806549072266e-01
4.772770404815673828e-01 -7.211697846651077271e-02 -2.868382930755615234e-01
4.708942174911499023e-01 -4.584288224577903748e-02 3.654305636882781982e-01
4.106510877609252930e-01 1.036160290241241455e-01 7.635670900344848633e-02
3.797297775745391846e-01 -1.447493135929107666e-01 2.697656750679016113e-01
4.363474845886230469e-01 2.668736875057220459e-02 -2.784083783626556396e-01
3.429106473922729492e-01 1.739996299147605896e-02 4.185744822025299072e-01
2.855599224567413330e-01 4.511316865682601929e-02 -1.934772729873657227e-02
2.874535620212554932e-01 -1.556273736059665680e-02 2.502507567405700684e-01
2.837785482406616211e-01 -5.591395497322082520e-02 1.593046635389328003e-01
2.968543767929077148e-01 4.134020954370498657e-02 2.584183514118194580e-01
3.439658582210540771e-01 -1.468523740768432617e-01 -1.518574357032775879e-01
3.134431242942810059e-01 -1.040318235754966736e-01 2.133509665727615356e-01
4.093024730682373047e-01 -9.223854541778564453e-02 -3.724496662616729736e-01
3.431310355663299561e-01 -1.313291788101196289e-01 -2.205932587385177612e-01
3.210825324058532715e-01 3.372384607791900635e-02 -2.332341521978378296e-01
2.849990427494049072e-01 -7.685454189777374268e-02 3.559881821274757385e-02
3.687709569931030273e-01 -1.547722965478897095e-01 -2.048968225717544556e-01
3.569770157337188721e-01 -1.111836284399032593e-01 -3.079552650451660156e-01
5.082919001579284668e-01 -1.372391730546951294e-02 -4.574750736355781555e-02
3.207511305809020996e-01 6.269270181655883789e-02 -1.588759869337081909e-01
2.747135162353515625e-01 -2.751269750297069550e-02 -2.051502093672752380e-02
4.819338321685791016e-01 -1.128137484192848206e-02 -2.249430269002914429e-01
3.300201296806335449e-01 -1.116646602749824524e-01 2.621986567974090576e-01
4.719682633876800537e-01 -1.671998649835586548e-01 3.000674024224281311e-02
3.967327177524566650e-01 -1.581641733646392822e-01 -2.387278825044631958e-01
3.271951079368591309e-01 -6.731208413839340210e-02 3.555821180343627930e-01
4.446573257446289062e-01 7.294923067092895508e-02 2.348060607910156250e-01
4.461935758590698242e-01 3.466069698333740234e-03 4.039686322212219238e-01
2.782826721668243408e-01 2.220572903752326965e-02 -2.371094375848770142e-02
3.787358999252319336e-01 -5.638829246163368225e-02 4.450268745422363281e-01
4.836085140705108643e-01 -7.675233483314514160e-02 3.105841577053070068e-01
2.807967960834503174e-01 3.955813497304916382e-02 3.204027563333511353e-02
3.273839652538299561e-01 2.676671743392944336e-02 -2.606611549854278564e-01
4.752061367034912109e-01 5.346019566059112549e-02 3.649316728115081787e-03
4.857693910598754883e-01 -9.855146706104278564e-02 2.747883796691894531e-01
4.352463483810424805e-01 -2.655455097556114197e-02 -3.547627031803131104e-01
3.173977136611938477e-01 8.836908638477325439e-02 1.696370840072631836e-01
4.815550744533538818e-01 -1.545532345771789551e-01 9.273269027471542358e-02
4.271260499954223633e-01 -4.268182441592216492e-02 -3.725282847881317139e-01
