1.790834218263626099e-02 9.006680548191070557e-02 -2.020993083715438843e-02
-1.200208663940429688e-01 -1.122308969497680664e-01 4.719573631882667542e-02
-2.941795289516448975e-01 -8.203145861625671387e-02 -7.466179877519607544e-02
-9.557232260704040527e-04 -1.002648621797561646e-01 6.805389188230037689e-03
-3.304976820945739746e-01 -1.155429258942604065e-01 -2.244513481855392456e-03
-3.596456348896026611e-01 -9.661971032619476318e-02 -1.953768357634544373e-02
-1.799276471138000488e-01 -1.121226921677589417e-01 -6.801070272922515869e-02
-7.897476851940155029e-02 5.592615157365798950e-02 6.393785774707794189e-02
-2.891446053981781006e-01 -1.158465594053268433e-01 2.988233789801597595e-02
-2.542905807495117188e-01 3.804811835289001465e-02 2.554796636104583740e-02
1.059440597891807556e-01 -3.905591741204261780e-02 2.094166167080402374e-02
-2.611277103424072266e-01 1.747879572212696075e-02 4.706946387887001038e-02
-3.138810694217681885e-01 1.247668452560901642e-02 -3.247106075286865234e-02
9.231320768594741821e-02 6.822293251752853394e-02 2.524583786725997925e-02
1.129039376974105835e-02 9.213393181562423706e-02 -2.839338034391403198e-03
-9.584828466176986694e-02 -4.094209149479866028e-02 8.810397237539291382e-02
-2.038526237010955811e-01 -1.069660186767578125e-01 5.638080090284347534e-02
-9.731959551572799683e-02 -9.881500154733657837e-03 8.962453156709671021e-02
-1.722516119480133057e-01 7.407139986753463745e-02 -9.668878279626369476e-03
4.755348712205886841e-02 6.984567642211914062e-02 -5.111880600452423096e-02
-1.077479571104049683e-01 -1.246097683906555176e-01 1.927176304161548615e-02
8.715233951807022095e-02 -5.205265432596206665e-02 -2.916635572910308838e-02
-3.523851931095123291e-02 9.046663343906402588e-02 1.484710536897182465e-02
-2.808708250522613525e-01 1.260718889534473419e-02 4.049042984843254089e-02
-3.691577017307281494e-01 -6.875776499509811401e-02 -3.304781392216682434e-02
1.002650037407875061e-01 -1.205392275005578995e-02 4.830398783087730408e-02
6.536508351564407349e-02 3.933212906122207642e-02 -6.724198162555694580e-02
-2.316050976514816284e-02 3.665617108345031738e-02 -8.699974417686462402e-02
-1.228819042444229126e-02 9.316341578960418701e-02 -7.605806924402713776e-03
-2.015647590160369873e-01 4.208929091691970825e-02 -6.810016930103302002e-02
-2.704747915267944336e-01 3.398240357637405396e-02 1.815761439502239227e-02
-2.834465205669403076e-01 -1.931232586503028870e-02 5.862715095281600952e-02
-2.050679028034210205e-01 5.743950605392456055e-02 2.502262964844703674e-02
-4.612879455089569092e-02 8.408994972705841064e-02 -4.347965493798255920e-02
-1.352404654026031494e-01 -1.159567013382911682e-01 4.451255127787590027e-02
-2.901543080806732178e-01 -2.163414843380451202e-02 -7.798504829406738281e-02
-1.896276175975799561e-01 -1.165210008621215820e-01 4.715785756707191467e-02
-2.442443072795867920e-01 -7.317926734685897827e-02 -8.881853520870208740e-02
-1.072291657328605652e-01 -8.285127580165863037e-02 -8.561091125011444092e-02
1.676721125841140747e-02 -1.767966337502002716e-02 7.820764183998107910e-02
-1.821525096893310547e-01 -3.578723967075347900e-02 -1.019096672534942627e-01
-1.474218368530273438e-01 -7.285069674253463745e-02 -9.425022453069686890e-02
-3.575734794139862061e-01 -3.917340934276580811e-02 -4.238288104534149170e-02
-9.415030479431152344e-02 8.861681818962097168e-02 -8.747838437557220459e-03
3.596421331167221069e-02 -8.191313594579696655e-02 2.121589332818984985e-02
1.318624615669250488e-01 -1.050573214888572693e-02 -2.290288358926773071e-02
1.087189242243766785e-01 6.225143373012542725e-02 -2.678830549120903015e-02
-1.382753998041152954e-02 -7.467082887887954712e-02 6.010360270738601685e-02
-9.666435420513153076e-03 -7.626379281282424927e-02 -6.626614183187484741e-02
1.200048103928565979e-01 -2.648299746215343475e-02 1.895419135689735413e-02
-3.387743234634399414e-01 -5.553039908409118652e-02 3.824944421648979187e-02
8.935630321502685547e-04 -6.821611523628234863e-02 6.045113503932952881e-02
4.044025391340255737e-02 5.309345573186874390e-02 -6.743939220905303955e-02
-3.034823238849639893e-01 -1.123826727271080017e-01 2.795026078820228577e-02
-1.596435308456420898e-01 -7.105948776006698608e-02 7.992262393236160278e-02
-9.919307380914688110e-02 6.030711531639099121e-02 -7.194319367408752441e-02
1.173518672585487366e-01 -3.501756489276885986e-02 -5.827031563967466354e-03
-6.873841583728790283e-02 5.266565829515457153e-02 -8.010005950927734375e-02
-1.080699935555458069e-01 -1.142090708017349243e-01 -5.456340312957763672e-02
2.850856631994247437e-02 5.157383531332015991e-02 6.240612268447875977e-02
-2.570590376853942871e-01 -2.533734589815139771e-02 -8.942031860351562500e-02
-3.646687865257263184e-01 -3.680589422583580017e-02 -2.990851923823356628e-02
-3.666415810585021973e-01 -5.163840204477310181e-02 -3.617223352193832397e-02
1.043496653437614441e-01 2.898920513689517975e-02 4.808927327394485474e-02
-2.052478492259979248e-03 3.590290248394012451e-02 -8.460325747728347778e-02
-3.066644072532653809e-01 -8.388838917016983032e-02 4.839079454541206360e-02
6.543157249689102173e-02 -1.920865848660469055e-02 -6.963956356048583984e-02
-1.871633082628250122e-01 3.246625885367393494e-03 7.843548804521560669e-02
-1.332617998123168945e-01 -8.938703685998916626e-02 7.019931823015213013e-02
-5.002363026142120361e-02 -2.895930409431457520e-02 -9.823296219110488892e-02
-2.158643305301666260e-01 -4.586923867464065552e-02 8.003346621990203857e-02
-1.169621497392654419e-01 2.327859401702880859e-03 8.715339004993438721e-02
-2.441134154796600342e-01 2.398556657135486603e-02 -6.945160031318664551e-02
-1.749478578567504883e-01 -1.194852069020271301e-01 4.318504780530929565e-02
-1.527880430221557617e-01 -1.194418370723724365e-01 4.166082292795181274e-02
-3.424871265888214111e-01 -7.484610378742218018e-02 3.329781070351600647e-02
4.179278761148452759e-02 8.780038356781005859e-02 7.767163217067718506e-03
-2.453167438507080078e-01 -1.148493364453315735e-01 -6.197237968444824219e-02
-3.237442970275878906e-01 9.165545925498008728e-03 -2.844003029167652130e-03
-9.482200443744659424e-02 -1.461394131183624268e-03 -1.020656898617744446e-01
-2.618048787117004395e-01 -8.111930638551712036e-02 -8.290649205446243286e-02
7.557732611894607544e-02 -2.954477258026599884e-02 5.433957651257514954e-02
-2.628681659698486328e-01 -1.298076957464218140e-01 1.397817395627498627e-02
6.204669922590255737e-02 4.101002216339111328e-02 6.035447120666503906e-02
-4.068376868963241577e-02 -3.589192777872085571e-02 8.468204736709594727e-02
-6.789122521877288818e-02 9.034795314073562622e-02 6.377448327839374542e-03
-8.738523721694946289e-02 -6.455130875110626221e-02 -9.282862395048141479e-02
-4.885395616292953491e-02 -4.773255437612533569e-02 8.248968422412872314e-02
-2.817628681659698486e-01 1.703112758696079254e-02 -5.670471116900444031e-02
9.927742928266525269e-02 -3.143510222434997559e-02 3.757099062204360962e-02
-2.172235846519470215e-01 6.076932698488235474e-02 -1.617504656314849854e-02
-3.087120354175567627e-01 -1.035552099347114563e-01 -5.621147900819778442e-02
-1.087148413062095642e-01 6.081828474998474121e-02 5.563329160213470459e-02
5.410408228635787964e-02 -7.769492268562316895e-02 -3.847285872325301170e-03
-2.586309313774108887e-01 2.866994403302669525e-02 3.665547445416450500e-02
-5.706083029508590698e-02 4.360059648752212524e-02 7.353467494249343872e-02
1.491353660821914673e-02 -8.634372055530548096e-02 3.166759386658668518e-02
-2.525461614131927490e-01 -8.342041820287704468e-02 6.447266042232513428e-02
6.901416927576065063e-02 -6.159476190805435181e-02 2.804327011108398438e-02
-3.049105703830718994e-01 -1.471133157610893250e-02 4.641860350966453552e-02
-3.364276885986328125e-01 -9.733996540307998657e-02 -4.701379314064979553e-02
-3.462183773517608643e-01 -9.120240807533264160e-02 2.209339290857315063e-02
-4.743712395429611206e-02 -7.648847997188568115e-02 -7.833410799503326416e-02
-1.142024621367454529e-01 -1.289185434579849243e-01 -1.621242053806781769e-02
3.920266777276992798e-02 -7.513842545449733734e-03 7.401414215564727783e-02
-2.563114166259765625e-01 4.533429443836212158e-02 1.885074190795421600e-03
-3.732822537422180176e-01 -7.076767086982727051e-02 -7.165241986513137817e-04
1.219408884644508362e-01 4.559431225061416626e-02 -3.321541845798492432e-02
-2.631583809852600098e-01 -9.815658442676067352e-03 -8.329048752784729004e-02
-4.718521237373352051e-02 -9.387279301881790161e-02 5.177726596593856812e-02
-1.281710714101791382e-01 6.340614706277847290e-02 -6.408442556858062744e-02
4.913961142301559448e-02 -7.745229452848434448e-02 1.577857136726379395e-02
-2.762918770313262939e-01 3.731351345777511597e-02 -8.342972025275230408e-03
-2.774076163768768311e-01 -1.309462487697601318e-01 -1.905944012105464935e-02
-2.117106914520263672e-01 -3.482921048998832703e-02 -9.891342371702194214e-02
-2.118851542472839355e-01 4.034918546676635742e-02 4.739712923765182495e-02
-2.803783714771270752e-01 2.226337604224681854e-02 2.961165085434913635e-02
-4.992777854204177856e-02 -1.154211685061454773e-01 -1.553269848227500916e-02
-2.472493648529052734e-01 5.006882548332214355e-02 -1.169614121317863464e-02
-2.171632051467895508e-01 -1.166707053780555725e-01 4.541314020752906799e-02
-3.638573586940765381e-01 -8.782660961151123047e-02 4.229724407196044922e-03
-2.474398165941238403e-02 8.125559240579605103e-02 3.733961656689643860e-02
-2.264720499515533447e-01 -6.661518663167953491e-02 7.497187703847885132e-02
-1.910860538482666016e-01 -2.101225778460502625e-02 8.331984281539916992e-02
-1.859473139047622681e-01 -1.331351548433303833e-01 -3.183986991643905640e-02
-1.031357795000076294e-01 -6.865935027599334717e-02 -9.288545697927474976e-02
-2.723283767700195312e-01 -1.241595223546028137e-01 2.329087443649768829e-02
-1.574798226356506348e-01 3.980882465839385986e-02 6.486273556947708130e-02
1.113884821534156799e-01 -2.702254243195056915e-02 3.002706542611122131e-02
-1.158035844564437866e-01 -4.652308672666549683e-02 8.748047053813934326e-02
-5.525233969092369080e-02 8.774580806493759155e-02 2.097436040639877319e-02
-7.804419100284576416e-02 -9.701939672231674194e-02 -6.834645569324493408e-02
-2.434159815311431885e-01 -1.289080530405044556e-01 2.242777682840824127e-02
-1.732978969812393188e-01 3.297779709100723267e-02 6.623457372188568115e-02
-1.178881004452705383e-01 -7.761919498443603516e-02 7.641289383172988892e-02
-3.082310557365417480e-01 -4.395838081836700439e-02 5.369713157415390015e-02
-2.520383149385452271e-02 -8.483227342367172241e-02 5.434158071875572205e-02
-2.325323224067687988e-02 -6.754264235496520996e-02 6.818089634180068970e-02
-1.052419841289520264e-01 -1.047024205327033997e-01 5.383722111582756042e-02
-2.042511850595474243e-01 -1.908968389034271240e-02 -9.865516424179077148e-02
1.098768636584281921e-01 6.828711181879043579e-02 4.700385034084320068e-04
-3.429919481277465820e-02 -4.126938059926033020e-03 8.668815344572067261e-02
-1.518702059984207153e-01 -4.391292110085487366e-02 -1.024671494960784912e-01
-2.177090942859649658e-01 5.695022642612457275e-02 1.523069478571414948e-02
-3.101041913032531738e-01 -1.204977333545684814e-01 9.096108376979827881e-03
2.341989427804946899e-02 -9.168165177106857300e-02 -2.249884884804487228e-03
-1.474357545375823975e-01 -1.047642976045608521e-01 5.868270248174667358e-02
-1.296830475330352783e-01 -4.247596114873886108e-02 -1.025514528155326843e-01
-2.086047828197479248e-01 6.018432974815368652e-02 -3.357069566845893860e-02
-6.252025812864303589e-02 1.157323084771633148e-02 -9.828992187976837158e-02
-2.797006666660308838e-01 -9.646396338939666748e-02 5.091261491179466248e-02
4.529148340225219727e-03 2.368395216763019562e-02 -8.754216134548187256e-02
6.422995775938034058e-02 -7.183649390935897827e-02 -1.142239943146705627e-02
-2.060740292072296143e-01 3.167949616909027100e-04 7.555896043777465820e-02
-2.876737713813781738e-01 -6.719119846820831299e-05 4.695858806371688843e-02
-9.720644354820251465e-02 7.984296232461929321e-02 -4.469043761491775513e-02
-1.957540214061737061e-01 6.119345873594284058e-02 -4.155351221561431885e-02
-6.775403022766113281e-02 7.236827909946441650e-02 -6.100988760590553284e-02
-2.615126967430114746e-02 -1.006028354167938232e-01 3.233350068330764771e-02
-1.748384684324264526e-01 -1.304414570331573486e-01 2.280887402594089508e-02
-5.558769777417182922e-02 1.774817891418933868e-02 8.436953276395797729e-02
-1.559749096632003784e-01 -3.729550167918205261e-03 -1.010517925024032593e-01
-1.950007677078247070e-01 -1.137022152543067932e-01 -6.661953032016754150e-02
-7.529716193675994873e-02 -5.221828818321228027e-02 -9.601335227489471436e-02
2.366878837347030640e-02 -4.356687143445014954e-02 -7.638479769229888916e-02
6.288429349660873413e-02 -7.246639579534530640e-02 6.177141331136226654e-03
4.202000796794891357e-03 -4.260610789060592651e-02 -8.312704414129257202e-02
2.281353622674942017e-02 -6.441349536180496216e-02 5.504185706377029419e-02
-2.054826021194458008e-01 -3.656376153230667114e-03 -9.504094719886779785e-02
-2.292732298374176025e-01 -1.134031340479850769e-01 -6.544403731822967529e-02
-8.718558400869369507e-02 8.687838166952133179e-02 1.399692706763744354e-02
1.032440140843391418e-01 1.393556408584117889e-02 -5.616124346852302551e-02
-2.691073715686798096e-01 -6.000837683677673340e-02 6.709840893745422363e-02
-9.798894077539443970e-02 8.141238242387771606e-02 2.646344155073165894e-02
1.554342359304428101e-02 4.103525727987289429e-02 7.018847018480300903e-02
8.355128020048141479e-02 -1.659562624990940094e-02 5.592785775661468506e-02
-1.406461894512176514e-01 6.844510138034820557e-02 -5.359034612774848938e-02
-4.934498667716979980e-02 -9.866858273744583130e-02 -5.690374225378036499e-02
-3.511897623538970947e-01 -1.011486500501632690e-01 4.219246096909046173e-03
-2.579097747802734375e-01 3.086632303893566132e-02 -5.484563857316970825e-02
-1.593743264675140381e-01 5.501507967710494995e-02 5.001019313931465149e-02
-1.612686067819595337e-01 -1.284050047397613525e-01 2.598604559898376465e-02
-9.850017726421356201e-02 -2.839667163789272308e-02 -1.030130013823509216e-01
1.188680529594421387e-03 9.219039976596832275e-02 -1.456677634268999100e-02
-1.695435643196105957e-01 -1.990151405334472656e-02 -1.024279892444610596e-01
4.861765354871749878e-02 4.352201521396636963e-02 6.271125376224517822e-02
-1.584312915802001953e-01 1.949859224259853363e-02 7.693274319171905518e-02
-3.231382071971893311e-01 -1.081776246428489685e-01 -4.373906925320625305e-02
-5.765506997704505920e-02 -1.179528310894966125e-01 -1.552500762045383453e-03
-2.216435670852661133e-01 -9.978353977203369141e-03 7.523022592067718506e-02
-2.188707888126373291e-01 1.002972014248371124e-02 -8.688866347074508667e-02
-8.022706210613250732e-02 -1.086038500070571899e-01 -5.432922393083572388e-02
-3.584348857402801514e-01 -2.156851626932621002e-02 -1.571555808186531067e-02
-2.465402483940124512e-01 -3.968982771039009094e-02 -9.328126162290573120e-02
-2.375769019126892090e-01 -1.347821801900863647e-01 5.331650376319885254e-03
-1.322306841611862183e-01 -7.623139023780822754e-02 -9.187849611043930054e-02
9.678688049316406250e-01 -4.459574073553085327e-02 3.522516926750540733e-03
7.926918864250183105e-01 -5.388116464018821716e-02 1.384491473436355591e-02
7.644259929656982422e-01 6.250226497650146484e-02 -5.390687286853790283e-02
7.569195628166198730e-01 9.318332374095916748e-02 -4.356760997325181961e-03
7.855636477470397949e-01 -4.499418660998344421e-02 4.591894894838333130e-02
8.836981058120727539e-01 3.317779675126075745e-02 -6.792114675045013428e-02
7.315201759338378906e-01 -3.695803135633468628e-02 2.903569489717483521e-02
8.405092358589172363e-01 8.056318759918212891e-02 -8.717866614460945129e-03
9.034738540649414062e-01 4.903039708733558655e-02 2.330534160137176514e-02
6.449870467185974121e-01 1.167620159685611725e-02 9.994886815547943115e-03
6.235892176628112793e-01 6.083946302533149719e-02 2.994288876652717590e-02
7.530593276023864746e-01 5.268358811736106873e-02 -5.661360919475555420e-02
7.812551259994506836e-01 -3.119882568717002869e-02 -3.830054402351379395e-02
7.925478219985961914e-01 -4.985010251402854919e-02 3.717254102230072021e-02
6.370148658752441406e-01 2.749802172183990479e-02 1.878917217254638672e-03
9.630441665649414062e-01 -5.035594478249549866e-02 -8.203197270631790161e-03
8.004161715507507324e-01 8.756071329116821289e-02 1.029066741466522217e-02
6.635470390319824219e-01 2.748204395174980164e-02 -2.214631810784339905e-02
8.231765031814575195e-01 2.657278999686241150e-02 7.266297936439514160e-02
8.613328933715820312e-01 7.501140981912612915e-02 -9.151194244623184204e-03
9.192559719085693359e-01 -5.793981626629829407e-02 1.507215574383735657e-02
6.544707417488098145e-01 7.063553668558597565e-03 2.957299817353487015e-03
9.109449386596679688e-01 4.299998283386230469e-02 2.600102871656417847e-02
7.184238433837890625e-01 -1.278598699718713760e-02 -2.758377604186534882e-02
8.184578418731689453e-01 8.452546596527099609e-02 6.909701041877269745e-03
8.672608137130737305e-01 -3.048478439450263977e-02 5.962591990828514099e-02
8.572638034820556641e-01 7.531876862049102783e-02 1.817455748096108437e-03
8.742520809173583984e-01 -5.616099573671817780e-03 6.461675465106964111e-02
8.756744265556335449e-01 -2.918048202991485596e-02 -6.069865450263023376e-02
9.259900450706481934e-01 5.459547974169254303e-03 4.365018010139465332e-02
7.052308320999145508e-01 5.662768334150314331e-02 -4.257657751441001892e-02
9.042262434959411621e-01 -2.654669061303138733e-02 5.169718340039253235e-02
8.036910295486450195e-01 6.336938589811325073e-03 7.855674624443054199e-02
9.719125628471374512e-01 1.711376570165157318e-02 -4.915847908705472946e-03
8.299791216850280762e-01 -5.093016102910041809e-02 -2.776486612856388092e-02
8.771194219589233398e-01 1.074808556586503983e-02 -7.325145602226257324e-02
7.418246865272521973e-01 -3.668340295553207397e-02 4.286473244428634644e-02
8.425683379173278809e-01 6.816253811120986938e-02 -4.662812501192092896e-02
7.366138696670532227e-01 -2.394754067063331604e-02 -2.516188845038414001e-02
8.698220849037170410e-01 1.139009371399879456e-02 6.450286507606506348e-02
6.433537006378173828e-01 4.596610739827156067e-02 6.017348542809486389e-02
8.130769133567810059e-01 4.402342066168785095e-02 -6.688547879457473755e-02
7.283908724784851074e-01 4.120595380663871765e-02 7.849642634391784668e-02
6.431925892829895020e-01 8.765453472733497620e-03 2.791136316955089569e-02
7.899453639984130859e-01 -1.443801168352365494e-02 7.492841780185699463e-02
6.879480481147766113e-01 3.937168791890144348e-02 -3.812424838542938232e-02
6.903632283210754395e-01 8.096478879451751709e-03 7.202759385108947754e-02
6.965299844741821289e-01 7.994321733713150024e-02 -2.397998794913291931e-02
6.845194697380065918e-01 -1.269856560975313187e-02 4.856934398412704468e-02
8.071050643920898438e-01 -4.593505710363388062e-02 -2.803228236734867096e-02
6.912243962287902832e-01 -1.502345595508813858e-02 -2.549713011831045151e-03
7.527114152908325195e-01 8.544462919235229492e-02 3.836402669548988342e-02
8.742111921310424805e-01 -1.562848687171936035e-02 -6.797546148300170898e-02
6.879137754440307617e-01 1.285226270556449890e-02 -3.030617348849773407e-02
9.342774152755737305e-01 3.628910332918167114e-02 1.492681354284286499e-02
7.582624554634094238e-01 -3.654534742236137390e-02 -1.881389878690242767e-02
7.694597840309143066e-01 9.223821759223937988e-02 8.583985269069671631e-03
8.769385218620300293e-01 4.442918300628662109e-02 -6.279272586107254028e-02
7.687938213348388672e-01 8.454024046659469604e-02 -3.116340376436710358e-02
6.808881163597106934e-01 8.433422446250915527e-02 4.049744457006454468e-02
7.975743412971496582e-01 2.325734309852123260e-02 7.800886780023574829e-02
7.702679038047790527e-01 5.818647891283035278e-02 6.694465875625610352e-02
7.995650172233581543e-01 5.124255642294883728e-02 -6.320596486330032349e-02
8.038882017135620117e-01 7.656250894069671631e-02 -4.175905510783195496e-02
8.523069620132446289e-01 -4.012884944677352905e-02 -4.864223673939704895e-02
7.269666194915771484e-01 -7.970946840941905975e-03 7.277004420757293701e-02
9.500426650047302246e-01 -4.241185262799263000e-02 2.203834801912307739e-02
9.517154097557067871e-01 -2.265730127692222595e-02 -5.688633024692535400e-02
9.149220585823059082e-01 -3.472175449132919312e-02 4.430110007524490356e-02
6.916024684906005859e-01 -1.245482824742794037e-03 6.683847308158874512e-02
9.118256568908691406e-01 2.477717585861682892e-03 -7.017518579959869385e-02
6.238212585449218750e-01 3.224231675267219543e-02 3.015328012406826019e-02
8.195984959602355957e-01 8.110719174146652222e-02 -2.898049540817737579e-02
8.063576221466064453e-01 -5.300506576895713806e-02 3.377309814095497131e-02
8.927701711654663086e-01 5.275356024503707886e-02 -5.000243708491325378e-02
7.955471277236938477e-01 3.464733809232711792e-02 7.521268725395202637e-02
9.293532371520996094e-01 -5.847634747624397278e-02 -1.761127077043056488e-02
7.639678120613098145e-01 8.890984952449798584e-02 2.696986310184001923e-02
8.174407482147216797e-01 -5.180891230702400208e-02 -2.072592079639434814e-02
9.168871045112609863e-01 7.063692435622215271e-03 4.764804989099502563e-02
6.377139687538146973e-01 7.294090837240219116e-02 1.010046340525150299e-02
9.647505879402160645e-01 3.815141506493091583e-03 -5.296457558870315552e-02
7.007982134819030762e-01 2.724980749189853668e-02 7.851966470479965210e-02
6.311610341072082520e-01 6.634064018726348877e-02 3.805537894368171692e-02
9.494455456733703613e-01 2.480077557265758514e-02 1.503888703882694244e-02
7.482621669769287109e-01 3.634077310562133789e-02 -5.879210308194160461e-02
7.680091261863708496e-01 -2.682810276746749878e-02 6.592506915330886841e-02
6.198408007621765137e-01 4.675054177641868591e-02 2.737062610685825348e-02
6.631646156311035156e-01 4.768091812729835510e-02 6.801280379295349121e-02
7.137994170188903809e-01 7.636696100234985352e-02 -3.345225378870964050e-02
7.260975837707519531e-01 2.317685633897781372e-03 7.756292819976806641e-02
7.424091100692749023e-01 -1.041407976299524307e-02 7.402198761701583862e-02
6.449084281921386719e-01 7.934129983186721802e-02 1.777288131415843964e-02
7.529217004776000977e-01 -3.786338865756988525e-02 4.700576514005661011e-02
6.604186296463012695e-01 6.946122646331787109e-02 -1.570033654570579529e-02
9.068586826324462891e-01 3.214887902140617371e-02 -6.353548914194107056e-02
8.994502425193786621e-01 2.085775509476661682e-02 5.036474391818046570e-02
8.069144487380981445e-01 8.433283865451812744e-02 -2.485486678779125214e-02
9.901323318481445312e-01 -1.641622185707092285e-02 -3.173280507326126099e-02
8.575028181076049805e-01 2.308466099202632904e-02 -7.282909005880355835e-02
7.100535035133361816e-01 3.357201442122459412e-02 -4.695424810051918030e-02
7.958083152770996094e-01 6.443969905376434326e-02 5.632060393691062927e-02
8.937447667121887207e-01 -3.045281767845153809e-02 5.330857262015342712e-02
7.562251091003417969e-01 -4.072819650173187256e-02 -7.697087246924638748e-03
8.458088040351867676e-01 -5.870831385254859924e-02 -1.413119211792945862e-02
7.093249559402465820e-01 -4.192166961729526520e-03 -3.049680404365062714e-02
7.588655948638916016e-01 4.448230192065238953e-02 -6.004519388079643250e-02
7.987712621688842773e-01 5.536976829171180725e-02 6.340148299932479858e-02
8.915062546730041504e-01 5.909942463040351868e-02 1.513835415244102478e-02
6.591024398803710938e-01 -3.213486634194850922e-03 2.478934079408645630e-02
6.815426945686340332e-01 -1.079711783677339554e-02 3.442766610532999039e-04
9.701964855194091797e-01 9.215301834046840668e-03 -4.605436697602272034e-02
9.254292845726013184e-01 -5.174464359879493713e-02 2.446774020791053772e-02
7.437212467193603516e-01 8.306778967380523682e-02 -3.199607878923416138e-02
9.607604146003723145e-01 -1.484187413007020950e-02 -5.601982027292251587e-02
8.909465670585632324e-01 4.822712391614913940e-02 3.327170386910438538e-02
6.411687731742858887e-01 5.680204555392265320e-02 5.524592846632003784e-02
7.322165966033935547e-01 9.343443065881729126e-02 1.864452660083770752e-02
9.235333204269409180e-01 5.107806622982025146e-02 -2.374988235533237457e-02
8.864538669586181641e-01 5.226675420999526978e-05 -7.223490625619888306e-02
7.092129588127136230e-01 4.089959897100925446e-03 -3.656243905425071716e-02
7.637692689895629883e-01 -4.716477170586585999e-02 1.901889964938163757e-02
9.806630015373229980e-01 -2.345627918839454651e-02 7.910678163170814514e-03
8.568673729896545410e-01 4.307739436626434326e-02 5.464826151728630066e-02
6.725710630416870117e-01 7.864329218864440918e-02 4.782912135124206543e-02
9.752222299575805664e-01 -5.051686428487300873e-03 -4.810417816042900085e-02
9.039360284805297852e-01 -1.692475751042366028e-02 5.430532619357109070e-02
9.730092883110046387e-01 -2.611288055777549744e-02 1.500355824828147888e-02
7.965410947799682617e-01 -2.174079045653343201e-02 7.130079716444015503e-02
9.167305827140808105e-01 -4.782933369278907776e-02 -4.331215471029281616e-02
7.860306501388549805e-01 6.614749878644943237e-02 -5.338773503899574280e-02
9.457327127456665039e-01 3.932989761233329773e-02 -1.331387832760810852e-02
8.518537878990173340e-01 6.195761635899543762e-02 3.800480812788009644e-02
8.069176673889160156e-01 1.362407114356756210e-02 -6.935787945985794067e-02
9.447241425514221191e-01 -2.125010266900062561e-02 3.580244258046150208e-02
8.582522273063659668e-01 7.195053994655609131e-02 1.446340046823024750e-02
8.262903094291687012e-01 -1.767304539680480957e-02 -6.181911006569862366e-02
9.302513003349304199e-01 3.486859053373336792e-02 -5.189118906855583191e-02
9.642806053161621094e-01 2.019938081502914429e-02 3.183249384164810181e-03
7.513995170593261719e-01 -4.189189895987510681e-02 1.698920503258705139e-03
8.241120576858520508e-01 4.435721784830093384e-02 6.442179530858993530e-02
7.839684486389160156e-01 4.971158504486083984e-02 -6.244287267327308655e-02
7.998797893524169922e-01 -4.632610455155372620e-02 4.711567237973213196e-02
7.685794830322265625e-01 5.323803983628749847e-03 -5.941529199481010437e-02
9.250703454017639160e-01 -4.408552497625350952e-02 3.361559286713600159e-02
9.730517864227294922e-01 -4.494258388876914978e-02 -1.936630904674530029e-02
9.792063832283020020e-01 -3.764868527650833130e-02 -1.146139577031135559e-03
8.466213941574096680e-01 -1.390743907541036606e-02 -6.667213141918182373e-02
7.651236057281494141e-01 6.777885556221008301e-02 5.981881171464920044e-02
7.171089649200439453e-01 6.336010992527008057e-02 6.761330366134643555e-02
6.566992998123168945e-01 7.492817938327789307e-02 -7.977081462740898132e-03
9.685676097869873047e-01 -5.512395873665809631e-04 1.703638210892677307e-02
8.964653015136718750e-01 3.199353814125061035e-03 -7.192097604274749756e-02
8.683011531829833984e-01 7.130718231201171875e-02 -2.558997273445129395e-02
8.323847055435180664e-01 6.687782704830169678e-02 -5.042929947376251221e-02
8.633235692977905273e-01 -2.255342900753021240e-02 6.389418244361877441e-02
7.354574203491210938e-01 3.117975592613220215e-02 8.082368969917297363e-02
8.938753604888916016e-01 2.925622463226318359e-02 4.832966625690460205e-02
8.992853760719299316e-01 -2.223154902458190918e-02 -6.508956849575042725e-02
7.138221859931945801e-01 8.250942081212997437e-02 4.758358374238014221e-02
7.792518734931945801e-01 7.041607052087783813e-03 -6.267636269330978394e-02
8.019071817398071289e-01 7.274238020181655884e-02 4.476275667548179626e-02
8.315216302871704102e-01 -5.666873231530189514e-02 -1.427201181650161743e-02
8.531874418258666992e-01 5.798568576574325562e-02 -5.622648075222969055e-02
6.321941018104553223e-01 5.516069754958152771e-02 5.742460489273071289e-04
9.270184636116027832e-01 4.645916447043418884e-02 -3.574723750352859497e-02
7.673987746238708496e-01 -2.829680964350700378e-02 -3.578875958919525146e-02
8.164330720901489258e-01 -5.167324468493461609e-02 4.004928097128868103e-02
7.578936219215393066e-01 -2.507915720343589783e-02 6.586318463087081909e-02
8.359414935111999512e-01 5.459965392947196960e-02 5.301858857274055481e-02
7.975460290908813477e-01 -5.321392789483070374e-02 2.813132666051387787e-02
8.987199068069458008e-01 -4.367950558662414551e-02 -4.905064404010772705e-02
8.197728395462036133e-01 -5.818375572562217712e-02 2.530673984438180923e-03
7.002266645431518555e-01 5.798079073429107666e-02 7.036902755498886108e-02
8.350327014923095703e-01 -2.544703334569931030e-02 6.709937751293182373e-02
6.775591373443603516e-01 9.726947173476219177e-03 6.821580976247787476e-02
7.941526770591735840e-01 4.051393643021583557e-02 -6.639182567596435547e-02
7.903844714164733887e-01 7.436769455671310425e-02 4.630100354552268982e-02
9.500460624694824219e-01 -5.000334605574607849e-02 -3.109250403940677643e-02
8.688942790031433105e-01 3.152253478765487671e-02 5.743270367383956909e-02
7.895906567573547363e-01 -4.850370064377784729e-02 -1.299189776182174683e-02
7.225762605667114258e-01 1.026384532451629639e-03 -4.105295985937118530e-02
7.823849916458129883e-01 -3.211799263954162598e-02 6.286958605051040649e-02
6.541062593460083008e-01 8.323606848716735840e-02 1.507630944252014160e-02
7.958280444145202637e-01 1.379734277725219727e-02 -6.759802252054214478e-02
6.850924491882324219e-01 9.119974076747894287e-02 1.438960060477256775e-02
8.246287703514099121e-01 7.858897745609283447e-02 2.340290322899818420e-02
7.696202993392944336e-01 3.136217594146728516e-02 -6.378231197595596313e-02
7.099525928497314453e-01 9.385783970355987549e-02 1.065024733543395996e-02
7.839837074279785156e-01 1.820064336061477661e-02 -6.602289527654647827e-02
7.022559642791748047e-01 7.001541554927825928e-02 -3.495391458272933960e-02
8.676875829696655273e-01 -5.886604264378547668e-02 2.697098441421985626e-02
9.117828011512756348e-01 -5.419084802269935608e-02 2.640412002801895142e-02
7.210109233856201172e-01 2.781464904546737671e-02 8.064868301153182983e-02
6.750479936599731445e-01 -1.023919787257909775e-02 4.258453100919723511e-02
9.465001225471496582e-01 -5.422960594296455383e-02 4.768356680870056152e-03
7.417262196540832520e-01 -3.478448092937469482e-02 -9.910900145769119263e-03
6.760629415512084961e-01 2.832011319696903229e-02 -3.022703342139720917e-02
6.506770849227905273e-01 4.294061101973056793e-03 1.633404009044170380e-02
8.719971179962158203e-01 3.695533424615859985e-02 -6.783497333526611328e-02
6.379078626632690430e-01 1.626067981123924255e-02 4.104185476899147034e-02
8.504823446273803711e-01 -5.247611179947853088e-02 -3.108420409262180328e-02
7.965879440307617188e-01 6.609041988849639893e-02 -5.373874306678771973e-02
9.622502923011779785e-01 -1.844039931893348694e-02 2.521795406937599182e-02
7.486242055892944336e-01 4.430270567536354065e-02 7.689154148101806641e-02
6.320812702178955078e-01 3.243591263890266418e-02 5.001755431294441223e-02
8.959016799926757812e-01 4.045667871832847595e-02 -6.112040951848030090e-02
8.871743083000183105e-01 6.659413874149322510e-02 -1.581301540136337280e-02
6.930766701698303223e-01 9.030481427907943726e-02 2.809881232678890228e-02
8.283932805061340332e-01 8.096349239349365234e-02 -2.458196692168712616e-02
9.333193898200988770e-01 2.131361328065395355e-02 3.149404749274253845e-02
7.041004896163940430e-01 9.255368262529373169e-03 7.608233392238616943e-02
7.919921875000000000e-01 8.699005842208862305e-02 1.958324201405048370e-02
7.959551215171813965e-01 -2.720952033996582031e-02 -4.758484661579132080e-02
6.541441679000854492e-01 9.518144652247428894e-04 3.586861491203308105e-02
7.184197902679443359e-01 4.338482394814491272e-02 7.761252671480178833e-02
9.034783840179443359e-01 -4.545916244387626648e-02 4.021119326353073120e-02
9.798212051391601562e-01 -4.073860868811607361e-02 -1.275837421417236328e-02
8.523105978965759277e-01 1.412269845604896545e-02 6.888981163501739502e-02
7.762502431869506836e-01 -4.773521050810813904e-02 -4.271653946489095688e-03
6.730731725692749023e-01 8.892826735973358154e-02 1.612369529902935028e-02
7.017483711242675781e-01 -2.600494399666786194e-02 2.554968371987342834e-02
7.209846377372741699e-01 5.303535237908363342e-02 7.380530238151550293e-02
7.807670831680297852e-01 7.400437444448471069e-02 -4.594482481479644775e-02
7.310360074043273926e-01 1.432798244059085846e-02 8.096044510602951050e-02
8.982802629470825195e-01 -5.275245383381843567e-02 3.309623524546623230e-02
7.341822385787963867e-01 6.071721017360687256e-02 6.901473551988601685e-02
6.695805788040161133e-01 8.311375975608825684e-02 3.885715454816818237e-02
8.110014200210571289e-01 -4.692024365067481995e-02 4.797037318348884583e-02
9.630647301673889160e-01 2.056902460753917694e-02 -4.201586171984672546e-02
6.582313776016235352e-01 1.837344095110893250e-02 -1.313196495175361633e-02
7.449864149093627930e-01 7.617314904928207397e-02 -4.048319160938262939e-02
7.274872660636901855e-01 -3.238660469651222229e-02 4.271006584167480469e-02
6.820545196533203125e-01 6.329651176929473877e-02 6.497392058372497559e-02
8.079269528388977051e-01 -3.098407387733459473e-02 -4.762595519423484802e-02
6.918351650238037109e-01 -1.961455494165420532e-02 3.934173285961151123e-02
9.742491245269775391e-01 -3.549943864345550537e-02 8.208958432078361511e-03
8.504018783569335938e-01 -4.566914215683937073e-02 5.018829181790351868e-02
8.901684284210205078e-01 -5.812368169426918030e-02 2.540504373610019684e-02
9.236789345741271973e-01 1.781181059777736664e-02 3.969372063875198364e-02
9.843560457229614258e-01 5.489168688654899597e-04 -4.308972973376512527e-03
8.999001979827880859e-01 -5.254512652754783630e-02 -3.721966594457626343e-02
8.478780984878540039e-01 -6.114473566412925720e-02 -3.323065582662820816e-03
6.531512737274169922e-01 4.500833898782730103e-02 6.503999978303909302e-02
8.459818959236145020e-01 4.034793376922607422e-02 6.032627448439598083e-02
9.594964981079101562e-01 -7.611056789755821228e-04 2.481495961546897888e-02
8.261174559593200684e-01 8.246030658483505249e-03 7.530000060796737671e-02
8.310367465019226074e-01 1.552263461053371429e-02 -7.227385789155960083e-02
8.850606083869934082e-01 -6.063521280884742737e-02 -1.789065636694431305e-02
8.381066918373107910e-01 6.913709640502929688e-02 3.450096771121025085e-02
7.796725034713745117e-01 8.907396346330642700e-02 -1.849761977791786194e-02
7.327815294265747070e-01 2.119939588010311127e-02 -5.316529795527458191e-02
9.145215749740600586e-01 -6.155977025628089905e-02 -7.512763608247041702e-03
7.467428445816040039e-01 3.340686112642288208e-02 8.029963076114654541e-02
8.791691064834594727e-01 5.029137060046195984e-02 3.783609345555305481e-02
8.866910338401794434e-01 6.011998280882835388e-02 -4.141098633408546448e-02
6.342342495918273926e-01 7.294233888387680054e-02 2.153185382485389709e-02
6.875744462013244629e-01 -1.949999481439590454e-02 2.507371641695499420e-02
6.763693690299987793e-01 4.016140475869178772e-02 -3.251453861594200134e-02
9.591302275657653809e-01 1.358419004827737808e-02 1.681360788643360138e-02
7.710029482841491699e-01 -4.697575792670249939e-02 3.312151879072189331e-02
8.753293752670288086e-01 5.765647813677787781e-02 3.055015392601490021e-02
7.726249694824218750e-01 -1.749927923083305359e-02 -4.809657856822013855e-02
8.667044639587402344e-01 5.759974196553230286e-02 -5.350406095385551453e-02
7.124209403991699219e-01 8.337308466434478760e-02 -2.496317774057388306e-02
7.271346449851989746e-01 -3.187926113605499268e-02 -2.783470321446657181e-03
8.953949213027954102e-01 6.048771366477012634e-02 -3.340307623147964478e-02
9.038758277893066406e-01 4.500843212008476257e-02 -5.432928726077079773e-02
9.523780345916748047e-01 -4.203484393656253815e-03 3.089512512087821960e-02
7.680934071540832520e-01 -4.203745350241661072e-02 4.542224854230880737e-02
7.028191685676574707e-01 4.356733709573745728e-02 -4.427216202020645142e-02
9.653189778327941895e-01 -4.701327905058860779e-02 -2.584802545607089996e-02
9.918163418769836426e-01 -2.235295251011848450e-02 -1.293815858662128448e-02
9.630147814750671387e-01 2.620373107492923737e-02 -7.887182757258415222e-03
9.448993802070617676e-01 1.857067272067070007e-02 -5.709825456142425537e-02
7.738405466079711914e-01 -6.134948693215847015e-03 7.808152586221694946e-02
7.561393380165100098e-01 -4.479978606104850769e-02 1.078469306230545044e-02
7.442653179168701172e-01 -4.105541855096817017e-02 9.921294637024402618e-03
8.689265847206115723e-01 -5.010583624243736267e-02 -3.870538622140884399e-02
9.816907048225402832e-01 -2.924634516239166260e-02 -3.661152720451354980e-02
7.124980688095092773e-01 -3.042055293917655945e-02 2.559765987098217010e-02
7.933322787284851074e-01 -4.504541680216789246e-02 -2.319179847836494446e-02
8.180314898490905762e-01 -2.580820769071578979e-02 -5.469804629683494568e-02
7.222050428390502930e-01 9.045772254467010498e-02 -1.412349939346313477e-02
9.510574340820312500e-01 -1.218878384679555893e-02 -6.014515087008476257e-02
9.913008809089660645e-01 -7.251719944179058075e-03 -1.602868176996707916e-02
9.182972311973571777e-01 5.134541168808937073e-02 -3.335307538509368896e-02
7.204914689064025879e-01 -2.466701716184616089e-02 -1.259699091315269470e-02
6.248739957809448242e-01 4.605966433882713318e-02 4.408071562647819519e-02
7.581783533096313477e-01 -4.350810870528221130e-02 3.495527058839797974e-02
6.673134565353393555e-01 3.927887976169586182e-02 -2.744144760072231293e-02
7.818378210067749023e-01 8.341822028160095215e-02 3.392008319497108459e-02
6.950022578239440918e-01 9.249539673328399658e-02 1.485841348767280579e-02
-5.463317632675170898e-01 2.182067744433879852e-02 -6.818046420812606812e-02
-5.552892684936523438e-01 2.156803011894226074e-02 3.115908056497573853e-02
-5.872408151626586914e-01 6.586417090147733688e-03 5.516469478607177734e-02
-5.626738071441650391e-01 8.839439600706100464e-03 5.059854686260223389e-02
-5.858736038208007812e-01 1.865434087812900543e-02 -1.744943410158157349e-01
-5.701245665550231934e-01 8.746981620788574219e-03 8.379757404327392578e-02
-5.518587827682495117e-01 1.188267208635807037e-02 6.816898286342620850e-02
-5.752039551734924316e-01 2.108143456280231476e-02 -5.914549157023429871e-02
-5.625255703926086426e-01 9.320758283138275146e-03 6.664147973060607910e-02
-5.555302500724792480e-01 1.875185593962669373e-02 -2.119598686695098877e-01
-5.974608659744262695e-01 1.487539894878864288e-02 -2.215096056461334229e-01
-5.445266962051391602e-01 1.340631488710641861e-02 3.598199784755706787e-02
-5.605637431144714355e-01 1.839354634284973145e-02 -2.283251732587814331e-01
-5.583716630935668945e-01 8.997767232358455658e-03 -1.340352743864059448e-01
-5.404908657073974609e-01 1.409831643104553223e-02 -4.029688984155654907e-02
-6.101408004760742188e-01 1.223094668239355087e-02 -4.628174006938934326e-02
-5.878019928932189941e-01 9.151808917522430420e-03 1.020430773496627808e-01
-5.514237880706787109e-01 2.224250137805938721e-02 -5.605538189411163330e-02
-5.942962765693664551e-01 1.706461608409881592e-02 1.456573605537414551e-03
-5.845347046852111816e-01 4.807054996490478516e-03 -1.159127801656723022e-01
-5.943259000778198242e-01 1.785236597061157227e-02 -1.015086323022842407e-01
-5.490635037422180176e-01 1.762472651898860931e-02 -1.978050321340560913e-01
-5.774995088577270508e-01 9.077555499970912933e-03 1.045809239149093628e-01
-5.696539282798767090e-01 1.882336661219596863e-02 9.596560895442962646e-02
-5.393490195274353027e-01 2.040212973952293396e-02 -2.115916460752487183e-02
-5.996240377426147461e-01 5.636339075863361359e-03 -1.962806880474090576e-01
-5.737380385398864746e-01 1.853085495531558990e-02 -2.275264412164688110e-01
-5.582552552223205566e-01 8.895382285118103027e-03 9.163826704025268555e-03
-5.910836458206176758e-01 1.513230707496404648e-02 8.076658844947814941e-02
-5.810068845748901367e-01 2.032396197319030762e-02 -8.005495369434356689e-02
-5.941249132156372070e-01 4.330853931605815887e-03 -1.133594065904617310e-01
-5.806367993354797363e-01 1.613501459360122681e-02 -2.605162858963012695e-01
-5.803601145744323730e-01 6.088008638471364975e-03 2.656716853380203247e-02
-5.867788791656494141e-01 8.290521800518035889e-03 9.177967905998229980e-02
-5.676375031471252441e-01 1.858298107981681824e-02 -2.310945689678192139e-01
-6.038312315940856934e-01 6.027982104569673538e-03 1.684226095676422119e-03
-6.115133762359619141e-01 6.569861434400081635e-03 -1.541039198637008667e-01
-6.094849705696105957e-01 1.163606531918048859e-02 -1.837663501501083374e-01
-5.392297506332397461e-01 1.510667800903320312e-02 -6.870679557323455811e-03
-5.767009258270263672e-01 6.574474275112152100e-03 -1.838898956775665283e-01
-6.093795299530029297e-01 1.232322491705417633e-02 -3.342269733548164368e-02
-5.735812783241271973e-01 1.058988273143768311e-02 1.225649565458297729e-01
-5.565127134323120117e-01 2.125382795929908752e-02 4.551948606967926025e-02
-5.749565362930297852e-01 2.090516872704029083e-02 -1.979744061827659607e-02
-5.776215791702270508e-01 1.942539773881435394e-02 -1.899545490741729736e-01
-6.010721921920776367e-01 5.158198997378349304e-03 -1.740346699953079224e-01
-5.848820805549621582e-01 1.933851093053817749e-02 -1.339082792401313782e-02
-5.470466017723083496e-01 1.277303323149681091e-02 -1.428113281726837158e-01
-5.440922379493713379e-01 1.571341417729854584e-02 7.388505339622497559e-02
-5.546789765357971191e-01 1.820477657020092010e-02 1.117629855871200562e-01
-5.603666305541992188e-01 8.777303621172904968e-03 2.808368206024169922e-02
-5.978353023529052734e-01 1.689166575670242310e-02 -5.296891927719116211e-02
-5.884038209915161133e-01 1.857883110642433167e-02 -7.436700165271759033e-03
-6.117207407951354980e-01 6.811608094722032547e-03 -4.910319298505783081e-02
-6.069194674491882324e-01 1.381252612918615341e-02 -1.495415568351745605e-01
-5.798273086547851562e-01 7.112557068467140198e-03 6.332013010978698730e-02
-6.109981536865234375e-01 1.090212073177099228e-02 -2.712569013237953186e-02
-5.869629383087158203e-01 1.700137183070182800e-02 6.672023236751556396e-02
-5.824286341667175293e-01 1.985846832394599915e-02 -2.224192395806312561e-02
-5.901671051979064941e-01 1.273084152489900589e-02 1.078747361898422241e-01
-6.035557389259338379e-01 1.540105789899826050e-02 -9.431660175323486328e-02
-5.617388486862182617e-01 1.151118986308574677e-02 -2.323778271675109863e-01
-5.809039473533630371e-01 8.409379050135612488e-03 -2.499047070741653442e-01
-5.596497058868408203e-01 8.141884580254554749e-03 -6.760019063949584961e-02
-5.588440895080566406e-01 9.352426975965499878e-03 4.092482477426528931e-02
-6.008836627006530762e-01 1.607552170753479004e-02 -1.257919371128082275e-01
-5.809708833694458008e-01 2.021556161344051361e-02 -3.774471580982208252e-02
-5.430475473403930664e-01 1.290560327470302582e-02 -4.637383297085762024e-02
-5.613336563110351562e-01 2.192128635942935944e-02 -1.104176789522171021e-01
-5.527033209800720215e-01 2.020109444856643677e-02 -1.762430965900421143e-01
-5.548920631408691406e-01 9.206790477037429810e-03 -5.901140719652175903e-02
-5.582551956176757812e-01 2.215977758169174194e-02 -1.722363755106925964e-02
-6.058160066604614258e-01 1.321558281779289246e-02 -3.431610763072967529e-03
-5.398444533348083496e-01 1.460987422615289688e-02 -1.454899460077285767e-02
-6.110987663269042969e-01 5.848742090165615082e-03 -1.166908144950866699e-01
-6.025978326797485352e-01 4.615067504346370697e-03 -6.400095671415328979e-02
-6.068084239959716797e-01 1.426736544817686081e-02 -1.004067882895469666e-01
-5.544499158859252930e-01 2.205137163400650024e-02 -1.034885644912719727e-03
-5.619160532951354980e-01 1.157546788454055786e-02 1.132398992776870728e-01
-5.411227941513061523e-01 1.838915236294269562e-02 -1.350706517696380615e-01
-5.908125638961791992e-01 1.647689938545227051e-02 -2.213788926601409912e-01
-5.714976787567138672e-01 6.517253350466489792e-03 -1.865342259407043457e-03
-5.540063977241516113e-01 1.159298047423362732e-02 -1.841371059417724609e-01
-5.611740350723266602e-01 1.036602631211280823e-02 8.804702758789062500e-02
-5.756272673606872559e-01 9.619200602173805237e-03 1.115244925022125244e-01
-6.036860346794128418e-01 1.532483752816915512e-02 -1.109411045908927917e-01
-5.944672226905822754e-01 4.334093071520328522e-03 -6.525713205337524414e-02
-5.518884658813476562e-01 1.155044324696063995e-02 5.905596911907196045e-02
-5.583758950233459473e-01 2.216908335685729980e-02 -8.943203836679458618e-02
-5.839723944664001465e-01 1.129481382668018341e-02 -2.818082869052886963e-01
-5.697917938232421875e-01 9.898176416754722595e-03 1.072155535221099854e-01
-5.826444625854492188e-01 1.842371560633182526e-02 -2.040420323610305786e-01
-5.813060402870178223e-01 5.832273047417402267e-03 -1.744277477264404297e-01
-5.767866373062133789e-01 8.341991342604160309e-03 8.970439434051513672e-02
-5.718213915824890137e-01 2.143022045493125916e-02 -4.913772642612457275e-02
-5.696223974227905273e-01 6.448992993682622910e-03 -9.935789555311203003e-02
-5.799408555030822754e-01 1.938059739768505096e-02 3.394211828708648682e-02
-5.923287868499755859e-01 5.342431366443634033e-03 -1.869795769453048706e-01
-5.969628691673278809e-01 4.270459525287151337e-03 -9.355440735816955566e-02
-5.742648243904113770e-01 2.107593603432178497e-02 -3.109722957015037537e-02
-5.826938748359680176e-01 6.642586085945367813e-03 -2.124231606721878052e-01
-5.508425235748291016e-01 2.185713127255439758e-02 7.954992353916168213e-03
-5.793480873107910156e-01 1.663432642817497253e-02 1.080141514539718628e-01
-5.973611474037170410e-01 1.112603675574064255e-02 -2.642079889774322510e-01
-5.686052441596984863e-01 1.980298012495040894e-02 -2.009366452693939209e-01
-5.651298761367797852e-01 1.031626202166080475e-02 1.024131774902343750e-01
-6.089745759963989258e-01 1.280032377690076828e-02 -1.563680469989776611e-01
-5.981113910675048828e-01 1.645676605403423309e-02 -1.565276980400085449e-01
-5.460404753684997559e-01 2.158618345856666565e-02 9.425729513168334961e-04
-5.940541028976440430e-01 1.793836429715156555e-02 -8.490888029336929321e-02
-5.466163754463195801e-01 1.957038044929504395e-02 -1.625013649463653564e-01
-5.293456912040710449e-01 -3.189754486083984375e-02 8.124502003192901611e-02
-6.322872638702392578e-01 -8.841548115015029907e-02 -5.154471471905708313e-02
-5.444834828376770020e-01 -2.149425819516181946e-02 7.719564437866210938e-02
-6.206005811691284180e-01 -1.188497990369796753e-01 1.023919507861137390e-02
-6.058550477027893066e-01 1.010965555906295776e-02 6.574989296495914459e-03
-4.381828010082244873e-01 -1.554384827613830566e-02 2.366257645189762115e-02
-6.421794295310974121e-01 -2.178385853767395020e-02 5.537808686494827271e-02
-5.224375128746032715e-01 -1.267054975032806396e-01 -4.136963747441768646e-03
-6.270290613174438477e-01 -3.292520344257354736e-02 -5.929581448435783386e-02
-5.743336677551269531e-01 -1.102387607097625732e-01 5.794997513294219971e-02
-5.727705359458923340e-01 1.535388827323913574e-02 3.905556630343198776e-03
-5.206306576728820801e-01 -3.024666756391525269e-02 7.930471748113632202e-02
-5.373519659042358398e-01 -5.185185372829437256e-02 8.668345212936401367e-02
-4.494547247886657715e-01 -6.058175489306449890e-02 5.928485095500946045e-02
-5.693845748901367188e-01 -1.277977675199508667e-01 3.557402407750487328e-03
-5.929207801818847656e-01 -2.689000964164733887e-02 -6.805334240198135376e-02
-5.700777173042297363e-01 1.247937232255935669e-02 2.820772305130958557e-02
-6.192545890808105469e-01 -4.385055229067802429e-02 -6.646163016557693481e-02
-4.523578882217407227e-01 -6.149652227759361267e-02 -6.103045493364334106e-02
-5.766470432281494141e-01 -8.058712631464004517e-02 -7.373633235692977905e-02
-4.717904627323150635e-01 -1.149506196379661560e-01 1.396765746176242828e-02
-6.535707712173461914e-01 -9.878460317850112915e-02 -2.254547737538814545e-02
-5.820969343185424805e-01 -3.191630542278289795e-02 -7.284551858901977539e-02
-5.791936516761779785e-01 -1.269588768482208252e-01 4.072639159858226776e-03
-5.982857346534729004e-01 -9.684418141841888428e-02 6.819079816341400146e-02
-5.332859754562377930e-01 -1.005143150687217712e-01 6.829573959112167358e-02
-5.117622017860412598e-01 -1.067415550351142883e-01 -5.369960889220237732e-02
-4.570085406303405762e-01 -5.453050509095191956e-02 6.402241438627243042e-02
