-1.841834187507629395e-01 -8.699952960014343262e-01 5.118972808122634888e-02
-9.098699688911437988e-02 -8.662252426147460938e-01 -1.469770371913909912e-01
-5.237120389938354492e-02 -9.435662031173706055e-01 1.809361726045608521e-01
-1.829024031758308411e-02 -8.108696341514587402e-01 1.147200092673301697e-01
8.708907663822174072e-02 -8.854026794433593750e-01 1.564382910728454590e-01
1.373147070407867432e-01 -9.755495190620422363e-01 1.093121170997619629e-01
-6.374978274106979370e-02 -8.564856052398681641e-01 1.556433737277984619e-01
-1.476647555828094482e-01 -8.462586998939514160e-01 -7.952126860618591309e-02
1.242076680064201355e-01 -9.688372015953063965e-01 1.271491944789886475e-01
1.007397547364234924e-01 -1.042383670806884766e+00 -3.123580291867256165e-02
-4.981412738561630249e-02 -7.858968973159790039e-01 3.190622478723526001e-02
-1.496229916810989380e-01 -8.383588790893554688e-01 6.727997958660125732e-02
-1.561828702688217163e-01 -8.317852020263671875e-01 2.582697011530399323e-02
-1.472509652376174927e-02 -9.937437772750854492e-01 1.647093743085861206e-01
-1.933939605951309204e-01 -8.840267658233642578e-01 4.579653590917587280e-02
5.151586979627609253e-02 -1.009348750114440918e+00 1.404725909233093262e-01
3.490953147411346436e-02 -9.014341235160827637e-01 -1.770843565464019775e-01
-1.668674796819686890e-01 -8.696246743202209473e-01 -8.132773637771606445e-02
-1.156732887029647827e-01 -8.607422113418579102e-01 -1.281266510486602783e-01
-1.735927164554595947e-01 -8.576687574386596680e-01 5.621927976608276367e-02
1.861256808042526245e-01 -9.372095465660095215e-01 4.683637991547584534e-02
-2.214634791016578674e-02 -7.872560024261474609e-01 -5.475788936018943787e-02
-2.009302843362092972e-03 -8.918331861495971680e-01 1.813001930713653564e-01
3.430122882127761841e-02 -8.002752661705017090e-01 -8.807160705327987671e-02
8.568432182073593140e-02 -8.055139780044555664e-01 6.706572324037551880e-02
-2.130414918065071106e-02 -9.310446381568908691e-01 1.860215365886688232e-01
1.007027775049209595e-01 -8.004790544509887695e-01 -1.146735623478889465e-02
1.012793257832527161e-01 -8.702601194381713867e-01 -1.403220146894454956e-01
5.860305577516555786e-02 -1.048291802406311035e+00 7.394240051507949829e-02
5.555864423513412476e-02 -8.189414739608764648e-01 -1.138163730502128601e-01
2.496896870434284210e-02 -8.971457481384277344e-01 1.802317649126052856e-01
4.426526278257369995e-02 -9.637479782104492188e-01 -1.696481704711914062e-01
-1.576663702726364136e-01 -9.975414276123046875e-01 -8.098275214433670044e-02
-2.043071538209915161e-01 -9.050831794738769531e-01 -1.972566545009613037e-02
1.723792776465415955e-02 -9.041453003883361816e-01 -1.800688058137893677e-01
1.283294409513473511e-01 -1.028055071830749512e+00 -2.020251378417015076e-02
-1.514921151101589203e-02 -9.716947674751281738e-01 1.768095791339874268e-01
-2.063381373882293701e-01 -9.467868804931640625e-01 -1.228380948305130005e-02
2.370493486523628235e-02 -9.980252981185913086e-01 1.582391858100891113e-01
1.637075841426849365e-02 -7.876298427581787109e-01 -5.720722675323486328e-02
-8.362324535846710205e-02 -8.848429918289184570e-01 1.649246066808700562e-01
-3.715273365378379822e-02 -1.068572998046875000e+00 -8.935012854635715485e-03
1.027521938085556030e-01 -8.443664908409118652e-01 1.183843612670898438e-01
-1.936342269182205200e-01 -9.207252264022827148e-01 -6.541791558265686035e-02
-1.139391064643859863e-01 -8.039560317993164062e-01 -2.561382250860333443e-03
4.284178465604782104e-02 -7.843390703201293945e-01 -2.152057178318500519e-02
-6.422971189022064209e-02 -1.047497034072875977e+00 -8.305001258850097656e-02
-1.135122030973434448e-01 -8.102989196777343750e-01 -4.831267148256301880e-02
1.145341619849205017e-02 -8.112766146659851074e-01 1.151591986417770386e-01
6.079404801130294800e-02 -1.059229373931884766e+00 -1.625763997435569763e-02
3.576213121414184570e-02 -9.409444332122802734e-01 1.804544925689697266e-01
-6.680203229188919067e-02 -1.059247612953186035e+00 -4.527113214135169983e-02
-1.707563996315002441e-01 -9.872846007347106934e-01 -7.314816117286682129e-02
7.756818085908889771e-02 -1.006556391716003418e+00 -1.281492710113525391e-01
1.834091097116470337e-01 -9.146282672882080078e-01 5.844105407595634460e-02
8.457244932651519775e-02 -1.050139546394348145e+00 -2.677877992391586304e-02
-1.355180591344833374e-01 -1.039266943931579590e+00 2.920415485277771950e-03
1.631613522768020630e-01 -8.478632569313049316e-01 -3.115538507699966431e-02
1.575964242219924927e-01 -9.087969064712524414e-01 1.046061143279075623e-01
-1.687367558479309082e-01 -8.831583857536315918e-01 -9.102012217044830322e-02
9.932573139667510986e-02 -1.031358957290649414e+00 7.468262314796447754e-02
-4.458723962306976318e-02 -1.045260429382324219e+00 -9.559990465641021729e-02
6.267078965902328491e-02 -7.909280657768249512e-01 3.963442146778106689e-02
-1.930105686187744141e-02 -1.069583535194396973e+00 -8.686043322086334229e-03
6.839784793555736542e-03 -9.063444733619689941e-01 1.842375248670578003e-01
-7.219850271940231323e-02 -9.200037717819213867e-01 1.771242320537567139e-01
1.431712061166763306e-01 -9.110931158065795898e-01 -1.220437437295913696e-01
-4.125291109085083008e-02 -1.049985647201538086e+00 9.247577935457229614e-02
-4.794067144393920898e-02 -8.224634528160095215e-01 1.259940415620803833e-01
-3.843273222446441650e-02 -9.527335762977600098e-01 1.813943982124328613e-01
1.694253236055374146e-01 -9.416213035583496094e-01 8.457969129085540771e-02
-1.463402211666107178e-01 -8.972188830375671387e-01 1.310861110687255859e-01
1.106434017419815063e-01 -1.006216883659362793e+00 -1.041240915656089783e-01
1.302735954523086548e-01 -8.162590861320495605e-01 -8.939453400671482086e-03
2.019265480339527130e-02 -7.815518379211425781e-01 -2.113034948706626892e-02
6.479032337665557861e-02 -8.503026366233825684e-01 1.457052677869796753e-01
-1.356765478849411011e-01 -8.159793615341186523e-01 1.398684084415435791e-02
4.635708779096603394e-02 -8.994055390357971191e-01 1.762716770172119141e-01
-1.059697940945625305e-01 -1.048380255699157715e+00 4.799475520849227905e-02
-9.221300482749938965e-02 -1.026445984840393066e+00 -1.054923012852668762e-01
1.419818773865699768e-02 -1.009185433387756348e+00 -1.464430391788482666e-01
8.630666881799697876e-02 -1.045006632804870605e+00 5.228875949978828430e-02
-1.756774038076400757e-01 -1.006041646003723145e+00 -1.696999371051788330e-02
-1.016830801963806152e-01 -9.157129526138305664e-01 -1.596601307392120361e-01
1.067352741956710815e-01 -9.824309349060058594e-01 1.325344741344451904e-01
-2.699193730950355530e-02 -7.812279462814331055e-01 1.484428346157073975e-02
3.896674513816833496e-02 -1.038444995880126953e+00 1.069658100605010986e-01
-7.702104747295379639e-03 -7.973884940147399902e-01 -8.722345530986785889e-02
-1.391840130090713501e-01 -8.570700287818908691e-01 1.098854243755340576e-01
2.707033418118953705e-02 -9.699692130088806152e-01 1.739787310361862183e-01
4.056585952639579773e-03 -8.594537973403930664e-01 -1.633877307176589966e-01
-1.866295188665390015e-01 -9.378724694252014160e-01 8.712503314018249512e-02
-3.829890489578247070e-02 -8.920897841453552246e-01 -1.754682958126068115e-01
6.454444676637649536e-02 -8.401863574981689453e-01 -1.357519626617431641e-01
1.729812324047088623e-01 -9.196478128433227539e-01 -8.269168436527252197e-02
-7.253065705299377441e-03 -8.345673680305480957e-01 -1.433172523975372314e-01
-1.301458179950714111e-01 -1.038874745368957520e+00 3.908121958374977112e-02
-1.931506991386413574e-01 -8.730399012565612793e-01 1.185676734894514084e-02
-1.243215799331665039e-01 -1.018440485000610352e+00 -9.160757809877395630e-02
-1.193675026297569275e-01 -1.041410684585571289e+00 -4.475669562816619873e-02
1.597243361175060272e-02 -7.929157614707946777e-01 7.596445828676223755e-02
1.810556203126907349e-01 -8.700513243675231934e-01 -9.763536974787712097e-03
5.420429632067680359e-03 -9.459648728370666504e-01 1.840109974145889282e-01
1.763292253017425537e-01 -9.714230298995971680e-01 -4.081629216670989990e-02
-4.054680466651916504e-03 -8.240345716476440430e-01 1.340162307024002075e-01
-7.291861623525619507e-02 -7.927989363670349121e-01 -3.915346786379814148e-02
1.761001348495483398e-01 -9.701398015022277832e-01 4.397128894925117493e-02
1.411856114864349365e-01 -8.950970172882080078e-01 -1.201657876372337341e-01
-3.551408648490905762e-02 -8.661857843399047852e-01 1.683349162340164185e-01
-5.549255013465881348e-02 -7.855261564254760742e-01 -1.504676882177591324e-02
1.105784252285957336e-01 -9.561585187911987305e-01 1.440525501966476440e-01
-1.838674582540988922e-02 -9.321478009223937988e-01 -1.821617931127548218e-01
-1.283965408802032471e-01 -8.172670602798461914e-01 -4.402767121791839600e-02
6.712604314088821411e-02 -1.003544807434082031e+00 1.392748802900314331e-01
-6.486967951059341431e-02 -1.044121861457824707e+00 9.640842676162719727e-02
1.414845138788223267e-01 -1.007554411888122559e+00 -5.930081382393836975e-02
3.469521552324295044e-02 -8.794981241226196289e-01 -1.704511940479278564e-01
8.618023991584777832e-02 -9.125248193740844727e-01 -1.623842716217041016e-01
-1.188206225633621216e-01 -1.001341581344604492e+00 -1.176868900656700134e-01
-2.057985961437225342e-02 -8.054690361022949219e-01 -1.025464385747909546e-01
-1.514854282140731812e-01 -1.023442983627319336e+00 4.619211703538894653e-02
-9.327679872512817383e-02 -8.497664332389831543e-01 -1.330370455980300903e-01
-2.972598001360893250e-02 -1.031349420547485352e+00 1.269367337226867676e-01
8.934146165847778320e-02 -1.017307519912719727e+00 1.098332703113555908e-01
-2.775376476347446442e-02 -1.061387777328491211e+00 -5.801673978567123413e-02
-1.620754152536392212e-01 -9.088076353073120117e-01 1.190931051969528198e-01
-6.329969502985477448e-03 -1.055371880531311035e+00 8.299625664949417114e-02
-1.721223443746566772e-01 -9.305283427238464355e-01 1.097983494400978088e-01
-3.105187602341175079e-02 -8.155434131622314453e-01 -1.173611730337142944e-01
-9.965249150991439819e-02 -1.046398401260375977e+00 6.444521248340606689e-02
1.234391108155250549e-01 -1.028648138046264648e+00 3.787242248654365540e-02
-1.676056087017059326e-01 -9.667627215385437012e-01 1.042236909270286560e-01
-1.177270635962486267e-01 -8.198308348655700684e-01 7.471808791160583496e-02
1.811182685196399689e-02 -1.067857265472412109e+00 -1.047166716307401657e-02
-1.108439490199089050e-01 -9.575449824333190918e-01 1.566717922687530518e-01
1.393879652023315430e-01 -9.891543984413146973e-01 -9.266975522041320801e-02
-1.492045223712921143e-01 -9.906350970268249512e-01 1.074896380305290222e-01
8.957625180482864380e-02 -1.040104746818542480e+00 -6.139298900961875916e-02
1.636042743921279907e-01 -9.783552885055541992e-01 -6.537457555532455444e-02
-1.189904659986495972e-02 -8.780558705329895020e-01 1.762564033269882202e-01
1.189393773674964905e-01 -9.963489174842834473e-01 1.094394922256469727e-01
7.970739156007766724e-02 -8.918184041976928711e-01 -1.611297279596328735e-01
-8.327643573284149170e-02 -1.058688282966613770e+00 3.291586041450500488e-02
-1.899272054433822632e-01 -8.684286475181579590e-01 -1.107042655348777771e-02
9.253232926130294800e-02 -1.006618380546569824e+00 -1.186091303825378418e-01
-1.452517211437225342e-01 -8.261870145797729492e-01 -3.511866927146911621e-02
9.871271997690200806e-02 -1.019816040992736816e+00 -9.562657028436660767e-02
1.841684579849243164e-01 -8.762750029563903809e-01 7.150731049478054047e-03
2.285274118185043335e-02 -1.043272018432617188e+00 1.039453223347663879e-01
6.526780128479003906e-02 -8.052998781204223633e-01 -8.402124792337417603e-02
1.535527259111404419e-01 -8.508521914482116699e-01 -6.577205657958984375e-02
1.801795363426208496e-01 -9.738875627517700195e-01 5.894384346902370453e-03
-3.651370853185653687e-02 -9.114395380020141602e-01 -1.797585934400558472e-01
1.192447170615196228e-01 -1.026224613189697266e+00 5.686731636524200439e-02
-5.546586215496063232e-02 -7.849358916282653809e-01 4.333188757300376892e-03
7.692930102348327637e-02 -1.012391209602355957e+00 1.247065290808677673e-01
-1.419983059167861938e-01 -9.477134346961975098e-01 -1.313355118036270142e-01
-7.088601589202880859e-03 -1.031486988067626953e+00 -1.226845756173133850e-01
-2.034392058849334717e-01 -9.408020377159118652e-01 4.319965839385986328e-02
-5.706595629453659058e-02 -1.037186503410339355e+00 -1.061097383499145508e-01
-1.141814589500427246e-01 -1.049251079559326172e+00 -1.254469621926546097e-02
1.712645031511783600e-02 -9.660745859146118164e-01 -1.736379265785217285e-01
1.217611059546470642e-01 -8.199519515037536621e-01 -5.659419670701026917e-02
9.507288038730621338e-02 -7.979783415794372559e-01 8.569043129682540894e-03
-1.269017159938812256e-01 -1.016030550003051758e+00 1.001242995262145996e-01
5.852258205413818359e-02 -9.252169132232666016e-01 -1.734563112258911133e-01
-1.286509931087493896e-01 -1.025432229042053223e+00 -7.429938018321990967e-02
1.019489392638206482e-01 -9.908207058906555176e-01 -1.276328116655349731e-01
-1.930319815874099731e-01 -9.842411875724792480e-01 1.301602832973003387e-02
-1.030481234192848206e-01 -1.014634728431701660e+00 -1.143255308270454407e-01
1.250513643026351929e-02 -9.341539144515991211e-01 -1.817001551389694214e-01
-1.012006327509880066e-01 -9.733811020851135254e-01 1.553215384483337402e-01
1.466701328754425049e-01 -8.493552803993225098e-01 7.504464685916900635e-02
-9.992798790335655212e-03 -1.067917227745056152e+00 -2.790596149861812592e-02
-7.028039544820785522e-02 -8.468536138534545898e-01 -1.414274573326110840e-01
-5.505501478910446167e-02 -1.014568328857421875e+00 -1.363961398601531982e-01
-1.532635986804962158e-01 -9.743719100952148438e-01 -1.087420061230659485e-01
-1.957040429115295410e-01 -9.758028984069824219e-01 2.979777194559574127e-02
4.827727377414703369e-02 -1.013410329818725586e+00 -1.341712325811386108e-01
-1.949613392353057861e-01 -9.148384928703308105e-01 6.860891729593276978e-02
-8.164772391319274902e-02 -1.035825967788696289e+00 1.034017652273178101e-01
-1.736174374818801880e-01 -9.059400558471679688e-01 -9.659258276224136353e-02
1.004509627819061279e-01 -1.045023202896118164e+00 -7.363075390458106995e-03
-6.418548524379730225e-02 -1.054085612297058105e+00 -6.588660180568695068e-02
-8.366929739713668823e-02 -9.846486449241638184e-01 -1.508454978466033936e-01
-8.510690927505493164e-02 -7.988870143890380859e-01 -4.975838959217071533e-02
-1.630923748016357422e-01 -9.947361350059509277e-01 8.443876355886459351e-02
-1.244065687060356140e-01 -9.360246658325195312e-01 -1.465621739625930786e-01
-6.006512790918350220e-02 -1.065154314041137695e+00 2.133297547698020935e-02
2.834230847656726837e-02 -8.778289556503295898e-01 1.730185598134994507e-01
-8.970508724451065063e-02 -9.007856845855712891e-01 1.678687334060668945e-01
2.694403938949108124e-02 -1.024341464042663574e+00 -1.277535557746887207e-01
-8.126007020473480225e-02 -7.965993881225585938e-01 4.923980310559272766e-02
-2.624706551432609558e-02 -8.737598657608032227e-01 -1.700562536716461182e-01
-2.216142974793910980e-02 -8.524743318557739258e-01 1.607733070850372314e-01
8.743049204349517822e-02 -8.297588825225830078e-01 1.119388714432716370e-01
-1.042778417468070984e-01 -8.255346417427062988e-01 -9.558046609163284302e-02
5.333571135997772217e-02 -7.913051247596740723e-01 -5.130721628665924072e-02
3.059566579759120941e-02 -1.050082921981811523e+00 8.667957037687301636e-02
4.743982851505279541e-02 -7.969405651092529297e-01 -7.409394532442092896e-02
-1.159821301698684692e-01 -1.034051775932312012e+00 7.854385673999786377e-02
1.541478484869003296e-01 -8.435253500938415527e-01 4.774838313460350037e-02
1.358817219734191895e-01 -8.668631315231323242e-01 1.091436445713043213e-01
1.122656837105751038e-02 -1.068080425262451172e+00 2.192010730504989624e-02
-1.663265377283096313e-01 -8.391695022583007812e-01 -3.798951627686619759e-03
1.912639886140823364e-01 -9.191616773605346680e-01 -3.158872574567794800e-02
-1.531388908624649048e-01 -9.719691276550292969e-01 1.179922148585319519e-01
-9.647663682699203491e-03 -8.378303050994873047e-01 1.490068286657333374e-01
-1.085766404867172241e-01 -9.331504702568054199e-01 -1.563629657030105591e-01
-5.768009275197982788e-02 -9.057227969169616699e-01 1.791819781064987183e-01
7.622046023607254028e-02 -1.054898500442504883e+00 -8.580260910093784332e-03
-6.136416457593441010e-03 -1.061459422111511230e+00 6.450150907039642334e-02
1.859538406133651733e-01 -8.869209885597229004e-01 2.840041927993297577e-02
-6.817742716521024704e-03 -1.046871423721313477e+00 1.022819280624389648e-01
4.893182963132858276e-02 -1.060580253601074219e+00 -3.082089871168136597e-02
-1.168118640780448914e-01 -9.919167160987854004e-01 1.345675289630889893e-01
-2.079415917396545410e-01 -9.363871216773986816e-01 1.704021915793418884e-02
-1.304364502429962158e-01 -8.179498314857482910e-01 4.706680774688720703e-02
-2.987152710556983948e-02 -7.812358140945434570e-01 -6.647698581218719482e-03
1.091755107045173645e-01 -8.064691424369812012e-01 -3.036059439182281494e-02
1.765802353620529175e-01 -9.799479246139526367e-01 -8.683574385941028595e-03
1.370803117752075195e-01 -1.009074926376342773e+00 6.594919413328170776e-02
-2.020857036113739014e-01 -9.648086428642272949e-01 -5.488950759172439575e-03
1.493429690599441528e-01 -8.391931056976318359e-01 -5.021467059850692749e-02
9.541647136211395264e-02 -7.997631430625915527e-01 2.697590552270412445e-02
-1.869748532772064209e-01 -8.977600336074829102e-01 -6.999266892671585083e-02
2.906802482903003693e-02 -1.047087788581848145e+00 -8.991745114326477051e-02
3.640556335449218750e-02 -8.282723426818847656e-01 -1.322104334831237793e-01
-1.679594218730926514e-01 -8.410317897796630859e-01 1.457366347312927246e-02
-1.122802030295133591e-03 -7.924544811248779297e-01 7.667635381221771240e-02
-1.887209862470626831e-01 -9.569312334060668945e-01 -6.743135303258895874e-02
7.038614898920059204e-02 -1.027060627937316895e+00 1.090321764349937439e-01
1.341865807771682739e-01 -8.925427198410034180e-01 1.259461641311645508e-01
-7.088942825794219971e-02 -9.196200966835021973e-01 -1.724884510040283203e-01
-6.115812808275222778e-02 -8.767677545547485352e-01 1.686853766441345215e-01
-1.328992992639541626e-01 -1.001668214797973633e+00 -1.052925735712051392e-01
-1.451674550771713257e-01 -1.010175108909606934e+00 -8.015933632850646973e-02
-1.114403456449508667e-01 -1.014243483543395996e+00 1.158776134252548218e-01
1.005425527691841125e-01 -9.111651778221130371e-01 -1.548089385032653809e-01
-1.036169230937957764e-01 -1.030385136604309082e+00 -9.077084064483642578e-02
7.076938450336456299e-02 -1.054329276084899902e+00 3.532537445425987244e-02
1.350351870059967041e-01 -9.287573099136352539e-01 -1.302051991224288940e-01
7.045643776655197144e-02 -9.766964912414550781e-01 1.573517620563507080e-01
-6.474882364273071289e-02 -7.877976894378662109e-01 2.144564874470233917e-02
-7.974097877740859985e-02 -9.703144431114196777e-01 -1.599874049425125122e-01
7.298927754163742065e-02 -9.420822262763977051e-01 -1.666566282510757446e-01
1.415302455425262451e-01 -9.744307994842529297e-01 -1.045000851154327393e-01
4.428283125162124634e-02 -9.433193802833557129e-01 -1.754306554794311523e-01
1.637609489262104034e-02 -1.031310319900512695e+00 1.249653175473213196e-01
-7.595285028219223022e-02 -8.163330554962158203e-01 -1.009088680148124695e-01
2.334298938512802124e-02 -8.255141377449035645e-01 1.332448720932006836e-01
-1.175433471798896790e-01 -1.040131211280822754e+00 5.994547903537750244e-02
7.297176122665405273e-02 -1.049609422683715820e+00 -5.120991170406341553e-02
-1.930834352970123291e-02 -8.935121297836303711e-01 -1.781339943408966064e-01
-6.154508888721466064e-02 -1.063116788864135742e+00 -3.020630031824111938e-02
-1.278325915336608887e-01 -9.020033478736877441e-01 -1.413251310586929321e-01
1.996683329343795776e-02 -7.848482131958007812e-01 4.521364718675613403e-02
1.256070435047149658e-01 -1.011158227920532227e+00 -7.930331677198410034e-02
-5.262767523527145386e-02 -7.902377843856811523e-01 5.279079824686050415e-02
-1.824358552694320679e-01 -9.138730168342590332e-01 9.304551780223846436e-02
1.255936175584793091e-01 -8.143357038497924805e-01 2.049799449741840363e-02
-1.820770353078842163e-01 -8.671190738677978516e-01 -4.495983943343162537e-02
6.628081947565078735e-02 -7.882664203643798828e-01 -4.814623389393091202e-05
1.599336713552474976e-01 -8.733706474304199219e-01 -8.325625956058502197e-02
-5.668009072542190552e-02 -1.065812349319458008e+00 -1.378345862030982971e-02
1.775838732719421387e-01 -9.744566679000854492e-01 2.749295160174369812e-02
-1.753047108650207520e-02 -9.096109271049499512e-01 -1.815266609191894531e-01
1.250497847795486450e-01 -8.358451724052429199e-01 8.525697141885757446e-02
9.667936712503433228e-02 -9.733116030693054199e-01 1.453093886375427246e-01
1.528519690036773682e-01 -9.457657933235168457e-01 1.077439039945602417e-01
-1.315639540553092957e-02 -8.538080453872680664e-01 -1.594009548425674438e-01
-2.585400361567735672e-03 -7.894043922424316406e-01 -6.553614139556884766e-02
-1.084238570183515549e-02 -8.218507170677185059e-01 -1.287294626235961914e-01
1.643148995935916901e-02 -7.925842404365539551e-01 -7.347138971090316772e-02
-1.761999577283859253e-01 -9.453766942024230957e-01 -9.428846836090087891e-02
-1.734756529331207275e-01 -1.001285910606384277e+00 -4.294032603502273560e-02
5.637513846158981323e-02 -1.020972967147827148e+00 -1.220702454447746277e-01
1.572636887431144714e-03 -7.807215452194213867e-01 -2.110672928392887115e-02
-1.573413163423538208e-01 -1.023448228836059570e+00 2.315973676741123199e-02
1.635165959596633911e-01 -9.274871349334716797e-01 9.738511592149734497e-02
9.217098355293273926e-02 -9.637987613677978516e-01 -1.509692668914794922e-01
8.434966206550598145e-03 -9.944337010383605957e-01 1.631430834531784058e-01
-5.676624178886413574e-02 -9.274671077728271484e-01 1.813442558050155640e-01
-1.710402816534042358e-01 -8.912642002105712891e-01 1.002219244837760925e-01
-1.560185700654983521e-01 -8.381151556968688965e-01 -4.668977484107017517e-02
-3.073687478899955750e-02 -7.938886880874633789e-01 -7.398492842912673950e-02
-4.348431527614593506e-02 -8.532477021217346191e-01 -1.548154205083847046e-01
-6.347928941249847412e-02 -9.948759078979492188e-01 -1.512055695056915283e-01
1.538435965776443481e-01 -8.346307277679443359e-01 5.650186911225318909e-03
1.225334778428077698e-01 -8.614718317985534668e-01 1.180573254823684692e-01
-3.175697848200798035e-02 -8.405563235282897949e-01 1.497375965118408203e-01
1.214903965592384338e-01 -1.008705377578735352e+00 9.045575559139251709e-02
2.897564880549907684e-02 -8.584321141242980957e-01 -1.602892726659774780e-01
-1.828827150166034698e-02 -7.818540334701538086e-01 -2.695566043257713318e-02
1.032861247658729553e-01 -8.776840567588806152e-01 1.435919851064682007e-01
-9.015412628650665283e-02 -9.490134119987487793e-01 -1.629166901111602783e-01
1.349022053182125092e-02 -1.061156868934631348e+00 -5.618197843432426453e-02
-4.826853983104228973e-04 -8.115176558494567871e-01 -1.143479719758033752e-01
-1.248458176851272583e-01 -9.676238894462585449e-01 1.442219913005828857e-01
7.243981957435607910e-02 -1.035461068153381348e+00 9.283255040645599365e-02
1.257412880659103394e-01 -9.299122691154479980e-01 1.385663300752639771e-01
1.775041520595550537e-01 -8.701539635658264160e-01 -3.532565757632255554e-02
-6.164634227752685547e-02 -1.062794685363769531e+00 3.867198526859283447e-02
-1.026351451873779297e-01 -8.894625306129455566e-01 1.582484543323516846e-01
-1.279406100511550903e-01 -8.296501040458679199e-01 8.280257135629653931e-02
-9.832809120416641235e-02 -1.056010603904724121e+00 7.849504239857196808e-03
-1.924593001604080200e-02 -1.051240682601928711e+00 -8.772761374711990356e-02
-3.092545829713344574e-02 -1.007948875427246094e+00 1.527383029460906982e-01
7.472068071365356445e-02 -7.970272302627563477e-01 5.179348960518836975e-02
-1.209796965122222900e-01 -1.046728134155273438e+00 1.083790790289640427e-02
-8.567130565643310547e-02 -1.011968255043029785e+00 -1.273993551731109619e-01
-2.455566823482513428e-02 -9.139809608459472656e-01 1.853297352790832520e-01
-1.395589858293533325e-01 -1.004467964172363281e+00 1.027344912290573120e-01
2.803120762109756470e-03 -1.065227270126342773e+00 4.694853723049163818e-02
1.422288268804550171e-01 -8.711746931076049805e-01 -1.059017330408096313e-01
1.398115418851375580e-02 -8.419157266616821289e-01 -1.496024280786514282e-01
2.152620442211627960e-02 -7.843203544616699219e-01 -4.048677906394004822e-02
-1.081297844648361206e-01 -1.028971314430236816e+00 9.659542143344879150e-02
-8.519394695758819580e-02 -1.053556084632873535e+00 5.631174519658088684e-02
4.896862804889678955e-02 -8.710776567459106445e-01 1.649833768606185913e-01
1.006536036729812622e-01 -8.229838609695434570e-01 -9.073507040739059448e-02
1.569761335849761963e-01 -1.005253791809082031e+00 7.791732437908649445e-03
1.318488419055938721e-01 -9.715325236320495605e-01 -1.172299683094024658e-01
1.505307257175445557e-01 -9.590977430343627930e-01 -1.041832715272903442e-01
1.893899738788604736e-01 -9.492796659469604492e-01 -1.706402562558650970e-02
-5.225607007741928101e-02 -9.573986530303955078e-01 -1.728829294443130493e-01
-5.215726792812347412e-02 -8.005855083465576172e-01 8.545553684234619141e-02
1.346197128295898438e-01 -9.117264151573181152e-01 1.304580271244049072e-01
-7.259447872638702393e-02 -8.639605045318603516e-01 -1.535221189260482788e-01
-1.117749661207199097e-01 -8.483508825302124023e-01 1.246788129210472107e-01
1.348546892404556274e-01 -8.385803699493408203e-01 -7.693463563919067383e-02
-2.040880322456359863e-01 -9.335667490959167480e-01 -3.468415141105651855e-02
1.033501997590065002e-01 -8.273903131484985352e-01 9.548465907573699951e-02
1.441577970981597900e-01 -1.012803435325622559e+00 3.785683587193489075e-02
-1.302236616611480713e-01 -1.024929881095886230e+00 8.094242960214614868e-02
3.971953690052032471e-02 -7.864367961883544922e-01 -4.015904664993286133e-02
7.371792942285537720e-02 -9.407071471214294434e-01 1.685148030519485474e-01
1.787264831364154816e-03 -1.019835829734802246e+00 -1.367969810962677002e-01
-1.572395414113998413e-01 -1.024680018424987793e+00 5.918876267969608307e-03
-1.107889786362648010e-01 -9.081011414527893066e-01 1.594650894403457642e-01
-5.837196856737136841e-02 -8.163307905197143555e-01 -1.099445447325706482e-01
-6.187882274389266968e-02 -7.970013618469238281e-01 -6.667218357324600220e-02
-9.044843912124633789e-02 -8.121564388275146484e-01 8.637411892414093018e-02
1.917919218540191650e-01 -9.000689983367919922e-01 9.155743755400180817e-03
-3.519554436206817627e-02 -8.304278850555419922e-01 -1.356872767210006714e-01
5.093029141426086426e-02 -1.051257729530334473e+00 -6.783130019903182983e-02
6.899753957986831665e-02 -1.030293107032775879e+00 -1.016426682472229004e-01
1.799324154853820801e-01 -9.298754334449768066e-01 -6.753560155630111694e-02
-6.946980208158493042e-02 -9.452876448631286621e-01 1.765369474887847900e-01
3.722760081291198730e-02 -8.430151343345642090e-01 -1.469520926475524902e-01
-1.019726097583770752e-01 -1.052631020545959473e+00 -2.594717778265476227e-02
-1.414742469787597656e-01 -1.032510995864868164e+00 -2.921232767403125763e-02
1.465516984462738037e-01 -9.905512332916259766e-01 8.119570463895797729e-02
-5.144050810486078262e-03 -8.530203700065612793e-01 1.617999970912933350e-01
4.570806026458740234e-02 -1.026272058486938477e+00 1.230362802743911743e-01
-1.057662218809127808e-01 -9.945376515388488770e-01 -1.326815634965896606e-01
4.089963436126708984e-02 -7.848404645919799805e-01 2.951046451926231384e-02
1.253605335950851440e-01 -9.873234629631042480e-01 -1.108253598213195801e-01
-7.821347564458847046e-02 -1.061044692993164062e+00 -1.724034734070301056e-02
1.075831428170204163e-01 -1.024508833885192871e+00 -7.733000814914703369e-02
-1.593434512615203857e-01 -9.230734109878540039e-01 -1.173742413520812988e-01
-9.218949079513549805e-02 -8.728289008140563965e-01 1.553116887807846069e-01
1.496982201933860779e-02 -8.793606162071228027e-01 -1.730762273073196411e-01
5.749873816967010498e-03 -9.276186227798461914e-01 1.858626008033752441e-01
-8.275800198316574097e-02 -9.896611571311950684e-01 1.540768742561340332e-01
-1.351796686649322510e-01 -9.815797209739685059e-01 1.284715980291366577e-01
-2.162269502878189087e-02 -9.542557597160339355e-01 -1.782483458518981934e-01
-3.984407335519790649e-02 -1.067901611328125000e+00 2.139201946556568146e-02
-4.384507983922958374e-02 -8.068403601646423340e-01 -9.920213371515274048e-02
9.895460307598114014e-02 -8.080046176910400391e-01 -5.771256983280181885e-02
1.849461048841476440e-01 -8.813084363937377930e-01 -2.307317219674587250e-02
1.873065084218978882e-01 -8.981934189796447754e-01 -3.859898820519447327e-02
-6.366166472434997559e-02 -9.748890399932861328e-01 -1.631962060928344727e-01
-1.573273986577987671e-01 -8.925505876541137695e-01 1.180361658334732056e-01
8.918706327676773071e-02 -8.342363834381103516e-01 -1.162741482257843018e-01
-2.979601360857486725e-02 -9.936234354972839355e-01 -1.590661555528640747e-01
2.088171057403087616e-02 -1.041577577590942383e+00 -1.032907813787460327e-01
9.020735323429107666e-02 -1.032991409301757812e+00 -7.900317013263702393e-02
-1.156070828437805176e-01 -8.296928405761718750e-01 9.678755700588226318e-02
-9.775652736425399780e-02 -8.020945787429809570e-01 4.781073331832885742e-02
-2.079231739044189453e-01 -9.164291024208068848e-01 5.095663946121931076e-04
2.976626344025135040e-02 -8.121690154075622559e-01 1.131963878870010376e-01
3.482525050640106201e-02 -7.885673046112060547e-01 5.443295836448669434e-02
-7.168389111757278442e-02 -1.052602767944335938e+00 7.177205383777618408e-02
-1.179564893245697021e-01 -9.173847436904907227e-01 -1.507367044687271118e-01
-1.915735900402069092e-01 -8.966108560562133789e-01 6.622084975242614746e-02
1.468510478734970093e-01 -1.013407945632934570e+00 -2.191867493093013763e-02
-1.557060331106185913e-01 -9.221922755241394043e-01 1.281096041202545166e-01
9.462490677833557129e-03 -9.833866953849792480e-01 -1.660692989826202393e-01
-2.505515515804290771e-02 -7.937971353530883789e-01 7.783605903387069702e-02
1.267393082380294800e-01 -8.444510698318481445e-01 -9.633178263902664185e-02
-9.788255393505096436e-02 -8.869591951370239258e-01 -1.543582826852798462e-01
-4.638599604368209839e-02 -7.896790504455566406e-01 -5.225315690040588379e-02
-6.552669405937194824e-02 -8.087961077690124512e-01 9.661513566970825195e-02
-1.562445908784866333e-01 -1.015575647354125977e+00 -5.042165890336036682e-02
1.675325036048889160e-01 -9.929732084274291992e-01 9.459974244236946106e-03
-6.211213767528533936e-02 -1.013755440711975098e+00 1.410414427518844604e-01
1.708202958106994629e-01 -8.686338067054748535e-01 -5.502522736787796021e-02
-8.548816293478012085e-02 -7.939404845237731934e-01 -2.125694975256919861e-02
-7.466641068458557129e-02 -9.565539360046386719e-01 -1.668736636638641357e-01
-1.707702726125717163e-01 -9.274691343307495117e-01 -1.041319444775581360e-01
-5.966926366090774536e-02 -8.048669099807739258e-01 -8.815034478902816772e-02
-1.378120481967926025e-01 -1.030264616012573242e+00 -4.752327129244804382e-02
1.443488150835037231e-01 -8.291921615600585938e-01 2.941813692450523376e-02
-1.449627429246902466e-01 -8.782326579093933105e-01 1.223404183983802795e-01
6.285410374402999878e-02 -7.973691225051879883e-01 6.527851521968841553e-02
8.145197480916976929e-02 -8.182004690170288086e-01 9.850886464118957520e-02
5.536460131406784058e-02 -1.033110618591308594e+00 1.082372665405273438e-01
-1.562673896551132202e-01 -1.022914648056030273e+00 -2.399462834000587463e-02
1.181636974215507507e-01 -8.456203937530517578e-01 1.064005047082901001e-01
-1.902471780776977539e-01 -9.795836806297302246e-01 -3.739641606807708740e-02
-1.870617866516113281e-01 -9.360140562057495117e-01 -7.874515652656555176e-02
1.853885315358638763e-02 -7.804738283157348633e-01 6.196903064846992493e-03
-1.284125596284866333e-01 -8.116139769554138184e-01 -7.505489513278007507e-03
-9.315329790115356445e-02 -1.052760243415832520e+00 -4.214774072170257568e-02
-1.502856463193893433e-01 -9.339210987091064453e-01 -1.262705475091934204e-01
1.696063429117202759e-01 -8.813114166259765625e-01 7.171569019556045532e-02
5.111575126647949219e-02 -1.062378764152526855e+00 8.376090787351131439e-03
-4.107672721147537231e-02 -9.888170361518859863e-01 1.657688170671463013e-01
1.741544455289840698e-01 -9.199126958847045898e-01 7.983139157295227051e-02
-8.821673691272735596e-02 -7.936162948608398438e-01 -1.064903568476438522e-03
4.679232835769653320e-02 -1.054966926574707031e+00 6.301813572645187378e-02
1.095942109823226929e-01 -8.632040619850158691e-01 1.301720291376113892e-01
-1.490043401718139648e-01 -9.555920362472534180e-01 1.299149692058563232e-01
1.669127196073532104e-01 -8.547102212905883789e-01 3.696521744132041931e-02
-2.770292200148105621e-02 -1.060889601707458496e+00 6.550467014312744141e-02
3.538556396961212158e-02 -9.949891567230224609e-01 -1.544351577758789062e-01
1.438133418560028076e-01 -8.834623098373413086e-01 1.117395088076591492e-01
1.368684321641921997e-02 -8.675092458724975586e-01 1.699669361114501953e-01
3.403897583484649658e-01 1.512918621301651001e-01 -2.656024396419525146e-01
5.205583572387695312e-01 -6.163481995463371277e-02 -1.182341501116752625e-01
2.113663256168365479e-01 1.741387397050857544e-01 -2.297330051660537720e-01
2.468692660331726074e-01 -6.092365831136703491e-03 2.278565466403961182e-01
1.828429549932479858e-01 -8.784893900156021118e-03 -1.711832135915756226e-01
4.246909618377685547e-01 -5.749136582016944885e-02 1.975862830877304077e-01
4.685761332511901855e-01 -1.519471779465675354e-02 -2.605924010276794434e-01
3.836966156959533691e-01 -7.889120280742645264e-02 -2.314841300249099731e-01
1.647608280181884766e-01 1.935977488756179810e-01 -1.460601836442947388e-01
5.198138952255249023e-01 -2.076178416609764099e-02 1.161465272307395935e-01
2.408672124147415161e-01 -4.767114296555519104e-02 -1.924910396337509155e-01
3.683156073093414307e-01 1.983004659414291382e-01 7.930991053581237793e-02
3.926872313022613525e-01 1.902575045824050903e-01 5.297166854143142700e-02
3.245294690132141113e-01 4.849874600768089294e-02 -3.369172513484954834e-01
4.639739394187927246e-01 1.376487463712692261e-01 7.090555876493453979e-02
4.387951493263244629e-01 1.088197603821754456e-01 1.982418596744537354e-01
4.396383166313171387e-01 7.399846613407135010e-02 -2.746093869209289551e-01
4.131430685520172119e-01 1.551581919193267822e-02 -3.125611841678619385e-01
2.069435715675354004e-01 -3.143448755145072937e-02 -1.691035479307174683e-01
4.940938353538513184e-01 -9.458132088184356689e-02 -7.447972893714904785e-02
5.375767350196838379e-01 -1.912430301308631897e-02 5.850268900394439697e-02
3.427258431911468506e-01 2.091962099075317383e-01 7.399469614028930664e-02
3.464359045028686523e-01 -1.045172661542892456e-01 -1.341967284679412842e-01
2.205836474895477295e-01 6.082521378993988037e-02 2.600377500057220459e-01
5.144774317741394043e-01 8.719231188297271729e-02 2.371938712894916534e-02
2.456420063972473145e-01 -7.646483182907104492e-02 -5.612336099147796631e-02
1.463694274425506592e-01 3.541032224893569946e-02 1.277830451726913452e-01
3.177714645862579346e-01 -3.425564244389533997e-02 -2.881186008453369141e-01
4.918507337570190430e-01 -4.682816192507743835e-02 1.462705433368682861e-01
4.167783558368682861e-01 2.062170207500457764e-02 2.614883184432983398e-01
3.275615274906158447e-01 1.965837627649307251e-01 -1.743059158325195312e-01
3.346052467823028564e-01 -6.136720255017280579e-02 1.973330527544021606e-01
1.307632476091384888e-01 1.671324670314788818e-01 1.149004474282264709e-01
5.163153409957885742e-01 6.557013839483261108e-02 8.559902757406234741e-02
1.366593241691589355e-01 1.999762207269668579e-01 -3.643936663866043091e-02
5.476171970367431641e-01 -1.514483243227005005e-03 -4.079455882310867310e-02
3.018261492252349854e-01 1.710109561681747437e-01 2.231413722038269043e-01
3.392074406147003174e-01 7.193578034639358521e-02 -3.328667283058166504e-01
4.008878469467163086e-01 1.897771507501602173e-01 -1.139430981129407883e-02
2.651716768741607666e-01 1.320867389440536499e-01 2.689217031002044678e-01
4.411947727203369141e-01 -1.127551198005676270e-01 1.933429948985576630e-02
4.000726044178009033e-01 1.691692620515823364e-01 1.346567571163177490e-01
5.167741775512695312e-01 -7.853893935680389404e-02 -7.720654830336570740e-03
3.253843486309051514e-01 2.121590822935104370e-01 8.988001942634582520e-02
5.271120667457580566e-01 5.166028812527656555e-02 6.479329615831375122e-02
2.369777858257293701e-01 2.325544506311416626e-01 1.504700630903244019e-03
2.978735268115997314e-01 -6.923238933086395264e-02 -2.123387753963470459e-01
2.415752708911895752e-01 2.221362441778182983e-01 -1.158483922481536865e-01
3.783033490180969238e-01 1.208682507276535034e-01 2.481246888637542725e-01
4.313557147979736328e-01 -7.067459821701049805e-02 1.722892075777053833e-01
4.324468672275543213e-01 -9.224919974803924561e-02 1.220707967877388000e-01
3.481410741806030273e-01 1.095185056328773499e-02 2.809007167816162109e-01
4.897471666336059570e-01 7.014116644859313965e-02 1.559510380029678345e-01
1.943507343530654907e-01 9.948095679283142090e-02 -2.753928303718566895e-01
1.789634674787521362e-01 2.175020575523376465e-01 6.477456539869308472e-02
1.805436909198760986e-01 -1.903083547949790955e-02 -1.332158595323562622e-01
2.931686639785766602e-01 2.212819606065750122e-01 8.046711236238479614e-02
3.426025807857513428e-01 1.630176603794097900e-01 2.164013832807540894e-01
5.186715126037597656e-01 -3.197876736521720886e-02 -1.700453758239746094e-01
2.854330837726593018e-01 -9.209673106670379639e-02 -9.399782121181488037e-02
1.623549014329910278e-01 -2.195537090301513672e-04 9.002592414617538452e-02
4.210796952247619629e-01 8.006679266691207886e-02 -2.883007824420928955e-01
3.191044926643371582e-01 2.205792516469955444e-01 3.715030103921890259e-02
1.881743669509887695e-01 1.714525669813156128e-01 1.948616355657577515e-01
1.620742529630661011e-01 4.670121520757675171e-02 1.789406538009643555e-01
4.552710056304931641e-01 1.889485120773315430e-02 -2.808595597743988037e-01
2.096951603889465332e-01 1.849842369556427002e-01 1.901108473539352417e-01
1.221695095300674438e-01 1.340699344873428345e-01 -1.513015478849411011e-01
4.702180624008178711e-01 1.251200437545776367e-01 9.700124710798263550e-02
5.202275514602661133e-01 -3.833760693669319153e-02 9.863775968551635742e-02
2.818222641944885254e-01 2.018417567014694214e-01 1.645793914794921875e-01
2.016760408878326416e-01 -3.467546775937080383e-02 9.556370973587036133e-02
2.370099723339080811e-01 2.289018034934997559e-01 -7.211887836456298828e-02
1.486183851957321167e-01 1.122359707951545715e-01 -2.149857133626937866e-01
4.225582778453826904e-01 5.641859397292137146e-02 -3.009002208709716797e-01
3.147401511669158936e-01 -5.572043359279632568e-03 2.661157846450805664e-01
3.488658666610717773e-01 3.432986140251159668e-02 2.898942530155181885e-01
1.419205367565155029e-01 1.491593196988105774e-02 -9.408304840326309204e-02
4.247567057609558105e-01 -1.162297576665878296e-01 -7.516709715127944946e-02
2.665633261203765869e-01 -4.426480457186698914e-02 1.836183816194534302e-01
1.351325958967208862e-01 3.867457062005996704e-02 9.813735634088516235e-02
3.842779695987701416e-01 1.733178049325942993e-01 1.495773792266845703e-01
1.108580380678176880e-01 5.868500098586082458e-02 1.045556925237178802e-02
1.324159950017929077e-01 6.889472901821136475e-02 -1.690856218338012695e-01
4.520024657249450684e-01 1.561404019594192505e-01 -2.367242425680160522e-02
5.156636238098144531e-01 -6.879504770040512085e-03 1.328183412551879883e-01
3.701391518115997314e-01 1.442427933216094971e-01 -2.571893632411956787e-01
5.407347679138183594e-01 -4.069795086979866028e-02 -1.553660258650779724e-03
2.900141179561614990e-01 -5.125312879681587219e-02 1.909868717193603516e-01
2.304754406213760376e-01 1.735510975122451782e-01 -2.403072714805603027e-01
1.786385923624038696e-01 -1.203734800219535828e-02 1.057724580168724060e-01
4.452619850635528564e-01 1.605817973613739014e-01 -4.430039972066879272e-02
4.576631188392639160e-01 7.292571663856506348e-02 2.092440873384475708e-01
3.236898481845855713e-01 -2.179009094834327698e-02 2.523449957370758057e-01
2.175357341766357422e-01 2.300148308277130127e-01 3.022249974310398102e-02
4.040993452072143555e-01 3.589814156293869019e-02 -3.180550634860992432e-01
1.830974668264389038e-01 -3.211535140872001648e-02 2.694082073867321014e-02
5.153442025184631348e-01 5.510384589433670044e-02 -1.553546339273452759e-01
4.854524433612823486e-01 2.111177146434783936e-02 1.914723813533782959e-01
1.561235487461090088e-01 2.129702568054199219e-01 -3.088572993874549866e-02
3.063781559467315674e-01 -1.031097322702407837e-01 -3.213123232126235962e-02
4.415099620819091797e-01 1.337691992521286011e-01 1.490267962217330933e-01
4.950883984565734863e-01 1.141043156385421753e-01 1.315470598638057709e-02
3.858664929866790771e-01 9.139087051153182983e-03 -3.225197792053222656e-01
3.966347575187683105e-01 1.905685067176818848e-01 2.789873443543910980e-02
3.215707838535308838e-01 -8.322456479072570801e-02 -1.953829675912857056e-01
2.960712611675262451e-01 2.189681828022003174e-01 -1.102470159530639648e-01
3.514676094055175781e-01 -6.661291420459747314e-02 -2.507819533348083496e-01
3.248707950115203857e-01 -2.914819866418838501e-03 -3.195891678333282471e-01
2.964959740638732910e-01 1.949631720781326294e-01 -1.991395950317382812e-01
1.258420050144195557e-01 8.469635248184204102e-02 1.324486881494522095e-01
1.977206170558929443e-01 3.912803530693054199e-02 -2.635973989963531494e-01
1.087944209575653076e-01 9.675396233797073364e-02 -1.101520359516143799e-01
2.511736750602722168e-01 3.044550493359565735e-02 2.658348679542541504e-01
4.028620719909667969e-01 -8.836776018142700195e-02 1.450681090354919434e-01
3.162807822227478027e-01 -5.098791047930717468e-02 -2.635225057601928711e-01
4.343037009239196777e-01 -6.121342256665229797e-02 -2.473374605178833008e-01
3.716602623462677002e-01 1.900068819522857666e-01 -1.391526907682418823e-01
4.058513343334197998e-01 1.035231649875640869e-01 2.423560619354248047e-01
4.245905280113220215e-01 1.718327403068542480e-01 4.928524047136306763e-02
3.856263756752014160e-01 1.498440951108932495e-01 2.015456408262252808e-01
1.992041468620300293e-01 -2.523026987910270691e-02 1.210718974471092224e-01
1.111447364091873169e-01 1.380270719528198242e-01 9.067638218402862549e-02
3.652848899364471436e-01 2.032313048839569092e-01 -7.679028064012527466e-02
4.727011322975158691e-01 -2.808481454849243164e-03 2.053911387920379639e-01
5.051580667495727539e-01 -8.224761486053466797e-02 3.690803050994873047e-02
4.997092485427856445e-01 2.923848107457160950e-02 -2.167859822511672974e-01
3.532451987266540527e-01 -1.105475127696990967e-01 3.841884434223175049e-02
2.365369498729705811e-01 1.152857840061187744e-01 2.693602740764617920e-01
4.563508629798889160e-01 1.475873589515686035e-01 5.274718999862670898e-02
4.487342834472656250e-01 1.524570733308792114e-01 -9.526788443326950073e-02
5.130290389060974121e-01 -6.156785413622856140e-02 7.855374366044998169e-02
1.043857932090759277e-01 1.045969873666763306e-01 6.571884453296661377e-02
1.535079032182693481e-01 6.749954819679260254e-02 -2.152515202760696411e-01
1.853298544883728027e-01 1.447678804397583008e-01 -2.440546005964279175e-01
1.155537515878677368e-01 1.781975924968719482e-01 1.432663016021251678e-02
4.992610216140747070e-01 8.980928361415863037e-02 9.678821265697479248e-02
1.176770627498626709e-01 4.328814148902893066e-02 -2.464675530791282654e-02
2.378236204385757446e-01 1.313844025135040283e-01 -2.901390194892883301e-01
1.396740078926086426e-01 2.416936680674552917e-02 7.781735807657241821e-02
4.756972193717956543e-01 1.089878827333450317e-01 -1.655408143997192383e-01
5.410513281822204590e-01 -2.349735423922538757e-02 -9.585065394639968872e-02
5.259778499603271484e-01 5.594979226589202881e-02 -1.106106564402580261e-01
4.484496414661407471e-01 4.991915076971054077e-02 2.331221997737884521e-01
3.925280869007110596e-01 1.634789556264877319e-01 -1.937277913093566895e-01
1.905657649040222168e-01 1.257744431495666504e-01 2.351078689098358154e-01
3.538468778133392334e-01 -2.793468907475471497e-02 2.499753534793853760e-01
1.141415387392044067e-01 5.362384393811225891e-02 -5.750838667154312134e-02
1.398487985134124756e-01 9.677536785602569580e-03 -2.272469550371170044e-02
3.947643637657165527e-01 1.926498264074325562e-01 -3.438974916934967041e-02
3.538197875022888184e-01 -2.833797410130500793e-02 -3.030650019645690918e-01
2.970504462718963623e-01 -8.525729179382324219e-02 -1.594250947237014771e-01
2.768982350826263428e-01 -3.236835822463035583e-02 -2.660909593105316162e-01
1.429026573896408081e-01 2.055949419736862183e-01 2.866698428988456726e-03
3.979238271713256836e-01 1.442974060773849487e-01 -2.300101965665817261e-01
2.163814157247543335e-01 1.152598559856414795e-01 -2.881349623203277588e-01
4.459665417671203613e-01 1.417111754417419434e-01 1.168740913271903992e-01
2.688128650188446045e-01 6.202512979507446289e-02 -3.258255720138549805e-01
3.918986916542053223e-01 -1.129764765501022339e-01 4.819672554731369019e-02
4.132966399192810059e-01 1.650270819664001465e-01 -1.512614339590072632e-01
1.427645385265350342e-01 2.012367844581604004e-01 -6.412888318300247192e-02
3.119131028652191162e-01 8.442968130111694336e-02 -3.307854235172271729e-01
5.060558319091796875e-01 4.414696618914604187e-02 -1.934949159622192383e-01
1.390455961227416992e-01 1.168943122029304504e-01 1.702619194984436035e-01
3.413464725017547607e-01 -8.007186651229858398e-02 -2.177445292472839355e-01
2.820578813552856445e-01 2.172833532094955444e-01 -1.297743171453475952e-01
1.676316708326339722e-01 1.781525015830993652e-01 1.632688790559768677e-01
3.051369786262512207e-01 2.255984246730804443e-01 5.060641095042228699e-03
3.844535052776336670e-01 -1.172284781932830811e-01 -7.046005874872207642e-02
1.802436709403991699e-01 4.112062603235244751e-02 2.033275663852691650e-01
4.191365242004394531e-01 -2.499727532267570496e-02 2.370732426643371582e-01
1.103585064411163330e-01 7.842297852039337158e-02 -9.860206395387649536e-02
3.966866433620452881e-01 -1.188585162162780762e-01 -4.221560060977935791e-02
3.145356476306915283e-01 2.186332046985626221e-01 -8.683946728706359863e-02
4.882511496543884277e-01 9.219337254762649536e-03 -2.408295869827270508e-01
1.793221980333328247e-01 2.094894349575042725e-01 1.028019413352012634e-01
4.756062328815460205e-01 1.242085397243499756e-01 -1.182722002267837524e-01
1.469854116439819336e-01 6.437554955482482910e-03 4.336263239383697510e-02
4.575292468070983887e-01 -1.089423298835754395e-01 -8.674765378236770630e-02
3.441189527511596680e-01 2.017976492643356323e-01 -1.345340162515640259e-01
1.668234914541244507e-01 2.411074191331863403e-02 -1.978414952754974365e-01
4.439746737480163574e-01 1.084184572100639343e-01 -2.301750332117080688e-01
1.844821423292160034e-01 1.659040898084640503e-02 1.802302002906799316e-01
1.753446757793426514e-01 2.203499525785446167e-01 3.123955987393856049e-02
5.367301702499389648e-01 3.537756949663162231e-02 4.121852666139602661e-02
1.339150071144104004e-01 4.489965736865997314e-02 -1.424080729484558105e-01
5.149089694023132324e-01 1.775372028350830078e-02 1.355120390653610229e-01
3.467451930046081543e-01 -1.135374754667282104e-01 -3.679282218217849731e-02
3.126922249794006348e-01 -6.729970872402191162e-02 -2.298719733953475952e-01
4.797251820564270020e-01 1.309723854064941406e-01 -4.594655707478523254e-02
5.385650992393493652e-01 3.709837794303894043e-03 -1.171031743288040161e-01
2.801266908645629883e-01 2.116042226552963257e-01 -1.541924625635147095e-01
1.012634932994842529e-01 1.503996253013610840e-01 -1.092901825904846191e-02
2.306993901729583740e-01 8.931688219308853149e-02 -3.053084313869476318e-01
2.277078330516815186e-01 1.960143893957138062e-01 1.774388551712036133e-01
3.738988935947418213e-01 4.404879733920097351e-02 -3.300990164279937744e-01
1.041961312294006348e-01 1.415133029222488403e-01 -7.628406584262847900e-02
