2.814518101513385773e-02 -3.746996074914932251e-02 -1.213685423135757446e-02
-7.641362491995096207e-03 1.427326202392578125e-01 -4.529048502445220947e-02
-1.018728874623775482e-02 -2.027940005064010620e-03 3.250879049301147461e-02
5.773963406682014465e-03 1.182460710406303406e-01 2.612545341253280640e-02
2.121755480766296387e-02 -2.711082994937896729e-02 4.526991397142410278e-02
-1.442860998213291168e-02 1.430827975273132324e-01 -3.220008686184883118e-02
3.125397861003875732e-02 -2.550937980413436890e-02 -1.656468212604522705e-02
-1.266910880804061890e-02 1.489480435848236084e-01 -9.749245829880237579e-03
-1.225689053535461426e-02 1.178689077496528625e-01 2.284036204218864441e-02
-2.238845266401767731e-02 9.425569325685501099e-02 8.945092558860778809e-03
-7.147602736949920654e-04 -5.153294652700424194e-03 -3.346668556332588196e-02
2.186058089137077332e-03 9.582017362117767334e-02 3.968445211648941040e-02
1.875115558505058289e-02 5.779117345809936523e-03 -4.710549116134643555e-02
1.146668754518032074e-02 1.223414391279220581e-01 1.742644794285297394e-02
3.306546062231063843e-02 -3.091078996658325195e-02 1.760636456310749054e-02
1.108897943049669266e-02 -1.236603409051895142e-02 -3.867480903863906860e-02
3.569901734590530396e-02 1.050230488181114197e-02 1.974335126578807831e-02
3.215085342526435852e-02 -2.196065336465835571e-02 2.798281423747539520e-02
2.953706681728363037e-02 -2.822207659482955933e-02 3.249011188745498657e-02
-1.587315648794174194e-02 5.328889191150665283e-02 -3.635163605213165283e-02
-5.921226460486650467e-03 4.053512588143348694e-02 -4.955656081438064575e-02
3.767271712422370911e-02 1.828424632549285889e-03 -2.096263691782951355e-03
-9.567957371473312378e-03 1.349447071552276611e-01 -4.776626825332641602e-02
2.986652962863445282e-02 3.305149078369140625e-02 3.346093744039535522e-02
2.228452824056148529e-03 -3.156252205371856689e-04 5.271906405687332153e-02
3.630204498767852783e-02 1.633457466959953308e-02 -2.076244913041591644e-02
-5.023752804845571518e-03 7.213331758975982666e-02 -5.814880132675170898e-02
3.513711318373680115e-02 3.852846473455429077e-02 1.420065388083457947e-02
-6.240391638129949570e-03 -2.531127631664276123e-02 1.249414309859275818e-02
1.457992382347583771e-02 1.285545825958251953e-01 5.296705290675163269e-03
2.888930030167102814e-02 -9.966567158699035645e-04 -3.535263985395431519e-02
-1.556322723627090454e-02 1.341187655925750732e-01 5.112388171255588531e-03
-1.933124382048845291e-03 8.264336735010147095e-03 5.109003186225891113e-02
2.702107094228267670e-02 6.047407165169715881e-02 -4.830967634916305542e-02
4.714631475508213043e-03 4.039470851421356201e-02 -5.788487941026687622e-02
3.769727051258087158e-02 9.812891483306884766e-03 5.310599692165851593e-03
6.264532450586557388e-03 3.392706811428070068e-02 5.521300435066223145e-02
-1.706069335341453552e-02 1.360416114330291748e-01 -3.029780462384223938e-02
-1.371730305254459381e-02 3.745053708553314209e-02 3.847806155681610107e-02
-2.180544845759868622e-02 9.511353075504302979e-02 -2.680013515055179596e-02
-1.206083036959171295e-02 9.293995052576065063e-02 3.430534899234771729e-02
1.318821310997009277e-02 -5.274304002523422241e-02 1.086723525077104568e-03
-2.340992167592048645e-02 9.891070425510406494e-02 -1.371533330529928207e-02
3.794492781162261963e-02 1.695815473794937134e-02 -3.223548410460352898e-03
3.662575036287307739e-02 2.704787254333496094e-02 1.076972205191850662e-02
-3.186007961630821228e-05 1.664587110280990601e-02 5.358541756868362427e-02
2.684727683663368225e-02 8.876436203718185425e-02 -4.114867746829986572e-02
8.069784380495548248e-03 -4.816741496324539185e-02 -3.585699014365673065e-04
1.821553148329257965e-02 -4.414533078670501709e-02 -1.440096553415060043e-02
9.631209075450897217e-03 -3.983692079782485962e-02 -1.555202994495630264e-02
-1.195794157683849335e-02 6.437499076128005981e-02 -4.797186702489852905e-02
1.801791228353977203e-02 8.831787109375000000e-02 -5.774981528520584106e-02
-2.325752191245555878e-02 9.917602688074111938e-02 -3.703867550939321518e-04
1.254108734428882599e-03 1.277554333209991455e-01 2.148895896971225739e-02
-1.327888574451208115e-03 1.428322792053222656e-01 -4.856733232736587524e-02
2.369459904730319977e-02 1.159722581505775452e-01 -1.697785034775733948e-02
1.735095493495464325e-02 3.738490492105484009e-02 5.032252520322799683e-02
-6.548180710524320602e-03 -2.254054695367813110e-02 2.253369614481925964e-02
2.352740056812763214e-02 7.717160135507583618e-02 2.873724885284900665e-02
-1.333653181791305542e-02 -1.363161951303482056e-03 4.577339626848697662e-03
8.048554882407188416e-03 3.379285335540771484e-04 5.497831106185913086e-02
-2.339880354702472687e-02 6.920210272073745728e-02 -4.698471631854772568e-03
-9.768066927790641785e-03 3.456224128603935242e-02 4.513532668352127075e-02
4.876768216490745544e-03 -7.174566388130187988e-03 5.273170024156570435e-02
3.076579794287681580e-02 4.678314551711082458e-02 2.659362368285655975e-02
2.863810397684574127e-03 -1.843319088220596313e-02 4.777678847312927246e-02
7.795347832143306732e-03 1.479007005691528320e-01 -1.012943312525749207e-02
-4.649357404559850693e-03 5.476507544517517090e-02 -5.515479296445846558e-02
-1.910505257546901703e-02 5.420982465147972107e-02 2.597080729901790619e-02
-4.258107859641313553e-03 1.572990715503692627e-01 -2.213871665298938751e-02
4.773890599608421326e-03 -4.504773020744323730e-02 2.714900672435760498e-02
-1.701778545975685120e-02 1.034489050507545471e-01 2.268190868198871613e-02
-3.132533747702836990e-03 -2.261645346879959106e-02 -1.294085942208766937e-02
1.659911684691905975e-02 -3.699919581413269043e-02 4.369912296533584595e-02
2.360625006258487701e-02 1.114370375871658325e-01 -2.208607271313667297e-03
-1.474395394325256348e-02 1.980338059365749359e-02 3.060409612953662872e-02
3.295483812689781189e-02 3.944435715675354004e-02 -3.528631478548049927e-02
2.831706777215003967e-03 2.635250985622406006e-02 -5.259931087493896484e-02
-1.914989575743675232e-02 3.085983172059059143e-02 -6.723447237163782120e-03
1.355134695768356323e-02 3.268138319253921509e-02 -5.695872008800506592e-02
-1.874533481895923615e-02 1.339117884635925293e-01 -7.569628767669200897e-03
3.565344586968421936e-02 -1.888579875230789185e-02 1.137473154813051224e-02
-1.212529279291629791e-02 4.767775908112525940e-02 -4.251664131879806519e-02
3.485635295510292053e-02 6.023286655545234680e-02 -3.231473965570330620e-03
3.699867799878120422e-02 1.174607127904891968e-02 1.216409169137477875e-02
-1.202370598912239075e-02 -6.862208247184753418e-03 8.770114742219448090e-03
-2.382232248783111572e-02 8.696380257606506348e-02 -7.291705347597599030e-03
-1.258615590631961823e-02 1.262151002883911133e-01 1.705416478216648102e-02
3.505636751651763916e-02 -8.229300379753112793e-03 2.139936387538909912e-02
5.198136903345584869e-03 -3.012659400701522827e-02 -2.088425494730472565e-02
-1.392453163862228394e-02 1.114449277520179749e-02 -1.449943240731954575e-02
-2.106816135346889496e-02 1.246272325515747070e-01 -1.268215291202068329e-02
1.661479845643043518e-02 1.317532956600189209e-01 -3.523900359869003296e-02
-1.608161069452762604e-02 8.907680213451385498e-02 2.963051758706569672e-02
-5.885043647140264511e-03 1.066348254680633545e-01 -5.845369398593902588e-02
-1.738265529274940491e-02 2.985497936606407166e-02 2.525894530117511749e-02
3.030863404273986816e-02 6.627702713012695312e-02 1.771788671612739563e-02
-6.942982319742441177e-03 2.236254885792732239e-02 -4.044143855571746826e-02
8.670599199831485748e-04 -1.610418409109115601e-02 -2.752463147044181824e-02
-6.864109542220830917e-03 7.436043769121170044e-02 4.434997588396072388e-02
-1.943255588412284851e-02 8.441835641860961914e-02 2.320303954184055328e-02
1.786844432353973389e-02 1.035597100853919983e-01 -5.402996391057968140e-02
2.185078896582126617e-02 1.685832440853118896e-02 4.890158772468566895e-02
1.276235468685626984e-02 1.427791714668273926e-01 -2.010153792798519135e-02
-6.656055338680744171e-04 4.597224667668342590e-02 -5.633411556482315063e-02
-1.872341893613338470e-02 1.255827844142913818e-01 4.216133616864681244e-03
-7.640992756932973862e-03 1.165581867098808289e-02 -3.309268876910209656e-02
-1.221714913845062256e-02 -1.136980950832366943e-03 2.458229474723339081e-02
-3.028711769729852676e-03 -8.111450821161270142e-03 -2.762209996581077576e-02
6.153639405965805054e-03 3.242148086428642273e-02 -5.619772523641586304e-02
3.588374331593513489e-02 5.243904888629913330e-02 -4.894160199910402298e-03
-2.344230562448501587e-02 7.958019524812698364e-02 3.980772569775581360e-03
-1.586062647402286530e-02 8.918406814336776733e-02 -4.491341859102249146e-02
1.762078516185283661e-02 1.155343428254127502e-01 1.276104524731636047e-02
-8.298883214592933655e-03 -9.632181376218795776e-03 3.255613148212432861e-02
-8.641539141535758972e-03 -1.558565348386764526e-02 2.336326241493225098e-02
2.058107778429985046e-02 1.253317296504974365e-01 -2.168140746653079987e-02
-8.402075618505477905e-03 4.700246453285217285e-02 4.695887118577957153e-02
2.312338352203369141e-02 1.123127490282058716e-01 -3.550294041633605957e-02
-2.145462296903133392e-02 4.843372851610183716e-02 1.072207372635602951e-02
-1.524168998003005981e-02 6.856840848922729492e-02 -4.275164008140563965e-02
-1.232902333140373230e-02 -5.042266100645065308e-03 1.564067229628562927e-02
2.502782456576824188e-02 7.559739798307418823e-02 -4.996492713689804077e-02
4.798620473593473434e-03 4.594328999519348145e-02 5.376393347978591919e-02
1.159843243658542633e-02 1.271244436502456665e-01 1.276160590350627899e-02
-1.995404995977878571e-02 1.256846785545349121e-01 -1.653482206165790558e-03
-6.045473273843526840e-03 -1.106528565287590027e-02 -1.823178492486476898e-02
2.525937743484973907e-03 -4.333647340536117554e-02 2.185066044330596924e-02
3.324002027511596680e-02 4.976492747664451599e-02 -3.330313414335250854e-02
2.885187603533267975e-02 8.394208550453186035e-02 -3.680606931447982788e-02
3.001025877892971039e-02 1.691512763500213623e-03 3.732632845640182495e-02
3.696784749627113342e-02 1.293525099754333496e-02 -1.606049761176109314e-02
3.601216152310371399e-02 -8.612051606178283691e-04 1.801293715834617615e-02
-2.207713387906551361e-02 1.054708957672119141e-01 5.060929805040359497e-03
2.183988131582736969e-02 -2.164929360151290894e-02 -3.201624751091003418e-02
2.492989972233772278e-02 3.167042136192321777e-02 4.289939999580383301e-02
3.276598174124956131e-03 -2.495792508125305176e-02 4.502185434103012085e-02
7.743593305349349976e-03 -2.868170291185379028e-02 4.668445885181427002e-02
2.027972787618637085e-02 7.485317438840866089e-02 -5.697735399007797241e-02
2.654984965920448303e-02 1.006413623690605164e-01 -3.276079148054122925e-02
1.923891529440879822e-02 -5.675740540027618408e-03 5.114370584487915039e-02
9.760591201484203339e-04 -3.490953892469406128e-02 -6.880978122353553772e-03
3.652984648942947388e-02 3.992758318781852722e-02 -1.750614866614341736e-02
-3.693089354783296585e-03 -3.136705607175827026e-02 8.275854401290416718e-03
3.299234062433242798e-02 7.114994525909423828e-02 -2.374811470508575439e-02
1.788125932216644287e-02 1.258888244628906250e-01 -7.983823306858539581e-04
-1.223733089864253998e-02 1.384137868881225586e-01 -4.180336743593215942e-02
1.707488298416137695e-02 -5.388637632131576538e-02 2.698324434459209442e-02
-7.984533905982971191e-03 1.031311005353927612e-01 3.403564542531967163e-02
-9.390592575073242188e-03 1.475725769996643066e-01 -2.348457928746938705e-04
3.054765053093433380e-02 5.493164062500000000e-02 -4.101558774709701538e-02
3.786412999033927917e-02 7.600758224725723267e-03 -2.815814688801765442e-03
2.039226517081260681e-02 2.434302493929862976e-02 4.961542785167694092e-02
-5.919943097978830338e-03 8.271810412406921387e-02 4.271573573350906372e-02
2.766931429505348206e-02 -4.858767986297607422e-02 1.352519355714321136e-02
-6.302952300757169724e-03 -6.739962846040725708e-03 3.993283212184906006e-02
-1.440940052270889282e-02 4.343368113040924072e-03 1.705375686287879944e-02
7.350012660026550293e-03 5.377494171261787415e-02 5.210693925619125366e-02
2.156263589859008789e-02 1.023211553692817688e-01 -4.805104434490203857e-02
-3.119465429335832596e-03 1.239465922117233276e-02 -4.084305465221405029e-02
-1.831866800785064697e-02 2.344011515378952026e-02 -1.331862760707736015e-03
2.145327627658843994e-02 9.286651015281677246e-02 2.321974001824855804e-02
3.231877088546752930e-02 -2.749533206224441528e-02 2.444871701300144196e-02
3.711414709687232971e-02 -6.640128791332244873e-03 5.956669338047504425e-03
2.894661016762256622e-02 2.362284250557422638e-02 3.750693798065185547e-02
3.534308448433876038e-02 -1.975643634796142578e-02 -4.451727028936147690e-03
-1.329374499619007111e-02 9.755216538906097412e-03 2.993197552859783173e-02
-1.405689865350723267e-02 7.759740948677062988e-02 -4.700949788093566895e-02
1.215916685760021210e-02 7.427437603473663330e-02 4.411618411540985107e-02
-1.995646767318248749e-02 1.083469465374946594e-01 -3.347553312778472900e-02
3.745571523904800415e-02 2.768149971961975098e-02 -1.206568907946348190e-02
-1.942477189004421234e-02 6.684897840023040771e-02 2.549544535577297211e-02
-2.037000469863414764e-02 8.153361827135086060e-02 -3.139902278780937195e-02
4.981041885912418365e-03 -4.113629460334777832e-02 -6.791256368160247803e-03
-3.827104810625314713e-03 -3.140617907047271729e-02 1.511674001812934875e-02
-5.800429265946149826e-03 -2.575526386499404907e-02 6.012677215039730072e-03
1.886436343193054199e-02 1.202502101659774780e-01 -4.235152900218963623e-02
-8.578479290008544922e-03 1.538789123296737671e-01 -3.012145310640335083e-02
1.245214603841304779e-02 -2.076294273138046265e-02 5.092366784811019897e-02
2.598801068961620331e-02 -2.748995274305343628e-02 3.957656770944595337e-02
-2.182208746671676636e-02 1.155317351222038269e-01 -2.089757006615400314e-03
1.614150963723659515e-02 6.857660412788391113e-02 -6.074287742376327515e-02
-1.065644994378089905e-02 5.433241277933120728e-02 -4.735185950994491577e-02
1.856594718992710114e-02 1.713527739048004150e-02 -5.113841593265533447e-02
-9.758615866303443909e-03 -9.312015026807785034e-03 2.699620835483074188e-02
-6.346460431814193726e-04 -3.843587636947631836e-02 1.509254053235054016e-02
1.433426048606634140e-03 5.243534967303276062e-02 5.238628387451171875e-02
-2.035343647003173828e-02 9.133985638618469238e-02 -3.278912603855133057e-02
9.036947041749954224e-03 1.174673438072204590e-03 -4.518695175647735596e-02
-2.277043461799621582e-02 7.527859508991241455e-02 -1.744036749005317688e-02
2.177721261978149414e-02 1.210410520434379578e-01 -1.255656592547893524e-02
3.476481139659881592e-02 6.287012994289398193e-02 -1.100462675094604492e-02
2.843995578587055206e-02 3.461962565779685974e-02 -4.525671899318695068e-02
9.749083779752254486e-03 1.968373544514179230e-02 -5.305182188749313354e-02
2.107573300600051880e-02 1.134796664118766785e-01 5.530734546482563019e-03
2.623011544346809387e-02 3.694123402237892151e-02 3.963240236043930054e-02
1.629819907248020172e-02 9.692945331335067749e-02 -5.785029381513595581e-02
-7.124763447791337967e-03 1.210262402892112732e-01 -5.508690327405929565e-02
-2.283944003283977509e-02 6.270208954811096191e-02 5.599591881036758423e-03
3.316891565918922424e-02 -2.633317559957504272e-02 -9.320761077105998993e-03
-1.629813946783542633e-02 1.861346140503883362e-02 2.287084609270095825e-02
-7.848255336284637451e-03 -4.925634711980819702e-03 -1.945769228041172028e-02
9.634168818593025208e-04 1.309163868427276611e-02 -4.570262879133224487e-02
-1.467990688979625702e-02 1.426238417625427246e-01 -3.567511215806007385e-03
1.549507677555084229e-02 1.069320291280746460e-01 2.381502836942672729e-02
2.749797701835632324e-02 4.426107555627822876e-02 -4.765951633453369141e-02
1.228436361998319626e-03 1.557584106922149658e-01 -2.778271585702896118e-02
1.448493264615535736e-02 1.461992412805557251e-02 5.452444404363632202e-02
-1.445820741355419159e-02 1.204974204301834106e-01 1.821910031139850616e-02
-6.481429096311330795e-03 6.918311119079589844e-04 4.308056086301803589e-02
1.676173508167266846e-02 -5.605633556842803955e-02 8.343036286532878876e-03
-2.005569264292716980e-02 3.409311920404434204e-02 -9.769196622073650360e-04
-1.487809047102928162e-02 1.300870776176452637e-01 -4.109444469213485718e-02
-1.860492676496505737e-02 4.528139904141426086e-02 2.611576206982135773e-02
-1.093793660402297974e-02 6.569691002368927002e-03 3.573448956012725830e-02
-1.171926595270633698e-02 4.274914413690567017e-02 4.258616268634796143e-02
-2.150479145348072052e-02 6.312865018844604492e-02 1.678542979061603546e-02
-1.536233909428119659e-02 8.861187845468521118e-03 -1.595187932252883911e-03
-1.592270284891128540e-02 2.976258844137191772e-02 3.087663836777210236e-02
-1.138839870691299438e-02 1.489483937621116638e-02 3.826279193162918091e-02
2.781468257308006287e-02 -1.053795218467712402e-02 -3.255824744701385498e-02
3.295064717531204224e-02 6.407489627599716187e-02 -2.969209104776382446e-02
1.599424704909324646e-02 1.362595260143280029e-01 -1.753145828843116760e-02
3.005446307361125946e-02 8.880996704101562500e-02 -5.348074715584516525e-03
1.352491416037082672e-02 1.262839436531066895e-01 -4.899054020643234253e-02
1.441814750432968140e-02 -3.613349050283432007e-02 -2.230438217520713806e-02
-1.327991113066673279e-02 9.894256293773651123e-02 3.063443116843700409e-02
8.556053042411804199e-03 -2.400887012481689453e-02 -2.952285297214984894e-02
-2.150514721870422363e-02 5.368315055966377258e-02 1.389616169035434723e-02
7.305438630282878876e-04 1.091066896915435791e-01 -6.144767999649047852e-02
1.982999220490455627e-02 4.333231598138809204e-03 5.123608559370040894e-02
-2.362371236085891724e-02 7.842946052551269531e-02 -9.279157966375350952e-03
-1.144045777618885040e-02 1.370940506458282471e-01 9.524419903755187988e-03
2.968177199363708496e-02 8.210940659046173096e-02 7.007597014307975769e-03
2.946989983320236206e-02 -3.840044885873794556e-02 2.575913071632385254e-02
-1.012232620269060135e-03 1.519438028335571289e-01 -3.930166363716125488e-02
-1.363404653966426849e-02 1.083197444677352905e-01 -4.902017116546630859e-02
-1.004402339458465576e-02 -1.230759918689727783e-02 1.659929752349853516e-03
2.184282615780830383e-02 8.432254940271377563e-02 2.789071761071681976e-02
3.055869601666927338e-02 8.653888106346130371e-02 -2.387972734868526459e-02
-1.775650307536125183e-02 9.371972084045410156e-02 -4.081372171640396118e-02
-2.122206427156925201e-02 1.219290494918823242e-01 -1.940957084298133850e-02
-2.056284248828887939e-02 1.171844378113746643e-01 4.235156811773777008e-03
-1.906250230967998505e-02 4.960317537188529968e-02 -2.426432818174362183e-02
1.102437078952789307e-02 1.376959383487701416e-01 -4.328282922506332397e-02
1.094316784292459488e-02 1.052112728357315063e-01 -6.032461673021316528e-02
1.522589288651943207e-02 4.781073704361915588e-02 -5.949498713016510010e-02
-2.256323024630546570e-02 7.499291002750396729e-02 1.153091806918382645e-02
-1.463615708053112030e-02 1.459074616432189941e-01 -2.622554823756217957e-02
2.088370546698570251e-02 1.065354421734809875e-02 5.024065077304840088e-02
2.798019722104072571e-02 -2.748937904834747314e-02 -2.170029096305370331e-02
-1.982269063591957092e-02 1.146483048796653748e-01 -3.245020657777786255e-02
-5.754551384598016739e-03 -2.029146254062652588e-02 3.036127053201198578e-02
3.437191247940063477e-02 4.371252655982971191e-02 -2.977947145700454712e-02
3.590797260403633118e-02 4.466239735484123230e-02 5.289897322654724121e-03
-7.798731792718172073e-03 1.128294467926025391e-01 2.951289154589176178e-02
2.313750050961971283e-02 1.069139838218688965e-01 -4.096660017967224121e-02
3.159293532371520996e-02 6.543677300214767456e-02 -3.522457182407379150e-02
8.211812004446983337e-03 1.912113837897777557e-02 5.595462769269943237e-02
6.335447542369365692e-03 1.512010097503662109e-01 -1.568629592657089233e-02
2.041322179138660431e-02 1.223969161510467529e-01 -5.866977386176586151e-03
-1.671759411692619324e-02 3.466720879077911377e-02 -2.392803691327571869e-02
1.528988219797611237e-02 1.302789747714996338e-01 -4.182982444763183594e-02
9.179037995636463165e-03 -5.220058560371398926e-02 9.054977446794509888e-03
3.155645355582237244e-02 7.799947261810302734e-02 -2.748057246208190918e-02
2.420829236507415771e-02 -5.319826304912567139e-02 1.632730476558208466e-02
1.832918450236320496e-02 9.989354014396667480e-02 2.422557584941387177e-02
2.709605358541011810e-02 1.453628391027450562e-02 -4.321064054965972900e-02
1.428992487490177155e-02 -5.011952668428421021e-02 -5.234971642494201660e-03
7.233028765767812729e-03 1.305966377258300781e-01 -5.338568240404129028e-02
2.103069797158241272e-02 7.420101761817932129e-02 3.456845879554748535e-02
3.543455898761749268e-02 5.702773481607437134e-02 -1.285240519791841507e-02
2.478721551597118378e-02 -8.458141237497329712e-03 4.540742188692092896e-02
-1.890304684638977051e-02 1.343869566917419434e-01 -2.037312835454940796e-02
2.008833549916744232e-02 1.079676151275634766e-01 1.421862281858921051e-02
-1.863277889788150787e-02 4.229804873466491699e-02 -2.143566682934761047e-02
3.569635376334190369e-02 -1.452268660068511963e-02 -8.183879777789115906e-03
3.617028892040252686e-02 7.581673562526702881e-04 -1.627483963966369629e-02
4.899344872683286667e-03 1.406398266553878784e-01 -4.831215739250183105e-02
3.308443725109100342e-02 7.433973252773284912e-02 -1.545886974781751633e-02
-7.096726913005113602e-03 7.881573587656021118e-02 -5.699797719717025757e-02
3.145398944616317749e-02 4.791424795985221863e-02 -3.925501555204391479e-02
2.362721227109432220e-02 -3.982500731945037842e-02 -1.621468365192413330e-02
-2.107615582644939423e-02 7.146225124597549438e-02 -2.580359391868114471e-02
-2.292809821665287018e-02 1.073765754699707031e-01 -1.508745271712541580e-02
3.115180321037769318e-02 2.688666060566902161e-02 3.190942108631134033e-02
2.566346712410449982e-02 2.495804056525230408e-02 4.302006959915161133e-02
2.782700769603252411e-02 1.007919237017631531e-01 -1.970637962222099304e-02
1.536974497139453888e-02 8.839272707700729370e-02 3.513732552528381348e-02
-1.574431732296943665e-02 1.144424751400947571e-01 1.966668665409088135e-02
7.589733228087425232e-03 -3.644616901874542236e-02 4.185116291046142578e-02
2.211602404713630676e-02 -1.430768519639968872e-02 -3.616321086883544922e-02
6.550448015332221985e-04 1.544683277606964111e-01 -1.151631493121385574e-02
-1.693614572286605835e-02 5.380880832672119141e-02 3.245436400175094604e-02
1.540271379053592682e-02 2.200761064887046814e-02 -5.368705838918685913e-02
1.336305029690265656e-02 -2.171524614095687866e-02 -3.341139480471611023e-02
1.794639974832534790e-02 -4.487662762403488159e-02 3.793211281299591064e-02
2.624001540243625641e-02 -1.771221309900283813e-02 4.196904599666595459e-02
3.328492864966392517e-02 7.303602993488311768e-02 -9.819327853620052338e-03
2.530293539166450500e-02 5.880340933799743652e-03 -4.254674166440963745e-02
-7.472257595509290695e-03 2.782283537089824677e-02 4.768702387809753418e-02
-1.907096710056066513e-03 -2.293220907449722290e-02 3.849595785140991211e-02
1.542402897030115128e-03 2.272634021937847137e-02 5.468522012233734131e-02
2.627466619014739990e-02 1.986935921013355255e-02 -4.566618800163269043e-02
2.797837927937507629e-02 9.214575588703155518e-02 -3.442214056849479675e-02
7.988664321601390839e-03 -4.239827394485473633e-02 3.705051541328430176e-02
2.144349552690982819e-02 8.117406070232391357e-02 -5.474678426980972290e-02
9.936545044183731079e-03 1.017533838748931885e-01 3.327122330665588379e-02
2.571219764649868011e-02 1.090953648090362549e-01 -1.953596621751785278e-02
1.489721983671188354e-02 4.310496151447296143e-04 5.405554175376892090e-02
2.954098954796791077e-02 6.672523915767669678e-02 -4.158414900302886963e-02
-6.329992320388555527e-03 2.142336219549179077e-03 -2.915348298847675323e-02
-2.184417657554149628e-02 6.378078460693359375e-02 -1.825690269470214844e-02
-1.634627021849155426e-02 3.568001836538314819e-02 3.138466179370880127e-02
-1.982213556766510010e-02 3.721625357866287231e-02 -9.751161560416221619e-03
-2.286846935749053955e-02 6.938915699720382690e-02 -1.357694435864686966e-02
-2.190067805349826813e-02 7.870693504810333252e-02 -2.404253184795379639e-02
-5.705668590962886810e-04 1.513889133930206299e-01 -3.505428554490208626e-03
-1.231715269386768341e-02 1.288821101188659668e-01 -4.651299118995666504e-02
2.106203511357307434e-02 1.195856258273124695e-01 -3.507820516824722290e-02
-9.044338017702102661e-03 1.261235475540161133e-01 -5.182711780071258545e-02
3.750170022249221802e-02 3.218864649534225464e-02 -4.694929812103509903e-03
-4.272448364645242691e-03 9.982459992170333862e-02 3.731425106525421143e-02
3.194660320878028870e-02 8.008912205696105957e-02 -2.038660459220409393e-02
1.690191403031349182e-02 8.087955415248870850e-02 3.701828420162200928e-02
6.733816582709550858e-03 7.950648665428161621e-02 4.502923786640167236e-02
-1.827914267778396606e-02 9.652794897556304932e-02 2.264693751931190491e-02
-1.708641089498996735e-02 4.342409223318099976e-02 -2.811650931835174561e-02
-1.999338716268539429e-02 4.582998901605606079e-02 1.999774947762489319e-02
2.653570473194122314e-02 8.290731161832809448e-02 1.794729381799697876e-02
3.067420795559883118e-02 -4.174290597438812256e-02 5.789752118289470673e-03
1.788279972970485687e-02 1.214595511555671692e-01 5.523662082850933075e-03
1.478870026767253876e-02 -3.231036067008972168e-01 -1.946875452995300293e-02
1.267230324447154999e-02 -4.557899534702301025e-01 -2.223637849092483521e-01
3.295678645372390747e-02 -3.565140962600708008e-01 -1.194590628147125244e-01
-4.337078332901000977e-02 -3.952371478080749512e-01 -1.708554029464721680e-01
-4.624309018254280090e-02 -4.004186093807220459e-01 -1.215676516294479370e-01
-3.951549157500267029e-02 -4.563940763473510742e-01 -3.687863051891326904e-02
-4.209969192743301392e-02 -3.514776825904846191e-01 -3.991077840328216553e-02
-5.047127138823270798e-03 -4.622571170330047607e-01 -2.475717067718505859e-01
1.566649414598941803e-02 -2.628262639045715332e-01 -1.672299504280090332e-01
2.185049466788768768e-02 -4.293148517608642578e-01 -2.560440003871917725e-01
-3.004984185099601746e-02 -3.266364634037017822e-01 -2.504858672618865967e-01
-3.667505457997322083e-02 -3.179543316364288330e-01 -9.308125078678131104e-02
-3.489435464143753052e-02 -3.614507615566253662e-01 -2.447107732295989990e-01
-3.685785830020904541e-02 -3.227145969867706299e-01 -1.661371439695358276e-01
-4.175534099340438843e-02 -4.402459263801574707e-01 -1.324786245822906494e-01
-3.899981081485748291e-02 -3.726657927036285400e-01 2.173431217670440674e-02
1.430620625615119934e-02 -2.948385775089263916e-01 -3.442588150501251221e-01
-3.444087877869606018e-02 -4.468550682067871094e-01 -1.894802749156951904e-01
5.433755461126565933e-03 -4.661478400230407715e-01 -2.159092575311660767e-01
3.123098984360694885e-02 -2.908062338829040527e-01 -2.315860688686370850e-01
-2.202846296131610870e-02 -3.896522819995880127e-01 -3.091962635517120361e-01
3.387618064880371094e-02 -3.032851219177246094e-01 -2.219460606575012207e-01
-7.698563393205404282e-03 -3.567163944244384766e-01 5.897302925586700439e-02
-3.574632853269577026e-02 -3.250809907913208008e-01 -1.920605450868606567e-01
3.348368778824806213e-02 -3.068069219589233398e-01 -1.841422915458679199e-01
-1.952340826392173767e-04 -4.264299869537353516e-01 4.112635552883148193e-02
-1.585710048675537109e-02 -3.167064487934112549e-01 -3.165931701660156250e-01
-3.000900521874427795e-02 -4.550717175006866455e-01 -1.995042562484741211e-01
6.404522340744733810e-03 -3.933630287647247314e-01 3.682954609394073486e-02
2.741199731826782227e-02 -3.376448452472686768e-01 -7.500421255826950073e-02
-2.101184986531734467e-02 -2.771877646446228027e-01 -1.683553606271743774e-01
-1.333661936223506927e-02 -3.636041581630706787e-01 -3.429157137870788574e-01
2.055271528661251068e-02 -4.066262543201446533e-01 -3.139675855636596680e-01
1.135500706732273102e-02 -4.646787345409393311e-01 -1.120111048221588135e-01
2.300454676151275635e-02 -4.214749634265899658e-01 -2.706149816513061523e-01
6.537302862852811813e-03 -4.712502062320709229e-01 -9.203755855560302734e-02
1.517073251307010651e-02 -4.584026038646697998e-01 -1.676038056612014771e-01
-2.564537525177001953e-02 -4.837283194065093994e-01 -7.205323129892349243e-02
-4.510755464434623718e-02 -3.657990396022796631e-01 -6.004855781793594360e-02
-1.727210357785224915e-02 -4.635968506336212158e-01 -2.291574329137802124e-01
4.697800148278474808e-03 -3.958013653755187988e-01 -3.523393273353576660e-01
-2.369533851742744446e-02 -3.220936357975006104e-01 1.494297385215759277e-02
3.281561285257339478e-02 -3.736953735351562500e-01 -1.243080198764801025e-01
-4.262946918606758118e-02 -4.062254130840301514e-01 -1.742225885391235352e-01
1.321264542639255524e-02 -4.057576060295104980e-01 5.037665367126464844e-03
3.396504372358322144e-02 -3.113965988159179688e-01 -2.708985805511474609e-01
2.929577976465225220e-02 -3.375066518783569336e-01 -3.303430080413818359e-01
-6.399261765182018280e-03 -4.808639883995056152e-01 -4.890865832567214966e-02
2.164051122963428497e-02 -4.359665811061859131e-01 -2.322152405977249146e-01
3.020266536623239517e-03 -2.566023170948028564e-01 -2.275991737842559814e-01
-3.240169957280158997e-02 -4.350941181182861328e-01 4.789143800735473633e-02
-1.365523971617221832e-02 -4.381342828273773193e-01 5.757388472557067871e-02
1.232190430164337158e-02 -3.386877477169036865e-01 3.126189112663269043e-03
2.415324188768863678e-02 -3.323467671871185303e-01 -5.699684470891952515e-02
-4.630923643708229065e-02 -3.865161538124084473e-01 -1.188325583934783936e-01
-2.571398951113224030e-02 -4.823409616947174072e-01 -5.133955925703048706e-02
4.052419681102037430e-03 -3.422374725341796875e-01 2.992971241474151611e-02
-4.643125832080841064e-02 -4.003886580467224121e-01 -3.769209235906600952e-02
6.023713853210210800e-03 -4.651693701744079590e-01 -5.425664037466049194e-02
3.166792169213294983e-02 -4.042618870735168457e-01 -2.064212113618850708e-01
3.274519741535186768e-02 -3.983100950717926025e-01 -1.866465061902999878e-01
9.359039366245269775e-03 -3.252578377723693848e-01 1.308605074882507324e-03
3.714560717344284058e-02 -3.493872880935668945e-01 -2.163267880678176880e-01
-1.683704741299152374e-02 -3.247297406196594238e-01 3.003388643264770508e-02
-4.589786753058433533e-02 -4.099535942077636719e-01 -2.864084392786026001e-02
-5.338735878467559814e-03 -3.324017822742462158e-01 3.748400509357452393e-02
2.325815893709659576e-02 -3.431941866874694824e-01 -3.542468845844268799e-01
2.968443185091018677e-02 -3.758742511272430420e-01 -8.932065218687057495e-02
-2.572702057659626007e-02 -2.981958091259002686e-01 -5.147154629230499268e-02
-4.383657127618789673e-02 -4.270626008510589600e-01 -1.322753280401229858e-01
-3.259491920471191406e-02 -4.160694479942321777e-01 5.810543894767761230e-02
2.738007903099060059e-02 -2.794591784477233887e-01 -2.040075957775115967e-01
-3.255767747759819031e-02 -3.416797220706939697e-01 -2.488065063953399658e-01
1.234096940606832504e-03 -3.563878834247589111e-01 -3.692466020584106445e-01
2.126250043511390686e-02 -3.272355794906616211e-01 -3.575033247470855713e-01
-4.668643698096275330e-02 -3.871031403541564941e-01 -1.060198545455932617e-01
-3.934214636683464050e-02 -3.314182162284851074e-01 -1.502237170934677124e-01
-3.936218842864036560e-02 -3.651741445064544678e-01 -2.088319957256317139e-01
1.185543462634086609e-02 -2.856732010841369629e-01 -6.702875345945358276e-02
2.025683224201202393e-02 -3.553534746170043945e-01 -2.255308628082275391e-02
-3.240434452891349792e-02 -3.630559146404266357e-01 -2.622390091419219971e-01
4.035810474306344986e-03 -4.769931733608245850e-01 -1.322689801454544067e-01
7.018187548965215683e-03 -3.817873597145080566e-01 3.596115112304687500e-02
2.187901362776756287e-02 -2.680452466011047363e-01 -2.414095103740692139e-01
-3.800285235047340393e-02 -3.342790901660919189e-01 -1.841489523649215698e-01
2.093176823109388351e-03 -4.791583120822906494e-01 -1.172900050878524780e-01
2.162602916359901428e-02 -4.429274797439575195e-01 -1.585653722286224365e-01
2.851664274930953979e-02 -3.056649267673492432e-01 -1.218752339482307434e-01
-4.019140452146530151e-02 -3.568500578403472900e-01 -1.933092027902603149e-01
-4.471899196505546570e-02 -3.873778581619262695e-01 -1.502649486064910889e-02
2.992067486047744751e-02 -3.855591118335723877e-01 -9.876149147748947144e-02
9.854944422841072083e-03 -2.853968143463134766e-01 -3.326672613620758057e-01
-3.743990138173103333e-02 -3.658145666122436523e-01 -2.265719175338745117e-01
-3.553513064980506897e-02 -4.694820046424865723e-01 -7.161950320005416870e-02
-3.658062592148780823e-02 -4.629316031932830811e-01 -2.707132697105407715e-02
-5.771694704890251160e-03 -3.014931976795196533e-01 -4.083365201950073242e-03
-3.229184448719024658e-02 -3.520546853542327881e-01 3.184334933757781982e-02
-4.108139127492904663e-02 -4.237895011901855469e-01 -1.727771759033203125e-01
2.726081386208534241e-02 -3.893538415431976318e-01 -3.070040941238403320e-01
-3.569608926773071289e-02 -3.359285593032836914e-01 -1.137764751911163330e-02
-1.724938303232192993e-02 -3.457273542881011963e-01 -3.291349709033966064e-01
1.710494793951511383e-02 -4.216010272502899170e-01 -3.128852695226669312e-02
7.480484899133443832e-03 -4.569599926471710205e-01 -2.439871728420257568e-01
7.130974438041448593e-03 -2.668308317661285400e-01 -1.085496246814727783e-01
-3.993515670299530029e-02 -3.337784111499786377e-01 -6.854279339313507080e-02
-9.741317480802536011e-04 -4.814966320991516113e-01 -1.452924460172653198e-01
-2.135212160646915436e-02 -4.603641927242279053e-01 3.253538906574249268e-02
-3.014605678617954254e-02 -3.553224503993988037e-01 -2.734335660934448242e-01
1.714802533388137817e-02 -4.499211907386779785e-01 -1.033107340335845947e-01
2.583955414593219757e-02 -3.863648176193237305e-01 -6.100936979055404663e-02
-1.345558464527130127e-02 -2.660283148288726807e-01 -1.579752713441848755e-01
2.112785540521144867e-02 -2.846300005912780762e-01 -3.148189783096313477e-01
2.338663488626480103e-02 -2.933060228824615479e-01 -1.069731414318084717e-01
-2.427152590826153755e-03 -3.140037655830383301e-01 -3.521711230278015137e-01
3.670839220285415649e-02 -3.290897905826568604e-01 -2.159751355648040771e-01
-3.155792877078056335e-02 -3.309484124183654785e-01 2.959549427032470703e-03
-2.291628718376159668e-02 -3.121464252471923828e-01 -1.752957701683044434e-03
-3.830964118242263794e-02 -3.968437612056732178e-01 -2.194192409515380859e-01
1.280293799936771393e-02 -4.536522328853607178e-01 -6.834906339645385742e-02
3.395281359553337097e-02 -3.174833357334136963e-01 -2.822763323783874512e-01
-3.616081923246383667e-02 -3.615055680274963379e-01 2.598457038402557373e-02
-3.912721574306488037e-02 -4.563398957252502441e-01 -1.122230142354965210e-01
-4.281923547387123108e-02 -3.535146713256835938e-01 -1.478382349014282227e-01
2.097245305776596069e-05 -2.564603984355926514e-01 -2.121938169002532959e-01
-4.564257338643074036e-02 -3.671640157699584961e-01 -8.329433947801589966e-02
-2.319803694263100624e-03 -4.666392207145690918e-01 -2.330377101898193359e-01
-2.705081924796104431e-02 -4.345563948154449463e-01 5.917656421661376953e-02
-1.704430207610130310e-02 -2.996549308300018311e-01 -1.501090824604034424e-02
3.037160634994506836e-02 -4.112161099910736084e-01 -1.941961944103240967e-01
1.000180840492248535e-02 -4.681405425071716309e-01 -1.262843906879425049e-01
-3.598604723811149597e-02 -4.587045609951019287e-01 -5.351737141609191895e-03
2.644580788910388947e-03 -2.820011675357818604e-01 -3.214629888534545898e-01
3.187256306409835815e-02 -3.134870827198028564e-01 -1.424253135919570923e-01
-1.572708599269390106e-02 -2.692655622959136963e-01 -1.829869449138641357e-01
3.357062116265296936e-02 -3.794569969177246094e-01 -1.426480561494827271e-01
-1.481665298342704773e-02 -3.623137772083282471e-01 6.627129018306732178e-02
-4.165935888886451721e-02 -3.421359658241271973e-01 -1.377075910568237305e-01
-1.820476911962032318e-02 -2.793167233467102051e-01 -8.582048118114471436e-02
1.425319910049438477e-02 -4.149133861064910889e-01 -7.074132561683654785e-03
2.695506438612937927e-02 -4.255309700965881348e-01 -1.702610105276107788e-01
2.549547329545021057e-02 -3.691312670707702637e-01 -5.263853818178176880e-02
-2.482760511338710785e-02 -2.996590435504913330e-01 -2.399248480796813965e-01
3.690480440855026245e-02 -3.457006514072418213e-01 -2.428579926490783691e-01
1.387430354952812195e-02 -4.223678410053253174e-01 -3.092256188392639160e-01
-2.788156084716320038e-02 -4.089690446853637695e-01 -2.741225361824035645e-01
-3.516655787825584412e-02 -4.355096817016601562e-01 -2.049938440322875977e-01
1.599667407572269440e-02 -4.178030192852020264e-01 -1.977246999740600586e-02
4.775082226842641830e-03 -4.354496002197265625e-01 1.536181569099426270e-02
1.388316042721271515e-02 -4.096619188785552979e-01 -3.287996053695678711e-01
-4.472468048334121704e-02 -3.977376818656921387e-01 -9.690389037132263184e-03
2.997780963778495789e-02 -3.559046089649200439e-01 -8.847528696060180664e-02
-3.219211101531982422e-02 -3.213978409767150879e-01 -2.184094488620758057e-02
3.230104595422744751e-02 -3.992753624916076660e-01 -2.219315916299819946e-01
-3.051465190947055817e-02 -4.653080105781555176e-01 -1.679416447877883911e-01
-2.200412563979625702e-03 -4.398152232170104980e-01 -2.968623042106628418e-01
2.365962229669094086e-02 -3.907210528850555420e-01 -4.703919589519500732e-02
2.707318961620330811e-02 -2.863639593124389648e-01 -2.864684462547302246e-01
6.573303136974573135e-03 -4.333721995353698730e-01 -3.035814762115478516e-01
-3.800012543797492981e-02 -3.603591620922088623e-01 1.451306045055389404e-02
-4.230890050530433655e-02 -3.463185727596282959e-01 -6.279895454645156860e-02
-4.316073283553123474e-02 -3.666056394577026367e-01 -2.105118334293365479e-02
-4.535088688135147095e-02 -4.250900149345397949e-01 -3.759989887475967407e-02
-3.870771080255508423e-02 -3.428190946578979492e-01 -1.920698881149291992e-01
1.016722060739994049e-02 -4.177123308181762695e-01 1.047138869762420654e-02
3.487648069858551025e-02 -3.600470125675201416e-01 -2.754020690917968750e-01
-3.284434601664543152e-02 -4.669772386550903320e-01 -1.429950445890426636e-01
-2.002203278243541718e-02 -3.330835700035095215e-01 -3.126603960990905762e-01
-4.876296035945415497e-03 -3.670360743999481201e-01 -3.600334823131561279e-01
3.687781840562820435e-02 -3.359742164611816406e-01 -2.039148360490798950e-01
-4.386227577924728394e-02 -4.122059643268585205e-01 -9.169727563858032227e-04
-3.730413317680358887e-02 -4.502415359020233154e-01 -1.578524708747863770e-01
-6.079620681703090668e-03 -4.246972501277923584e-01 -3.170613050460815430e-01
-3.561132773756980896e-02 -4.675251245498657227e-01 -1.036283075809478760e-01
-3.945863246917724609e-02 -3.347271680831909180e-01 -1.611419916152954102e-01
-4.351341631263494492e-03 -2.920135557651519775e-01 -3.240481615066528320e-01
-3.886120021343231201e-02 -3.755449652671813965e-01 -2.173754274845123291e-01
3.110231086611747742e-02 -2.950174212455749512e-01 -2.687515020370483398e-01
3.052185848355293274e-02 -3.656538724899291992e-01 -9.396643936634063721e-02
-2.980032376945018768e-02 -3.596308529376983643e-01 4.757319390773773193e-02
-3.342459350824356079e-02 -3.268325924873352051e-01 -2.221445739269256592e-01
3.693822026252746582e-02 -3.528093993663787842e-01 -1.994248628616333008e-01
3.005851805210113525e-02 -2.886853814125061035e-01 -1.957852095365524292e-01
-2.091634646058082581e-02 -2.813033759593963623e-01 -2.090630680322647095e-01
5.611118394881486893e-03 -4.101186692714691162e-01 3.350144624710083008e-02
-2.284345962107181549e-02 -2.813530564308166504e-01 -1.204974874854087830e-01
-2.380261011421680450e-02 -4.853505790233612061e-01 -8.698068559169769287e-02
2.256854251027107239e-02 -3.788647651672363281e-01 -3.399596810340881348e-01
-1.429489580914378166e-03 -4.734471142292022705e-01 -3.925904631614685059e-02
2.956058457493782043e-02 -4.005810916423797607e-01 -1.153659671545028687e-01
-4.131916537880897522e-02 -3.444604575634002686e-01 -1.547203212976455688e-01
3.512462228536605835e-02 -3.646075427532196045e-01 -1.551411896944046021e-01
2.557258307933807373e-02 -2.790647745132446289e-01 -1.723902970552444458e-01
-3.173200041055679321e-02 -4.687375128269195557e-01 -1.105535030364990234e-02
5.387439858168363571e-03 -3.693987429141998291e-01 3.934934735298156738e-02
2.586455084383487701e-02 -4.274663329124450684e-01 -2.113069295883178711e-01
3.661445900797843933e-02 -3.635761141777038574e-01 -2.200597524642944336e-01
-1.170083880424499512e-03 -2.628763318061828613e-01 -2.577614784240722656e-01
-2.591597661375999451e-02 -3.232694864273071289e-01 -2.741431593894958496e-01
7.738081272691488266e-03 -2.771379947662353516e-01 -7.598123699426651001e-02
3.278349712491035461e-02 -3.331182301044464111e-01 -3.060944974422454834e-01
1.442270912230014801e-02 -2.739528417587280273e-01 -3.060317635536193848e-01
-4.652119427919387817e-02 -4.152598679065704346e-01 -9.195557236671447754e-02
3.362158685922622681e-02 -3.024210631847381592e-01 -2.418355941772460938e-01
-1.630735397338867188e-02 -4.861326515674591064e-01 -1.367553621530532837e-01
2.560289576649665833e-02 -2.834253311157226562e-01 -1.533250510692596436e-01
-1.950208656489849091e-02 -3.733703196048736572e-01 7.122670114040374756e-02
-1.624960452318191528e-02 -2.936469316482543945e-01 -2.824009060859680176e-01
-4.683561250567436218e-02 -3.888251781463623047e-01 -5.925545841455459595e-02
1.555069163441658020e-02 -2.951478958129882812e-01 -6.161589175462722778e-02
2.127639949321746826e-02 -3.950209617614746094e-01 -3.275313079357147217e-01
3.574025630950927734e-02 -3.181516230106353760e-01 -2.085745930671691895e-01
-2.790616126731038094e-03 -2.779213488101959229e-01 -5.867982655763626099e-02
1.641991175711154938e-02 -4.471382498741149902e-01 -8.144549280405044556e-02
-2.608124166727066040e-02 -4.306640923023223877e-01 -2.600188851356506348e-01
-3.914638608694076538e-02 -4.399165511131286621e-01 -1.645718961954116821e-01
3.297528997063636780e-02 -3.015339374542236328e-01 -2.588574290275573730e-01
-1.485030166804790497e-02 -4.134467840194702148e-01 -3.143789470195770264e-01
3.648799285292625427e-02 -3.496886789798736572e-01 -1.800702214241027832e-01
-4.643845558166503906e-02 -4.100373685359954834e-01 -1.069062799215316772e-01
2.163706533610820770e-02 -3.035437166690826416e-01 -3.414896130561828613e-01
2.678870037198066711e-02 -2.905584573745727539e-01 -3.000628948211669922e-01
-3.044074773788452148e-02 -3.904123306274414062e-01 -2.720656991004943848e-01
1.378834061324596405e-02 -4.566761553287506104e-01 -9.243725985288619995e-02
-4.502764344215393066e-02 -3.689606785774230957e-01 -4.770389199256896973e-02
-3.131092339754104614e-02 -3.475928902626037598e-01 -2.621507942676544189e-01
3.410894796252250671e-02 -3.875178694725036621e-01 -2.262229770421981812e-01
-2.671699970960617065e-02 -3.812109827995300293e-01 -2.929071784019470215e-01
2.416422404348850250e-02 -4.114564955234527588e-01 -2.870106697082519531e-01
-4.409412294626235962e-02 -4.250577688217163086e-01 -1.423650979995727539e-02
-3.856664523482322693e-02 -4.615074694156646729e-01 -8.262448757886886597e-02
-2.251896634697914124e-02 -3.547535240650177002e-01 5.712756514549255371e-02
-1.848921738564968109e-02 -4.750367403030395508e-01 -1.908469200134277344e-01
-1.964109018445014954e-02 -4.794773459434509277e-01 -1.764494180679321289e-02
1.902909204363822937e-02 -2.977444231510162354e-01 -7.273280620574951172e-02
-2.393862232565879822e-02 -4.466538131237030029e-01 -2.443393170833587646e-01
1.607920229434967041e-02 -3.420029580593109131e-01 -9.220182895660400391e-03
3.260318189859390259e-02 -3.269684016704559326e-01 -1.313659697771072388e-01
9.227139875292778015e-03 -2.640114426612854004e-01 -2.782208323478698730e-01
1.130082458257675171e-02 -4.227982759475708008e-01 4.257410764694213867e-04
-4.681039974093437195e-02 -4.030632674694061279e-01 -4.906509071588516235e-02
1.538607664406299591e-02 -4.578072130680084229e-01 -1.337202191352844238e-01
-3.253355994820594788e-02 -3.967852592468261719e-01 -2.579896748065948486e-01
-1.424696110188961029e-02 -2.808343470096588135e-01 -2.620278000831604004e-01
-1.386851631104946136e-02 -3.327128887176513672e-01 -3.351559042930603027e-01
-3.667924925684928894e-02 -4.664662778377532959e-01 -5.759547650814056396e-02
1.614220254123210907e-02 -3.619416058063507080e-01 -9.154379367828369141e-04
-2.102839387953281403e-02 -2.859928607940673828e-01 -2.296771407127380371e-01
3.349965065717697144e-02 -3.122910857200622559e-01 -1.681517660617828369e-01
-4.350123926997184753e-02 -4.210558235645294189e-01 -1.478901505470275879e-01
-3.418949991464614868e-02 -4.548012018203735352e-01 -1.725863367319107056e-01
-4.249109700322151184e-02 -3.581774234771728516e-01 -1.633666753768920898e-01
3.569608926773071289e-02 -3.163989186286926270e-01 -2.318376004695892334e-01
3.525794669985771179e-02 -3.772131502628326416e-01 -2.326341718435287476e-01
-3.981726244091987610e-03 -2.593617737293243408e-01 -1.476815491914749146e-01
-4.463275894522666931e-02 -3.874979615211486816e-01 -1.538908183574676514e-01
-2.969876490533351898e-02 -4.680309295654296875e-01 9.264349937438964844e-04
1.848089322447776794e-02 -4.435364902019500732e-01 -9.197847545146942139e-02
2.309885621070861816e-02 -2.855449318885803223e-01 -1.244901493191719055e-01
-4.644666612148284912e-02 -4.190237820148468018e-01 -6.572337448596954346e-02
3.210473805665969849e-02 -3.880097866058349609e-01 -1.309700310230255127e-01
2.833838108927011490e-03 -4.606414437294006348e-01 -2.060408890247344971e-02
-2.550324425101280212e-02 -3.720129728317260742e-01 -2.997041940689086914e-01
-1.234110537916421890e-02 -4.562212526798248291e-01 -2.564111948013305664e-01
-2.372984029352664948e-02 -3.542850315570831299e-01 -3.059592247009277344e-01
-3.712970763444900513e-02 -3.486277461051940918e-01 -2.170737683773040771e-01
-3.418738767504692078e-02 -3.689873516559600830e-01 4.155252873897552490e-02
-4.615399986505508423e-02 -3.753582537174224854e-01 -1.056639254093170166e-01
-3.408315777778625488e-02 -3.149800002574920654e-01 -1.837040483951568604e-01
9.816337376832962036e-03 -4.035303294658660889e-01 -3.423123359680175781e-01
-2.966688573360443115e-02 -3.008401095867156982e-01 -1.913564056158065796e-01
-5.333245266228914261e-03 -2.873454391956329346e-01 -3.335186094045639038e-02
-4.332243278622627258e-02 -3.969388902187347412e-01 5.095228552818298340e-03
-2.887472696602344513e-02 -3.762646913528442383e-01 6.144638359546661377e-02
-1.499495841562747955e-02 -4.026183485984802246e-01 -3.230198621749877930e-01
-3.706116601824760437e-02 -4.084523916244506836e-01 -2.221655845642089844e-01
2.818334475159645081e-02 -4.028714895248413086e-01 -2.753383219242095947e-01
2.165439352393150330e-02 -3.166253566741943359e-01 -5.826213955879211426e-02
2.617981657385826111e-02 -3.210180997848510742e-01 -8.102510124444961548e-02
1.322887092828750610e-02 -4.434919953346252441e-01 -2.640272378921508789e-01
-1.621546410024166107e-02 -4.870721697807312012e-01 -6.475058197975158691e-02
-5.782456137239933014e-03 -3.472029864788055420e-01 -3.597058057785034180e-01
1.809139363467693329e-02 -2.673256695270538330e-01 -2.720123529434204102e-01
2.211168780922889709e-02 -3.346215188503265381e-01 -4.336865991353988647e-02
-3.025050647556781769e-02 -4.744614958763122559e-01 -2.755200862884521484e-02
3.524037078022956848e-02 -3.262185454368591309e-01 -2.732926011085510254e-01
2.646804228425025940e-02 -4.172063469886779785e-01 -2.519883513450622559e-01
-4.718691483139991760e-02 -3.992480635643005371e-01 -7.403591275215148926e-02
-3.471672907471656799e-02 -3.109254240989685059e-01 -1.449784189462661743e-01
-9.628264233469963074e-03 -3.961764872074127197e-01 -3.390586972236633301e-01
2.001140825450420380e-02 -3.824178576469421387e-01 -2.019719779491424561e-02
2.252534590661525726e-02 -4.392040967941284180e-01 -1.419231742620468140e-01
2.972753345966339111e-02 -3.908823430538177490e-01 -2.864239215850830078e-01
-3.529516607522964478e-02 -3.120536208152770996e-01 -1.292993128299713135e-01
