-3.699201717972755432e-02 1.111544668674468994e-03 -5.491645932197570801e-01
1.611423119902610779e-02 -1.597131490707397461e-01 -4.414548873901367188e-01
-2.621186971664428711e-01 -8.639252185821533203e-02 4.759863317012786865e-01
3.592163324356079102e-01 -2.162506580352783203e-01 4.047839045524597168e-01
1.737179607152938843e-01 -1.213736087083816528e-01 8.793365955352783203e-01
-1.021398305892944336e-01 -1.978958249092102051e-01 2.022295147180557251e-01
2.712872326374053955e-01 -1.931329518556594849e-01 -1.902643442153930664e-01
4.510955512523651123e-02 9.583778679370880127e-03 -3.272402584552764893e-01
3.076148033142089844e-01 -1.823437660932540894e-01 -1.975417733192443848e-01
1.493788361549377441e-01 -6.348729133605957031e-03 -1.321047246456146240e-01
2.515306174755096436e-01 -5.209710448980331421e-02 -3.674873709678649902e-01
-2.248181849718093872e-01 -2.608031779527664185e-02 3.585575819015502930e-01
1.692294180393218994e-01 -3.819263726472854614e-02 4.244872629642486572e-01
1.466857641935348511e-01 -1.887215375900268555e-01 -3.022523522377014160e-01
1.530906930565834045e-02 7.697492837905883789e-03 1.265339851379394531e-01
-1.030996441841125488e-01 1.588564366102218628e-02 5.584748834371566772e-02
-1.433394849300384521e-01 8.056759834289550781e-04 -5.204153060913085938e-01
1.476303339004516602e-01 -2.239379286766052246e-01 2.294597774744033813e-02
-1.228066533803939819e-01 2.127178758382797241e-02 -1.676765382289886475e-01
-5.799967423081398010e-02 -1.943531632423400879e-01 -5.522248148918151855e-02
-3.199495971202850342e-01 -6.144481524825096130e-02 5.840107798576354980e-03
-2.001089230179786682e-02 -1.883842945098876953e-01 8.302406072616577148e-01
-2.248737663030624390e-01 -1.511262357234954834e-01 3.693281412124633789e-01
3.837073743343353271e-01 -2.018744349479675293e-01 2.364980280399322510e-01
2.001572959125041962e-02 -2.137687355279922485e-01 7.253748774528503418e-01
3.646775484085083008e-01 -1.012295857071876526e-01 3.233924210071563721e-01
-1.037273183465003967e-02 -7.525399327278137207e-02 7.911823987960815430e-01
-3.149289488792419434e-01 -4.434702545404434204e-02 5.524619668722152710e-02
3.847557306289672852e-02 -1.683922410011291504e-01 -4.046949744224548340e-01
-1.123987585306167603e-01 -9.469397366046905518e-03 3.760506212711334229e-01
1.217596232891082764e-01 -5.100013688206672668e-02 6.052260398864746094e-01
-4.436637088656425476e-02 1.560654491186141968e-02 4.549242556095123291e-02
-1.323156356811523438e-01 -1.438192725181579590e-01 -3.496905863285064697e-01
-1.523204147815704346e-01 -1.245156228542327881e-01 -4.254240393638610840e-01
-1.848991215229034424e-01 -1.119487434625625610e-01 6.956656575202941895e-01
1.795395612716674805e-01 -2.114986479282379150e-01 8.528060317039489746e-01
-8.199448883533477783e-02 2.131336182355880737e-02 -2.542558610439300537e-01
1.242468059062957764e-01 -2.372776865959167480e-01 5.449306964874267578e-01
-2.535168528556823730e-01 -1.764278858900070190e-02 2.141570895910263062e-01
2.130936086177825928e-01 -7.798983156681060791e-02 6.486080288887023926e-01
-3.308660909533500671e-02 -2.168925106525421143e-01 3.553540706634521484e-01
6.520914286375045776e-02 -2.316509783267974854e-01 5.396719574928283691e-01
3.480942547321319580e-01 -8.449365943670272827e-02 2.230935096740722656e-01
-2.491598576307296753e-01 -3.906905651092529297e-03 6.669080257415771484e-02
1.977896317839622498e-02 -2.075287699699401855e-01 7.794824242591857910e-01
-1.491476148366928101e-01 -1.847579777240753174e-01 2.394845485687255859e-01
2.000472843647003174e-01 -2.312974631786346436e-01 6.993792653083801270e-01
3.706075847148895264e-01 -9.666065871715545654e-02 -9.344637393951416016e-03
1.978187561035156250e-01 -2.346428930759429932e-01 1.931597292423248291e-01
-1.454357430338859558e-02 5.532220005989074707e-03 2.000510096549987793e-01
-2.811037003993988037e-01 -1.324823498725891113e-02 -2.068937718868255615e-01
-1.485479325056076050e-01 -4.201448708772659302e-02 -6.328982114791870117e-01
3.123829066753387451e-01 -6.592334806919097900e-02 -1.707138121128082275e-01
-2.814733609557151794e-02 -2.129261940717697144e-02 4.886127412319183350e-01
2.278146594762802124e-01 -2.356403768062591553e-01 2.382532954216003418e-01
-8.823600411415100098e-02 -9.389610588550567627e-02 -6.279466152191162109e-01
3.587298691272735596e-01 -2.152809500694274902e-01 4.567935466766357422e-01
2.941448688507080078e-01 -6.874710321426391602e-02 3.538301289081573486e-01
-9.247095882892608643e-02 -1.650544553995132446e-01 -2.728149592876434326e-01
-1.202527433633804321e-03 1.618482172489166260e-03 2.429179996252059937e-01
1.325098723173141479e-01 -1.805589199066162109e-01 -3.557910025119781494e-01
1.003976315259933472e-01 -1.175895333290100098e-03 -3.520497083663940430e-01
2.291053831577301025e-01 -6.142684072256088257e-02 4.980879426002502441e-01
2.399946749210357666e-01 -1.813639402389526367e-01 -2.975297570228576660e-01
2.055304795503616333e-01 -3.482539951801300049e-02 2.845863103866577148e-01
-7.836763560771942139e-02 -1.247073709964752197e-02 -6.239044666290283203e-01
-1.334307789802551270e-01 -1.472021043300628662e-01 7.645010352134704590e-01
-9.846855700016021729e-02 -2.221237868070602417e-02 4.853869676589965820e-01
2.580797374248504639e-01 -2.356018722057342529e-01 5.520894527435302734e-01
1.590867042541503906e-01 -6.599815189838409424e-02 6.569598913192749023e-01
-2.837438583374023438e-01 -6.332260370254516602e-02 3.570581376552581787e-01
7.217815518379211426e-02 -2.272184640169143677e-01 1.541792452335357666e-01
3.251516819000244141e-01 -8.310148864984512329e-02 -2.496264576911926270e-01
8.626508712768554688e-02 4.659064114093780518e-03 -2.728287279605865479e-01
-2.362552136182785034e-01 -1.365116834640502930e-01 -6.335252523422241211e-02
2.434015572071075439e-01 -3.789365291595458984e-02 1.523146778345108032e-01
-2.205228954553604126e-01 -1.215164959430694580e-01 -2.702779769897460938e-01
-1.147523373365402222e-01 -1.743621230125427246e-01 -1.338585317134857178e-01
-3.849715366959571838e-02 -4.972881078720092773e-02 6.721714138984680176e-01
1.942989379167556763e-01 -2.219506800174713135e-01 -1.587048172950744629e-03
-5.206494405865669250e-02 1.404953002929687500e-02 -4.222217202186584473e-01
-1.549373418092727661e-01 -7.768057286739349365e-02 -5.918391942977905273e-01
2.912704944610595703e-01 -1.703878939151763916e-01 8.204859495162963867e-01
-1.131521463394165039e-01 2.140811830759048462e-02 -2.270899116992950439e-01
2.719357013702392578e-01 -1.332053691148757935e-01 7.918358445167541504e-01
-2.320014387369155884e-01 -6.556823849678039551e-03 1.691531687974929810e-01
8.161661773920059204e-02 -3.829948604106903076e-02 -6.472536921501159668e-01
-1.472445875406265259e-01 1.236852258443832397e-02 -4.102714657783508301e-01
-7.959635555744171143e-02 -1.821728348731994629e-01 7.487272024154663086e-01
2.605994641780853271e-01 -6.281563639640808105e-02 4.207800626754760742e-01
1.531444787979125977e-01 -1.552454382181167603e-02 -3.769080638885498047e-01
7.876452058553695679e-03 -3.599330782890319824e-02 -6.857896447181701660e-01
2.319316118955612183e-01 -4.758051410317420959e-02 3.538466095924377441e-01
9.893967211246490479e-02 -2.336535751819610596e-01 2.525202631950378418e-01
-4.626781865954399109e-02 -8.197872340679168701e-02 8.046819567680358887e-01
3.663555085659027100e-01 -9.157705307006835938e-02 9.205283224582672119e-02
-1.909644454717636108e-01 1.010257005691528320e-02 -3.511432707309722900e-01
-5.483955517411231995e-02 -1.332417875528335571e-01 -5.186336040496826172e-01
-1.495049893856048584e-01 -1.146402284502983093e-01 -4.787415266036987305e-01
3.354664444923400879e-01 -1.575653403997421265e-01 -2.442713081836700439e-01
3.150672018527984619e-01 -8.521573990583419800e-02 -3.062930405139923096e-01
-2.436569780111312866e-01 -8.021584153175354004e-02 5.293921828269958496e-01
-2.062203735113143921e-01 -1.340042799711227417e-02 -4.986536502838134766e-01
-3.017503395676612854e-02 -1.938307285308837891e-01 7.842638492584228516e-01
-1.519157588481903076e-01 -2.332943677902221680e-02 4.534505605697631836e-01
3.781648874282836914e-01 -1.803098171949386597e-01 5.882678627967834473e-01
-9.309542179107666016e-02 -4.717782139778137207e-04 2.955886721611022949e-01
5.649425089359283447e-02 -2.178943157196044922e-01 2.319766581058502197e-02
3.889254331588745117e-01 -1.112999096512794495e-01 1.983771175146102905e-01
2.189487032592296600e-02 -1.494336277246475220e-01 -4.985771179199218750e-01
-1.329478174448013306e-01 -1.882328093051910400e-01 4.651724398136138916e-01
1.144623756408691406e-01 -2.033234238624572754e-01 -1.862071156501770020e-01
-3.085795044898986816e-01 -4.386044293642044067e-02 -1.811451911926269531e-01
1.346339881420135498e-01 -2.195037305355072021e-01 -2.831694483757019043e-02
-2.578736543655395508e-01 -1.257928162813186646e-01 3.949575126171112061e-01
-6.187062337994575500e-02 -2.097946405410766602e-01 2.854491472244262695e-01
2.402431964874267578e-01 -7.730542123317718506e-02 5.917520523071289062e-01
-8.974681794643402100e-02 -5.957983806729316711e-02 -6.811223626136779785e-01
-1.368936747312545776e-01 -2.921932190656661987e-02 5.068439245223999023e-01
8.835166692733764648e-03 -1.810372471809387207e-01 -2.954225838184356689e-01
-9.452275931835174561e-02 -1.694658100605010986e-01 -2.314945161342620850e-01
-2.533219456672668457e-01 -1.356181055307388306e-01 3.197872638702392578e-01
-8.114910125732421875e-02 -5.867063254117965698e-02 7.001598477363586426e-01
-2.176261395215988159e-01 1.221880316734313965e-03 1.116485148668289185e-01
1.430067867040634155e-01 -1.490172594785690308e-01 9.476838111877441406e-01
8.449928462505340576e-02 -1.962542831897735596e-01 -2.334880828857421875e-01
-1.206999421119689941e-01 -1.910108923912048340e-01 5.010683536529541016e-01
2.282317131757736206e-01 -3.603985160589218140e-02 2.062139213085174561e-01
-2.221990674734115601e-01 6.782613694667816162e-03 -1.092720031738281250e-02
4.075329899787902832e-01 -1.713435053825378418e-01 4.098844528198242188e-01
-1.241552382707595825e-01 -1.931042522192001343e-01 2.686516642570495605e-01
1.975690722465515137e-01 -1.909583210945129395e-01 -2.714327275753021240e-01
2.343893051147460938e-02 1.512363553047180176e-02 -1.778739690780639648e-01
-1.541856378316879272e-01 -6.133740767836570740e-02 6.479922533035278320e-01
3.157508969306945801e-01 -1.717884540557861328e-01 7.749644517898559570e-01
3.843186199665069580e-01 -1.636137068271636963e-01 -6.035736203193664551e-02
-5.557359382510185242e-02 -2.099084407091140747e-01 5.098823308944702148e-01
4.011683166027069092e-01 -1.731859892606735229e-01 7.920996844768524170e-02
3.978596329689025879e-01 -1.894267052412033081e-01 1.906550228595733643e-01
1.519993841648101807e-01 -2.788673341274261475e-02 3.530404865741729736e-01
8.442905545234680176e-02 -2.129670232534408569e-02 -5.783572793006896973e-01
8.227541297674179077e-02 -4.089801758527755737e-02 5.748779773712158203e-01
-2.274653464555740356e-01 -1.510663330554962158e-01 1.269528567790985107e-01
-6.903906166553497314e-02 -2.087141871452331543e-01 3.948972821235656738e-01
1.736354529857635498e-01 -2.014883607625961304e-02 1.756795495748519897e-01
2.982752323150634766e-01 -7.979803532361984253e-02 4.482366740703582764e-01
-2.493783384561538696e-01 -1.226549521088600159e-01 -1.400215625762939453e-01
-2.172873169183731079e-01 -1.302182972431182861e-01 -2.160632312297821045e-01
-7.878239452838897705e-02 -1.913216412067413330e-01 6.857218742370605469e-01
1.868330538272857666e-01 -2.185269445180892944e-02 -3.212365508079528809e-01
2.273001670837402344e-01 -2.357394993305206299e-01 6.110327243804931641e-01
1.701945811510086060e-02 -1.320850849151611328e-01 -5.716649889945983887e-01
-7.278268039226531982e-02 8.297778666019439697e-03 1.886415034532546997e-01
3.250034749507904053e-01 -1.943612098693847656e-01 7.349263429641723633e-01
1.430332213640213013e-01 -5.340690910816192627e-02 -6.162965893745422363e-01
1.646730154752731323e-01 -7.719838619232177734e-02 7.140356302261352539e-01
3.751162886619567871e-01 -2.006491124629974365e-01 1.475809067487716675e-01
2.880703508853912354e-01 -6.261046230792999268e-02 -2.897285521030426025e-01
1.272015273571014404e-01 -2.362925410270690918e-01 5.838726758956909180e-01
-2.032140046358108521e-01 -7.321641594171524048e-02 6.097893714904785156e-01
4.013985395431518555e-01 -1.909516900777816772e-01 2.891510426998138428e-01
1.405417546629905701e-02 -5.478668585419654846e-02 6.975651979446411133e-01
1.410652697086334229e-02 -5.736060440540313721e-03 -5.646311640739440918e-01
-2.676517963409423828e-01 -6.744801998138427734e-02 4.295994639396667480e-01
3.253065347671508789e-01 -1.162553057074546814e-01 -3.333224356174468994e-01
2.803559899330139160e-01 -1.115256473422050476e-01 6.971812844276428223e-01
-2.922549471259117126e-02 -1.655920296907424927e-01 -3.648404479026794434e-01
1.403191313147544861e-02 1.540830731391906738e-02 -8.768916130065917969e-02
-2.926917970180511475e-01 -7.514079660177230835e-02 -2.328155338764190674e-01
6.056170165538787842e-02 -2.322491109371185303e-01 3.640592694282531738e-01
-2.802697196602821350e-02 -6.170890107750892639e-02 7.321372032165527344e-01
2.433321475982666016e-01 -1.566457152366638184e-01 -4.075394868850708008e-01
-2.137297540903091431e-01 -1.589497774839401245e-01 1.911382079124450684e-01
3.607922792434692383e-01 -1.198277026414871216e-01 -2.091122269630432129e-01
3.367696702480316162e-01 -2.066451013088226318e-01 4.819560796022415161e-02
-3.138979151844978333e-02 1.959853619337081909e-02 -1.236772239208221436e-01
-6.672161817550659180e-02 1.124574989080429077e-02 -4.652323126792907715e-01
2.429928034543991089e-01 -2.385443747043609619e-01 4.841363430023193359e-01
-2.190269976854324341e-01 -1.109101921319961548e-01 6.107906699180603027e-01
2.517105937004089355e-01 -3.593268990516662598e-02 -8.825300633907318115e-02
7.992589473724365234e-02 -2.223435342311859131e-01 5.531428009271621704e-02
2.251950651407241821e-01 -1.165454536676406860e-01 8.098063468933105469e-01
-2.147634178400039673e-01 -5.739414319396018982e-02 -5.258210301399230957e-01
-1.174881458282470703e-01 -1.070074364542961121e-01 -5.566394329071044922e-01
-3.037778437137603760e-01 -9.345591068267822266e-02 -1.141406595706939697e-02
2.505213022232055664e-01 -2.156678438186645508e-01 -3.020071983337402344e-02
3.726942837238311768e-01 -1.106393337249755859e-01 3.650221228599548340e-01
2.692667767405509949e-02 -2.820736914873123169e-02 5.215923786163330078e-01
-1.893644183874130249e-01 -1.452333629131317139e-01 6.201995611190795898e-01
-2.815399467945098877e-01 -1.186863929033279419e-01 1.204623430967330933e-01
7.830519974231719971e-02 6.843306124210357666e-03 -6.975287199020385742e-02
-5.126709863543510437e-02 -2.053964436054229736e-01 6.228247880935668945e-01
3.570865392684936523e-01 -2.165120542049407959e-01 3.154698014259338379e-01
-1.355483233928680420e-01 -1.704944670200347900e-01 6.645694375038146973e-01
1.145465373992919922e-01 1.056425273418426514e-03 -1.517313718795776367e-01
3.539212048053741455e-01 -1.777605712413787842e-01 6.788090467453002930e-01
2.287396043539047241e-01 -2.276438623666763306e-01 9.293171018362045288e-02
-4.497282207012176514e-03 -7.601904869079589844e-02 -7.012643814086914062e-01
-1.268844306468963623e-01 -1.380888819694519043e-01 -3.961856961250305176e-01
2.547528743743896484e-01 -3.760482370853424072e-02 -1.273272335529327393e-01
1.384784281253814697e-01 -4.200734198093414307e-03 -7.431568205356597900e-02
-1.589054763317108154e-01 1.264593005180358887e-02 6.194072216749191284e-02
2.039028555154800415e-01 -2.321884036064147949e-01 1.485404670238494873e-01
7.086703181266784668e-02 -1.851020604372024536e-01 -3.122417330741882324e-01
-3.094643354415893555e-01 -8.051827549934387207e-02 1.999405026435852051e-01
1.515803188085556030e-01 -2.352559566497802734e-01 2.150411009788513184e-01
-2.148416191339492798e-01 -1.549245715141296387e-01 7.595570385456085205e-02
1.657631844282150269e-01 -5.149013921618461609e-02 5.473288297653198242e-01
-1.483285427093505859e-01 -2.623870968818664551e-04 2.574989795684814453e-01
1.336279958486557007e-01 -7.938183844089508057e-03 9.943512827157974243e-02
-1.540731787681579590e-01 1.611488312482833862e-02 -6.679311394691467285e-03
1.139160990715026855e-01 -2.313902527093887329e-01 1.693755835294723511e-01
4.698972404003143311e-02 -1.410988271236419678e-01 -5.455757379531860352e-01
-1.517438516020774841e-02 1.595804840326309204e-02 -7.992252707481384277e-03
2.439843118190765381e-01 -1.665181070566177368e-01 -3.668784201145172119e-01
6.180468574166297913e-02 -2.738282084465026855e-03 -4.770734906196594238e-01
2.421419173479080200e-01 -2.306127995252609253e-01 6.717080473899841309e-01
-6.209986284375190735e-02 -1.417901366949081421e-01 -4.691400527954101562e-01
3.906899392604827881e-01 -1.960157454013824463e-01 4.457283318042755127e-01
6.708322465419769287e-02 -8.383989334106445312e-04 1.748567819595336914e-01
2.941145896911621094e-01 -2.304297536611557007e-01 2.730873227119445801e-01
-1.797674968838691711e-02 -7.445096969604492188e-03 3.606864213943481445e-01
-2.306037023663520813e-02 -1.887641102075576782e-02 -6.479688882827758789e-01
2.623817920684814453e-01 -4.442315548658370972e-02 -2.272808551788330078e-01
-1.456506252288818359e-01 -1.586071103811264038e-01 -2.027719914913177490e-01
-2.003419995307922363e-01 -1.650624275207519531e-01 3.214353024959564209e-01
-3.144846260547637939e-01 -5.788598582148551941e-02 -1.237065643072128296e-01
2.717834897339344025e-02 -8.964432030916213989e-02 8.445177674293518066e-01
2.286801040172576904e-01 -1.951528489589691162e-01 -2.221402227878570557e-01
3.136766850948333740e-01 -2.162742912769317627e-01 8.888177573680877686e-02
2.421874105930328369e-01 -1.059458330273628235e-01 -5.162718296051025391e-01
1.704640835523605347e-01 -1.015968099236488342e-01 8.183453679084777832e-01
2.863695621490478516e-01 -1.055707857012748718e-01 6.553637981414794922e-01
-9.141162037849426270e-02 -1.851850152015686035e-01 -7.695165276527404785e-02
9.255591034889221191e-02 -1.637379378080368042e-01 -4.491736888885498047e-01
1.909557878971099854e-01 -3.883245587348937988e-02 3.787623643875122070e-01
3.165652155876159668e-01 -1.868686676025390625e-01 -1.537651121616363525e-01
8.440545201301574707e-02 -5.493655428290367126e-02 6.656449437141418457e-01
1.672616004943847656e-01 -1.758488714694976807e-01 -3.759439587593078613e-01
-2.586670219898223877e-01 -1.396434754133224487e-02 -3.520834445953369141e-01
1.425993442535400391e-02 -2.197352945804595947e-01 1.489274650812149048e-01
3.207906484603881836e-01 -6.666056811809539795e-02 1.292098909616470337e-01
2.863774076104164124e-02 -1.899502128362655640e-01 -2.438326478004455566e-01
2.804531753063201904e-01 -2.134566307067871094e-01 7.539036870002746582e-01
-2.290421277284622192e-01 -1.378187984228134155e-01 4.887933731079101562e-01
1.349719315767288208e-01 -3.664861619472503662e-02 -5.757540464401245117e-01
1.757496744394302368e-01 -2.403195798397064209e-01 4.946717917919158936e-01
2.455943226814270020e-01 -3.651395440101623535e-02 1.003229394555091858e-01
3.999060988426208496e-01 -1.919091045856475830e-01 3.625690937042236328e-01
-5.152824893593788147e-02 -1.679816395044326782e-01 8.560320734977722168e-01
-1.563109755516052246e-01 -1.675501465797424316e-01 -2.944629490375518799e-01
-2.387018948793411255e-01 -3.036560714244842529e-01 4.670591652393341064e-01
-5.129628181457519531e-01 -2.442874461412429810e-01 6.158370524644851685e-02
-3.929202258586883545e-01 -1.999411731958389282e-01 4.954508841037750244e-01
-1.679301112890243530e-01 -3.241101205348968506e-01 -3.018028736114501953e-01
7.403671741485595703e-03 -1.817895323038101196e-01 2.647414058446884155e-02
-2.887303233146667480e-01 -2.020096480846405029e-01 -6.127592921257019043e-01
-1.441745460033416748e-01 -3.065845072269439697e-01 -6.574282646179199219e-01
-4.592682421207427979e-01 -2.962403893470764160e-01 6.601408869028091431e-02
-2.504123151302337646e-01 -1.678986847400665283e-01 1.644665002822875977e-01
-2.570133507251739502e-01 -2.611345350742340088e-01 -8.238396644592285156e-01
-7.526779919862747192e-02 -1.947972476482391357e-01 4.434101879596710205e-01
-1.160987913608551025e-01 -3.021624684333801270e-01 -6.975289583206176758e-01
-9.160801768302917480e-03 -2.867886126041412354e-01 2.410379946231842041e-01
-1.090710535645484924e-01 -3.090742528438568115e-01 2.391724288463592529e-01
-1.434922218322753906e-03 -1.847657859325408936e-01 1.344738304615020752e-01
-1.979167610406875610e-01 -1.642808169126510620e-01 2.394615113735198975e-02
-2.715836167335510254e-01 -3.241912424564361572e-01 -2.161620557308197021e-01
-5.455943942070007324e-02 -3.128698468208312988e-01 -3.186545521020889282e-02
-3.487207591533660889e-01 -3.133891522884368896e-01 2.649244666099548340e-01
-1.583200097084045410e-01 -3.107564747333526611e-01 -6.063920855522155762e-01
-1.062696725130081177e-01 -1.741998791694641113e-01 2.592374384403228760e-01
-4.574254155158996582e-01 -2.949526906013488770e-01 -5.933166295289993286e-02
-3.373344838619232178e-01 -2.505982518196105957e-01 7.377288937568664551e-01
-4.942025542259216309e-01 -2.262360900640487671e-01 3.013778626918792725e-01
-1.572744399309158325e-01 -1.747958362102508545e-01 3.411869704723358154e-01
-1.842927932739257812e-01 -3.065122663974761963e-01 -6.537737846374511719e-01
-4.242634177207946777e-01 -2.731415033340454102e-01 -4.489732980728149414e-01
8.593785762786865234e-02 -2.029877901077270508e-01 -3.990573585033416748e-01
-1.264601945877075195e-01 -1.860239803791046143e-01 -6.283882260322570801e-01
-8.669042587280273438e-02 -2.801856398582458496e-01 4.823538362979888916e-01
-4.443306922912597656e-01 -2.556418776512145996e-01 -4.142709374427795410e-01
1.060708165168762207e-01 -2.669939398765563965e-01 -3.918069899082183838e-01
-3.557438254356384277e-01 -1.824072003364562988e-01 -1.650477945804595947e-01
-4.456503689289093018e-01 -2.018263936042785645e-01 -2.837643399834632874e-02
-3.401364088058471680e-01 -2.115387618541717529e-01 -5.754824280738830566e-01
-4.993426501750946045e-01 -2.684938907623291016e-01 -6.752189993858337402e-02
-2.596397399902343750e-01 -2.938005924224853516e-01 5.657272934913635254e-01
-1.222273707389831543e-02 -2.222133278846740723e-01 -8.302055001258850098e-01
-1.983313262462615967e-01 -3.123170435428619385e-01 3.297093808650970459e-01
-4.970166981220245361e-01 -2.586008608341217041e-01 -1.366175115108489990e-01
-3.734290003776550293e-01 -1.918677985668182373e-01 -2.793581187725067139e-01
-5.220468342304229736e-02 -3.145453333854675293e-01 -1.321772933006286621e-01
-1.420687735080718994e-01 -3.211471438407897949e-01 4.851778596639633179e-02
-2.763354480266571045e-01 -1.888490766286849976e-01 -5.109661817550659180e-01
-3.469619154930114746e-01 -1.767522990703582764e-01 4.385400563478469849e-02
-3.981404900550842285e-01 -2.063021361827850342e-01 5.454174876213073730e-01
-7.252959161996841431e-02 -1.687703281641006470e-01 -2.371809482574462891e-01
-4.242591857910156250e-01 -2.099095284938812256e-01 -2.969331741333007812e-01
-3.879753351211547852e-01 -2.118060886859893799e-01 -4.487819373607635498e-01
4.990987479686737061e-02 -2.931150197982788086e-01 -3.168773651123046875e-01
-7.964234799146652222e-02 -1.672692000865936279e-01 -8.158665150403976440e-02
-2.879447042942047119e-01 -2.268289923667907715e-01 -7.468230128288269043e-01
-3.249331712722778320e-01 -3.215535581111907959e-01 2.257474511861801147e-02
-3.094967007637023926e-01 -2.912037670612335205e-01 5.832716226577758789e-01
-3.010692298412322998e-01 -1.986542344093322754e-01 -5.616590976715087891e-01
-2.009688466787338257e-01 -1.884471178054809570e-01 5.355150699615478516e-01
-3.195556998252868652e-01 -3.121644854545593262e-01 -4.102596640586853027e-01
2.724197506904602051e-02 -1.838138103485107422e-01 -3.340096473693847656e-01
-4.261435866355895996e-01 -2.064113616943359375e-01 -2.480672299861907959e-01
-5.864940583705902100e-02 -1.697207093238830566e-01 -2.929352596402168274e-02
-4.421162009239196777e-01 -2.042173445224761963e-01 3.624002337455749512e-01
-2.180302441120147705e-01 -2.936343550682067871e-01 -7.434995174407958984e-01
-3.100555241107940674e-01 -3.218592405319213867e-01 8.459346741437911987e-02
9.199202060699462891e-03 -2.695485055446624756e-01 3.140871822834014893e-01
-3.956055045127868652e-01 -3.115492463111877441e-01 1.146573349833488464e-01
-3.723907470703125000e-01 -3.120635449886322021e-01 -2.292442023754119873e-01
4.741576313972473145e-02 -2.298161983489990234e-01 -7.626836299896240234e-01
-2.156544476747512817e-01 -3.081173300743103027e-01 -6.185857653617858887e-01
-2.331725955009460449e-01 -1.871627569198608398e-01 -5.617785453796386719e-01
-9.771813452243804932e-02 -3.178321123123168945e-01 -4.052351415157318115e-01
-3.102622032165527344e-01 -1.850425899028778076e-01 -3.844918310642242432e-01
-3.573321104049682617e-01 -3.181967139244079590e-01 -3.822046890854835510e-02
-8.538588136434555054e-02 -2.933765053749084473e-01 3.788946270942687988e-01
-1.995127201080322266e-01 -1.666799038648605347e-01 -2.241226136684417725e-01
-7.194452732801437378e-02 -1.724935472011566162e-01 1.385329365730285645e-01
-1.339181661605834961e-01 -2.240082025527954102e-01 -8.758625984191894531e-01
-4.563697576522827148e-01 -2.167445123195648193e-01 -2.044021040201187134e-01
9.197852015495300293e-02 -2.615879774093627930e-01 -5.897716283798217773e-01
6.321004033088684082e-02 -1.935549229383468628e-01 -3.604645729064941406e-01
-2.473321557044982910e-01 -1.665768623352050781e-01 8.792722970247268677e-02
-2.627965211868286133e-01 -2.903111577033996582e-01 -7.186905145645141602e-01
1.560011506080627441e-02 -3.018897175788879395e-01 -1.786745786666870117e-01
-4.872862100601196289e-01 -2.677417993545532227e-01 -1.747733950614929199e-01
-3.676717579364776611e-01 -3.163366019725799561e-01 -8.757748454809188843e-02
3.062433004379272461e-02 -1.859437227249145508e-01 -1.924500614404678345e-02
-3.290803432464599609e-01 -3.210243582725524902e-01 -1.123049631714820862e-01
-8.761912584304809570e-02 -2.074383646249771118e-01 5.399320125579833984e-01
-3.861202001571655273e-01 -2.376382797956466675e-01 -5.770003795623779297e-01
-1.871607452630996704e-01 -1.673455238342285156e-01 1.963548660278320312e-01
-3.745208978652954102e-01 -3.157546222209930420e-01 3.133168816566467285e-02
-3.748800754547119141e-01 -2.944664955139160156e-01 5.012430548667907715e-01
1.938284933567047119e-02 -2.989363074302673340e-01 -9.119194746017456055e-02
-4.969795644283294678e-01 -2.685966789722442627e-01 3.269710838794708252e-01
2.742840349674224854e-02 -1.826193332672119141e-01 -1.304214000701904297e-01
4.382506012916564941e-02 -1.863541603088378906e-01 -2.563960254192352295e-01
-4.503208100795745850e-01 -2.761893272399902344e-01 4.929234683513641357e-01
-1.560662984848022461e-01 -1.650329530239105225e-01 -1.883301436901092529e-01
-3.423975110054016113e-01 -3.102312684059143066e-01 -3.797618746757507324e-01
-2.309044003486633301e-01 -3.264668583869934082e-01 -9.844988584518432617e-02
-2.495717406272888184e-01 -2.768568992614746094e-01 6.697397232055664062e-01
-7.079168409109115601e-02 -2.524597644805908203e-01 5.632467269897460938e-01
-1.086622327566146851e-01 -2.187928408384323120e-01 6.117164492607116699e-01
-3.990501463413238525e-01 -2.209651917219161987e-01 6.352667212486267090e-01
-1.553095877170562744e-02 -3.015455603599548340e-01 -5.547630786895751953e-01
-3.734550476074218750e-01 -2.686857283115386963e-01 6.689406633377075195e-01
-3.053290545940399170e-01 -1.818144023418426514e-01 -3.458110988140106201e-01
-3.357771933078765869e-01 -1.777989864349365234e-01 -1.334447264671325684e-01
5.983477830886840820e-02 -2.899159193038940430e-01 -2.797529995441436768e-01
-7.674834132194519043e-02 -3.148581981658935547e-01 -4.386730790138244629e-01
-3.905265331268310547e-01 -3.077399730682373047e-01 2.742443382740020752e-01
-2.254070639610290527e-01 -3.208744823932647705e-01 -4.042444229125976562e-01
-4.523862600326538086e-01 -2.023849338293075562e-01 2.108754813671112061e-01
-5.954541265964508057e-02 -2.158710509538650513e-01 -8.388431072235107422e-01
-1.411823034286499023e-01 -1.642562896013259888e-01 -2.658511698246002197e-02
-2.774755358695983887e-01 -1.747882515192031860e-01 3.323999643325805664e-01
-4.876510500907897949e-01 -2.216145247220993042e-01 -1.566620916128158569e-02
-3.545826077461242676e-01 -3.161787986755371094e-01 -1.961328834295272827e-01
-5.001971125602722168e-02 -3.144656419754028320e-01 -3.071898818016052246e-01
-2.271035462617874146e-01 -3.226004242897033691e-01 1.364763379096984863e-01
-9.652047604322433472e-02 -1.837856471538543701e-01 -5.990689992904663086e-01
-4.062783122062683105e-01 -2.109332531690597534e-01 -3.794603347778320312e-01
-1.416371613740921021e-01 -3.238493204116821289e-01 -9.873528778553009033e-02
9.636089205741882324e-03 -1.793420910835266113e-01 -2.780411839485168457e-01
-2.267671376466751099e-01 -1.657723933458328247e-01 -1.091786921024322510e-01
-3.392657637596130371e-01 -1.835876256227493286e-01 -2.668143212795257568e-01
-3.658141493797302246e-01 -1.872967332601547241e-01 3.883192241191864014e-01
-1.550742387771606445e-01 -3.021309077739715576e-01 4.101311862468719482e-01
-8.547857403755187988e-03 -3.063030838966369629e-01 -3.929606378078460693e-01
-3.551236391067504883e-01 -1.916806101799011230e-01 4.823268353939056396e-01
-3.316866457462310791e-01 -1.914333552122116089e-01 5.182142257690429688e-01
-1.199240908026695251e-01 -1.691407859325408936e-01 1.715699434280395508e-01
-7.190000265836715698e-02 -2.025523185729980469e-01 -7.680251002311706543e-01
-6.408791244029998779e-02 -3.147145509719848633e-01 -3.950033187866210938e-01
8.194267749786376953e-02 -2.808861434459686279e-01 -3.596729338169097900e-01
-1.760535836219787598e-01 -3.244737982749938965e-01 -1.655980944633483887e-03
-1.148287951946258545e-02 -1.749834716320037842e-01 -1.560561358928680420e-01
-5.546477437019348145e-02 -3.156025707721710205e-01 -2.560515999794006348e-01
-1.574454903602600098e-01 -2.832582294940948486e-01 5.683103799819946289e-01
9.906965494155883789e-02 -2.674417495727539062e-01 -4.813579916954040527e-01
3.644251823425292969e-02 -2.875441908836364746e-01 3.968569636344909668e-02
-2.870185971260070801e-01 -3.202143907546997070e-01 -3.221757411956787109e-01
-4.584582448005676270e-01 -2.788799405097961426e-01 -2.771743535995483398e-01
-2.001392990350723267e-01 -2.252542972564697266e-01 -8.443189263343811035e-01
-3.842439055442810059e-01 -1.868129074573516846e-01 3.014434874057769775e-01
-2.953520417213439941e-01 -3.106423616409301758e-01 3.791147470474243164e-01
-3.801112174987792969e-01 -3.015971779823303223e-01 4.091435670852661133e-01
-1.731658875942230225e-01 -3.228383958339691162e-01 6.401372700929641724e-02
-2.007675617933273315e-01 -2.786579728126525879e-01 -8.332031369209289551e-01
1.800315082073211670e-02 -2.995432615280151367e-01 -4.380632638931274414e-01
4.306957125663757324e-02 -2.678248882293701172e-01 2.055481076240539551e-01
-3.084342479705810547e-01 -1.854569017887115479e-01 4.747947156429290771e-01
-2.361527085304260254e-02 -2.764103710651397705e-01 3.664782345294952393e-01
-2.921206653118133545e-01 -1.917469799518585205e-01 5.598832964897155762e-01
-1.890515536069869995e-01 -3.214708566665649414e-01 1.344709694385528564e-01
8.253541588783264160e-02 -1.998117119073867798e-01 -1.538132131099700928e-01
-4.347494244575500488e-01 -1.999205797910690308e-01 3.225901722908020020e-01
-1.912311464548110962e-01 -3.201191425323486328e-01 -4.403958618640899658e-01
-3.059485554695129395e-01 -2.814494669437408447e-01 -7.014434933662414551e-01
-4.125647246837615967e-02 -1.874451935291290283e-01 3.015460968017578125e-01
5.847898125648498535e-02 -2.814286947250366211e-01 -5.691775083541870117e-01
-2.527359724044799805e-01 -1.719328910112380981e-01 2.958355545997619629e-01
-4.504597187042236328e-01 -2.017805874347686768e-01 4.437059909105300903e-02
-1.410586684942245483e-01 -2.043709456920623779e-01 -7.810422778129577637e-01
-2.841620147228240967e-02 -2.101602405309677124e-01 4.370763599872589111e-01
5.329719185829162598e-02 -2.058448493480682373e-01 -6.124920845031738281e-01
-2.163079530000686646e-01 -1.722494363784790039e-01 -3.566361069679260254e-01
-4.857136011123657227e-01 -2.339343577623367310e-01 -1.638886928558349609e-01
-2.132642865180969238e-01 -1.766970008611679077e-01 4.012517035007476807e-01
9.835964441299438477e-02 -2.729386091232299805e-01 -2.819905281066894531e-01
-9.754063189029693604e-02 -3.202350735664367676e-01 -2.813633382320404053e-01
-4.839185774326324463e-01 -2.268636524677276611e-01 -1.213881298899650574e-01
-9.645068645477294922e-02 -3.196350336074829102e-01 -8.239080756902694702e-02
-4.317832291126251221e-01 -3.041626811027526855e-01 1.031600907444953918e-01
-1.272553801536560059e-01 -3.021484017372131348e-01 3.675331473350524902e-01
-1.335635036230087280e-01 -1.778317689895629883e-01 -5.196398496627807617e-01
-2.559282183647155762e-01 -1.667530983686447144e-01 -1.609720289707183838e-03
-6.068749725818634033e-02 -1.800018250942230225e-01 2.543170452117919922e-01
-1.701601594686508179e-01 -1.767081767320632935e-01 3.820329308509826660e-01
-2.028280198574066162e-01 -2.698599994182586670e-01 6.757068634033203125e-01
-4.555988311767578125e-02 -2.904341220855712891e-01 3.131423890590667725e-01
-2.978912889957427979e-01 -2.547571659088134766e-01 -7.730555534362792969e-01
-8.602172136306762695e-03 -1.772418320178985596e-01 -3.206400573253631592e-01
-3.332831859588623047e-01 -1.751941740512847900e-01 1.505137979984283447e-01
-6.951097398996353149e-02 -2.902248799800872803e-01 -7.736576795578002930e-01
6.368595361709594727e-02 -2.333838939666748047e-01 2.182766795158386230e-01
-8.258434385061264038e-02 -2.750883400440216064e-01 -8.655473589897155762e-01
1.234586834907531738e-01 -2.380614578723907471e-01 -1.836649179458618164e-01
-1.845932751893997192e-01 -3.259136676788330078e-01 -1.924954950809478760e-01
-1.160886809229850769e-01 -3.221805691719055176e-01 -1.372156143188476562e-01
3.215692937374114990e-02 -1.915670782327651978e-01 -5.015287995338439941e-01
7.441926002502441406e-02 -2.003216594457626343e-01 -4.410502910614013672e-01
-2.505568563938140869e-01 -3.169470727443695068e-01 -4.585446715354919434e-01
-2.324109524488449097e-01 -2.004673182964324951e-01 -6.848602294921875000e-01
-1.515547335147857666e-01 -3.247067928314208984e-01 -1.383474469184875488e-01
-4.687525928020477295e-01 -2.913478016853332520e-01 1.897371411323547363e-01
-2.290777713060379028e-01 -1.903639584779739380e-01 -6.012483239173889160e-01
-2.541331648826599121e-01 -1.741814613342285156e-01 -3.280199468135833740e-01
5.225098133087158203e-02 -2.711609899997711182e-01 1.427505016326904297e-01
-3.069007992744445801e-01 -1.727748066186904907e-01 -9.892856329679489136e-02
-1.693253517150878906e-01 -1.715652793645858765e-01 -3.927289545536041260e-01
-2.070581018924713135e-01 -3.175246119499206543e-01 2.470745444297790527e-01
-2.856418490409851074e-02 -2.732535600662231445e-01 -8.341428637504577637e-01
-3.980722427368164062e-01 -2.962860167026519775e-01 4.402044713497161865e-01
-3.516179025173187256e-01 -2.960523664951324463e-01 -5.211146473884582520e-01
6.377407908439636230e-02 -1.957624703645706177e-01 -4.434978216886520386e-02
-4.044759869575500488e-01 -3.038960695266723633e-01 -2.486388385295867920e-01
-1.376169621944427490e-01 -3.178241550922393799e-01 -4.742985963821411133e-01
-2.445502132177352905e-01 -2.108297646045684814e-01 -7.369417548179626465e-01
-5.053479671478271484e-01 -2.346707731485366821e-01 2.320429682731628418e-02
3.739836812019348145e-02 -1.905188113451004028e-01 -4.598317146301269531e-01
-3.452995419502258301e-01 -2.037279605865478516e-01 6.122757196426391602e-01
-3.093267679214477539e-01 -3.230898082256317139e-01 -2.286978811025619507e-02
7.147055864334106445e-02 -1.967789083719253540e-01 -9.693738073110580444e-02
-1.867610812187194824e-01 -2.067729234695434570e-01 -7.710862755775451660e-01
2.441404759883880615e-02 -2.721633315086364746e-01 -7.570514678955078125e-01
-1.952777802944183350e-01 -3.249959945678710938e-01 -2.786465287208557129e-01
-5.067622065544128418e-01 -2.694545090198516846e-01 1.835137903690338135e-01
-1.189124956727027893e-01 -3.122351765632629395e-01 -5.674229860305786133e-01
-4.496905207633972168e-01 -2.795168459415435791e-01 -3.156289458274841309e-01
-1.703834831714630127e-01 -2.928749322891235352e-01 5.151329040527343750e-01
-6.738205254077911377e-02 -1.814015805721282959e-01 -5.489817261695861816e-01
-2.189207673072814941e-01 -2.633479237556457520e-01 -8.596965074539184570e-01
8.750423789024353027e-03 -2.003977447748184204e-01 2.782094776630401611e-01
-3.777884840965270996e-01 -2.194867283105850220e-01 -5.285079479217529297e-01
-1.172477006912231445e-01 -1.926823556423187256e-01 -6.966818571090698242e-01
-5.387546122074127197e-02 -3.101768195629119873e-01 4.545132070779800415e-02
-2.401359379291534424e-01 -1.956846714019775391e-01 6.051686406135559082e-01
-1.358124166727066040e-01 -1.989093273878097534e-01 5.608105063438415527e-01
-1.225683689117431641e-01 -1.675201356410980225e-01 -2.869212031364440918e-01
-3.173190951347351074e-01 -1.744778007268905640e-01 2.199838161468505859e-01
-1.870297193527221680e-01 -1.690183579921722412e-01 2.447809278964996338e-01
-8.379796147346496582e-02 -2.211420387029647827e-01 5.803762078285217285e-01
8.867755532264709473e-02 -2.197065055370330811e-01 -5.908606052398681641e-01
-2.146128714084625244e-01 -2.444576621055603027e-01 7.373537421226501465e-01
5.220879614353179932e-02 -2.904719114303588867e-01 -1.450597345829010010e-01
2.195152640342712402e-02 -2.971305549144744873e-01 -4.806922078132629395e-01
-2.721970081329345703e-01 -1.702713370323181152e-01 -1.640541553497314453e-01
-2.491165995597839355e-01 -3.211511075496673584e-01 -3.698682487010955811e-01
-4.978469014167785645e-01 -2.241911590099334717e-01 1.579896807670593262e-01
9.322112798690795898e-02 -2.476508617401123047e-01 6.317254155874252319e-02
-3.410796523094177246e-01 -3.183974623680114746e-01 1.323744952678680420e-01
-1.300988495349884033e-01 -2.582007944583892822e-01 -9.120880365371704102e-01
-1.456364989280700684e-01 -1.640668809413909912e-01 -6.296243518590927124e-02
1.146801710128784180e-01 -2.582698464393615723e-01 -4.243889451026916504e-01
-4.055494666099548340e-01 -3.054887950420379639e-01 -2.101115584373474121e-01
-3.630478978157043457e-01 -2.783685326576232910e-01 6.343543529510498047e-01
-8.385130017995834351e-02 -2.560311555862426758e-01 -9.123880267143249512e-01
-2.422330975532531738e-01 -2.261264473199844360e-01 -8.060445189476013184e-01
-1.026940271258354187e-01 -2.070060074329376221e-01 -8.030382990837097168e-01
-1.274355947971343994e-01 -2.519448697566986084e-01 6.502773165702819824e-01
-3.407787680625915527e-01 -1.897299140691757202e-01 -3.642446100711822510e-01
-3.130566477775573730e-01 -2.876709103584289551e-01 -6.586062312126159668e-01
-2.298754751682281494e-01 -2.890840172767639160e-01 5.903756022453308105e-01
-4.240298867225646973e-01 -1.938592493534088135e-01 7.564604282379150391e-03
-3.012816011905670166e-01 -1.711767166852951050e-01 1.271683573722839355e-01
-3.818471133708953857e-01 -2.592840790748596191e-01 -6.035926938056945801e-01
-2.175259143114089966e-01 -3.250277042388916016e-01 3.600718826055526733e-02
-3.107834756374359131e-01 -3.148918151855468750e-01 2.937455773353576660e-01
8.438149094581604004e-02 -2.783021926879882812e-01 -4.230554997920989990e-01
-3.157684206962585449e-01 -2.973264753818511963e-01 5.284042954444885254e-01
-1.935949772596359253e-01 -3.256560564041137695e-01 -3.573343530297279358e-02
-1.144540309906005859e-02 -1.929805874824523926e-01 -6.289716958999633789e-01
-1.583802103996276855e-01 -1.651063859462738037e-01 8.551122993230819702e-02
-4.733244180679321289e-01 -2.859226167201995850e-01 2.821485102176666260e-01
-2.452942132949829102e-01 -3.203286528587341309e-01 2.048565745353698730e-01
-1.671048998832702637e-02 -2.001511454582214355e-01 -7.063276171684265137e-01
8.731237053871154785e-02 -2.578629851341247559e-01 -6.336586475372314453e-01
-6.017774343490600586e-02 -3.096001446247100830e-01 8.532964438199996948e-02
-2.434201836585998535e-01 -3.244496881961822510e-01 7.023159414529800415e-02
-3.309478461742401123e-01 -3.153144717216491699e-01 -3.180831968784332275e-01
-1.094881817698478699e-01 -1.716255545616149902e-01 2.130410075187683105e-01
-4.403761029243469238e-02 -1.727219820022583008e-01 3.180605173110961914e-02
-3.964517116546630859e-01 -1.969907581806182861e-01 4.486346542835235596e-01
-3.914386034011840820e-01 -1.852130740880966187e-01 3.101351112127304077e-02
-2.273085862398147583e-01 -3.259201943874359131e-01 -1.562249660491943359e-02
-2.832659780979156494e-01 -3.222205638885498047e-01 -2.687515616416931152e-01
-1.095435693860054016e-01 -3.202484548091888428e-01 -3.452517688274383545e-01
2.247361838817596436e-02 -2.403986603021621704e-01 -8.266621232032775879e-01
8.244410157203674316e-03 -2.234611064195632935e-01 3.886973559856414795e-01
-1.764007806777954102e-01 -1.794033348560333252e-01 -5.241301655769348145e-01
-7.607054710388183594e-02 -1.840521991252899170e-01 3.436063528060913086e-01
1.309403777122497559e-02 -2.143396586179733276e-01 -7.624421119689941406e-01
-3.815580010414123535e-01 -1.837095022201538086e-01 -1.552847027778625488e-02
-2.148772329092025757e-01 -1.661042571067810059e-01 1.394679546356201172e-01
-3.106938600540161133e-01 -1.718344688415527344e-01 7.963516563177108765e-02
-4.501739144325256348e-01 -2.987360060214996338e-01 -4.941582679748535156e-03
3.597886860370635986e-02 -2.252181470394134521e-01 3.082323670387268066e-01
-4.152608513832092285e-01 -3.083552122116088867e-01 4.592915624380111694e-02
-1.767944395542144775e-01 -3.235202431678771973e-01 -3.371805846691131592e-01
-1.874033212661743164e-01 -2.568086683750152588e-01 -8.908198475837707520e-01
-1.788206994533538818e-01 -3.258495330810546875e-01 -1.169022992253303528e-01
-4.586158990859985352e-01 -2.612201571464538574e-01 -3.501195907592773438e-01
-6.673827767372131348e-02 -2.066845446825027466e-01 5.003762841224670410e-01
-6.786912679672241211e-03 -3.012911975383758545e-01 2.383332699537277222e-02
-3.879755139350891113e-01 -2.864090800285339355e-01 -4.955484867095947266e-01
-2.167946100234985352e-02 -2.089136987924575806e-01 -7.750785946846008301e-01
-1.153853237628936768e-01 -1.650981158018112183e-01 -1.143823415040969849e-01
-3.346796631813049316e-01 -2.165813148021697998e-01 -6.173626780509948730e-01
-2.593901157379150391e-01 -3.249381184577941895e-01 3.219680488109588623e-02
-1.087711453437805176e-01 -1.723069548606872559e-01 -4.135463833808898926e-01
-3.709402680397033691e-01 -1.959507167339324951e-01 -3.476151227951049805e-01
-1.266927868127822876e-01 -1.686087697744369507e-01 -3.259094655513763428e-01
-2.617533206939697266e-01 -3.018271923065185547e-01 4.928385317325592041e-01
2.076978981494903564e-02 -1.876306980848312378e-01 8.082982152700424194e-02
-1.014615297317504883e-01 -1.669482886791229248e-01 3.992217779159545898e-02
1.791058480739593506e-02 -2.940571904182434082e-01 -5.635869503021240234e-01
-3.160241246223449707e-02 -1.933975815773010254e-01 3.363507986068725586e-01
-2.100850790739059448e-01 -1.645483672618865967e-01 -5.458964407444000244e-02
-4.662117660045623779e-01 -2.070574164390563965e-01 1.314097046852111816e-01
-2.811787724494934082e-01 -2.029996812343597412e-01 6.504646539688110352e-01
-4.099735617637634277e-01 -2.397817075252532959e-01 -5.145961046218872070e-01
7.852351665496826172e-02 -2.048977911472320557e-01 -4.929384589195251465e-01
7.608404755592346191e-02 -2.820890843868255615e-01 -1.775842308998107910e-01
3.440648317337036133e-02 -1.838674545288085938e-01 -2.233232855796813965e-01
-1.333652287721633911e-01 -2.872580885887145996e-01 -8.168350458145141602e-01
-1.681260019540786743e-01 -1.767564713954925537e-01 -4.897329807281494141e-01
-3.982266783714294434e-02 -3.030729591846466064e-01 1.355336904525756836e-01
4.851078987121582031e-02 -1.926444619894027710e-01 9.411513805389404297e-03
-5.018225908279418945e-01 -2.401265203952789307e-01 3.500375747680664062e-01
-2.686533331871032715e-01 -1.725713610649108887e-01 -2.518306970596313477e-01
1.242166757583618164e-02 -2.601377964019775391e-01 3.488588035106658936e-01
-5.830441415309906006e-02 -1.860416531562805176e-01 -6.047388315200805664e-01
8.779886364936828613e-02 -2.743085324764251709e-01 -1.253298521041870117e-01
-3.778225481510162354e-01 -3.129754364490509033e-01 -1.702886223793029785e-01
-5.783163011074066162e-02 -2.995827198028564453e-01 2.446421682834625244e-01
-1.765048056840896606e-01 -2.121640741825103760e-01 6.638981103897094727e-01
-4.998800158500671387e-02 -1.718999892473220825e-01 -3.009617030620574951e-01
-1.261339336633682251e-01 -1.807460337877273560e-01 -5.628263354301452637e-01
1.174836456775665283e-01 -2.565095424652099609e-01 -2.193589806556701660e-01
-2.038964778184890747e-01 -1.943572908639907837e-01 -6.665142178535461426e-01
-2.227239906787872314e-01 -3.069581985473632812e-01 4.210585057735443115e-01
-4.195850491523742676e-01 -2.638430595397949219e-01 6.233396530151367188e-01
-3.107063472270965576e-01 -1.761410832405090332e-01 2.988421916961669922e-01
-3.161785602569580078e-01 -3.186853826045989990e-01 -2.812017202377319336e-01
-2.644920647144317627e-01 -1.784084141254425049e-01 -3.875969052314758301e-01
-2.311332076787948608e-01 -2.822137176990509033e-01 -7.942287325859069824e-01
-4.832076132297515869e-01 -2.591723501682281494e-01 -2.293055057525634766e-01
-3.426055908203125000e-01 -2.909926772117614746e-01 -5.800865292549133301e-01
1.061034202575683594e-01 -2.539666891098022461e-01 -5.472693443298339844e-01
-4.157189726829528809e-01 -1.930344551801681519e-01 2.780645191669464111e-01
1.051568388938903809e-01 -2.573323249816894531e-01 -7.081399112939834595e-02
-1.680541485548019409e-01 -1.689929366111755371e-01 -3.314441740512847900e-01
5.302135646343231201e-02 -2.431307286024093628e-01 2.575505077838897705e-01
-4.852008223533630371e-01 -2.740026414394378662e-01 3.606894910335540771e-01
-4.726369380950927734e-01 -2.868053317070007324e-01 -9.325433522462844849e-02
-2.109150290489196777e-01 -3.256450295448303223e-01 -2.404400408267974854e-01
-3.093351423740386963e-02 -1.790122389793395996e-01 -4.518888294696807861e-01
9.750774502754211426e-02 -2.578772306442260742e-01 -1.338183879852294922e-02
3.061638772487640381e-02 -2.063270360231399536e-01 2.463259696960449219e-01
-3.910241723060607910e-01 -2.716474235057830811e-01 -5.553928017616271973e-01
-1.720657646656036377e-01 -3.129602372646331787e-01 -5.748098492622375488e-01
-1.317482292652130127e-01 -3.212474584579467773e-01 1.157964020967483521e-02
-9.269949793815612793e-02 -1.698140949010848999e-01 -3.320687115192413330e-01
2.893780171871185303e-02 -1.839625537395477295e-01 -7.335252314805984497e-02
-3.850041627883911133e-01 -3.126315772533416748e-01 1.488460302352905273e-01
-3.080691099166870117e-01 -2.228079587221145630e-01 -6.985519528388977051e-01
-2.900481522083282471e-01 -1.817197054624557495e-01 4.427078068256378174e-01
1.130664348602294922e-02 -2.906469106674194336e-01 1.192715242505073547e-01
-4.057243466377258301e-03 -2.915947139263153076e-01 1.695982217788696289e-01
-1.096714064478874207e-01 -2.982099056243896484e-01 -7.329609990119934082e-01
-2.132748812437057495e-01 -1.691878736019134521e-01 -2.850503325462341309e-01
-4.090869426727294922e-01 -3.087150752544403076e-01 -7.816037535667419434e-02
5.174750089645385742e-02 -2.894563376903533936e-01 -1.082706600427627563e-01
-3.598484396934509277e-01 -2.482004314661026001e-01 -6.564239263534545898e-01
-5.099313259124755859e-01 -2.640330195426940918e-01 2.186978459358215332e-01
-1.010977998375892639e-01 -3.209223747253417969e-01 -2.355632781982421875e-01
-2.030738890171051025e-01 -1.738210469484329224e-01 -4.068737924098968506e-01
-8.891943842172622681e-02 -1.670247018337249756e-01 -1.899347454309463501e-01
-4.203830063343048096e-01 -1.930330842733383179e-01 2.318871021270751953e-01
-3.907852470874786377e-01 -2.842770218849182129e-01 5.648117661476135254e-01
-7.286181300878524780e-02 -1.706998050212860107e-01 8.868006616830825806e-02
