-1.771150231361389160e-01 -3.930779695510864258e-01 2.374331355094909668e-01
2.827210538089275360e-02 -3.273567557334899902e-02 -4.967543110251426697e-02
1.699192076921463013e-01 -3.590652346611022949e-01 -2.340966314077377319e-01
-1.872931979596614838e-02 -5.137043595314025879e-01 3.357946500182151794e-02
-2.236375212669372559e-01 -3.539711236953735352e-01 1.892148703336715698e-01
4.944609478116035461e-02 -5.107812881469726562e-01 1.840102821588516235e-01
-1.514328420162200928e-01 -5.824610590934753418e-02 -4.176888242363929749e-02
-1.923234611749649048e-01 -9.677989780902862549e-02 9.584952890872955322e-02
1.895651035010814667e-02 -7.991826534271240234e-02 -2.243892401456832886e-01
-1.205205470323562622e-01 -1.305100321769714355e-01 2.581486999988555908e-01
-2.511821985244750977e-01 -2.167018055915832520e-01 1.563419103622436523e-01
1.588697582483291626e-01 -1.007115095853805542e-01 -1.409306675195693970e-01
-2.578438520431518555e-01 -3.361358046531677246e-01 3.452881425619125366e-02
4.933728370815515518e-03 -5.124171376228332520e-01 1.629319041967391968e-01
-1.307765990495681763e-01 -6.281310319900512695e-02 1.025501191616058350e-01
7.826036214828491211e-02 -1.941971331834793091e-01 3.467403054237365723e-01
2.505905032157897949e-01 -3.895653486251831055e-01 2.110096812248229980e-01
2.634196281433105469e-01 -1.836763620376586914e-01 -3.389463946223258972e-02
-8.139222860336303711e-02 -2.789819538593292236e-01 3.740783631801605225e-01
1.958156079053878784e-01 -2.067754864692687988e-01 2.720849215984344482e-01
1.897753179073333740e-01 -1.060173064470291138e-01 8.175416290760040283e-02
2.340830564498901367e-01 -2.036696970462799072e-01 -1.647715270519256592e-01
-4.111854732036590576e-02 -4.914146661758422852e-01 -6.621730327606201172e-02
-2.279830425977706909e-01 -2.355933040380477905e-01 2.200165987014770508e-01
-1.261680871248245239e-01 -4.689964652061462402e-01 -1.811069250106811523e-02
-5.255854502320289612e-02 -4.796286225318908691e-01 2.370100915431976318e-01
1.027443110942840576e-01 -5.054464936256408691e-01 1.817273199558258057e-01
1.283584684133529663e-01 -8.330214023590087891e-02 -1.458589583635330200e-01
2.265326529741287231e-01 -3.881992697715759277e-01 2.582728862762451172e-01
-1.663555800914764404e-01 -4.158354401588439941e-01 -1.071550846099853516e-01
7.061365991830825806e-02 -4.035332798957824707e-02 -1.890809088945388794e-02
1.418824791908264160e-01 -1.008808165788650513e-01 -1.696746945381164551e-01
1.695537567138671875e-01 -4.849497079849243164e-01 -1.766904070973396301e-02
-2.817057445645332336e-02 -2.684344053268432617e-01 3.895626664161682129e-01
-4.630145058035850525e-02 -1.599150151014328003e-01 -3.077276647090911865e-01
-1.235613673925399780e-01 -4.235445261001586914e-01 -1.544082164764404297e-01
-7.858994603157043457e-02 -4.974471032619476318e-02 -1.399507075548171997e-01
-2.532333433628082275e-01 -3.178538680076599121e-01 1.369191855192184448e-01
2.430264353752136230e-01 -4.355817437171936035e-01 -2.270720899105072021e-03
1.636239290237426758e-01 -1.336639970541000366e-01 2.134609669446945190e-01
-9.746169671416282654e-03 -1.110489517450332642e-01 2.712084352970123291e-01
-6.486286222934722900e-02 -6.568461656570434570e-02 -1.919166296720504761e-01
-2.741557657718658447e-01 -2.162431031465530396e-01 2.140170708298683167e-02
2.998471856117248535e-01 -2.862227261066436768e-01 2.836048230528831482e-02
-1.461997032165527344e-01 -1.504122018814086914e-01 2.615396082401275635e-01
-2.652421891689300537e-01 -3.105998039245605469e-01 7.540954649448394775e-02
-6.777742505073547363e-02 -1.921331286430358887e-01 -3.160039186477661133e-01
-6.073314324021339417e-02 -4.662169218063354492e-01 -1.244287937879562378e-01
4.500748962163925171e-02 -5.036977529525756836e-01 2.125138640403747559e-01
2.958439104259014130e-02 -2.599438726902008057e-01 -3.317211270332336426e-01
1.898797154426574707e-01 -2.420479953289031982e-01 3.054706454277038574e-01
1.355485320091247559e-01 -3.716649413108825684e-01 -2.491651922464370728e-01
8.995610475540161133e-02 -4.553060233592987061e-01 -1.683688312768936157e-01
-2.397910356521606445e-01 -1.389913111925125122e-01 6.366354227066040039e-02
2.389812469482421875e-02 -4.954065382480621338e-02 -1.499345600605010986e-01
4.164276272058486938e-02 -4.641886949539184570e-01 -1.624893099069595337e-01
-1.206094771623611450e-01 -4.784416556358337402e-01 1.073033809661865234e-01
6.516893953084945679e-02 -4.195344448089599609e-02 -6.896384060382843018e-02
-9.152929484844207764e-02 -4.154716134071350098e-01 3.128929138183593750e-01
-2.070620656013488770e-01 -2.092067599296569824e-01 2.419032603502273560e-01
2.117515653371810913e-01 -2.511041164398193359e-01 -2.227672487497329712e-01
-3.075010702013969421e-02 -4.537715613842010498e-01 3.016815483570098877e-01
-1.672285646200180054e-01 -1.510843634605407715e-01 2.410664260387420654e-01
1.096136122941970825e-01 -4.273688793182373047e-01 3.314533531665802002e-01
-1.287778764963150024e-01 -7.301637530326843262e-02 -1.598975807428359985e-01
1.441490054130554199e-01 -7.412613928318023682e-02 6.270583719015121460e-02
7.309359312057495117e-02 -1.125529110431671143e-01 -2.511217296123504639e-01
-9.217205643653869629e-02 -4.925364553928375244e-01 1.040759980678558350e-01
2.564760446548461914e-01 -1.682411134243011475e-01 -2.646971493959426880e-03
1.381220072507858276e-01 -4.968693852424621582e-01 1.765715628862380981e-01
2.367154657840728760e-01 -2.668593227863311768e-01 2.585993707180023193e-01
-1.830012500286102295e-01 -7.635170221328735352e-02 1.290918514132499695e-02
1.539700478315353394e-02 -7.143075764179229736e-02 1.944327205419540405e-01
5.769562721252441406e-02 -4.292320609092712402e-01 -2.177331745624542236e-01
-2.691612243652343750e-01 -2.820963263511657715e-01 9.287133067846298218e-02
-1.127012819051742554e-01 -4.312330484390258789e-01 2.726721763610839844e-01
7.550801336765289307e-02 -4.519109129905700684e-01 3.152845501899719238e-01
-1.206797659397125244e-01 -1.051465272903442383e-01 2.195945680141448975e-01
4.468599334359169006e-02 -4.147542119026184082e-01 -2.379886358976364136e-01
2.553261518478393555e-01 -2.102696746587753296e-01 -1.215958446264266968e-01
2.086320370435714722e-01 -2.638224661350250244e-01 2.958944737911224365e-01
4.655759781599044800e-02 -5.208659172058105469e-01 1.044370979070663452e-01
2.763602137565612793e-01 -3.641112744808197021e-01 -5.523047968745231628e-02
-2.109570801258087158e-02 -4.358186125755310059e-01 3.292967975139617920e-01
2.432488054037094116e-01 -1.514128744602203369e-01 4.288536682724952698e-02
-1.154763698577880859e-01 -2.493908256292343140e-01 3.497857451438903809e-01
6.841952446848154068e-03 -1.614142358303070068e-01 -3.120751380920410156e-01
-2.067899852991104126e-01 -1.470821499824523926e-01 -1.726972609758377075e-01
6.963486969470977783e-02 -4.974326491355895996e-02 8.938010036945343018e-02
2.605010569095611572e-01 -3.952125310897827148e-01 -5.535611137747764587e-02
1.492825895547866821e-01 -8.087660372257232666e-02 -9.292799234390258789e-02
2.808148860931396484e-01 -3.854003250598907471e-01 9.785173833370208740e-02
4.305873438715934753e-02 -9.829650819301605225e-02 -2.457949966192245483e-01
-1.936925798654556274e-01 -3.876933455467224121e-01 -1.121437400579452515e-01
-1.462020725011825562e-01 -4.078856110572814941e-01 -1.547367423772811890e-01
9.731121361255645752e-02 -9.658256173133850098e-02 2.091697007417678833e-01
-1.795326322317123413e-01 -2.253583669662475586e-01 -2.485787123441696167e-01
8.073177933692932129e-02 -4.982054829597473145e-01 2.223370671272277832e-01
-9.995285421609878540e-03 -4.138928651809692383e-01 -2.363501936197280884e-01
-2.107769846916198730e-01 -2.393612861633300781e-01 2.507175207138061523e-01
-9.913448989391326904e-02 -2.485759854316711426e-01 -3.091304600238800049e-01
-1.780770532786846161e-02 -2.400438636541366577e-01 3.827208876609802246e-01
9.845913946628570557e-02 -5.330286920070648193e-02 5.603027343750000000e-02
-1.289497762918472290e-01 -2.118783146142959595e-01 3.252648413181304932e-01
-2.182281166315078735e-01 -3.992024958133697510e-01 1.981323212385177612e-02
-2.694891095161437988e-01 -2.295923084020614624e-01 9.309668838977813721e-02
5.250097252428531647e-03 -4.724092483520507812e-01 -1.424641460180282593e-01
4.685941711068153381e-02 -3.154929876327514648e-01 -3.150880634784698486e-01
-2.267004251480102539e-01 -3.683282732963562012e-01 -6.387011706829071045e-02
2.406052500009536743e-02 -4.074098169803619385e-02 8.787149190902709961e-02
1.435271054506301880e-01 -6.912578642368316650e-02 -1.510179042816162109e-02
6.555212289094924927e-02 -1.331160664558410645e-01 -2.772035300731658936e-01
7.346931099891662598e-02 -5.176258683204650879e-01 3.041507117450237274e-02
-1.745336055755615234e-01 -4.214493036270141602e-01 -7.501742243766784668e-02
-2.222488969564437866e-01 -3.544830977916717529e-01 -1.056930869817733765e-01
2.957213819026947021e-01 -3.364623188972473145e-01 9.147714823484420776e-02
-3.614734113216400146e-02 -1.680559813976287842e-01 3.347130119800567627e-01
-6.383318454027175903e-03 -3.804093897342681885e-01 -2.728845775127410889e-01
-1.797823160886764526e-01 -7.851418852806091309e-02 -7.279534637928009033e-02
3.222241997718811035e-02 -4.780347049236297607e-01 -1.330299377441406250e-01
2.769370377063751221e-01 -3.766919970512390137e-01 -3.073602542281150818e-02
-8.063617348670959473e-02 -3.919647634029388428e-02 -8.865070343017578125e-02
3.712310642004013062e-02 -2.056049108505249023e-01 3.648564517498016357e-01
-9.198816120624542236e-02 -4.842465817928314209e-01 1.669592261314392090e-01
1.359418928623199463e-01 -4.422268867492675781e-01 -1.655302494764328003e-01
-2.095085531473159790e-01 -1.720132678747177124e-01 -1.906808614730834961e-01
1.831945180892944336e-01 -4.847057461738586426e-01 1.318225562572479248e-01
2.459222674369812012e-01 -2.224581539630889893e-01 2.082751244306564331e-01
-2.023467868566513062e-01 -9.965983033180236816e-02 -8.654272556304931641e-02
-2.690794467926025391e-01 -3.029806315898895264e-01 1.837630942463874817e-02
5.023464560508728027e-02 -4.461169242858886719e-01 3.266644775867462158e-01
-4.993559047579765320e-02 -5.072697401046752930e-01 4.329847544431686401e-02
-2.396156489849090576e-01 -2.418109178543090820e-01 -1.562614887952804565e-01
2.008801698684692383e-01 -1.074342131614685059e-01 -7.369361817836761475e-03
1.147103309631347656e-01 -5.081941485404968262e-01 1.526271700859069824e-01
-1.584585458040237427e-01 -6.611323356628417969e-02 5.500498414039611816e-02
-7.158325612545013428e-02 -1.247560679912567139e-01 2.776560187339782715e-01
-2.306130230426788330e-01 -1.199742406606674194e-01 1.946930587291717529e-02
-2.577630281448364258e-01 -2.967340946197509766e-01 -7.680365443229675293e-02
1.372202783823013306e-01 -7.884681224822998047e-02 1.072057336568832397e-01
3.263156116008758545e-02 -1.192012131214141846e-01 -2.745811343193054199e-01
5.365637689828872681e-02 -5.491855740547180176e-02 1.285199671983718872e-01
-1.582374572753906250e-01 -3.840669393539428711e-01 -1.764418333768844604e-01
2.695280015468597412e-01 -2.505010664463043213e-01 -1.146686822175979614e-01
-1.971060782670974731e-02 -4.979227185249328613e-01 2.093847841024398804e-01
-2.330583333969116211e-01 -1.531468033790588379e-01 -1.206560134887695312e-01
2.814030349254608154e-01 -2.131525129079818726e-01 4.309357330203056335e-02
2.425003349781036377e-01 -3.364318907260894775e-01 -1.614937037229537964e-01
2.721007168292999268e-01 -2.961453199386596680e-01 1.985858380794525146e-01
-4.032206535339355469e-02 -1.068199127912521362e-01 -2.644871473312377930e-01
3.937797993421554565e-02 -1.197587102651596069e-01 2.782650887966156006e-01
-1.309959739446640015e-01 -3.306901454925537109e-01 -2.575877010822296143e-01
1.274686604738235474e-01 -2.201227098703384399e-01 -2.943171560764312744e-01
-2.058781385421752930e-01 -4.044327139854431152e-01 -3.121333941817283630e-02
1.496217101812362671e-01 -2.900859117507934570e-01 3.568404316902160645e-01
-1.450400203466415405e-01 -1.897916495800018311e-01 -2.736013531684875488e-01
-5.447928234934806824e-02 -2.417942285537719727e-01 3.754224181175231934e-01
1.236832886934280396e-01 -1.239785701036453247e-01 2.392469793558120728e-01
-2.566172555088996887e-02 -2.662812471389770508e-01 -3.298700153827667236e-01
-8.568921685218811035e-02 -3.574718534946441650e-02 1.268333755433559418e-02
-2.520105540752410889e-01 -2.462271153926849365e-01 1.680155843496322632e-01
2.639323174953460693e-01 -4.025132358074188232e-01 -2.540687099099159241e-02
-1.576526165008544922e-01 -4.186832308769226074e-01 2.306053191423416138e-01
-2.753184437751770020e-01 -2.452612370252609253e-01 -1.294003799557685852e-02
2.868935465812683105e-02 -3.757289350032806396e-01 3.833470344543457031e-01
-1.629633158445358276e-01 -2.696958184242248535e-01 3.159618675708770752e-01
5.387630686163902283e-02 -5.002589225769042969e-01 -6.899921596050262451e-02
1.997616589069366455e-01 -4.102070629596710205e-01 2.758216559886932373e-01
1.196360439062118530e-01 -3.664594590663909912e-01 3.665632605552673340e-01
-1.387096792459487915e-01 -2.779629826545715332e-01 -2.784554660320281982e-01
-5.704646930098533630e-02 -4.135240912437438965e-01 3.371063768863677979e-01
8.876298367977142334e-02 -4.875116050243377686e-01 -9.739281237125396729e-02
-2.490691542625427246e-01 -1.772556751966476440e-01 -1.026911735534667969e-01
2.689711749553680420e-01 -3.947978019714355469e-01 1.453879773616790771e-01
-7.233543694019317627e-02 -1.619533896446228027e-01 3.189572095870971680e-01
1.909550577402114868e-01 -1.010262370109558105e-01 -3.536976501345634460e-02
-2.091680094599723816e-02 -3.301365673542022705e-02 -8.726687729358673096e-02
-2.603374123573303223e-01 -2.147771120071411133e-01 1.240698099136352539e-01
1.309465803205966949e-02 -4.468109011650085449e-01 3.245044052600860596e-01
-5.997595563530921936e-02 -3.248615562915802002e-01 -3.005553185939788818e-01
-2.354598492383956909e-01 -3.280691802501678467e-01 -1.103838235139846802e-01
1.966924369335174561e-01 -3.495475947856903076e-01 -2.152049988508224487e-01
4.611663520336151123e-02 -6.897908449172973633e-02 -1.919356137514114380e-01
2.300302982330322266e-01 -1.416404694318771362e-01 7.915188372135162354e-02
1.731156557798385620e-02 -1.986735016107559204e-01 -3.271847069263458252e-01
2.946854531764984131e-01 -2.713598608970642090e-01 -2.083393931388854980e-02
2.179771363735198975e-01 -4.471129775047302246e-01 1.855214387178421021e-01
-7.015982270240783691e-02 -6.320133805274963379e-02 1.624010950326919556e-01
-3.922830522060394287e-02 -3.812898695468902588e-02 8.376584947109222412e-02
-1.828791350126266479e-01 -3.365213871002197266e-01 -1.993762850761413574e-01
2.024359703063964844e-01 -4.769081473350524902e-01 7.947660982608795166e-02
2.395040988922119141e-01 -4.313924908638000488e-01 -3.189424052834510803e-02
-1.929650455713272095e-01 -1.114790588617324829e-01 -1.445173919200897217e-01
-9.671211242675781250e-02 -3.772495687007904053e-02 -3.252777829766273499e-02
1.686215400695800781e-01 -9.647980332374572754e-02 1.061478555202484131e-01
-9.938292205333709717e-02 -4.562312960624694824e-01 -1.113437414169311523e-01
-9.287941455841064453e-02 -2.877608537673950195e-01 -3.036328554153442383e-01
-2.612004876136779785e-01 -3.085034787654876709e-01 1.103781014680862427e-01
1.140818893909454346e-01 -1.428672969341278076e-01 2.754431962966918945e-01
2.151096165180206299e-01 -1.975320279598236084e-01 2.357261329889297485e-01
-1.871669143438339233e-01 -2.914955317974090576e-01 2.889524400234222412e-01
1.016601771116256714e-01 -3.989236354827880859e-01 -2.411899715662002563e-01
2.923192679882049561e-01 -3.327558636665344238e-01 -2.359642088413238525e-02
-4.975070804357528687e-02 -3.325651586055755615e-02 4.629196971654891968e-02
-7.003474235534667969e-02 -4.978904128074645996e-01 9.292293339967727661e-03
-2.717178463935852051e-01 -2.164715975522994995e-01 -3.190250322222709656e-02
2.773674130439758301e-01 -2.245691716670989990e-01 1.165661364793777466e-01
-8.416147530078887939e-02 -1.601390391588211060e-01 -2.964026033878326416e-01
6.148792430758476257e-02 -2.981824576854705811e-01 3.942063450813293457e-01
-1.569059789180755615e-01 2.642194628715515137e-01 -3.467867970466613770e-01
1.919434964656829834e-01 1.986481100320816040e-01 -1.086296960711479187e-01
-7.358278334140777588e-02 2.041814327239990234e-01 -8.139795064926147461e-01
2.655680663883686066e-02 2.778632640838623047e-01 -4.351599514484405518e-02
-6.976658478379249573e-03 2.769079208374023438e-01 2.148955613374710083e-01
3.093388117849826813e-02 2.456300556659698486e-01 -8.795318603515625000e-01
-6.801050901412963867e-02 1.895697265863418579e-01 -6.117892265319824219e-01
-1.450301110744476318e-01 2.700726985931396484e-01 -9.554253518581390381e-02
-1.715889722108840942e-01 2.435794174671173096e-01 6.357613801956176758e-01
1.642126888036727905e-01 2.570840120315551758e-01 3.150408267974853516e-01
4.564438015222549438e-02 2.766209244728088379e-01 -1.416828781366348267e-01
-1.950373351573944092e-01 1.934923529624938965e-01 -9.856745600700378418e-03
1.166592352092266083e-03 2.778193354606628418e-01 1.285697221755981445e-01
1.530538499355316162e-01 2.638031244277954102e-01 -1.833369582891464233e-01
-1.558734327554702759e-01 1.871354877948760986e-01 -1.929802447557449341e-01
1.160210147500038147e-01 1.982718110084533691e-01 5.927596688270568848e-01
1.912719160318374634e-01 2.523750364780426025e-01 1.993127018213272095e-01
-7.295984029769897461e-02 2.746478021144866943e-01 -2.919322550296783447e-01
-1.061317548155784607e-01 2.731026113033294678e-01 2.054754942655563354e-01
1.500498652458190918e-01 1.914013326168060303e-01 -3.034436106681823730e-01
8.855383843183517456e-02 1.950976252555847168e-01 -6.483160257339477539e-01
-1.793872751295566559e-02 1.776620596647262573e-01 -2.784247100353240967e-01
-1.519777625799179077e-01 2.692617475986480713e-01 -5.386333540081977844e-02
-5.057319998741149902e-02 1.787533164024353027e-01 -2.965583205223083496e-01
1.716867983341217041e-01 2.450819909572601318e-01 4.948196709156036377e-01
1.902953088283538818e-01 1.977519840002059937e-01 1.049144193530082703e-04
6.812305003404617310e-02 1.797360181808471680e-01 -2.395940274000167847e-01
-6.010448187589645386e-02 2.588608562946319580e-01 -7.311068177223205566e-01
1.207683235406875610e-03 2.765103578567504883e-01 -2.781406044960021973e-01
-2.748133614659309387e-02 2.566064894199371338e-01 7.509252429008483887e-01
-1.872447580099105835e-01 2.482566237449645996e-01 5.195097327232360840e-01
-1.130565535277128220e-02 1.785529702901840210e-01 3.151610493659973145e-01
3.766730427742004395e-02 2.764318585395812988e-01 1.590200811624526978e-01
-1.476151347160339355e-01 1.845785081386566162e-01 -4.453610256314277649e-02
1.050128974020481110e-02 1.771597862243652344e-01 2.209697663784027100e-01
1.026834994554519653e-01 1.812759637832641602e-01 2.327323332428932190e-02
-1.608421951532363892e-01 1.948695182800292969e-01 4.486668109893798828e-01
1.127336397767066956e-01 2.537522912025451660e-01 -6.671598553657531738e-01
-7.828599214553833008e-02 2.764005661010742188e-01 -1.141848266124725342e-01
-3.236215561628341675e-02 2.697609066963195801e-01 -5.382973551750183105e-01
-7.510549575090408325e-02 1.796140074729919434e-01 -2.744829058647155762e-01
-5.038054659962654114e-04 2.624262273311614990e-01 6.625581979751586914e-01
1.229692474007606506e-01 1.952665746212005615e-01 5.168990492820739746e-01
6.955167651176452637e-02 2.742838859558105469e-01 1.725252121686935425e-01
-1.501886919140815735e-02 1.788322478532791138e-01 -3.422491550445556641e-01
1.885817646980285645e-01 2.010777443647384644e-01 2.442537844181060791e-01
4.209633916616439819e-02 2.748177647590637207e-01 2.568788528442382812e-01
-5.768809467554092407e-02 2.774600386619567871e-01 7.251607626676559448e-02
1.114101633429527283e-01 1.833012551069259644e-01 1.609627157449722290e-01
-1.344232857227325439e-01 2.716936767101287842e-01 -1.762197352945804596e-03
9.772893041372299194e-02 1.969449818134307861e-01 6.244890689849853516e-01
1.863279640674591064e-01 2.555039227008819580e-01 1.291008740663528442e-01
-2.496632635593414307e-01 2.271929085254669189e-01 -1.905677169561386108e-01
-7.667267229408025742e-03 2.750133275985717773e-01 3.221135139465332031e-01
8.194377273321151733e-02 2.598837912082672119e-01 -6.492003202438354492e-01
1.585214138031005859e-01 2.634999752044677734e-01 -9.181215614080429077e-02
-1.928376704454421997e-01 2.585774660110473633e-01 2.525804638862609863e-01
1.131399273872375488e-01 1.844784766435623169e-01 -2.566685974597930908e-01
-7.156157866120338440e-03 2.775049805641174316e-01 1.679107397794723511e-01
6.290560215711593628e-02 2.700084745883941650e-01 -4.520259499549865723e-01
-7.517773658037185669e-02 1.957063823938369751e-01 6.981242895126342773e-01
3.996799141168594360e-02 2.328035831451416016e-01 -9.302981495857238770e-01
-5.326300859451293945e-02 1.787086278200149536e-01 2.786336243152618408e-01
2.137422114610671997e-01 2.462751120328903198e-01 -4.783079400658607483e-02
-2.933368086814880371e-02 1.770394146442413330e-01 -2.260165214538574219e-01
4.713767766952514648e-02 1.796346604824066162e-01 2.902770042419433594e-01
4.762411117553710938e-02 2.685526311397552490e-01 4.826904535293579102e-01
2.016248703002929688e-01 2.050311267375946045e-01 -2.534249126911163330e-01
-1.736783087253570557e-01 2.282794862985610962e-01 6.960276365280151367e-01
-5.588621646165847778e-02 2.659664750099182129e-01 5.766580700874328613e-01
9.469105303287506104e-02 1.862491071224212646e-01 3.972984552383422852e-01
1.497050374746322632e-01 1.943721026182174683e-01 -4.057088792324066162e-01
4.294941574335098267e-02 1.813030540943145752e-01 3.751863241195678711e-01
-8.970536291599273682e-02 2.395318746566772461e-01 -8.715867400169372559e-01
-3.951837494969367981e-02 1.759980022907257080e-01 -8.173786848783493042e-02
9.958252310752868652e-02 2.660697996616363525e-01 -4.593910276889801025e-01
3.010939620435237885e-02 2.678112685680389404e-01 -5.718835592269897461e-01
-1.207081526517868042e-01 2.731715142726898193e-01 -6.367620080709457397e-02
1.138294264674186707e-01 2.709605991840362549e-01 1.566040143370628357e-02
2.496661804616451263e-02 1.797849833965301514e-01 3.447039127349853516e-01
-2.636935934424400330e-02 1.863418221473693848e-01 -5.821328759193420410e-01
-9.615892916917800903e-02 2.093107253313064575e-01 8.127827048301696777e-01
-2.306260317564010620e-01 2.090349048376083374e-01 2.354803979396820068e-01
-3.480063006281852722e-02 2.334021925926208496e-01 9.154565930366516113e-01
-1.498142480850219727e-01 1.889658570289611816e-01 3.326833248138427734e-01
1.156483963131904602e-01 1.925042867660522461e-01 -5.197749733924865723e-01
8.740641176700592041e-03 1.991108655929565430e-01 -7.985705733299255371e-01
1.244606301188468933e-01 1.960405260324478149e-01 -5.610949993133544922e-01
-1.396681666374206543e-01 1.896327286958694458e-01 4.095194041728973389e-01
-1.632510721683502197e-01 2.429392933845520020e-01 -6.834231615066528320e-01
-7.615255564451217651e-02 1.782910674810409546e-01 1.670862585306167603e-01
2.209565639495849609e-01 2.372394800186157227e-01 -2.338293641805648804e-01
1.693066507577896118e-01 2.080843597650527954e-01 -5.534502267837524414e-01
5.364342033863067627e-02 2.620984315872192383e-01 6.172931790351867676e-01
1.545087248086929321e-01 2.010948807001113892e-01 -5.259299874305725098e-01
-7.593314349651336670e-02 1.820618510246276855e-01 -3.873111605644226074e-01
-1.081390082836151123e-01 1.813766360282897949e-01 -2.189320325851440430e-01
1.489187330007553101e-01 2.090978920459747314e-01 -6.516343951225280762e-01
-1.500692963600158691e-01 2.600349187850952148e-01 4.791743159294128418e-01
6.744822859764099121e-02 1.816136687994003296e-01 -3.453862369060516357e-01
5.051199346780776978e-02 1.791039705276489258e-01 -2.715995609760284424e-01
-3.367429971694946289e-02 2.779333889484405518e-01 1.051061451435089111e-01
-6.579232215881347656e-02 2.631357312202453613e-01 -6.538998484611511230e-01
-2.016028761863708496e-01 2.435592710971832275e-01 -5.107506513595581055e-01
-1.773775517940521240e-01 2.488600164651870728e-01 5.569983124732971191e-01
-1.763487979769706726e-02 2.743240594863891602e-01 3.535109162330627441e-01
-2.388332635164260864e-01 2.094306945800781250e-01 6.950710713863372803e-02
1.889366284012794495e-02 1.967360377311706543e-01 7.416534423828125000e-01
-2.194630801677703857e-01 2.381183952093124390e-01 -4.490600228309631348e-01
-9.486249089241027832e-02 2.664496898651123047e-01 5.019588470458984375e-01
-1.141164675354957581e-01 1.828832626342773438e-01 -2.739425301551818848e-01
-1.248832195997238159e-01 2.523379027843475342e-01 -7.041312456130981445e-01
1.416790932416915894e-01 2.444266229867935181e-01 6.314655542373657227e-01
-5.985521525144577026e-02 2.689017057418823242e-01 5.007597208023071289e-01
-9.346690028905868530e-02 1.791329085826873779e-01 1.287067532539367676e-01
9.142462909221649170e-02 2.735640406608581543e-01 -4.657332599163055420e-02
1.509219706058502197e-01 1.933912038803100586e-01 -3.686935007572174072e-01
-1.490924954414367676e-01 2.575331926345825195e-01 -5.533077120780944824e-01
5.164065957069396973e-02 1.848067343235015869e-01 4.743947386741638184e-01
-1.872548460960388184e-01 1.926634162664413452e-01 1.541308313608169556e-01
1.797758191823959351e-01 1.958412379026412964e-01 -1.749687641859054565e-01
1.290945410728454590e-01 2.605560123920440674e-01 4.321869909763336182e-01
1.724713444709777832e-01 2.512739300727844238e-01 3.957775533199310303e-01
1.950587630271911621e-01 2.128605842590332031e-01 -4.551868140697479248e-01
1.420341283082962036e-01 1.881165802478790283e-01 1.768795698881149292e-01
-7.958378642797470093e-03 1.842976808547973633e-01 -5.352766513824462891e-01
4.854385554790496826e-02 2.757426202297210693e-01 -2.173618227243423462e-01
-9.587778896093368530e-02 1.879747360944747925e-01 5.135854482650756836e-01
-5.688358098268508911e-02 2.777034640312194824e-01 -4.974470287561416626e-02
-1.153118833899497986e-01 2.729765176773071289e-01 1.456144601106643677e-01
-7.909057289361953735e-02 1.882399022579193115e-01 5.550893545150756836e-01
-1.835195533931255341e-02 2.718455791473388672e-01 4.444714486598968506e-01
-1.855026334524154663e-01 2.546714246273040771e-01 -4.339668154716491699e-01
-7.969722896814346313e-02 2.178333550691604614e-01 -8.946536183357238770e-01
-2.096140831708908081e-01 2.199127227067947388e-01 5.272515416145324707e-01
-2.308131307363510132e-01 2.491908371448516846e-01 8.046165853738784790e-02
-8.350023627281188965e-02 1.992146670818328857e-01 7.341565489768981934e-01
6.053719669580459595e-02 1.790253520011901855e-01 2.031600475311279297e-01
-2.307748496532440186e-01 2.075887471437454224e-01 1.898960471153259277e-01
5.208076909184455872e-04 2.592471837997436523e-01 -7.506512403488159180e-01
-1.250045299530029297e-01 1.972530484199523926e-01 -6.298850178718566895e-01
1.470289379358291626e-01 2.633820772171020508e-01 -2.800946235656738281e-01
-1.055070459842681885e-01 2.688013315200805664e-01 4.048960506916046143e-01
-9.614931792020797729e-02 1.877459287643432617e-01 -5.138181447982788086e-01
9.428795427083969116e-02 1.832553148269653320e-01 -3.091025948524475098e-01
-2.369769960641860962e-01 2.460162639617919922e-01 -9.750321507453918457e-02
-1.358618140220642090e-01 1.913870871067047119e-01 -4.767343401908874512e-01
1.925640702247619629e-01 2.520229816436767578e-01 -2.533057928085327148e-01
-1.585386097431182861e-01 1.972706615924835205e-01 5.107161402702331543e-01
-4.025369510054588318e-02 2.090861499309539795e-01 8.646628260612487793e-01
-1.943940967321395874e-01 2.073074281215667725e-01 5.007092952728271484e-01
-7.416988909244537354e-02 1.777706891298294067e-01 -1.295058429241180420e-01
-1.319810301065444946e-01 2.575575709342956543e-01 5.898110270500183105e-01
-1.324427723884582520e-01 2.690593004226684570e-01 -2.999277412891387939e-01
-1.591930240392684937e-01 1.920672953128814697e-01 -3.824964463710784912e-01
3.345759212970733643e-02 2.746036052703857422e-01 2.909623682498931885e-01
2.719750627875328064e-03 2.681269943714141846e-01 5.440065264701843262e-01
-1.163495928049087524e-01 2.571958899497985840e-01 -6.594481468200683594e-01
1.599176675081253052e-01 2.364194393157958984e-01 -6.696764230728149414e-01
1.091473773121833801e-01 2.587440311908721924e-01 -5.980454683303833008e-01
-1.692102998495101929e-01 2.629955112934112549e-01 2.871598005294799805e-01
-4.606761038303375244e-02 2.619384527206420898e-01 -6.956449747085571289e-01
-2.120353281497955322e-01 2.410607635974884033e-01 4.658133387565612793e-01
1.410135775804519653e-01 1.942632347345352173e-01 4.148950278759002686e-01
-1.030009463429450989e-01 1.940859258174896240e-01 6.246832013130187988e-01
9.628222882747650146e-02 1.811887323856353760e-01 1.260536164045333862e-01
-2.049473077058792114e-01 2.511204481124877930e-01 -3.749240040779113770e-01
-1.211712807416915894e-01 1.889460980892181396e-01 4.646360576152801514e-01
1.190314665436744690e-01 1.911484003067016602e-01 4.405175447463989258e-01
1.185843423008918762e-01 1.881397217512130737e-01 -3.853927254676818848e-01
3.258578479290008545e-02 2.733741998672485352e-01 3.490674793720245361e-01
3.880447894334793091e-02 2.671226263046264648e-01 5.339627265930175781e-01
-1.666239351034164429e-01 2.557412981986999512e-01 -5.128697156906127930e-01
-3.263892233371734619e-02 2.612450122833251953e-01 6.816897988319396973e-01
5.395846068859100342e-02 2.749118208885192871e-01 2.080629765987396240e-01
-8.993887156248092651e-02 1.785710155963897705e-01 -9.076704829931259155e-02
1.014129593968391418e-01 2.626358866691589355e-01 -5.426309704780578613e-01
-1.581014692783355713e-01 2.658406496047973633e-01 2.496819198131561279e-01
-8.811847865581512451e-02 2.657027244567871094e-01 5.346829891204833984e-01
-3.052741102874279022e-02 1.756832003593444824e-01 -5.091955140233039856e-02
7.004389166831970215e-02 2.729287743568420410e-01 -3.072018325328826904e-01
-1.762604862451553345e-01 1.932352632284164429e-01 3.051675260066986084e-01
1.283561140298843384e-01 2.673949301242828369e-01 1.830746829509735107e-01
-1.959219574928283691e-01 1.988051533699035645e-01 -3.234494030475616455e-01
4.273477941751480103e-02 1.859948486089706421e-01 5.217415690422058105e-01
1.905582249164581299e-01 1.979114413261413574e-01 -6.592147052288055420e-02
9.257978945970535278e-02 2.581780552864074707e-01 6.054748296737670898e-01
-5.895151197910308838e-02 1.900575160980224609e-01 6.222086548805236816e-01
-1.305066943168640137e-01 2.214386612176895142e-01 -8.188077807426452637e-01
-1.101950183510780334e-01 2.052337676286697388e-01 7.554774284362792969e-01
-1.572375744581222534e-01 2.658751606941223145e-01 -2.755172848701477051e-01
-8.233065158128738403e-02 2.714055180549621582e-01 3.805902898311614990e-01
1.815482527017593384e-01 2.573631405830383301e-01 -1.566472947597503662e-01
-2.020831406116485596e-02 2.746943831443786621e-01 -3.760561347007751465e-01
1.959827244281768799e-01 2.381239384412765503e-01 4.192605614662170410e-01
2.533635683357715607e-02 2.021101415157318115e-01 7.993993163108825684e-01
1.212553754448890686e-01 2.300593107938766479e-01 -8.083192706108093262e-01
-1.095707044005393982e-01 2.578455209732055664e-01 6.415274143218994141e-01
-8.699101209640502930e-02 1.812696456909179688e-01 -3.183501958847045898e-01
1.772865653038024902e-02 1.763186007738113403e-01 1.307273358106613159e-01
-8.643971383571624756e-02 1.982673108577728271e-01 -7.284199595451354980e-01
-2.000382840633392334e-01 2.133445441722869873e-01 -5.369595885276794434e-01
-2.504844591021537781e-02 2.730712294578552246e-01 -4.389093518257141113e-01
-2.292686402797698975e-01 2.467555552721023560e-01 2.212333381175994873e-01
-2.279703915119171143e-01 2.508111000061035156e-01 -3.747839108109474182e-02
-1.071479842066764832e-01 1.804962605237960815e-01 -1.533835530281066895e-01
6.637010723352432251e-02 2.592082321643829346e-01 -6.906635165214538574e-01
1.945476084947586060e-01 2.242678850889205933e-01 -5.258157849311828613e-01
1.594687849283218384e-01 1.899416297674179077e-01 -1.523515488952398300e-02
-2.495547831058502197e-01 2.195411771535873413e-01 1.306740641593933105e-01
-3.128613531589508057e-02 2.759335339069366455e-01 2.693217396736145020e-01
1.325626373291015625e-01 2.678747177124023438e-01 -1.428443938493728638e-01
7.475273311138153076e-02 1.831268370151519775e-01 3.588820695877075195e-01
-1.705035716295242310e-01 1.882683783769607544e-01 1.478454750031232834e-02
1.406424939632415771e-01 2.520474791526794434e-01 5.456661581993103027e-01
1.823225058615207672e-02 2.767573595046997070e-01 -2.372808009386062622e-01
4.726736992597579956e-02 1.878762245178222656e-01 5.597682595252990723e-01
3.995395265519618988e-03 2.061420530080795288e-01 -8.698130846023559570e-01
-2.846156246960163116e-02 2.657301425933837891e-01 -6.356528401374816895e-01
-1.902187019586563110e-01 2.544376850128173828e-01 3.955046832561492920e-01
-1.854990124702453613e-01 1.934632360935211182e-01 -2.241391837596893311e-01
1.071170270442962646e-01 2.715233862400054932e-01 7.285986095666885376e-02
-1.935068070888519287e-01 2.002677470445632935e-01 -3.808602690696716309e-01
1.808228194713592529e-01 2.273374795913696289e-01 -6.025782227516174316e-01
1.349577605724334717e-01 2.611237764358520508e-01 -4.419072568416595459e-01
1.215318068861961365e-01 1.855789572000503540e-01 2.228206694126129150e-01
-6.623289734125137329e-02 2.706272602081298828e-01 -4.734046459197998047e-01
1.203125193715095520e-01 2.233635932207107544e-01 7.676355242729187012e-01
8.235191553831100464e-02 2.716600000858306885e-01 2.670481204986572266e-01
6.646198779344558716e-02 1.787480115890502930e-01 1.441987305879592896e-01
-1.487378180027008057e-01 1.866947412490844727e-01 -2.364697754383087158e-01
6.076776981353759766e-02 2.551451325416564941e-01 7.137454152107238770e-01
-1.146799046546220779e-02 1.759339570999145508e-01 -1.380570679903030396e-01
2.264553010463714600e-01 2.230572551488876343e-01 1.651731580495834351e-01
8.564385771751403809e-02 1.798804104328155518e-01 9.274070709943771362e-02
1.833683103322982788e-01 1.994375139474868774e-01 -2.909620702266693115e-01
1.085843741893768311e-01 1.820983886718750000e-01 6.145016849040985107e-02
-1.333033014088869095e-02 1.958851814270019531e-01 7.403715848922729492e-01
-1.067630127072334290e-01 1.797253638505935669e-01 -4.798841662704944611e-03
3.545350581407546997e-02 2.744696736335754395e-01 -3.387154638767242432e-01
1.504461467266082764e-02 1.822524964809417725e-01 -4.668909013271331787e-01
2.536515705287456512e-02 2.771916985511779785e-01 -1.788185983896255493e-01
4.123458266258239746e-02 2.771814465522766113e-01 -7.585869729518890381e-02
-7.393506914377212524e-02 2.538922131061553955e-01 -7.796741127967834473e-01
1.158692464232444763e-01 2.698215842247009277e-01 1.375656872987747192e-01
-7.416164875030517578e-02 1.784608811140060425e-01 -1.994096189737319946e-01
1.560392826795578003e-01 1.929164975881576538e-01 2.758541107177734375e-01
-1.726383119821548462e-01 1.907207220792770386e-01 2.276920229196548462e-01
8.859423547983169556e-02 1.917500942945480347e-01 5.563929080963134766e-01
-1.978485882282257080e-01 2.390025109052658081e-01 -5.694602727890014648e-01
2.061224579811096191e-01 2.109205722808837891e-01 2.874101698398590088e-01
-1.875593364238739014e-01 2.034165412187576294e-01 -4.805520474910736084e-01
-1.897019594907760620e-01 2.576429247856140137e-01 -3.286261260509490967e-01
1.536442637443542480e-01 2.138817161321640015e-01 6.292100548744201660e-01
1.865283697843551636e-01 2.303441464900970459e-01 -5.698431134223937988e-01
-1.756138503551483154e-01 2.468137145042419434e-01 5.887532830238342285e-01
-5.830094218254089355e-02 1.766592264175415039e-01 7.333914190530776978e-02
-1.384017318487167358e-01 2.694738507270812988e-01 2.105659395456314087e-01
-2.235763967037200928e-01 2.389829307794570923e-01 -4.113000035285949707e-01
-1.005267724394798279e-01 2.669638395309448242e-01 -5.019590258598327637e-01
-1.624369919300079346e-01 2.051622569561004639e-01 -6.189421415328979492e-01
-1.615201681852340698e-01 2.605965137481689453e-01 4.125117063522338867e-01
2.222093045711517334e-01 2.266528606414794922e-01 -2.938767373561859131e-01
-1.552037596702575684e-01 2.326859682798385620e-01 -7.576954960823059082e-01
2.478243783116340637e-03 2.019806504249572754e-01 -8.317745923995971680e-01
5.600101500749588013e-02 2.696045637130737305e-01 4.346480369567871094e-01
9.308784455060958862e-02 2.683107256889343262e-01 -4.117563962936401367e-01
-6.787890940904617310e-02 1.786686480045318604e-01 -2.418511807918548584e-01
-2.180321663618087769e-01 2.450893968343734741e-01 3.729220330715179443e-01
-1.745076477527618408e-01 2.646436691284179688e-01 1.413001716136932373e-01
2.652982808649539948e-02 2.091328203678131104e-01 8.567630052566528320e-01
5.224843323230743408e-02 2.689413428306579590e-01 -5.088286995887756348e-01
-2.494489401578903198e-01 2.192215025424957275e-01 -1.239515244960784912e-01
8.363046497106552124e-02 1.903899610042572021e-01 -5.694826245307922363e-01
1.542674303054809570e-01 1.889550834894180298e-01 1.958969235420227051e-02
-5.859453976154327393e-02 1.847164630889892578e-01 -5.091950297355651855e-01
8.163677155971527100e-02 1.995881944894790649e-01 -7.285039424896240234e-01
-1.977761089801788330e-01 2.013878971338272095e-01 3.773299455642700195e-01
-3.084244392812252045e-02 2.517706155776977539e-01 -8.373079895973205566e-01
5.371510982513427734e-02 1.772217899560928345e-01 -4.452359303832054138e-02
2.097119987010955811e-01 2.332259118556976318e-01 -4.033072888851165771e-01
-7.971454411745071411e-02 2.761026322841644287e-01 1.122600659728050232e-01
1.778266280889511108e-01 2.559890747070312500e-01 -2.836852967739105225e-01
1.101715266704559326e-01 2.705035805702209473e-01 -1.964196562767028809e-01
2.330154739320278168e-02 2.777804136276245117e-01 6.077364832162857056e-02
-2.075969055294990540e-02 2.774997055530548096e-01 -2.081637233495712280e-01
6.130853295326232910e-02 2.760822176933288574e-01 -2.366597764194011688e-03
2.738108299672603607e-02 2.493170499801635742e-01 8.147887587547302246e-01
-2.055677771568298340e-01 2.074946910142898560e-01 4.366030693054199219e-01
-1.687917858362197876e-01 1.913169026374816895e-01 -2.898689508438110352e-01
1.801703721284866333e-01 2.016579359769821167e-01 -3.814325034618377686e-01
-2.494834363460540771e-02 2.091084718704223633e-01 -8.905019760131835938e-01
-4.090741649270057678e-02 2.763797938823699951e-01 -2.675542533397674561e-01
-7.671026512980461121e-03 2.780902981758117676e-01 -1.467970162630081177e-01
-1.894293874502182007e-01 2.616828978061676025e-01 -1.413789540529251099e-01
2.315269857645034790e-01 2.284241467714309692e-01 -8.886007219552993774e-02
8.402647823095321655e-02 1.803545355796813965e-01 -1.875694692134857178e-01
-9.833576530218124390e-02 2.619053125381469727e-01 5.945951938629150391e-01
1.563377529382705688e-01 1.916247755289077759e-01 -2.552056312561035156e-01
1.618939787149429321e-01 2.589312493801116943e-01 2.741721272468566895e-01
6.627889722585678101e-02 1.947695314884185791e-01 6.583157777786254883e-01
1.299482733011245728e-01 2.527684569358825684e-01 -6.268154382705688477e-01
-1.468620449304580688e-01 2.695061564445495605e-01 1.144392564892768860e-01
-8.793354779481887817e-02 2.714053988456726074e-01 -3.955686390399932861e-01
-2.267077565193176270e-01 2.468439638614654541e-01 -2.600913047790527344e-01
3.358700871467590332e-02 2.725182771682739258e-01 -4.260004460811614990e-01
6.038497388362884521e-02 2.741960585117340088e-01 -2.753447890281677246e-01
2.123650349676609039e-02 2.705679833889007568e-01 4.639345407485961914e-01
-2.162477970123291016e-01 1.995304524898529053e-01 1.431017834693193436e-02
2.801189757883548737e-02 2.777824103832244873e-01 1.473165769129991531e-02
1.479485034942626953e-01 2.647070288658142090e-01 1.340812742710113525e-01
1.279989182949066162e-01 1.844590306282043457e-01 -1.473134569823741913e-02
-1.780882328748703003e-01 2.152106165885925293e-01 -6.506649851799011230e-01
3.325385041534900665e-03 1.770787686109542847e-01 -2.387385070323944092e-01
5.321797728538513184e-02 1.913725584745407104e-01 6.219154596328735352e-01
-8.549787849187850952e-02 2.686201632022857666e-01 4.642400741577148438e-01
8.984804153442382812e-02 2.672415375709533691e-01 4.090678691864013672e-01
1.536881327629089355e-01 2.497276663780212402e-01 -5.761057138442993164e-01
9.415309876203536987e-02 2.621051371097564697e-01 5.269857048988342285e-01
6.586495041847229004e-02 1.997156888246536255e-01 7.272220849990844727e-01
6.290879845619201660e-02 1.861183494329452515e-01 -5.124482512474060059e-01
9.155335277318954468e-02 1.804952919483184814e-01 -1.273727118968963623e-01
-1.576692014932632446e-01 2.152331918478012085e-01 -7.219803333282470703e-01
1.133995279669761658e-01 2.571916878223419189e-01 5.620927810668945312e-01
1.200374439358711243e-01 2.701240777969360352e-01 -7.312166690826416016e-02
-8.512849360704421997e-02 1.780822575092315674e-01 5.342609435319900513e-02
-1.030720323324203491e-01 2.731129527091979980e-01 -2.517162561416625977e-01
1.592647470533847809e-02 2.652342021465301514e-01 6.007060408592224121e-01
1.254253238439559937e-01 2.576696574687957764e-01 5.105515122413635254e-01
1.440026462078094482e-01 2.660101652145385742e-01 7.930921763181686401e-02
7.511527091264724731e-02 2.742904424667358398e-01 1.315671205520629883e-01
3.849823772907257080e-02 2.537229359149932861e-01 7.596049904823303223e-01
1.008687913417816162e-01 2.702803313732147217e-01 2.349279224872589111e-01
1.325436979532241821e-01 2.603280842304229736e-01 -4.746907949447631836e-01
-9.437109529972076416e-02 2.694075107574462891e-01 -4.471237957477569580e-01
-5.012807250022888184e-02 2.535827457904815674e-01 7.773664593696594238e-01
-5.291349440813064575e-02 2.778801023960113525e-01 -1.774002611637115479e-02
1.050774753093719482e-01 2.222339510917663574e-01 8.017712235450744629e-01
5.668210238218307495e-02 2.281374484300613403e-01 8.847020864486694336e-01
5.759713798761367798e-02 1.997722685337066650e-01 -7.683862447738647461e-01
-1.885791271924972534e-01 1.925565302371978760e-01 1.191046014428138733e-01
-8.499091863632202148e-02 1.820776462554931641e-01 3.551108539104461670e-01
-2.416575998067855835e-01 2.438640445470809937e-01 4.597897455096244812e-02
1.452630572021007538e-02 1.811373680830001831e-01 4.108890891075134277e-01
1.954417973756790161e-01 2.240031361579895020e-01 4.688661992549896240e-01
1.662310659885406494e-01 1.930025219917297363e-01 -2.115422040224075317e-01
2.766527049243450165e-02 1.893163025379180908e-01 -6.362457871437072754e-01
-1.224968805909156799e-01 1.815951764583587646e-01 -9.308522194623947144e-02
-1.417001783847808838e-01 2.630925476551055908e-01 4.393861889839172363e-01
-1.454831380397081375e-02 1.827218085527420044e-01 -4.891942143440246582e-01
1.824949085712432861e-01 2.541216611862182617e-01 2.421832680702209473e-01
8.203227072954177856e-03 1.935930848121643066e-01 7.025306820869445801e-01
7.704441249370574951e-02 1.883906424045562744e-01 5.117726325988769531e-01
7.959077507257461548e-02 1.864033788442611694e-01 4.525920748710632324e-01
1.292805969715118408e-01 1.850006878376007080e-01 -1.155680492520332336e-01
-1.394508630037307739e-01 1.958887577056884766e-01 5.573162436485290527e-01
-1.746065467596054077e-01 1.896789968013763428e-01 -1.262003928422927856e-01
-1.853253394365310669e-01 1.913386285305023193e-01 5.035009235143661499e-02
-3.348612785339355469e-02 2.783665060997009277e-01 9.794532321393489838e-03
8.195575326681137085e-02 2.336360961198806763e-01 -8.797051906585693359e-01
-1.931667923927307129e-01 2.615123391151428223e-01 -5.019924044609069824e-02
-1.519851684570312500e-01 1.989488899707794189e-01 -5.695592164993286133e-01
2.016519308090209961e-01 2.031912505626678467e-01 1.357987970113754272e-01
2.282518595457077026e-01 2.173698693513870239e-01 -3.860102966427803040e-02
-1.364225298166275024e-01 1.877767741680145264e-01 3.643335998058319092e-01
1.038539595901966095e-02 2.206007391214370728e-01 9.151847958564758301e-01
1.409144848585128784e-01 1.865762770175933838e-01 -6.727411597967147827e-02
-1.113929301500320435e-01 2.529764771461486816e-01 7.051296234130859375e-01
5.254862457513809204e-02 2.643513977527618408e-01 -6.197052597999572754e-01
-1.544165760278701782e-01 1.869873404502868652e-01 1.994882822036743164e-01
-1.344233751296997070e-01 1.827410757541656494e-01 2.178110182285308838e-02
-4.884310811758041382e-02 1.792708337306976318e-01 3.170437812805175781e-01
2.599638514220714569e-02 2.626125216484069824e-01 6.427666544914245605e-01
-3.397171199321746826e-02 2.682296633720397949e-01 -5.766797661781311035e-01
9.979569166898727417e-02 1.809568256139755249e-01 -4.945943877100944519e-02
1.764072030782699585e-01 2.483801990747451782e-01 -4.771502912044525146e-01
-7.351274043321609497e-02 1.838259100914001465e-01 -4.553699791431427002e-01
2.159612029790878296e-01 2.083930373191833496e-01 3.595718741416931152e-02
2.034568637609481812e-01 2.505537569522857666e-01 4.820315167307853699e-02
-4.493808746337890625e-02 1.806260347366333008e-01 3.825477361679077148e-01
-2.647829242050647736e-02 1.775200366973876953e-01 2.507001459598541260e-01
-2.727074548602104187e-03 2.438127100467681885e-01 8.716861009597778320e-01
-8.224009722471237183e-02 1.778190284967422485e-01 -3.358118981122970581e-02
2.142527699470520020e-01 2.347753047943115234e-01 -3.494385182857513428e-01
-8.766110241413116455e-02 2.737730145454406738e-01 2.562908232212066650e-01
7.188758999109268188e-02 2.752242684364318848e-01 3.109679371118545532e-02
4.814713448286056519e-02 2.732448279857635498e-01 3.190183341503143311e-01
-2.108877710998058319e-02 2.671124637126922607e-01 5.715457201004028320e-01
1.225952729582786560e-01 2.656158208847045898e-01 3.124068975448608398e-01
-6.169823557138442993e-02 2.766871452331542969e-01 1.507640033960342407e-01
-1.563179492950439453e-02 1.945385485887527466e-01 -7.393054366111755371e-01
6.772911548614501953e-02 2.472307085990905762e-01 7.870119810104370117e-01
-1.170569211244583130e-01 2.472285628318786621e-01 7.537732124328613281e-01
1.082556620240211487e-01 2.691398561000823975e-01 -2.998913526535034180e-01
7.066141813993453979e-03 1.908026635646820068e-01 6.566490530967712402e-01
-2.174589037895202637e-01 2.191293984651565552e-01 -4.773680865764617920e-01
6.306098774075508118e-03 1.862924695014953613e-01 -5.831739306449890137e-01
-2.369269430637359619e-01 2.358276098966598511e-01 -3.192171454429626465e-01
8.842797949910163879e-03 2.733907997608184814e-01 3.807390928268432617e-01
9.664469957351684570e-02 2.008056193590164185e-01 6.802414655685424805e-01
-5.115173012018203735e-02 1.917342394590377808e-01 6.607632040977478027e-01
-1.763981878757476807e-01 2.637938261032104492e-01 -1.940043270587921143e-01
1.075513660907745361e-01 2.077107578516006470e-01 -7.613114714622497559e-01
-8.498211205005645752e-02 2.637042999267578125e-01 -6.127322316169738770e-01
-3.227476030588150024e-02 2.753134369850158691e-01 -3.392814695835113525e-01
1.228933557868003845e-01 2.487736940383911133e-01 -6.987186074256896973e-01
1.288450658321380615e-01 2.659782171249389648e-01 2.553364038467407227e-01
-8.296696841716766357e-02 2.129217088222503662e-01 8.528947234153747559e-01
7.905897498130798340e-02 2.697335183620452881e-01 3.635511696338653564e-01
1.642121374607086182e-02 2.582810223102569580e-01 7.195830941200256348e-01
7.166851311922073364e-02 1.818533986806869507e-01 3.165092468261718750e-01
1.955718845129013062e-01 2.470530420541763306e-01 2.991290092468261719e-01
-1.818179711699485779e-02 2.784712314605712891e-01 -7.500721514225006104e-02
-3.474892675876617432e-02 1.764468103647232056e-01 -1.635425239801406860e-01
-2.265142649412155151e-01 2.502416074275970459e-01 1.346351504325866699e-01
-1.067619323730468750e-01 2.399892359972000122e-01 8.229159712791442871e-01
-5.361151695251464844e-02 1.938073635101318359e-01 -7.062872648239135742e-01
9.720302373170852661e-02 2.525202333927154541e-01 -7.226358652114868164e-01
-1.054635867476463318e-01 1.800565719604492188e-01 -1.207673326134681702e-01
