1.775251328945159912e-01 -3.563514947891235352e-01 -1.020795665681362152e-02
-4.042633622884750366e-02 -4.411066472530364990e-01 -2.145490236580371857e-02
2.036031484603881836e-01 -6.065655946731567383e-01 -2.258843556046485901e-02
-7.623337954282760620e-02 -3.171244859695434570e-01 1.685814373195171356e-02
9.511978179216384888e-02 -4.733928442001342773e-01 -2.704476937651634216e-02
1.044818907976150513e-01 -3.957235217094421387e-01 -2.463466487824916840e-02
-8.375557512044906616e-02 -3.817818760871887207e-01 1.490063406527042389e-02
-7.825326174497604370e-02 -3.563315570354461670e-01 -2.030376344919204712e-02
2.848825454711914062e-01 -5.355256199836730957e-01 -1.295461319386959076e-02
-1.579724252223968506e-02 -2.591277360916137695e-01 1.597813330590724945e-02
-7.499202340841293335e-02 -4.707634747028350830e-01 6.370352581143379211e-03
9.254190325736999512e-02 -4.057521224021911621e-01 2.523961849510669708e-02
-5.496802181005477905e-02 -2.509417235851287842e-01 -1.715515740215778351e-02
1.108452826738357544e-01 -6.797248125076293945e-01 5.378769710659980774e-03
6.724774837493896484e-03 -4.491821825504302979e-01 2.281306497752666473e-02
2.709744572639465332e-01 -4.977076351642608643e-01 -1.209492050111293793e-02
1.799355745315551758e-01 -4.519829452037811279e-01 2.344503998756408691e-02
-3.423669189214706421e-02 -3.196728527545928955e-01 2.013810910284519196e-02
1.942167133092880249e-01 -5.969684123992919922e-01 -2.323555946350097656e-02
1.495246291160583496e-01 -6.903954744338989258e-01 1.099471282213926315e-02
-4.071993380784988403e-02 -3.716617822647094727e-01 -2.352102845907211304e-02
-8.980336040258407593e-02 -3.070109784603118896e-01 -1.882766932249069214e-02
4.422765225172042847e-02 -3.512847423553466797e-01 2.330346778035163879e-02
1.600682735443115234e-03 -2.468220740556716919e-01 -1.531139109283685684e-02
2.025393545627593994e-01 -5.614240169525146484e-01 2.470413967967033386e-02
2.203687727451324463e-01 -6.085240244865417480e-01 2.306918613612651825e-02
1.980933547019958496e-02 -4.778549075126647949e-01 -2.492840960621833801e-02
1.145355403423309326e-03 -4.890886247158050537e-01 2.011364139616489410e-02
-9.075587242841720581e-02 -4.587405323982238770e-01 -3.124354407191276550e-06
-1.999105513095855713e-02 -4.595380425453186035e-01 1.962694153189659119e-02
1.525350064039230347e-01 -3.169876933097839355e-01 6.008108146488666534e-03
2.173016369342803955e-01 -4.322322010993957520e-01 -1.530983671545982361e-02
-8.748959749937057495e-02 -3.378604054450988770e-01 -1.939763501286506653e-02
9.167729318141937256e-02 -6.019088029861450195e-01 1.929514296352863312e-02
-5.215959995985031128e-02 -4.788396358489990234e-01 1.218187343329191208e-02
2.310321629047393799e-01 -4.156430363655090332e-01 -8.555243723094463348e-03
2.503443956375122070e-01 -5.342006683349609375e-01 2.102228440344333649e-02
1.456404775381088257e-01 -6.133384704589843750e-01 2.207341603934764862e-02
2.768746614456176758e-01 -5.640976428985595703e-01 1.891350746154785156e-02
1.008193120360374451e-01 -2.875396907329559326e-01 1.131742261350154877e-02
8.826424181461334229e-02 -5.199650526046752930e-01 2.511790022253990173e-02
2.594735473394393921e-02 -6.019697785377502441e-01 6.804918870329856873e-03
2.155759334564208984e-01 -5.826873779296875000e-01 -2.269575186073780060e-02
-2.825982868671417236e-03 -4.609653353691101074e-01 -2.408456057310104370e-02
2.805388271808624268e-01 -6.413141489028930664e-01 -1.637457124888896942e-02
-7.478790730237960815e-02 -3.349470198154449463e-01 1.720620505511760712e-02
1.515753716230392456e-01 -4.679153561592102051e-01 -2.521983720362186432e-02
2.488104104995727539e-01 -5.593091845512390137e-01 2.192810736596584320e-02
7.532364875078201294e-02 -5.055901408195495605e-01 -2.633988857269287109e-02
-1.045343652367591858e-01 -2.604707479476928711e-01 -1.500988006591796875e-02
-6.464529782533645630e-02 -4.248837232589721680e-01 -1.921355724334716797e-02
2.956150174140930176e-01 -7.123464345932006836e-01 1.176725141704082489e-02
2.272841930389404297e-01 -7.042171955108642578e-01 1.478748954832553864e-02
1.094365939497947693e-01 -5.430858135223388672e-01 2.499197237193584442e-02
2.479255199432373047e-04 -2.595295608043670654e-01 -1.743053644895553589e-02
2.671844959259033203e-01 -6.729999780654907227e-01 1.784057356417179108e-02
-3.034732490777969360e-02 -3.269830644130706787e-01 -2.319758199155330658e-02
3.990222513675689697e-02 -3.029418289661407471e-01 1.969275437295436859e-02
4.925903305411338806e-02 -3.029126524925231934e-01 -2.018023654818534851e-02
-4.794813692569732666e-03 -3.467813432216644287e-01 -2.453657984733581543e-02
-8.836130052804946899e-02 -4.126655757427215576e-01 -1.580223813652992249e-02
-7.471985369920730591e-02 -2.244442552328109741e-01 9.870651178061962128e-03
4.739508032798767090e-02 -2.562550604343414307e-01 -1.259837578982114792e-02
1.003247648477554321e-01 -4.913410544395446777e-01 -2.693147026002407074e-02
2.189381569623947144e-01 -4.234268367290496826e-01 -1.364594232290983200e-02
2.105237841606140137e-01 -6.913802623748779297e-01 -1.559270545840263367e-02
2.815659940242767334e-01 -6.275146603584289551e-01 -1.656568422913551331e-02
1.566203534603118896e-01 -6.510479450225830078e-01 1.882245391607284546e-02
2.485776543617248535e-01 -4.759618639945983887e-01 -1.456428412348031998e-02
2.440611422061920166e-01 -4.698278903961181641e-01 -1.476659160107374191e-02
1.349787712097167969e-01 -5.902861952781677246e-01 -2.377730235457420349e-02
-5.053194612264633179e-02 -4.634110927581787109e-01 1.452624425292015076e-02
-6.873107701539993286e-02 -2.408223003149032593e-01 1.258871238678693771e-02
1.483804732561111450e-01 -5.950092077255249023e-01 2.353256009519100189e-02
2.869394421577453613e-02 -6.132611036300659180e-01 2.027283888310194016e-03
2.218427062034606934e-01 -6.944131851196289062e-01 -1.528555341064929962e-02
1.241817548871040344e-01 -5.609260797500610352e-01 -2.518610469996929169e-02
-3.691872209310531616e-02 -3.354980945587158203e-01 2.048170380294322968e-02
-1.408579647541046143e-01 2.934020459651947021e-01 -5.843633320182561874e-03
-9.727390110492706299e-02 3.010282516479492188e-01 5.899122450500726700e-03
-1.024150475859642029e-01 3.428711593151092529e-01 -9.975762106478214264e-03
-1.966974437236785889e-01 3.735174834728240967e-01 -5.562926642596721649e-03
-3.438721597194671631e-02 3.863382339477539062e-01 -1.872534397989511490e-03
-9.819918870925903320e-02 2.958043813705444336e-01 -2.926722634583711624e-03
-4.049264639616012573e-02 3.509545028209686279e-01 -6.354753859341144562e-03
-2.054254263639450073e-01 3.050513267517089844e-01 5.658447276800870895e-03
-1.446726620197296143e-01 3.441693186759948730e-01 -1.092800777405500412e-02
-1.590602397918701172e-01 3.172417581081390381e-01 -1.042905729264020920e-02
-1.039646193385124207e-01 3.477782011032104492e-01 1.096314191818237305e-02
-2.622382342815399170e-02 3.299736082553863525e-01 7.002603262662887573e-03
-1.838399320840835571e-01 3.412305414676666260e-01 8.623290807008743286e-03
-4.727153480052947998e-02 3.869460821151733398e-01 -2.991333138197660446e-03
-5.174266546964645386e-02 3.149963319301605225e-01 6.401847582310438156e-03
-6.928998231887817383e-02 3.127895891666412354e-01 -5.288339685648679733e-03
-8.520365506410598755e-02 3.354365527629852295e-01 1.067013759166002274e-02
-1.025364026427268982e-01 3.774305880069732666e-01 8.733144961297512054e-03
-8.508367836475372314e-02 3.491705954074859619e-01 -9.226558730006217957e-03
-1.019866839051246643e-01 3.963456153869628906e-01 1.627835561521351337e-03
-2.372668981552124023e-01 3.162940442562103271e-01 -8.769477717578411102e-03
-3.054467588663101196e-02 3.244357705116271973e-01 6.316523067653179169e-03
-1.131801679730415344e-01 2.943605482578277588e-01 4.286612849682569504e-03
-1.618834137916564941e-01 3.633464276790618896e-01 8.314356207847595215e-03
-1.280956119298934937e-01 3.712546527385711670e-01 8.899766951799392700e-03
-2.295913547277450562e-02 3.387137949466705322e-01 7.964244112372398376e-03
-1.815245151519775391e-01 3.611771166324615479e-01 -9.310933761298656464e-03
-4.795105755329132080e-02 3.125684261322021484e-01 -2.074942458420991898e-03
-4.128532856702804565e-02 3.560852408409118652e-01 9.909906424582004547e-03
-2.114475518465042114e-02 3.485410511493682861e-01 8.557058870792388916e-03
-5.529946088790893555e-02 3.493557572364807129e-01 -7.515173871070146561e-03
-1.398343294858932495e-01 3.264729678630828857e-01 1.004346460103988647e-02
-1.168968081474304199e-01 3.544279336929321289e-01 -1.011846028268337250e-02
-1.473701000213623047e-01 3.328005969524383545e-01 1.012373156845569611e-02
-2.564518153667449951e-02 3.649531602859497070e-01 8.763994090259075165e-03
-9.579084813594818115e-02 3.817068338394165039e-01 8.103645406663417816e-03
-1.167380362749099731e-01 3.420161902904510498e-01 -1.043809764087200165e-02
-1.654921621084213257e-01 3.703596889972686768e-01 7.074335590004920959e-03
-4.768934100866317749e-02 3.459156751632690430e-01 1.009502727538347244e-02
-6.947177648544311523e-02 3.816277384757995605e-01 8.265998214483261108e-03
-1.385006755590438843e-01 3.467487096786499023e-01 -1.079148519784212112e-02
-2.118830382823944092e-01 2.878526449203491211e-01 -3.748221788555383682e-03
-2.310783565044403076e-01 3.318116664886474609e-01 5.180976819247007370e-03
-3.329682350158691406e-02 3.302103281021118164e-01 -4.187701269984245300e-03
-1.208770424127578735e-01 2.985198795795440674e-01 6.121549755334854126e-03
-1.210866793990135193e-01 3.770256638526916504e-01 8.271683938801288605e-03
-5.355815589427947998e-02 3.428353071212768555e-01 1.021838746964931488e-02
-9.232676774263381958e-02 2.950187027454376221e-01 2.028118353337049484e-03
-1.512225121259689331e-01 3.066488206386566162e-01 7.898440584540367126e-03
-1.119435429573059082e-01 3.862916529178619385e-01 6.576412823051214218e-03
-2.434633970260620117e-01 3.019931316375732422e-01 -6.378890946507453918e-03
-2.038904428482055664e-01 3.600173294544219971e-01 -8.402485400438308716e-03
-2.033079862594604492e-01 3.732711672782897949e-01 -4.694545175880193710e-03
-2.809553593397140503e-02 3.538254201412200928e-01 9.212206117808818817e-03
-2.585252523422241211e-01 3.357783555984497070e-01 -5.885793827474117279e-03
-8.707854896783828735e-02 3.422048091888427734e-01 -9.324463084340095520e-03
-1.703075170516967773e-01 2.891270816326141357e-01 -5.382170435041189194e-03
-1.388932317495346069e-01 3.879829049110412598e-01 -4.462826531380414963e-03
-1.031867861747741699e-01 3.881946802139282227e-01 6.329899188131093979e-03
-2.968864887952804565e-02 3.474602401256561279e-01 -5.244119558483362198e-03
-2.506686747074127197e-02 3.852871656417846680e-01 5.334116052836179733e-03
-8.974775671958923340e-02 3.848538696765899658e-01 7.527736481279134750e-03
-7.896535098552703857e-02 3.715703189373016357e-01 9.744450449943542480e-03
-1.111447811126708984e-01 3.342358767986297607e-01 -1.015143562108278275e-02
-2.032053470611572266e-01 3.228482306003570557e-01 -1.053883321583271027e-02
-1.311226040124893188e-01 3.617960810661315918e-01 -9.814416989684104919e-03
-6.854915618896484375e-02 3.377704918384552002e-01 1.045952644199132919e-02
-1.536805629730224609e-01 3.132797479629516602e-01 -9.990291669964790344e-03
-1.888854056596755981e-01 3.339639306068420410e-01 8.438542485237121582e-03
-1.520541459321975708e-01 2.974183857440948486e-01 6.108051165938377380e-03
-1.866470575332641602e-01 3.284997045993804932e-01 -1.096817292273044586e-02
-1.367222070693969727e-01 3.324637115001678467e-01 1.036110427230596542e-02
-4.396900534629821777e-03 3.702649176120758057e-01 6.086485926061868668e-03
-6.896242499351501465e-02 3.838220536708831787e-01 -5.173460580408573151e-03
-6.249897181987762451e-02 3.183471262454986572e-01 -5.689624231308698654e-03
-9.629800915718078613e-03 3.817679584026336670e-01 1.315988949500024319e-03
-8.745071291923522949e-02 3.490950763225555420e-01 1.097447425127029419e-02
-4.004584252834320068e-02 3.732707202434539795e-01 -5.083911586552858353e-03
-7.497669756412506104e-02 3.459726572036743164e-01 -8.735685609281063080e-03
-1.508421003818511963e-01 3.334957361221313477e-01 -1.104956772178411484e-02
-1.606551557779312134e-01 3.868687152862548828e-01 -3.222069703042507172e-03
-1.628293544054031372e-01 2.847518324851989746e-01 -9.511224925518035889e-05
-1.807935088872909546e-01 2.904580831527709961e-01 3.506593406200408936e-03
-2.676953077316284180e-01 3.174395263195037842e-01 -2.057638717815279961e-03
-1.875135302543640137e-01 3.219814896583557129e-01 8.208615705370903015e-03
-7.912203669548034668e-02 3.326486647129058838e-01 1.040419563651084900e-02
-5.932765454053878784e-02 3.180790543556213379e-01 7.819161750376224518e-03
-2.194449603557586670e-01 3.630179762840270996e-01 2.749076345935463905e-03
-1.180324554443359375e-01 3.827281594276428223e-01 7.244772743433713913e-03
-2.480562329292297363e-01 3.186570405960083008e-01 2.981276018545031548e-03
-1.026422232389450073e-01 3.687550127506256104e-01 9.856621734797954559e-03
-4.904944449663162231e-02 3.524116873741149902e-01 1.024366356432437897e-02
-1.826439797878265381e-01 2.892813086509704590e-01 -5.594342481344938278e-03
-1.060294285416603088e-01 3.933101892471313477e-01 -2.890155185014009476e-03
-2.188437134027481079e-01 3.559305071830749512e-01 -7.978468202054500580e-03
-2.128192037343978882e-02 3.569412827491760254e-01 -4.382696934044361115e-03
-8.032539486885070801e-02 3.048419654369354248e-01 -4.396712873131036758e-03
-1.235751137137413025e-01 3.465430140495300293e-01 -1.054963469505310059e-02
-1.646357774734497070e-01 3.637576699256896973e-01 -9.422907605767250061e-03
-1.170587390661239624e-01 3.611591458320617676e-01 -9.685080498456954956e-03
-6.928372383117675781e-02 3.388698399066925049e-01 -8.247443474829196930e-03
-1.746376156806945801e-01 3.525881469249725342e-01 -1.039618253707885742e-02
-2.392465174198150635e-01 3.192819952964782715e-01 4.135249182581901550e-03
-2.624681293964385986e-01 3.215162754058837891e-01 3.994151193182915449e-04
-1.696013510227203369e-01 3.109158873558044434e-01 -9.964211843907833099e-03
-5.144187062978744507e-02 3.319252729415893555e-01 9.364804252982139587e-03
-4.839275777339935303e-02 3.932654559612274170e-01 -1.396084699081256986e-04
-7.618284225463867188e-02 3.390789330005645752e-01 1.068954076617956161e-02
-6.288595497608184814e-03 3.475091159343719482e-01 6.729989312589168549e-03
-8.930453658103942871e-02 3.588528931140899658e-01 -9.065598249435424805e-03
-2.347605824470520020e-01 3.431959152221679688e-01 -8.359021507203578949e-03
-8.872653543949127197e-02 3.562980294227600098e-01 1.081873476505279541e-02
-2.625692635774612427e-02 3.694212138652801514e-01 -4.229422658681869507e-03
-6.733644008636474609e-02 3.506693542003631592e-01 1.074067968875169754e-02
-1.779137700796127319e-01 3.544726371765136719e-01 8.248445577919483185e-03
-1.311726719141006470e-01 3.523240685462951660e-01 -1.047446578741073608e-02
-6.358620524406433105e-02 3.088966906070709229e-01 -3.482008120045065880e-03
-2.495826482772827148e-01 3.453300893306732178e-01 -6.008496042340993881e-03
-1.578305512666702271e-01 3.763860464096069336e-01 -7.375872693955898285e-03
-2.281633913516998291e-01 2.952080965042114258e-01 -6.010095123201608658e-03
-6.148502975702285767e-02 3.527143895626068115e-01 -7.901763543486595154e-03
-9.187917411327362061e-02 3.819261789321899414e-01 -6.401975173503160477e-03
-1.741729676723480225e-01 3.094255924224853516e-01 7.707675453275442123e-03
-4.780737310647964478e-02 3.293907344341278076e-01 -5.800850689411163330e-03
-8.054193854331970215e-02 3.856286108493804932e-01 7.433081977069377899e-03
-1.343690603971481323e-01 3.144781291484832764e-01 -9.623390622437000275e-03
-2.145881056785583496e-01 2.948412895202636719e-01 2.922477899119257927e-03
-1.331046223640441895e-01 3.644777238368988037e-01 9.505840018391609192e-03
-5.397921800613403320e-02 3.380670249462127686e-01 -7.099234033375978470e-03
-1.427040547132492065e-01 3.744836151599884033e-01 7.754041813313961029e-03
-1.560929864645004272e-01 2.898756861686706543e-01 3.689060453325510025e-03
-5.730810761451721191e-02 3.867946565151214600e-01 6.923662964254617691e-03
-1.257279068231582642e-01 3.916266560554504395e-01 3.708224277943372726e-03
-1.422529369592666626e-01 3.376871347427368164e-01 1.034255418926477432e-02
-2.140116691589355469e-01 3.703501224517822266e-01 -4.053592216223478317e-03
-1.805283874273300171e-01 3.340554237365722656e-01 8.883279748260974884e-03
-2.133924365043640137e-01 3.392895460128784180e-01 6.620163097977638245e-03
-1.047469154000282288e-01 3.059427738189697266e-01 -6.904933135956525803e-03
-2.101750522851943970e-01 3.155620694160461426e-01 6.484105251729488373e-03
-1.909120380878448486e-01 3.780949115753173828e-01 1.958573935553431511e-03
-2.286491394042968750e-01 2.906293869018554688e-01 -1.077296677976846695e-03
-2.431586980819702148e-01 3.023529350757598877e-01 1.571245375089347363e-03
-5.652353912591934204e-02 3.149863183498382568e-01 -4.282430279999971390e-03
-6.888774037361145020e-02 3.905147910118103027e-01 -3.280724398791790009e-03
-5.314131826162338257e-02 3.927962183952331543e-01 4.443175625056028366e-03
-2.921078354120254517e-02 3.177512288093566895e-01 2.211983548477292061e-03
-8.327152580022811890e-02 3.717711567878723145e-01 -7.733202073723077774e-03
-1.160809397697448730e-01 3.167146742343902588e-01 -9.169444441795349121e-03
-7.141682505607604980e-02 3.555845320224761963e-01 -8.402400650084018707e-03
-1.079384684562683105e-01 3.877131938934326172e-01 -5.185090936720371246e-03
-1.953703016042709351e-01 3.037605881690979004e-01 -9.049836546182632446e-03
-1.293385177850723267e-01 3.463699519634246826e-01 1.061742659658193588e-02
-8.711215108633041382e-02 3.758659362792968750e-01 9.186360985040664673e-03
-5.249609053134918213e-02 3.794883191585540771e-01 8.355857804417610168e-03
-4.232510924339294434e-03 3.355501890182495117e-01 2.449866617098450661e-03
-1.793694049119949341e-01 2.971365749835968018e-01 -7.904516533017158508e-03
-1.418628096580505371e-01 2.883300185203552246e-01 2.591836964711546898e-03
-1.063708961009979248e-01 2.955268621444702148e-01 4.350294359028339386e-03
-1.335614323616027832e-01 3.064292669296264648e-01 8.001305162906646729e-03
-1.263094693422317505e-01 3.295919299125671387e-01 -1.046890299767255783e-02
-2.197909355163574219e-01 3.467597067356109619e-01 -9.164760820567607880e-03
-2.620225548744201660e-01 3.228296041488647461e-01 -6.059341132640838623e-03
-2.446054518222808838e-01 3.327566087245941162e-01 -8.245021104812622070e-03
-5.495491623878479004e-02 3.690151274204254150e-01 -6.618128623813390732e-03
-6.220358610153198242e-02 3.914533853530883789e-01 5.498443730175495148e-03
-1.885776072740554810e-01 3.015328049659729004e-01 5.993009079247713089e-03
-7.312306761741638184e-02 3.733527362346649170e-01 -7.122942712157964706e-03
-1.639084070920944214e-01 3.000952899456024170e-01 -8.317996747791767120e-03
-2.173924446105957031e-01 3.237517476081848145e-01 6.384006235748529434e-03
-1.552273929119110107e-01 3.619116842746734619e-01 -9.785205125808715820e-03
-7.874688506126403809e-02 3.620460331439971924e-01 -8.436646312475204468e-03
-1.362156122922897339e-01 3.755407333374023438e-01 -7.988969795405864716e-03
-4.626142233610153198e-02 3.427738547325134277e-01 -6.676876451820135117e-03
-9.139467775821685791e-02 3.735773265361785889e-01 -7.777752820402383804e-03
-9.143744409084320068e-02 3.325777649879455566e-01 1.059262827038764954e-02
-1.379957199096679688e-01 3.666234016418457031e-01 -9.329252876341342926e-03
2.495229244232177734e-03 3.708347976207733154e-01 4.148664418607950211e-03
-2.603851556777954102e-01 3.294108510017395020e-01 -6.176139228045940399e-03
-1.788346320390701294e-01 3.796927332878112793e-01 3.286443883553147316e-03
-7.109198719263076782e-02 3.286600410938262939e-01 9.872494265437126160e-03
-1.427134573459625244e-01 3.126912713050842285e-01 8.829888887703418732e-03
-1.647630333900451660e-02 3.376511335372924805e-01 -2.665503416210412979e-03
-9.725476801395416260e-02 3.466343879699707031e-01 1.099772285670042038e-02
-1.453426182270050049e-01 3.717736303806304932e-01 -8.553848601877689362e-03
-1.272223591804504395e-01 3.276627361774444580e-01 1.029732078313827515e-02
-2.099730819463729858e-02 3.864766061305999756e-01 5.838439101353287697e-04
-1.795264184474945068e-01 2.964968681335449219e-01 5.322512239217758179e-03
-1.139557585120201111e-01 3.755899071693420410e-01 -7.945067249238491058e-03
-4.872376471757888794e-02 3.874685168266296387e-01 6.437482312321662903e-03
-1.664351969957351685e-01 3.356641232967376709e-01 -1.113842707127332687e-02
-1.799112558364868164e-01 3.049000501632690430e-01 6.892319768667221069e-03
-9.603297710418701172e-02 3.670541644096374512e-01 1.010681223124265671e-02
-1.037576049566268921e-02 3.444792330265045166e-01 -2.384991385042667389e-03
-1.108880937099456787e-01 3.239296078681945801e-01 -9.603223763406276703e-03
-8.894515037536621094e-02 3.635512590408325195e-01 1.043476164340972900e-02
-7.121423631906509399e-02 3.730103373527526855e-01 9.553085081279277802e-03
-8.463370054960250854e-02 3.783186674118041992e-01 -6.854975596070289612e-03
-3.002738207578659058e-02 3.704295754432678223e-01 8.606158196926116943e-03
-1.575467288494110107e-01 3.073017895221710205e-01 7.882886566221714020e-03
-5.721693485975265503e-02 3.749209046363830566e-01 9.133151732385158539e-03
-1.502940803766250610e-01 3.835338354110717773e-01 5.061030853539705276e-03
-8.476120233535766602e-02 3.070022761821746826e-01 6.915735546499490738e-03
-2.404440343379974365e-01 3.126521408557891846e-01 3.523612394928932190e-03
-2.432547211647033691e-01 3.252125680446624756e-01 -8.568737655878067017e-03
1.386135816574096680e-03 3.640938997268676758e-01 -3.266812709625810385e-04
-1.191413998603820801e-01 3.223508596420288086e-01 -9.812003001570701599e-03
-1.749954819679260254e-01 3.714604973793029785e-01 6.122564431279897690e-03
-9.422454237937927246e-02 3.241097033023834229e-01 9.984917938709259033e-03
-2.161764353513717651e-02 3.434489667415618896e-01 -4.066727589815855026e-03
-2.386961281299591064e-01 3.582900166511535645e-01 -3.995101433247327805e-03
-2.246142178773880005e-01 3.086268901824951172e-01 -8.846270851790904999e-03
-6.043341755867004395e-02 3.768481910228729248e-01 -6.000297609716653824e-03
-2.091604471206665039e-01 2.910020649433135986e-01 2.065942157059907913e-03
-2.039391547441482544e-02 3.652810156345367432e-01 -3.925782162696123123e-03
-3.010812401771545410e-02 3.392922878265380859e-01 -4.827728495001792908e-03
-1.114305332303047180e-01 3.695406317710876465e-01 -8.756556548178195953e-03
-1.292323321104049683e-01 3.800104856491088867e-01 -7.139200344681739807e-03
-2.569165527820587158e-01 3.401192426681518555e-01 2.926332526840269566e-04
-2.392858266830444336e-01 2.939167916774749756e-01 -1.295357593335211277e-03
-3.833059221506118774e-02 3.627711832523345947e-01 9.573691524565219879e-03
-2.204397320747375488e-01 3.164604902267456055e-01 5.783550906926393509e-03
-2.461275160312652588e-01 3.406186103820800781e-01 2.638126490637660027e-03
-1.872834116220474243e-01 3.779751360416412354e-01 -4.828340373933315277e-03
-2.238491326570510864e-01 3.401485085487365723e-01 5.598775576800107956e-03
-2.222467958927154541e-01 3.386702239513397217e-01 -9.649612940847873688e-03
-3.165984898805618286e-02 3.414768874645233154e-01 8.974397554993629456e-03
-9.816086292266845703e-02 3.751842975616455078e-01 -7.733061444014310837e-03
-6.626847386360168457e-02 3.628799617290496826e-01 -7.767356466501951218e-03
-1.296164542436599731e-01 3.900266289710998535e-01 -3.937634639441967010e-03
-2.323595285415649414e-01 3.072043061256408691e-01 -8.244967088103294373e-03
-8.712860941886901855e-02 3.138021826744079590e-01 8.466781117022037506e-03
-3.136970847845077515e-02 3.798892498016357422e-01 -3.233453724533319473e-03
-2.058909088373184204e-02 3.782681822776794434e-01 6.800714880228042603e-03
-5.588407069444656372e-02 3.922332823276519775e-01 -1.673750695772469044e-03
-2.026370763778686523e-01 3.088837862014770508e-01 -9.590380825102329254e-03
-3.908362984657287598e-02 3.497983813285827637e-01 9.794846177101135254e-03
-2.227909266948699951e-01 3.334571421146392822e-01 5.968802142888307571e-03
-2.448123097419738770e-01 3.333435952663421631e-01 3.439569612964987755e-03
-2.202683985233306885e-01 3.159337937831878662e-01 -9.670926257967948914e-03
-1.101954206824302673e-01 3.547853827476501465e-01 1.072140783071517944e-02
-3.776787221431732178e-02 3.910493254661560059e-01 4.021978937089443207e-03
-1.437433212995529175e-01 3.535756766796112061e-01 -1.051932014524936676e-02
-2.000760436058044434e-01 2.855533063411712646e-01 -2.319141523912549019e-03
-2.105660885572433472e-01 3.367834091186523438e-01 -1.030050776898860931e-02
-1.935680210590362549e-01 3.671669661998748779e-01 5.241244100034236908e-03
-1.742360740900039673e-01 3.409395515918731689e-01 -1.101854164153337479e-02
-1.528589427471160889e-01 3.069345951080322266e-01 -9.211033582687377930e-03
-2.326090484857559204e-01 3.188174366950988770e-01 4.826067946851253510e-03
-1.742845624685287476e-01 3.591598272323608398e-01 -9.772285819053649902e-03
-1.182724088430404663e-01 3.680976331233978271e-01 -9.029580280184745789e-03
-2.297700047492980957e-01 3.347718417644500732e-01 -9.377644397318363190e-03
-1.363230496644973755e-01 3.024938106536865234e-01 -7.947036065161228180e-03
-1.499763280153274536e-01 3.908351063728332520e-01 -1.498766359873116016e-04
-7.949028909206390381e-02 3.359480500221252441e-01 -8.751000277698040009e-03
-4.178840667009353638e-02 3.831676244735717773e-01 7.251524832099676132e-03
-1.096676588058471680e-01 3.438502252101898193e-01 -1.022105570882558823e-02
-1.363033950328826904e-01 3.267272412776947021e-01 -1.060014963150024414e-02
-1.890892833471298218e-01 3.591557145118713379e-01 6.972775328904390335e-03
-1.548499763011932373e-01 3.673983216285705566e-01 8.196526207029819489e-03
-8.874353021383285522e-02 3.049202263355255127e-01 -5.338970106095075607e-03
-1.476155221462249756e-02 3.550379872322082520e-01 8.145193569362163544e-03
-2.486100792884826660e-01 3.213042020797729492e-01 -8.009598590433597565e-03
-9.213627874851226807e-02 3.379391133785247803e-01 -9.478725492954254150e-03
-1.374970972537994385e-01 3.814494311809539795e-01 6.584692746400833130e-03
-4.433445632457733154e-02 3.716694712638854980e-01 9.146017953753471375e-03
-1.680780947208404541e-01 3.458642661571502686e-01 -1.089190877974033356e-02
-1.008528769016265869e-01 3.887086510658264160e-01 -4.823992028832435608e-03
-1.664555817842483521e-01 3.180976510047912598e-01 -1.056816801428794861e-02
-2.157513350248336792e-01 3.015142381191253662e-01 4.368048161268234253e-03
-5.785383284091949463e-02 3.259422779083251953e-01 -6.371688097715377808e-03
-1.265054792165756226e-01 3.527932167053222656e-01 1.049596630036830902e-02
-7.406505197286605835e-02 3.934572935104370117e-01 4.781513474881649017e-03
-2.282079011201858521e-01 3.469394743442535400e-01 -8.512835949659347534e-03
-2.526464462280273438e-01 3.273980915546417236e-01 -7.537006400525569916e-03
-1.188888996839523315e-01 3.299300968647003174e-01 -1.025652419775724411e-02
-9.555660188198089600e-03 3.658414781093597412e-01 7.280120160430669785e-03
-1.714229285717010498e-01 3.645586073398590088e-01 7.566602434962987900e-03
-2.164601683616638184e-01 3.097325861454010010e-01 5.496311932802200317e-03
-2.324975281953811646e-02 3.798140287399291992e-01 -2.289263531565666199e-03
-1.089407503604888916e-02 3.704986274242401123e-01 -2.133555943146348000e-03
-8.553408086299896240e-03 3.615230619907379150e-01 -2.510804682970046997e-03
-1.251547932624816895e-01 3.146981298923492432e-01 -9.322178550064563751e-03
-1.527436226606369019e-01 3.440164923667907715e-01 9.985526092350482941e-03
-1.800812482833862305e-01 3.126937150955200195e-01 -1.018220931291580200e-02
-9.474504739046096802e-02 3.196589648723602295e-01 -8.397061377763748169e-03
-5.657486617565155029e-02 3.614785075187683105e-01 -7.280569523572921753e-03
-1.609828323125839233e-01 3.433811366558074951e-01 -1.101582217961549759e-02
-1.081146597862243652e-01 3.022171556949615479e-01 6.741177756339311600e-03
-1.753711700439453125e-02 3.338054418563842773e-01 6.520634982734918594e-03
-2.083463966846466064e-01 3.240046501159667969e-01 7.063846103847026825e-03
-7.569929957389831543e-02 3.596633374691009521e-01 1.063087955117225647e-02
-1.404520869255065918e-01 3.544562458992004395e-01 1.001801248639822006e-02
-1.866186857223510742e-01 3.699211478233337402e-01 -7.510344032198190689e-03
-1.230678930878639221e-01 3.854647576808929443e-01 -5.802417173981666565e-03
-1.878394633531570435e-01 3.472830355167388916e-01 8.125024847686290741e-03
-1.976178586483001709e-01 3.139526247978210449e-01 -1.015245262533426285e-02
-1.887163817882537842e-01 2.994880974292755127e-01 -8.388318121433258057e-03
-8.326808363199234009e-02 3.415789306163787842e-01 1.087561622262001038e-02
-1.299342960119247437e-01 2.882910668849945068e-01 -2.171869622543454170e-03
-1.753626316785812378e-01 3.717694878578186035e-01 -7.708818651735782623e-03
-1.700985431671142578e-01 3.300212919712066650e-01 -1.109533477574586868e-02
-9.455633163452148438e-02 3.273934721946716309e-01 -9.087378159165382385e-03
-1.902316063642501831e-01 3.555996417999267578e-01 -9.694941341876983643e-03
-1.583171635866165161e-01 3.033840060234069824e-01 -8.791454136371612549e-03
-1.705681681632995605e-01 3.000799715518951416e-01 6.365793757140636444e-03
-1.043227165937423706e-01 3.722449541091918945e-01 -8.281980641186237335e-03
-1.374745965003967285e-01 2.999421358108520508e-01 6.728791166096925735e-03
-3.929415345191955566e-02 3.305376172065734863e-01 8.412558585405349731e-03
-1.874611973762512207e-01 2.912958562374114990e-01 3.544462379068136215e-03
-3.890291601419448853e-02 3.137480318546295166e-01 -9.791784395929425955e-05
-1.440907120704650879e-01 3.031798601150512695e-01 7.390303071588277817e-03
-8.460192382335662842e-02 3.304221034049987793e-01 -8.746969513595104218e-03
-1.956897526979446411e-01 3.180613517761230469e-01 7.550770416855812073e-03
-1.629784703254699707e-01 3.345873355865478516e-01 9.654427878558635712e-03
-1.972414255142211914e-01 3.780307769775390625e-01 1.098081993404775858e-04
-2.215203046798706055e-01 3.681482970714569092e-01 -3.193101380020380020e-03
-5.683090537786483765e-02 3.322733640670776367e-01 -6.932306569069623947e-03
-1.786525547504425049e-01 3.773916959762573242e-01 -5.960651673376560211e-03
-1.531247496604919434e-01 3.269990384578704834e-01 9.762560948729515076e-03
-2.230772972106933594e-01 3.311895728111267090e-01 -9.880383498966693878e-03
-1.300103515386581421e-01 3.357748985290527344e-01 1.057535875588655472e-02
-1.935867369174957275e-01 3.354828059673309326e-01 -1.084806956350803375e-02
-1.533740162849426270e-01 2.941696941852569580e-01 -6.639052182435989380e-03
-6.298320740461349487e-02 3.716638386249542236e-01 9.610422886908054352e-03
-2.355862557888031006e-01 2.989161014556884766e-01 1.793499221093952656e-03
-2.030606269836425781e-01 2.935162782669067383e-01 -6.801307201385498047e-03
-7.393847405910491943e-02 3.668840825557708740e-01 1.016594655811786652e-02
-2.000322937965393066e-01 3.284184634685516357e-01 -1.073167659342288971e-02
-2.359908074140548706e-01 3.377122879028320312e-01 4.375520162284374237e-03
-8.558422327041625977e-02 3.180055320262908936e-01 -7.603465579450130463e-03
-2.119482606649398804e-01 3.446595668792724609e-01 -9.801751002669334412e-03
-1.068358570337295532e-01 3.513608276844024658e-01 -9.988918900489807129e-03
-2.062874138355255127e-01 3.593240976333618164e-01 5.348424892872571945e-03
-1.454059779644012451e-01 3.294384479522705078e-01 -1.088616065680980682e-02
-2.448878586292266846e-01 3.497987687587738037e-01 -5.847373977303504944e-03
-7.002031803131103516e-02 3.315478861331939697e-01 -7.893604226410388947e-03
-1.793775707483291626e-01 3.249208927154541016e-01 -1.093979459255933762e-02
-7.313322275876998901e-02 3.225861489772796631e-01 -7.265198044478893280e-03
-5.184254795312881470e-02 3.757146596908569336e-01 -5.634727887809276581e-03
-7.260476052761077881e-02 3.655940294265747070e-01 -7.893071509897708893e-03
-1.416485160589218140e-01 3.895607888698577881e-01 3.276212606579065323e-03
-2.248088270425796509e-01 3.257592618465423584e-01 5.802373401820659637e-03
-1.343517005443572998e-02 3.752867877483367920e-01 6.585269235074520111e-03
-2.255559712648391724e-02 3.236861824989318848e-01 -3.398320986889302731e-04
-1.124064326286315918e-01 3.469786643981933594e-01 1.089445035904645920e-02
-1.749857962131500244e-01 3.059312403202056885e-01 -9.402841329574584961e-03
-1.117728501558303833e-01 2.904084622859954834e-01 -5.114870727993547916e-04
-9.787005186080932617e-02 3.567920923233032227e-01 -9.479837492108345032e-03
-5.815236270427703857e-02 3.844413757324218750e-01 -4.441469907760620117e-03
-8.773590624332427979e-02 3.884236812591552734e-01 -4.681441932916641235e-03
-2.288150787353515625e-01 3.136273026466369629e-01 -9.107252582907676697e-03
-1.962743699550628662e-01 3.389643430709838867e-01 7.920691743493080139e-03
-2.679739296436309814e-01 3.279050588607788086e-01 -3.247012849897146225e-03
-1.090262681245803833e-01 3.381721675395965576e-01 1.086532045155763626e-02
-1.449145823717117310e-01 3.226338624954223633e-01 9.710622951388359070e-03
-1.690843105316162109e-01 3.794999420642852783e-01 -5.954558029770851135e-03
-1.081405729055404663e-01 3.139545619487762451e-01 -8.452506735920906067e-03
-1.194667667150497437e-01 3.083300590515136719e-01 8.256231434643268585e-03
-1.943958997726440430e-01 3.306790292263031006e-01 8.102510124444961548e-03
-1.118352115154266357e-01 3.234567940235137939e-01 1.007573772221803665e-02
-4.694595932960510254e-03 3.527569174766540527e-01 -1.867414801381528378e-03
-1.777639240026473999e-01 3.467417359352111816e-01 -1.073493529111146927e-02
-1.460856795310974121e-01 3.098193407058715820e-01 -9.426523000001907349e-03
-1.288661807775497437e-01 3.095681965351104736e-01 -8.819459937512874603e-03
-9.262350201606750488e-02 3.524349331855773926e-01 -9.470215067267417908e-03
-9.589630365371704102e-02 3.582200109958648682e-01 1.071350462734699249e-02
-1.124925389885902405e-01 3.931544423103332520e-01 3.841113299131393433e-03
-1.330198347568511963e-01 3.164394199848175049e-01 9.349251165986061096e-03
-2.063611447811126709e-01 3.317415416240692139e-01 -1.055979914963245392e-02
-2.437448948621749878e-01 3.494777679443359375e-01 1.577077317051589489e-03
-6.366059929132461548e-02 3.087441623210906982e-01 5.712035577744245529e-03
-6.796499341726303101e-02 3.491210043430328369e-01 -8.335416205227375031e-03
-2.345525622367858887e-01 3.465352654457092285e-01 3.727063769474625587e-03
-1.224632188677787781e-01 3.067312836647033691e-01 -8.092270232737064362e-03
-2.061192989349365234e-01 3.657557368278503418e-01 4.060285165905952454e-03
-1.309572458267211914e-01 3.198788166046142578e-01 -1.002030074596405029e-02
-2.054264992475509644e-01 3.718242645263671875e-01 2.158354036509990692e-03
-7.919499278068542480e-02 3.182163238525390625e-01 8.888437412679195404e-03
-1.865333020687103271e-01 3.407296240329742432e-01 -1.085324771702289581e-02
-1.461135745048522949e-01 2.982867062091827393e-01 -7.441526278853416443e-03
-2.105206102132797241e-01 3.017585873603820801e-01 -8.429469540715217590e-03
-3.003063797950744629e-02 3.611884117126464844e-01 -5.192933604121208191e-03
-2.264939695596694946e-01 3.084874749183654785e-01 4.520628601312637329e-03
-1.705464720726013184e-01 3.830634653568267822e-01 2.929936628788709641e-03
-1.864716708660125732e-01 3.131768405437469482e-01 7.620490621775388718e-03
-1.126234382390975952e-01 3.760094046592712402e-01 8.710722438991069794e-03
-1.776647120714187622e-01 3.245126307010650635e-01 8.786642923951148987e-03
-2.345028370618820190e-01 3.261354565620422363e-01 4.850569181144237518e-03
-1.609277725219726562e-01 3.276689648628234863e-01 -1.100889313966035843e-02
-1.452763676643371582e-01 3.671936094760894775e-01 8.709856308996677399e-03
-1.352965831756591797e-01 3.437468707561492920e-01 1.051470637321472168e-02
-4.805490374565124512e-02 3.206350803375244141e-01 -4.454368259757757187e-03
-1.237402409315109253e-01 3.729382753372192383e-01 -8.438658900558948517e-03
-9.878256171941757202e-02 2.953302562236785889e-01 3.497475991025567055e-03
3.921553492546081543e-03 3.485380411148071289e-01 4.194436594843864441e-03
-2.357302755117416382e-01 3.557411432266235352e-01 1.685712137259542942e-03
-1.954350769519805908e-01 3.224095106124877930e-01 -1.067979913204908371e-02
-1.687192767858505249e-01 3.233788013458251953e-01 9.086813777685165405e-03
-1.075434684753417969e-02 3.329528272151947021e-01 4.822888411581516266e-03
-1.858238130807876587e-01 3.508759140968322754e-01 -1.028659474104642868e-02
-6.890895962715148926e-02 3.144813477993011475e-01 7.718476932495832443e-03
-9.579932689666748047e-02 3.128772675991058350e-01 8.582011796534061432e-03
-7.995323836803436279e-02 3.900981247425079346e-01 -3.904601326212286949e-03
-1.149356365203857422e-01 3.920468986034393311e-01 -3.411327488720417023e-03
-1.488678902387619019e-02 3.445703685283660889e-01 7.662588730454444885e-03
-1.198025941848754883e-01 3.449199497699737549e-01 1.081312447786331177e-02
-2.642852663993835449e-01 3.097243607044219971e-01 -2.458812901750206947e-03
-1.486561894416809082e-01 5.818313956260681152e-01 -3.284882986918091774e-03
-2.846749424934387207e-01 4.776348769664764404e-01 -4.354746080935001373e-03
-1.322200149297714233e-01 4.253795742988586426e-01 6.313194520771503448e-03
-2.454735934734344482e-01 5.277596116065979004e-01 -8.977248333394527435e-03
-1.416151523590087891e-01 5.079373121261596680e-01 -1.457047462463378906e-02
-1.455366015434265137e-01 4.663211703300476074e-01 -1.472358312457799911e-02
-2.710244655609130859e-01 4.117622375488281250e-01 -4.025046713650226593e-03
-1.639236807823181152e-01 4.377553164958953857e-01 8.582664653658866882e-03
-1.194935739040374756e-01 3.805118203163146973e-01 -9.016244672238826752e-03
-2.280099838972091675e-01 3.729647397994995117e-01 6.708361208438873291e-03
-2.038775086402893066e-01 4.236991405487060547e-01 9.678574278950691223e-03
-1.885706931352615356e-01 3.465064764022827148e-01 2.781992079690098763e-03
-8.011317253112792969e-02 4.362294971942901611e-01 -1.027562469244003296e-02
-1.062317043542861938e-01 4.562957584857940674e-01 -1.362405531108379364e-02
-2.552492618560791016e-01 5.049340724945068359e-01 -8.739782497286796570e-03
-2.467585802078247070e-01 5.542767047882080078e-01 3.295197850093245506e-03
-1.840276271104812622e-01 4.376540482044219971e-01 9.405661374330520630e-03
-1.483796238899230957e-01 4.508693516254425049e-01 7.713696919381618500e-03
-1.985526233911514282e-01 3.488678932189941406e-01 3.448997391387820244e-03
-2.858284711837768555e-01 5.110075473785400391e-01 -2.434835070744156837e-03
-1.414701640605926514e-01 4.779441058635711670e-01 6.854846142232418060e-03
-1.886236667633056641e-01 3.850780129432678223e-01 7.840767502784729004e-03
-2.512914538383483887e-01 4.327498376369476318e-01 9.205455891788005829e-03
-1.189018562436103821e-01 4.236333966255187988e-01 5.013733170926570892e-03
-9.713025391101837158e-02 5.347503423690795898e-01 -1.905685523524880409e-03
-9.029147773981094360e-02 4.889314174652099609e-01 -1.262382045388221741e-02
-1.416619867086410522e-01 3.832796514034271240e-01 5.174827761948108673e-03
-1.087656468152999878e-01 4.348905682563781738e-01 4.111529327929019928e-03
-1.817699670791625977e-01 4.993847608566284180e-01 8.254575543105602264e-03
-7.471271604299545288e-02 4.849447906017303467e-01 -1.030046027153730392e-02
-8.990671485662460327e-02 4.701185524463653564e-01 1.421658322215080261e-03
-2.547536194324493408e-01 4.774546623229980469e-01 8.843500167131423950e-03
-2.103153169155120850e-01 3.951226770877838135e-01 8.734202943742275238e-03
-9.461655467748641968e-02 4.694408774375915527e-01 -1.307452842593193054e-02
-2.408352494239807129e-01 4.994669258594512939e-01 -1.043395698070526123e-02
-1.407921761274337769e-01 5.670604109764099121e-01 -1.049249246716499329e-02
-1.031738445162773132e-01 3.897658288478851318e-01 8.047923911362886429e-04
-1.890979260206222534e-01 3.663428723812103271e-01 6.253179162740707397e-03
-1.703457385301589966e-01 5.387002229690551758e-01 5.388724617660045624e-03
-1.875117421150207520e-01 3.850051760673522949e-01 -9.877528063952922821e-03
-2.762293219566345215e-01 5.197646021842956543e-01 4.401444457471370697e-03
-1.384360641241073608e-01 5.068693161010742188e-01 5.528568290174007416e-03
-1.453567147254943848e-01 5.684522390365600586e-01 5.655642598867416382e-05
-1.874532848596572876e-01 5.167462825775146484e-01 7.572527974843978882e-03
-1.927409023046493530e-01 4.130728542804718018e-01 9.219578467309474945e-03
-1.986988484859466553e-01 3.632341027259826660e-01 6.029726006090641022e-03
-1.612156182527542114e-01 5.274537205696105957e-01 -1.390028931200504303e-02
-2.287490069866180420e-01 5.272956490516662598e-01 7.162386551499366760e-03
-1.416733264923095703e-01 3.942149579524993896e-01 5.913614295423030853e-03
-1.370690315961837769e-01 4.961093366146087646e-01 -1.473293546587228775e-02
-2.309532761573791504e-01 4.046177566051483154e-01 -8.708069100975990295e-03
-1.495379060506820679e-01 3.702499866485595703e-01 -8.834194391965866089e-03
-2.328092902898788452e-01 4.663987159729003906e-01 -1.116801518946886063e-02
-2.730459570884704590e-01 4.079022705554962158e-01 6.205808371305465698e-03
-7.478576153516769409e-02 4.450441002845764160e-01 -1.775338081642985344e-03
-1.759809851646423340e-01 4.443103969097137451e-01 -1.376956328749656677e-02
-2.553733289241790771e-01 4.384690523147583008e-01 9.093404747545719147e-03
-1.851451843976974487e-01 5.657459497451782227e-01 -1.061835419386625290e-02
-1.754818856716156006e-01 3.565486967563629150e-01 4.515155218541622162e-03
-2.491438686847686768e-01 4.076182544231414795e-01 -7.030749693512916565e-03
-2.859351336956024170e-01 4.841283857822418213e-01 -3.973403945565223694e-03
-2.085162103176116943e-01 3.870556354522705078e-01 8.253525011241436005e-03
-2.945072054862976074e-01 4.445152580738067627e-01 3.491094568744301796e-03
-1.451112180948257446e-01 5.587512254714965820e-01 -1.172849070280790329e-02
-1.298205107450485229e-01 3.697517514228820801e-01 -8.032867684960365295e-03
-1.886973679065704346e-01 5.228308439254760742e-01 -1.334088388830423355e-02
-2.489510178565979004e-01 3.997109234333038330e-01 8.016767911612987518e-03
-2.470893263816833496e-01 4.592199921607971191e-01 9.478882886469364166e-03
-1.902413964271545410e-01 5.018571615219116211e-01 8.405606262385845184e-03
-2.173033207654953003e-01 4.782070517539978027e-01 -1.243463903665542603e-02
-2.079578340053558350e-01 5.133480429649353027e-01 8.152866736054420471e-03
-1.300127059221267700e-01 5.064570903778076172e-01 4.849781282246112823e-03
-1.038981899619102478e-01 3.775199651718139648e-01 -1.244961400516331196e-03
-9.793175011873245239e-02 4.854401350021362305e-01 2.196127781644463539e-03
-1.948783993721008301e-01 5.255666375160217285e-01 -1.297323778271675110e-02
-1.853155046701431274e-01 4.223733842372894287e-01 9.245631285011768341e-03
-2.783473730087280273e-01 4.198917448520660400e-01 -3.249493660405278206e-03
-1.739882230758666992e-01 3.865823149681091309e-01 -1.047131884843111038e-02
-2.691891789436340332e-01 4.939490556716918945e-01 7.277831435203552246e-03
-2.001609802246093750e-01 4.292598366737365723e-01 9.715764783322811127e-03
-1.654111891984939575e-01 3.987914919853210449e-01 -1.167360693216323853e-02
-1.434517502784729004e-01 5.603500604629516602e-01 1.210321206599473953e-03
-9.197857975959777832e-02 5.162331461906433105e-01 -7.288636406883597374e-04
-1.185944229364395142e-01 3.684304952621459961e-01 4.049770068377256393e-04
-1.538310348987579346e-01 5.482001900672912598e-01 -1.277681812644004822e-02
-2.147501111030578613e-01 5.079091191291809082e-01 8.479898795485496521e-03
-1.336866915225982666e-01 5.199455618858337402e-01 4.363816231489181519e-03
-1.167556047439575195e-01 3.872400820255279541e-01 -9.720768779516220093e-03
-1.901266276836395264e-01 5.013159513473510742e-01 -1.379176229238510132e-02
-1.872243732213973999e-01 5.840348601341247559e-01 -7.292038761079311371e-03
-1.641396135091781616e-01 5.224305987358093262e-01 6.289218552410602570e-03
-1.173474267125129700e-01 3.854566812515258789e-01 2.689933637157082558e-03
-2.414492666721343994e-01 4.713447690010070801e-01 -1.046170946210622787e-02
-1.783797442913055420e-01 4.093489944934844971e-01 8.670904673635959625e-03
-1.800644248723983765e-01 3.502490520477294922e-01 3.533161012455821037e-03
-1.176419928669929504e-01 4.515916407108306885e-01 -1.399669051170349121e-02
-1.932217478752136230e-01 5.670123696327209473e-01 -1.010996568948030472e-02
-1.530562341213226318e-01 4.409362375736236572e-01 8.000991307199001312e-03
-1.815110146999359131e-01 4.150592684745788574e-01 8.952194824814796448e-03
-2.068443000316619873e-01 3.684042692184448242e-01 -6.918044760823249817e-03
-1.228830367326736450e-01 5.423492193222045898e-01 -1.246284507215023041e-02
-2.309010177850723267e-01 4.398432374000549316e-01 9.884953498840332031e-03
-1.750894039869308472e-01 5.642188191413879395e-01 -1.109949219971895218e-02
-2.732605338096618652e-01 4.285593032836914062e-01 7.457271218299865723e-03
-2.401649951934814453e-01 5.700869560241699219e-01 1.489748246967792511e-04
-1.427733898162841797e-01 5.470976233482360840e-01 2.813980216160416603e-03
-2.784059345722198486e-01 5.101782679557800293e-01 5.062974989414215088e-03
-2.408924698829650879e-01 4.626311957836151123e-01 -1.039480697363615036e-02
-1.263590753078460693e-01 4.941670298576354980e-01 -1.457724161446094513e-02
-2.702212929725646973e-01 4.677564799785614014e-01 -6.984232924878597260e-03
-8.562678098678588867e-02 5.118362307548522949e-01 -1.680033048614859581e-03
-1.111668050289154053e-01 5.611265897750854492e-01 -8.031362667679786682e-03
-1.643497645854949951e-01 3.454014360904693604e-01 1.116641564294695854e-03
-2.654294073581695557e-01 3.912675082683563232e-01 -2.481887815520167351e-03
-2.181389927864074707e-01 4.074481129646301270e-01 9.285827167332172394e-03
-1.434075087308883667e-01 5.168519020080566406e-01 -1.434202212840318680e-02
-2.784825563430786133e-01 5.326339006423950195e-01 1.113961450755596161e-03
-1.958473473787307739e-01 5.258183479309082031e-01 7.209260948002338409e-03
-2.246458530426025391e-01 4.189471304416656494e-01 -1.017587631940841675e-02
-2.051315605640411377e-01 4.084179401397705078e-01 -1.085481327027082443e-02
-1.887255460023880005e-01 3.985924720764160156e-01 8.584576658904552460e-03
-1.583032608032226562e-01 5.426396131515502930e-01 -1.314775925129652023e-02
-1.682509183883666992e-01 5.258790254592895508e-01 -1.384877040982246399e-02
-1.356571614742279053e-01 5.358694791793823242e-01 -1.338888797909021378e-02
-1.127675101161003113e-01 4.562684297561645508e-01 -1.393201854079961777e-02
-1.698620319366455078e-01 3.939058780670166016e-01 -1.120456587523221970e-02
-1.495722830295562744e-01 4.161996841430664062e-01 -1.297376770526170731e-02
-2.169964015483856201e-01 3.916908800601959229e-01 8.523410186171531677e-03
-2.856832146644592285e-01 4.625663757324218750e-01 -4.003254231065511703e-03
-2.736836671829223633e-01 4.409552216529846191e-01 7.750663906335830688e-03
-1.300187259912490845e-01 5.347866415977478027e-01 2.858862979337573051e-03
-2.063651531934738159e-01 4.388539493083953857e-01 -1.230067573487758636e-02
-1.197188198566436768e-01 4.693105220794677734e-01 5.213132128119468689e-03
-2.447213381528854370e-01 5.414639711380004883e-01 5.259240977466106415e-03
-2.895259559154510498e-01 4.880488514900207520e-01 4.620314575731754303e-03
-2.086216360330581665e-01 3.646968305110931396e-01 6.199377588927745819e-03
-2.868641018867492676e-01 4.371504783630371094e-01 -2.538886386901140213e-03
-1.116768866777420044e-01 5.297634601593017578e-01 1.193766016513109207e-03
-2.063074260950088501e-01 4.469393491744995117e-01 9.924403391778469086e-03
-1.964249759912490845e-01 4.557329416275024414e-01 9.725279174745082855e-03
-1.797892004251480103e-01 5.707641839981079102e-01 -1.016853936016559601e-02
-2.392379045486450195e-01 5.195661783218383789e-01 7.458063773810863495e-03
