-7.780798673629760742e-01 7.873788475990295410e-02 2.118476480245590210e-01
-8.372089266777038574e-01 2.412459552288055420e-01 -1.736338287591934204e-01
-8.853217363357543945e-01 1.222722679376602173e-01 -8.487181365489959717e-02
-6.404694914817810059e-01 8.394936472177505493e-02 5.584444105625152588e-02
-7.415695190429687500e-01 3.224287629127502441e-01 -1.682838890701532364e-03
-8.707824349403381348e-01 1.683272719383239746e-01 -1.630322039127349854e-01
-6.484376192092895508e-01 1.417395025491714478e-01 -1.810845285654067993e-01
-7.525238990783691406e-01 2.669195234775543213e-01 2.246899902820587158e-01
-8.257695436477661133e-01 1.270357966423034668e-01 -2.484134137630462646e-01
-6.329754590988159180e-01 1.082181036472320557e-01 7.732713222503662109e-02
-7.284304499626159668e-01 2.568077445030212402e-01 -2.103270590305328369e-01
-6.270830035209655762e-01 1.968092620372772217e-01 -8.741360902786254883e-02
-6.656356453895568848e-01 8.989348262548446655e-02 1.542103588581085205e-01
-7.814031243324279785e-01 9.743750095367431641e-02 2.310322970151901245e-01
-6.584711670875549316e-01 1.749192178249359131e-01 -2.009396702051162720e-01
-6.418044567108154297e-01 1.439262032508850098e-01 -1.633396148681640625e-01
-6.479713916778564453e-01 2.335297316312789917e-01 1.396331936120986938e-01
-7.609759569168090820e-01 2.194200903177261353e-01 -2.586316466331481934e-01
-7.971913814544677734e-01 1.503826677799224854e-01 2.551342844963073730e-01
-7.558693885803222656e-01 2.749712169170379639e-01 2.132179588079452515e-01
-6.954333186149597168e-01 2.602586150169372559e-02 5.244335904717445374e-02
-7.038013935089111328e-01 1.939853429794311523e-01 -2.539802789688110352e-01
-8.895497322082519531e-01 1.543927639722824097e-01 5.190189927816390991e-02
-7.175676822662353516e-01 8.415818214416503906e-03 -3.679951652884483337e-02
-7.714017033576965332e-01 2.192148864269256592e-01 2.622057795524597168e-01
-6.292772293090820312e-01 2.162032276391983032e-01 8.213454484939575195e-02
-7.097643613815307617e-01 1.707686483860015869e-02 4.122566804289817810e-02
-7.363263964653015137e-01 2.681716382503509521e-01 2.206097394227981567e-01
-6.628556251525878906e-01 2.799325287342071533e-01 -3.680264204740524292e-02
-7.116591334342956543e-01 3.160558640956878662e-01 2.186054736375808716e-02
-7.450100183486938477e-01 3.141944110393524170e-01 1.127277985215187073e-01
-7.432432174682617188e-01 4.529133439064025879e-03 -7.661521434783935547e-02
-8.789224624633789062e-01 2.276933193206787109e-01 -4.674015939235687256e-02
-8.191207051277160645e-01 3.015749454498291016e-01 6.496766209602355957e-02
-7.543997168540954590e-01 3.228125572204589844e-01 -6.103763822466135025e-03
-7.596603631973266602e-01 8.429811894893646240e-02 -2.649032771587371826e-01
-8.395457267761230469e-01 2.869583070278167725e-01 5.177483707666397095e-02
-7.882189750671386719e-01 3.184151649475097656e-01 1.310356613248586655e-02
-8.288474678993225098e-01 1.587824374437332153e-01 2.263943552970886230e-01
-7.181083559989929199e-01 2.644090652465820312e-01 -1.919715553522109985e-01
-7.196083068847656250e-01 2.286587655544281006e-02 8.630192279815673828e-02
-7.940702438354492188e-01 2.426210045814514160e-02 -1.526320576667785645e-01
-7.976655960083007812e-01 4.000027477741241455e-02 1.301857233047485352e-01
-6.295491456985473633e-01 1.975767165422439575e-01 -9.965659677982330322e-02
-7.898963689804077148e-01 7.412189245223999023e-02 -2.467655539512634277e-01
-6.241756677627563477e-01 1.849449723958969116e-01 -8.276848495006561279e-02
-8.774091005325317383e-01 2.350469827651977539e-01 2.583559975028038025e-02
-6.311496496200561523e-01 2.313589453697204590e-01 -3.590980917215347290e-02
-8.614714741706848145e-01 2.269503474235534668e-01 1.383749097585678101e-01
-8.549035787582397461e-01 2.569252848625183105e-01 1.058614775538444519e-01
-8.538504242897033691e-01 2.741034924983978271e-01 7.093416526913642883e-03
-7.183989286422729492e-01 1.028594374656677246e-01 -2.646084427833557129e-01
-8.615019321441650391e-01 6.013008952140808105e-02 -5.930260568857192993e-02
-8.690441846847534180e-01 2.525060176849365234e-01 6.261448375880718231e-03
-8.276762366294860840e-01 3.903328627347946167e-02 7.404827326536178589e-02
-7.491444349288940430e-01 7.028359174728393555e-02 2.056384682655334473e-01
-8.250741362571716309e-01 4.985748231410980225e-02 1.131390109658241272e-01
-8.363630771636962891e-01 3.161360323429107666e-02 -2.822789549827575684e-02
-7.418151497840881348e-01 1.082423329353332520e-02 5.385090410709381104e-02
-6.567010283470153809e-01 7.330397516489028931e-02 -1.370589435100555420e-01
-7.832685112953186035e-01 2.516232132911682129e-01 -2.179220765829086304e-01
-8.678006529808044434e-01 2.541532814502716064e-01 2.076837420463562012e-02
-7.397750616073608398e-01 1.526233702898025513e-01 -2.855889201164245605e-01
-6.430656313896179199e-01 2.458749860525131226e-01 9.513650089502334595e-02
-8.347792625427246094e-01 1.152084693312644958e-01 1.957869827747344971e-01
-6.278361082077026367e-01 1.290844827890396118e-01 -1.003891378641128540e-01
-7.354529500007629395e-01 2.083293199539184570e-01 2.673893570899963379e-01
-6.875634789466857910e-01 3.015249371528625488e-01 6.642749905586242676e-02
-6.360504627227783203e-01 8.529291301965713501e-02 2.445523440837860107e-02
-7.316576838493347168e-01 1.260145604610443115e-01 2.556976079940795898e-01
-7.496361732482910156e-01 1.188881695270538330e-02 6.283102184534072876e-02
-8.105461597442626953e-01 3.405079245567321777e-02 9.541601687669754028e-02
-8.661760091781616211e-01 2.238991707563400269e-01 -1.265134662389755249e-01
-8.088709115982055664e-01 2.239792048931121826e-02 5.250883847475051880e-02
-7.154136300086975098e-01 9.791284799575805664e-03 -7.814068347215652466e-03
-6.713478565216064453e-01 3.577186167240142822e-02 -1.663160510361194611e-02
-8.821980357170104980e-01 1.195397451519966125e-01 -1.026554927229881287e-01
-6.171380877494812012e-01 1.646247059106826782e-01 -2.807313948869705200e-02
-8.825216293334960938e-01 1.001057252287864685e-01 -4.737276583909988403e-02
-7.869969010353088379e-01 3.031436204910278320e-01 1.353865563869476318e-01
-6.431304812431335449e-01 1.269467771053314209e-01 1.425831317901611328e-01
-6.790607571601867676e-01 1.541558057069778442e-01 2.277742326259613037e-01
-7.007992267608642578e-01 3.007276058197021484e-01 1.155363172292709351e-01
-8.092610239982604980e-01 8.091543614864349365e-02 -2.384251803159713745e-01
-8.597260117530822754e-01 2.358361482620239258e-01 1.315770745277404785e-01
-8.857673406600952148e-01 1.082819104194641113e-01 -2.651851996779441833e-02
-8.293605446815490723e-01 1.304605603218078613e-01 2.144185602664947510e-01
-6.822134256362915039e-01 1.520266532897949219e-01 -2.432623803615570068e-01
-6.963117718696594238e-01 3.040804266929626465e-01 -4.635128006339073181e-02
-8.191705942153930664e-01 2.925947308540344238e-01 1.126029789447784424e-01
-6.774517297744750977e-01 1.008700132369995117e-01 1.894714683294296265e-01
-6.393691301345825195e-01 2.059111893177032471e-01 -1.309177726507186890e-01
-7.260991334915161133e-01 2.190717160701751709e-01 -2.516478598117828369e-01
-6.885756254196166992e-01 1.599830538034439087e-01 2.404963076114654541e-01
-7.752414941787719727e-01 3.211128711700439453e-01 4.166275262832641602e-02
-6.860004067420959473e-01 2.571500241756439209e-01 1.921802908182144165e-01
-8.223052620887756348e-01 2.596138417720794678e-02 2.880366891622543335e-02
-8.451892733573913574e-01 4.203815758228302002e-02 1.114075165241956711e-02
-6.898005604743957520e-01 2.283529937267303467e-02 -6.017244234681129456e-02
-7.998833656311035156e-01 2.124345749616622925e-01 -2.495737969875335693e-01
-7.679551243782043457e-01 3.019791841506958008e-01 -1.199459433555603027e-01
-6.877061128616333008e-01 2.267651855945587158e-01 -2.116442620754241943e-01
-8.070089817047119141e-01 1.016692370176315308e-01 2.175773978233337402e-01
-8.571806550025939941e-01 1.944016665220260620e-01 1.749149113893508911e-01
-8.719745874404907227e-01 9.841306507587432861e-02 -1.246691122651100159e-01
-8.648877143859863281e-01 1.185932084918022156e-01 1.345422416925430298e-01
-7.151632905006408691e-01 3.738407790660858154e-02 -1.818366050720214844e-01
-8.715789318084716797e-01 7.459069043397903442e-02 -3.407407179474830627e-02
-8.907691240310668945e-01 1.685231477022171021e-01 4.267463833093643188e-02
-6.721832752227783203e-01 2.419725656509399414e-01 -1.682651191949844360e-01
-7.543847560882568359e-01 4.846692085266113281e-03 -8.747759461402893066e-02
-8.669447302818298340e-01 7.768987864255905151e-02 5.127707496285438538e-02
-6.922098994255065918e-01 3.077584505081176758e-02 6.619933247566223145e-02
-6.410034298896789551e-01 1.288003027439117432e-01 -1.551204621791839600e-01
-8.210827112197875977e-01 8.918591588735580444e-02 -2.329738736152648926e-01
-6.369201540946960449e-01 1.711518466472625732e-01 -1.467973291873931885e-01
-6.685921549797058105e-01 2.672170698642730713e-01 1.390236169099807739e-01
-6.537409424781799316e-01 2.734251916408538818e-01 1.271669752895832062e-03
-8.879684805870056152e-01 1.928471773862838745e-01 -6.150185689330101013e-02
-8.225612640380859375e-01 2.176952362060546875e-02 -4.878025501966476440e-02
-8.160868287086486816e-01 2.274000495672225952e-01 2.260950058698654175e-01
-6.747580766677856445e-01 2.680487632751464844e-01 -1.236489564180374146e-01
-6.743855476379394531e-01 3.362292051315307617e-02 -4.845824092626571655e-02
-8.626399040222167969e-01 2.545899152755737305e-01 -6.303723156452178955e-02
-6.258823275566101074e-01 1.074571087956428528e-01 -3.231817111372947693e-02
-6.956452727317810059e-01 2.916576266288757324e-01 1.371153444051742554e-01
-7.232164144515991211e-01 3.175660371780395508e-01 6.623189896345138550e-02
-6.867113113403320312e-01 1.805665045976638794e-01 2.403722107410430908e-01
-6.470654010772705078e-01 1.061579957604408264e-01 -1.562559008598327637e-01
-6.984497308731079102e-01 3.097887635231018066e-01 4.120124503970146179e-05
-6.821970939636230469e-01 2.157583236694335938e-01 -2.150027304887771606e-01
-8.118537664413452148e-01 1.180184409022331238e-01 2.265883684158325195e-01
-6.821785569190979004e-01 1.151984855532646179e-01 2.099727243185043335e-01
-8.773169517517089844e-01 1.317928284406661987e-01 -1.374722123146057129e-01
-7.786891460418701172e-01 5.064622312784194946e-02 1.679357588291168213e-01
-8.862900733947753906e-01 2.121926546096801758e-01 -2.686914056539535522e-03
-8.357182741165161133e-01 2.802674770355224609e-01 1.064987927675247192e-01
-8.318908214569091797e-01 2.392712980508804321e-01 -1.858381628990173340e-01
-7.804008126258850098e-01 2.128839492797851562e-02 -1.565058827400207520e-01
-7.049338221549987793e-01 2.773205637931823730e-01 -1.545352786779403687e-01
-7.538175582885742188e-01 1.524866223335266113e-01 2.705955207347869873e-01
-8.450962305068969727e-01 2.823515832424163818e-01 4.267386347055435181e-02
-8.107421994209289551e-01 2.531779110431671143e-01 -1.941255182027816772e-01
-7.144765853881835938e-01 3.123374283313751221e-01 -4.490528255701065063e-02
-7.057593464851379395e-01 2.929230928421020508e-01 1.504524648189544678e-01
-6.337226033210754395e-01 2.153011113405227661e-01 -9.509815275669097900e-02
-8.758307099342346191e-01 1.455344408750534058e-01 1.196534335613250732e-01
-8.293957710266113281e-01 9.465907514095306396e-02 1.835286319255828857e-01
-6.456031203269958496e-01 1.619655489921569824e-01 -1.745472997426986694e-01
-8.459296226501464844e-01 7.342966645956039429e-02 -1.707312613725662231e-01
-7.208782434463500977e-01 1.826544106006622314e-02 6.880914419889450073e-02
-7.880210280418395996e-01 5.927906185388565063e-02 -2.303801625967025757e-01
-8.844909667968750000e-01 2.117152661085128784e-01 4.255077987909317017e-02
-6.656275391578674316e-01 2.300724536180496216e-01 1.882831752300262451e-01
-8.777980208396911621e-01 9.290060400962829590e-02 -7.459007203578948975e-02
-8.013463020324707031e-01 3.092806339263916016e-01 8.046386390924453735e-02
-8.340762257575988770e-01 5.804365873336791992e-02 1.140327677130699158e-01
-7.465546727180480957e-01 2.862036228179931641e-01 -1.636036932468414307e-01
-7.388159632682800293e-01 3.366325795650482178e-02 -1.920613199472427368e-01
-7.249053120613098145e-01 1.796789914369583130e-01 -2.743718326091766357e-01
-8.694031834602355957e-01 1.047652661800384521e-01 1.020110845565795898e-01
-6.248220205307006836e-01 2.180699557065963745e-01 -1.243039034307003021e-02
-8.205906152725219727e-01 1.278285384178161621e-01 2.238035053014755249e-01
-6.918373703956604004e-01 2.480597794055938721e-02 3.224483504891395569e-02
-8.918763399124145508e-01 1.738214939832687378e-01 2.612840384244918823e-02
-7.139559984207153320e-01 3.421634435653686523e-02 1.169448941946029663e-01
-8.424989581108093262e-01 4.935552924871444702e-02 -1.240805834531784058e-01
-6.948219537734985352e-01 1.291883885860443115e-01 -2.553763985633850098e-01
-8.378546833992004395e-01 7.907986640930175781e-02 1.474858075380325317e-01
-8.606942892074584961e-01 1.277368068695068359e-01 1.541732996702194214e-01
-8.499234318733215332e-01 4.446363449096679688e-02 -3.331390395760536194e-02
-8.161919713020324707e-01 2.581540346145629883e-01 -1.793778836727142334e-01
-8.294708728790283203e-01 5.249972641468048096e-02 -1.684629023075103760e-01
-7.621012330055236816e-01 2.443659007549285889e-01 2.477894872426986694e-01
-8.060807585716247559e-01 2.974306344985961914e-01 1.253903806209564209e-01
-8.858100175857543945e-01 1.571305543184280396e-01 7.893838733434677124e-02
-8.382733464241027832e-01 9.971187263727188110e-02 1.748753190040588379e-01
-8.866864442825317383e-01 2.066728621721267700e-01 3.057381510734558105e-02
-7.069966793060302734e-01 2.602313458919525146e-01 -1.891936361789703369e-01
-6.386132836341857910e-01 9.290402382612228394e-02 7.220932841300964355e-02
-7.991331815719604492e-01 1.350703835487365723e-02 2.379517257213592529e-02
-7.807874083518981934e-01 1.910353451967239380e-01 2.675299942493438721e-01
-7.161974310874938965e-01 2.684496939182281494e-01 2.096925824880599976e-01
-8.551735281944274902e-01 2.554448246955871582e-01 -9.708389639854431152e-02
-8.293117284774780273e-01 1.492859423160552979e-01 -2.469779849052429199e-01
-8.740441799163818359e-01 1.063145846128463745e-01 8.520401269197463989e-02
-7.210537195205688477e-01 7.359147071838378906e-03 -2.387201413512229919e-02
-7.469481825828552246e-01 2.206203341484069824e-02 -1.654886752367019653e-01
-8.442490696907043457e-01 2.253113985061645508e-01 -1.820704042911529541e-01
-6.324744820594787598e-01 1.840262264013290405e-01 -1.244959235191345215e-01
-7.982891798019409180e-01 2.839123904705047607e-01 1.734615117311477661e-01
-8.627834320068359375e-01 1.659101247787475586e-01 -1.856644600629806519e-01
-8.116226792335510254e-01 9.356313943862915039e-02 -2.468818575143814087e-01
-6.857577562332153320e-01 6.615141034126281738e-02 1.517481505870819092e-01
-8.535647988319396973e-01 8.105804026126861572e-02 -1.627247184514999390e-01
-7.696529626846313477e-01 3.210115432739257812e-01 5.811632424592971802e-02
-8.872556686401367188e-01 1.345754265785217285e-01 -8.547377586364746094e-02
-8.362283706665039062e-01 3.338438272476196289e-02 -7.116319239139556885e-02
-6.916331052780151367e-01 3.012589216232299805e-01 8.692574501037597656e-02
-7.662060856819152832e-01 7.447287440299987793e-03 3.545063361525535583e-02
-6.671763658523559570e-01 1.789211928844451904e-01 -2.155768722295761108e-01
-7.817876935005187988e-01 1.079786717891693115e-01 2.402089238166809082e-01
-7.962598204612731934e-01 1.749323308467864990e-02 5.517571046948432922e-02
-7.024550437927246094e-01 1.170462071895599365e-01 -2.589448392391204834e-01
-6.577437520027160645e-01 8.687635511159896851e-02 -1.638659387826919556e-01
-8.548082113265991211e-01 1.170537769794464111e-01 -1.963527351617813110e-01
-7.979604005813598633e-01 1.044194400310516357e-02 -6.728038936853408813e-02
-7.417291402816772461e-01 3.230064213275909424e-01 2.326578646898269653e-02
-6.888011693954467773e-01 3.034577369689941406e-01 -1.433167606592178345e-02
-6.801686286926269531e-01 1.018935218453407288e-01 -2.242536097764968872e-01
-6.615790128707885742e-01 2.743157148361206055e-01 -5.999505519866943359e-02
-6.737554073333740234e-01 3.822492808103561401e-02 -8.591583371162414551e-02
-7.386314868927001953e-01 1.386295258998870850e-02 6.710275262594223022e-02
-7.482579946517944336e-01 5.179671943187713623e-02 1.758368909358978271e-01
-7.812540531158447266e-01 3.093952536582946777e-01 -8.247409760951995850e-02
-8.515999317169189453e-01 2.552847862243652344e-01 1.224014908075332642e-01
-8.460758924484252930e-01 1.345765739679336548e-01 1.903450042009353638e-01
-8.896920084953308105e-01 1.817778944969177246e-01 -6.234647706151008606e-02
-6.251426339149475098e-01 2.192756235599517822e-01 2.630713582038879395e-02
-7.664937973022460938e-01 3.778114914894104004e-03 -7.241452485322952271e-02
-6.371495723724365234e-01 2.084544748067855835e-01 -1.197842061519622803e-01
-6.523042917251586914e-01 2.356443554162979126e-01 1.501317769289016724e-01
-7.116397619247436523e-01 2.299084961414337158e-01 -2.326208204030990601e-01
-7.063360810279846191e-01 2.139303684234619141e-01 -2.428441792726516724e-01
-6.250584125518798828e-01 1.130794957280158997e-01 -4.809070006012916565e-02
-6.571370363235473633e-01 2.733282446861267090e-01 7.106532156467437744e-02
-6.706343889236450195e-01 1.466635763645172119e-01 -2.264807969331741333e-01
-6.558534502983093262e-01 1.299746930599212646e-01 -1.951612830162048340e-01
-6.796679496765136719e-01 1.208226010203361511e-01 -2.340832799673080444e-01
-7.839184403419494629e-01 9.341552853584289551e-03 2.819496765732765198e-02
-7.743157148361206055e-01 2.714065313339233398e-01 -1.906203478574752808e-01
-8.658951520919799805e-01 6.840567290782928467e-02 1.653463765978813171e-02
-7.345624566078186035e-01 2.908075749874114990e-01 1.811510920524597168e-01
-7.842628955841064453e-01 7.367849349975585938e-03 1.013528089970350266e-02
-6.582357883453369141e-01 2.379505038261413574e-01 -1.434708833694458008e-01
-7.645158171653747559e-01 7.815581560134887695e-02 2.152500599622726440e-01
-6.668632626533508301e-01 2.608689963817596436e-01 1.481309980154037476e-01
-6.991224288940429688e-01 1.799120008945465088e-02 -6.873693317174911499e-02
-8.545677065849304199e-01 5.159596353769302368e-02 -6.543912738561630249e-02
-8.657659292221069336e-01 1.756929010152816772e-01 1.574418842792510986e-01
-6.384671330451965332e-01 9.347701817750930786e-02 -1.025128662586212158e-01
-8.340238928794860840e-01 2.032937407493591309e-01 2.154878973960876465e-01
-8.595503568649291992e-01 7.267231494188308716e-02 -1.255242228507995605e-01
-7.509034872055053711e-01 1.014837324619293213e-01 2.410563081502914429e-01
-8.117355108261108398e-01 4.549211263656616211e-02 1.255269646644592285e-01
-8.243131041526794434e-01 9.913091361522674561e-02 1.956894844770431519e-01
-7.362086772918701172e-01 3.018672466278076172e-01 -1.176505759358406067e-01
-7.504560947418212891e-01 1.519411802291870117e-02 7.804363965988159180e-02
-8.462363481521606445e-01 2.795702219009399414e-01 -3.617528453469276428e-02
-8.568566441535949707e-01 2.680824100971221924e-01 -3.091144934296607971e-02
-6.648820042610168457e-01 5.584069341421127319e-02 -1.212885752320289612e-01
-6.493210196495056152e-01 1.792247295379638672e-01 -1.790333539247512817e-01
-8.915024995803833008e-01 1.796595305204391479e-01 -4.283911734819412231e-02
-6.953278779983520508e-01 2.050085365772247314e-02 1.324098091572523117e-02
-6.958805322647094727e-01 2.683732211589813232e-01 -1.614807993173599243e-01
-8.030325770378112793e-01 2.458059489727020264e-01 2.243389040231704712e-01
-6.236326098442077637e-01 1.658902168273925781e-01 8.697734028100967407e-02
-8.403124213218688965e-01 1.899985373020172119e-01 -2.199453711509704590e-01
-6.595845222473144531e-01 1.020185798406600952e-01 -1.858260333538055420e-01
-8.905582427978515625e-01 1.289035528898239136e-01 -6.040147040039300919e-03
-7.509000301361083984e-01 3.174060285091400146e-01 9.709833562374114990e-02
-6.191496253013610840e-01 1.495957672595977783e-01 -5.199315026402473450e-02
-8.828507661819458008e-01 1.006492078304290771e-01 -5.085333250463008881e-04
-7.516044974327087402e-01 1.451211571693420410e-01 -2.878302037715911865e-01
-6.993154287338256836e-01 1.675353944301605225e-02 -8.624815382063388824e-03
-8.074564933776855469e-01 8.485584706068038940e-02 1.989158391952514648e-01
-8.559046387672424316e-01 1.784143298864364624e-01 1.815654635429382324e-01
-6.288670897483825684e-01 2.286712974309921265e-01 -1.950535550713539124e-02
-7.093184590339660645e-01 1.557234972715377808e-01 2.573691308498382568e-01
-8.475789427757263184e-01 1.166962832212448120e-01 1.745639145374298096e-01
-8.853387236595153809e-01 1.347504258155822754e-01 6.612434238195419312e-02
-6.493276357650756836e-01 6.065244972705841064e-02 -3.854349628090858459e-02
-7.427192330360412598e-01 8.120704442262649536e-02 2.189857661724090576e-01
-6.549088954925537109e-01 1.478533297777175903e-01 -1.971491724252700806e-01
-6.426012516021728516e-01 1.078839302062988281e-01 1.184277534484863281e-01
-8.550642728805541992e-01 2.680457830429077148e-01 6.303072720766067505e-02
-7.852836251258850098e-01 3.054586946964263916e-01 -9.498333185911178589e-02
-6.345653533935546875e-01 2.433614581823348999e-01 -9.186496026813983917e-04
-7.031733989715576172e-01 4.819791764020919800e-02 -1.898237764835357666e-01
-8.887853622436523438e-01 2.019020169973373413e-01 -1.729122549295425415e-02
-8.055075407028198242e-01 2.440396696329116821e-01 -2.124600708484649658e-01
-6.979819536209106445e-01 2.849026620388031006e-01 -1.261427253484725952e-01
-7.769932150840759277e-01 2.450932413339614868e-01 -2.290810793638229370e-01
-7.205951809883117676e-01 1.313571631908416748e-02 -1.046513691544532776e-01
-7.244441509246826172e-01 5.016743391752243042e-02 1.637979745864868164e-01
-6.859221458435058594e-01 2.598151266574859619e-01 -1.628338843584060669e-01
-6.608172059059143066e-01 2.794169187545776367e-01 5.864759534597396851e-02
-8.737858533859252930e-01 1.236184835433959961e-01 -1.460485309362411499e-01
-6.892787218093872070e-01 5.549385398626327515e-02 1.357031166553497314e-01
-6.333026885986328125e-01 1.531408876180648804e-01 1.279806196689605713e-01
-8.543977737426757812e-01 4.970744252204895020e-02 -1.901175267994403839e-02
-7.760292291641235352e-01 2.379324734210968018e-01 -2.378166466951370239e-01
-6.680291891098022461e-01 8.122403919696807861e-02 -1.815305501222610474e-01
-8.105791807174682617e-01 2.689707577228546143e-01 -1.664597839117050171e-01
-7.450566291809082031e-01 4.085406661033630371e-03 5.087696947157382965e-03
-7.611673474311828613e-01 1.765285432338714600e-02 8.773327618837356567e-02
-8.292976617813110352e-01 2.472915500402450562e-01 1.886728107929229736e-01
-8.094813823699951172e-01 3.086797595024108887e-01 -1.628997176885604858e-02
-7.175499796867370605e-01 2.789350152015686035e-01 1.939093619585037231e-01
-7.703666090965270996e-01 5.646988749504089355e-03 1.787401363253593445e-02
-8.092209696769714355e-01 5.444939434528350830e-02 -2.045378088951110840e-01
-8.042049407958984375e-01 2.089533209800720215e-02 -1.231141239404678345e-01
-6.584513783454895020e-01 4.890919476747512817e-02 -1.108316425234079361e-02
-8.615656495094299316e-01 1.732722222805023193e-01 1.685906201601028442e-01
-7.820270657539367676e-01 8.603235334157943726e-02 -2.613850533962249756e-01
-6.214528083801269531e-01 1.231099814176559448e-01 8.597166277468204498e-03
-7.257644534111022949e-01 3.041302859783172607e-01 -1.018811091780662537e-01
-8.428092598915100098e-01 4.308997094631195068e-02 -9.636941552162170410e-02
-8.090549707412719727e-01 1.785452961921691895e-01 2.499499469995498657e-01
-7.471111416816711426e-01 9.117645770311355591e-02 2.308204919099807739e-01
-7.986039519309997559e-01 1.188038289546966553e-02 1.120623294264078140e-02
-6.448861956596374512e-01 6.680125743150711060e-02 -2.972196415066719055e-02
-6.743416786193847656e-01 1.968257129192352295e-01 2.221109718084335327e-01
-7.284856438636779785e-01 3.194238543510437012e-01 -1.639640331268310547e-02
-6.793107986450195312e-01 2.948833703994750977e-01 7.231557369232177734e-02
-7.996724843978881836e-01 8.038488775491714478e-02 -2.462675273418426514e-01
-6.571213006973266602e-01 1.906465440988540649e-01 1.940283924341201782e-01
-7.560947537422180176e-01 2.368420362472534180e-03 -1.428911089897155762e-02
-8.757218122482299805e-01 8.474133908748626709e-02 -5.780537053942680359e-02
-7.743881940841674805e-01 6.020682305097579956e-02 -2.378535270690917969e-01
-8.929763436317443848e-01 1.683808565139770508e-01 8.965524844825267792e-03
-7.940912842750549316e-01 9.738615155220031738e-02 2.237811237573623657e-01
-7.297384738922119141e-01 3.212042748928070068e-01 2.137779444456100464e-02
-8.183447122573852539e-01 4.162956774234771729e-02 1.040611937642097473e-01
-8.283913731575012207e-01 3.012737631797790527e-02 -9.443264454603195190e-02
-6.166406273841857910e-01 1.579362750053405762e-01 8.262502960860729218e-04
-8.354912996292114258e-01 2.835216820240020752e-01 -7.180918008089065552e-02
-7.077639102935791016e-01 2.438284605741500854e-01 2.317575961351394653e-01
-7.774024605751037598e-01 3.041509389877319336e-01 -1.072305291891098022e-01
-7.858876585960388184e-01 1.149275898933410645e-02 -1.086475700139999390e-01
-7.073708176612854004e-01 2.665219604969024658e-01 -1.787783503532409668e-01
-7.934187650680541992e-01 2.114042639732360840e-02 7.631900906562805176e-02
-6.283021569252014160e-01 1.901548355817794800e-01 1.062301546335220337e-01
-6.760041117668151855e-01 3.253297507762908936e-02 -6.597917526960372925e-04
-6.633974909782409668e-01 1.950424611568450928e-01 2.048766016960144043e-01
-6.637842059135437012e-01 6.081914156675338745e-02 8.877100795507431030e-02
-6.242971420288085938e-01 1.867215633392333984e-01 8.604761213064193726e-02
-7.512687444686889648e-01 1.285400241613388062e-01 -2.859819829463958740e-01
-6.470386385917663574e-01 2.504843771457672119e-01 -7.776288688182830811e-02
-8.228279948234558105e-01 5.494612455368041992e-02 1.295016407966613770e-01
-6.174758672714233398e-01 1.789995580911636353e-01 2.217997238039970398e-02
-6.598781943321228027e-01 1.109293699264526367e-01 1.687005460262298584e-01
-8.656464815139770508e-01 1.438809931278228760e-01 -1.796233654022216797e-01
-6.216024160385131836e-01 1.303200572729110718e-01 -5.375434830784797668e-02
-8.285392522811889648e-01 1.916423588991165161e-01 2.268768548965454102e-01
-8.746150732040405273e-01 1.529413461685180664e-01 -1.531144678592681885e-01
-6.345429420471191406e-01 2.260669171810150146e-01 -7.802132517099380493e-02
-8.233346939086914062e-01 2.731834650039672852e-01 -1.373114138841629028e-01
-7.744930982589721680e-01 1.859684735536575317e-01 -2.774545252323150635e-01
-6.587826609611511230e-01 5.399469286203384399e-02 3.981328383088111877e-02
-7.615070939064025879e-01 1.277509182691574097e-01 2.595630884170532227e-01
-7.363639473915100098e-01 1.423643231391906738e-01 2.651569247245788574e-01
-6.758952140808105469e-01 6.796243041753768921e-02 -1.786195635795593262e-01
-6.894392967224121094e-01 2.389764040708541870e-01 -1.997547000646591187e-01
-6.697160005569458008e-01 1.303397864103317261e-01 -2.220492511987686157e-01
-8.349691629409790039e-01 4.926244169473648071e-02 -1.475023180246353149e-01
-8.337286710739135742e-01 8.882265537977218628e-02 1.693525612354278564e-01
-6.733290553092956543e-01 1.951359063386917114e-01 -2.174904048442840576e-01
-7.604283094406127930e-01 2.126986235380172729e-01 2.674121260643005371e-01
-6.502693891525268555e-01 2.677563130855560303e-01 4.683242738246917725e-02
-8.269020318984985352e-01 7.787678390741348267e-02 1.649481952190399170e-01
-7.461868524551391602e-01 2.920162677764892578e-02 1.245747059583663940e-01
-7.608402371406555176e-01 2.564125955104827881e-01 2.364324182271957397e-01
-7.023838162422180176e-01 3.109126091003417969e-01 -1.282240357249975204e-02
-6.582165956497192383e-01 8.301369845867156982e-02 1.247851699590682983e-01
-8.711118698120117188e-01 8.388800173997879028e-02 -9.641332924365997314e-02
-8.790673017501831055e-01 2.190876007080078125e-01 -7.414657622575759888e-02
-6.600921750068664551e-01 2.703171372413635254e-01 1.008338630199432373e-01
-7.003706097602844238e-01 9.775371104478836060e-02 2.140129804611206055e-01
-8.168854713439941406e-01 6.974347680807113647e-02 1.666771620512008667e-01
-8.229287266731262207e-01 3.019956350326538086e-01 2.023819461464881897e-02
-6.849295496940612793e-01 2.752977609634399414e-02 -7.453815639019012451e-02
-8.755556941032409668e-01 1.310833990573883057e-01 1.104902625083923340e-01
-8.918375372886657715e-01 1.383324861526489258e-01 -3.282016888260841370e-02
-6.210028529167175293e-01 1.297102868556976318e-01 2.875979617238044739e-02
-7.278373241424560547e-01 2.540555596351623535e-02 -1.637106388807296753e-01
-7.010421156883239746e-01 3.010081052780151367e-01 -7.614393532276153564e-02
-8.460781574249267578e-01 1.230520009994506836e-01 -2.169118523597717285e-01
-8.379491567611694336e-01 2.901325225830078125e-01 -3.611423540860414505e-03
-8.323903083801269531e-01 1.726463288068771362e-01 -2.391477823257446289e-01
-8.036524057388305664e-01 1.157455146312713623e-02 -3.767585009336471558e-02
-8.886714577674865723e-01 2.004823535680770874e-01 1.993956789374351501e-02
-6.384177207946777344e-01 2.510477900505065918e-01 1.429401431232690811e-02
-7.496192455291748047e-01 2.406984567642211914e-03 -5.139948055148124695e-02
-6.687827706336975098e-01 6.536450982093811035e-02 -1.571369022130966187e-01
-6.742514967918395996e-01 1.383408755064010620e-01 2.147436738014221191e-01
-8.714694380760192871e-01 2.077155262231826782e-01 1.247675269842147827e-01
-8.321419954299926758e-01 1.501065045595169067e-01 2.195925712585449219e-01
-8.580160140991210938e-01 6.492042541503906250e-02 5.444610491394996643e-02
-6.632852554321289062e-01 4.631178826093673706e-02 -6.957136839628219604e-02
-8.038520812988281250e-01 2.697885632514953613e-01 1.930871605873107910e-01
-6.184757351875305176e-01 1.822154968976974487e-01 3.691182285547256470e-02
-8.738024830818176270e-01 2.184654176235198975e-01 -1.050273180007934570e-01
-6.393983960151672363e-01 1.223358809947967529e-01 1.259685158729553223e-01
-7.982821464538574219e-01 1.347588002681732178e-02 -9.530953317880630493e-02
-8.553359508514404297e-01 5.407837778329849243e-02 1.807832345366477966e-02
-7.024871110916137695e-01 3.224763274192810059e-02 9.438204765319824219e-02
-6.984923481941223145e-01 3.023168444633483887e-01 1.028160825371742249e-01
-8.738197088241577148e-01 8.458036184310913086e-02 2.856048196554183960e-02
-6.418747305870056152e-01 9.205958992242813110e-02 -1.166292130947113037e-01
-6.243712306022644043e-01 2.047841846942901611e-01 -5.558492988348007202e-02
-7.300326228141784668e-01 3.144401311874389648e-01 1.006467938423156738e-01
-8.575887680053710938e-01 9.473957866430282593e-02 -1.703067272901535034e-01
-6.293738484382629395e-01 1.762841045856475830e-01 -1.158314943313598633e-01
-6.947254538536071777e-01 1.911778002977371216e-01 2.475899010896682739e-01
-6.257578134536743164e-01 1.792798042297363281e-01 -9.639313817024230957e-02
-6.528761982917785645e-01 2.626824676990509033e-01 9.361831098794937134e-02
-6.329075098037719727e-01 1.317294836044311523e-01 -1.271381229162216187e-01
-7.233711481094360352e-01 2.458300292491912842e-01 -2.224483639001846313e-01
-6.247070431709289551e-01 1.762923151254653931e-01 9.278306365013122559e-02
-6.692637205123901367e-01 6.550720334053039551e-02 1.170437037944793701e-01
-8.492648601531982422e-01 1.684662699699401855e-01 1.953295469284057617e-01
-8.671720027923583984e-01 2.456730306148529053e-01 7.696092128753662109e-02
-8.211962580680847168e-01 7.955530285835266113e-02 -2.235086560249328613e-01
-6.290565729141235352e-01 9.753271937370300293e-02 -1.814949885010719299e-02
-7.858278155326843262e-01 3.160961866378784180e-01 7.250083982944488525e-02
-6.693179011344909668e-01 2.540924549102783203e-01 1.661434322595596313e-01
-8.454892039299011230e-01 1.492370069026947021e-01 -2.231812626123428345e-01
-6.282511353492736816e-01 2.291305661201477051e-01 1.353937294334173203e-02
-8.878634572029113770e-01 1.669070720672607422e-01 6.722135841846466064e-02
-8.823474645614624023e-01 1.768685281276702881e-01 -1.153829172253608704e-01
-8.735472559928894043e-01 2.112350612878799438e-01 -1.181277707219123840e-01
-7.337948083877563477e-01 5.370084196329116821e-02 -2.259071469306945801e-01
-7.155849933624267578e-01 1.390884816646575928e-01 -2.744800150394439697e-01
-6.953808665275573730e-01 3.421209752559661865e-02 -1.420161277055740356e-01
-6.569794416427612305e-01 2.746858894824981689e-01 -2.827076613903045654e-02
-7.929713129997253418e-01 3.116077780723571777e-01 8.786576986312866211e-02
-6.364595890045166016e-01 1.363010555505752563e-01 -1.434320360422134399e-01
-7.796084284782409668e-01 6.647944450378417969e-03 -8.357997983694076538e-02
-6.419135332107543945e-01 2.530035972595214844e-01 -3.398164734244346619e-02
-8.625090122222900391e-01 6.633044779300689697e-02 3.353830799460411072e-02
-7.990033030509948730e-01 2.267300188541412354e-01 2.431406974792480469e-01
-7.903658151626586914e-01 4.373347014188766479e-02 -2.040183842182159424e-01
-7.841098308563232422e-01 1.435662806034088135e-02 5.823232233524322510e-02
-7.897507548332214355e-01 2.741967737674713135e-01 -1.768490970134735107e-01
-8.264955878257751465e-01 2.481626272201538086e-01 -1.811429709196090698e-01
-8.085256218910217285e-01 1.915366947650909424e-02 -1.030020266771316528e-01
-7.712101936340332031e-01 2.877917885780334473e-01 -1.579094976186752319e-01
-6.469712257385253906e-01 2.571217715740203857e-01 -5.329607427120208740e-02
-7.122120261192321777e-01 1.412777602672576904e-02 2.739629894495010376e-02
-7.406642436981201172e-01 2.629885375499725342e-01 -2.058626562356948853e-01
-7.984909415245056152e-01 2.894498705863952637e-01 1.606135964393615723e-01
-7.371107339859008789e-01 3.795966506004333496e-03 -5.074741691350936890e-02
-6.515352129936218262e-01 7.410669326782226562e-02 8.176708966493606567e-02
-7.012751698493957520e-01 4.369951039552688599e-02 -1.778083294630050659e-01
-8.846507668495178223e-01 2.062042653560638428e-01 -6.304561346769332886e-02
-8.357468843460083008e-01 2.889288067817687988e-01 6.419824808835983276e-02
-8.091047406196594238e-01 3.100731074810028076e-01 1.218568999320268631e-02
-7.178530097007751465e-01 2.929615974426269531e-01 1.647081077098846436e-01
-8.526632785797119141e-01 1.015640646219253540e-01 -1.898408979177474976e-01
-8.445821404457092285e-01 1.864255219697952271e-01 2.029947489500045776e-01
-6.607811450958251953e-01 2.625639736652374268e-01 -9.825943410396575928e-02
-7.473317980766296387e-01 4.560746997594833374e-02 1.637369841337203979e-01
-6.736444830894470215e-01 2.803600728511810303e-01 1.174648702144622803e-01
-7.731679677963256836e-01 2.898156642913818359e-02 1.205171942710876465e-01
-8.760439753532409668e-01 2.389560937881469727e-01 -1.079648546874523163e-02
-7.614941596984863281e-01 3.226985931396484375e-01 4.551783204078674316e-02
-6.309430003166198730e-01 1.934724152088165283e-01 -1.105218529701232910e-01
-8.386934995651245117e-01 4.743265360593795776e-02 7.072836905717849731e-02
-6.982912421226501465e-01 3.068995773792266846e-01 -3.335530310869216919e-02
-7.111682295799255371e-01 3.023027181625366211e-01 1.286699771881103516e-01
-8.428518772125244141e-01 2.859257757663726807e-01 8.242820389568805695e-03
-8.767564892768859863e-01 9.821759164333343506e-02 -9.842488169670104980e-02
-8.184703588485717773e-01 2.031221091747283936e-01 -2.401771396398544312e-01
-7.498129606246948242e-01 2.133354544639587402e-03 -3.038869798183441162e-02
-7.753456830978393555e-01 3.214823901653289795e-01 1.101902220398187637e-02
-7.332475185394287109e-01 1.269684731960296631e-01 -2.814436256885528564e-01
-8.729078769683837891e-01 9.734688699245452881e-02 7.312025874853134155e-02
-6.421654224395751953e-01 1.797105967998504639e-01 -1.597463488578796387e-01
-6.219589710235595703e-01 1.987369358539581299e-01 5.407642573118209839e-02
-7.874267697334289551e-01 3.447969257831573486e-02 1.259927004575729370e-01
-8.570168018341064453e-01 2.355429381132125854e-01 -1.362353712320327759e-01
-6.471795439720153809e-01 1.610891819000244141e-01 1.722726374864578247e-01
-7.959314584732055664e-01 1.857268214225769043e-01 2.598398923873901367e-01
-8.398875594139099121e-01 1.579541414976119995e-01 -2.317144423723220825e-01
-8.719037771224975586e-01 1.298499703407287598e-01 -1.564971357583999634e-01
-6.356034278869628906e-01 2.428269386291503906e-01 4.926043376326560974e-02
-8.389877676963806152e-01 1.112154573202133179e-01 -2.233217507600784302e-01
-7.101823091506958008e-01 2.381413429975509644e-01 -2.225200682878494263e-01
-8.062474727630615234e-01 6.039738655090332031e-02 -2.170727849006652832e-01
-6.432985663414001465e-01 2.359315901994705200e-01 -9.846293181180953979e-02
-6.899080872535705566e-01 1.675720661878585815e-01 -2.505089044570922852e-01
-7.759470343589782715e-01 1.118895411491394043e-01 -2.787214815616607666e-01
-6.240953207015991211e-01 2.133269309997558594e-01 -2.640850096940994263e-02
-6.935359835624694824e-01 2.044899761676788330e-02 2.277898602187633514e-04
-8.495276570320129395e-01 2.379834353923797607e-01 1.582296341657638550e-01
-7.360642552375793457e-01 1.945133209228515625e-01 -2.722714245319366455e-01
-8.678629994392395020e-01 2.502601742744445801e-01 -4.383281618356704712e-02
-6.355662941932678223e-01 1.094171553850173950e-01 -1.165215820074081421e-01
-8.230494260787963867e-01 4.446853697299957275e-02 -1.629183888435363770e-01
-7.066829204559326172e-01 3.135203719139099121e-01 4.420308023691177368e-02
-6.875905990600585938e-01 3.040951490402221680e-01 2.329220995306968689e-02
-8.716138005256652832e-01 1.515018641948699951e-01 1.368611305952072144e-01
-8.392860293388366699e-01 1.807395219802856445e-01 -2.262331694364547729e-01
-6.303908824920654297e-01 2.109297513961791992e-01 9.742683172225952148e-02
-6.604507565498352051e-01 1.949251294136047363e-01 -1.949901580810546875e-01
-6.655486822128295898e-01 1.564712375402450562e-01 2.084913253784179688e-01
-8.338738083839416504e-01 2.967222034931182861e-02 -4.222517460584640503e-02
-7.737596631050109863e-01 3.083556294441223145e-01 -9.362550824880599976e-02
-7.302869558334350586e-01 1.031887829303741455e-01 -2.712385654449462891e-01
-8.555560708045959473e-01 1.318108886480331421e-01 1.693738400936126709e-01
-6.771429777145385742e-01 2.966320812702178955e-01 9.541639126837253571e-03
-7.430447936058044434e-01 2.399693429470062256e-02 1.081224530935287476e-01
-8.673116564750671387e-01 2.541181147098541260e-01 3.191627934575080872e-02
-6.563934683799743652e-01 2.754851281642913818e-01 -1.492859143763780594e-02
-6.895236968994140625e-01 2.516730129718780518e-01 -1.820059269666671753e-01
-6.732075810432434082e-01 5.233661085367202759e-02 -1.389114856719970703e-01
-7.008092403411865234e-01 1.745795756578445435e-01 2.539418637752532959e-01
-6.948714852333068848e-01 2.513612806797027588e-02 -1.034078299999237061e-01
-7.270034551620483398e-01 3.003069162368774414e-01 1.529123932123184204e-01
-7.150776386260986328e-01 2.670904994010925293e-02 -1.531314253807067871e-01
-8.220332264900207520e-01 1.525098085403442383e-01 -2.553437054157257080e-01
-8.796736598014831543e-01 1.283722966909408569e-01 -1.249546781182289124e-01
-6.326491832733154297e-01 1.651159822940826416e-01 -1.330690830945968628e-01
-8.742159605026245117e-01 1.191868931055068970e-01 1.032719016075134277e-01
-6.742883920669555664e-01 2.876318097114562988e-01 9.061534702777862549e-02
-6.531640887260437012e-01 1.778645813465118408e-01 1.875778138637542725e-01
-7.469943165779113770e-01 1.336415261030197144e-01 2.629854381084442139e-01
-6.577100753784179688e-01 2.246814817190170288e-01 1.763773411512374878e-01
-6.799300909042358398e-01 2.212691605091094971e-01 2.188772410154342651e-01
-8.061568737030029297e-01 3.096812367439270020e-01 5.802337825298309326e-02
-8.734193444252014160e-01 1.828816980123519897e-01 1.324374973773956299e-01
-6.843181252479553223e-01 4.501959681510925293e-02 9.868755191564559937e-02
-8.922295570373535156e-01 1.521841138601303101e-01 -4.776079207658767700e-02
-6.355026960372924805e-01 1.562578529119491577e-01 -1.443821787834167480e-01
-7.803506255149841309e-01 3.158273100852966309e-01 -4.750875011086463928e-02
-8.034409284591674805e-01 1.440188586711883545e-01 2.483098059892654419e-01
-7.211822867393493652e-01 1.659091562032699585e-01 2.662084102630615234e-01
-7.548237442970275879e-01 2.496278285980224609e-02 -1.753004044294357300e-01
-7.008761167526245117e-01 2.966547012329101562e-02 8.199345320463180542e-02
-6.974834203720092773e-01 1.989286392927169800e-01 -2.453546971082687378e-01
-6.515445113182067871e-01 2.649275958538055420e-01 7.659253478050231934e-02
-6.478627920150756836e-01 2.039746940135955811e-01 -1.589040309190750122e-01
-8.918628692626953125e-01 1.809130311012268066e-01 1.604285836219787598e-02
-8.624637126922607422e-01 2.626754939556121826e-01 1.556670758873224258e-02
-7.154502868652343750e-01 1.825527697801589966e-01 -2.679707109928131104e-01
-7.474341988563537598e-01 7.854442298412322998e-02 -2.591316998004913330e-01
-8.285021781921386719e-01 2.828349173069000244e-01 1.206385791301727295e-01
-8.783555030822753906e-01 8.811649680137634277e-02 -2.428863197565078735e-02
-8.408945202827453613e-01 9.262382984161376953e-02 1.613937020301818848e-01
-7.955520749092102051e-01 3.411343693733215332e-02 1.170142814517021179e-01
-6.742498278617858887e-01 2.652212083339691162e-01 1.573435366153717041e-01
-6.840835809707641602e-01 2.791298031806945801e-01 -1.157653778791427612e-01
-6.331876516342163086e-01 1.048705875873565674e-01 -9.639923274517059326e-02
-8.180981278419494629e-01 3.038774728775024414e-01 4.814784601330757141e-02
-7.160500288009643555e-01 2.981445193290710449e-01 -1.121227070689201355e-01
-8.917688727378845215e-01 1.531649827957153320e-01 2.806412801146507263e-02
-7.991610169410705566e-01 2.975018024444580078e-01 -1.068628951907157898e-01
-6.551985740661621094e-01 6.004697829484939575e-02 -9.127324819564819336e-02
-7.792189717292785645e-01 3.103919029235839844e-01 1.163699999451637268e-01
-7.374449968338012695e-01 1.371464133262634277e-02 -1.303068548440933228e-01
-8.602115511894226074e-01 6.922439485788345337e-02 -1.129038780927658081e-01
-8.029471039772033691e-01 3.030412793159484863e-01 -7.779832929372787476e-02
-7.163944244384765625e-01 3.121463060379028320e-01 9.217943251132965088e-02
-6.689929366111755371e-01 2.542287707328796387e-01 -1.405463963747024536e-01
-8.532587289810180664e-01 2.232475727796554565e-01 1.655094027519226074e-01
-7.717152833938598633e-01 2.326823770999908447e-02 1.038113385438919067e-01
-7.175323367118835449e-01 9.574264287948608398e-03 -6.537477672100067139e-02
-6.954938173294067383e-01 2.355206012725830078e-01 2.274869680404663086e-01
-8.410634398460388184e-01 4.361131787300109863e-02 -1.074655354022979736e-01
-7.922143936157226562e-01 3.086682260036468506e-01 -7.069760560989379883e-02
-7.949258685111999512e-01 1.302611231803894043e-01 2.480586022138595581e-01
-6.913282275199890137e-01 1.035052686929702759e-01 2.104769945144653320e-01
-8.157368302345275879e-01 5.428332835435867310e-02 1.395760178565979004e-01
-7.387350797653198242e-01 2.373852431774139404e-01 2.526876628398895264e-01
-8.402895927429199219e-01 3.912619501352310181e-02 2.432420849800109863e-02
-7.745296359062194824e-01 3.209783136844635010e-01 -6.477721966803073883e-03
-6.511721611022949219e-01 1.107135713100433350e-01 -1.724144369363784790e-01
-8.691608905792236328e-01 1.346116065979003906e-01 -1.673081666231155396e-01
-6.952440738677978516e-01 2.585693597793579102e-01 2.028337717056274414e-01
-7.706928849220275879e-01 1.181270182132720947e-02 -1.261095404624938965e-01
-8.709474205970764160e-01 7.346164435148239136e-02 -1.927785947918891907e-02
-6.568905115127563477e-01 5.375299602746963501e-02 2.446918189525604248e-02
-7.762357592582702637e-01 3.159758448600769043e-01 9.092304110527038574e-02
-6.491971015930175781e-01 6.035552918910980225e-02 -1.790414378046989441e-02
-8.804723024368286133e-01 1.207080483436584473e-01 -1.139372140169143677e-01
-6.995744705200195312e-01 3.107097744941711426e-01 3.222303837537765503e-02
-7.949334979057312012e-01 6.674182415008544922e-02 -2.353033274412155151e-01
-8.550582528114318848e-01 1.119756400585174561e-01 1.537847965955734253e-01
-6.982612013816833496e-01 2.678136229515075684e-01 1.930889189243316650e-01
-6.210851669311523438e-01 1.995343863964080811e-01 4.136157035827636719e-02
-8.752108812332153320e-01 2.321128398180007935e-01 -6.283283978700637817e-02
-7.282733917236328125e-01 2.849780023097991943e-01 1.899544149637222290e-01
-8.586297631263732910e-01 1.114487349987030029e-01 -1.835443973541259766e-01
-6.422652006149291992e-01 7.495484501123428345e-02 -6.616491824388504028e-02
-7.955620884895324707e-01 1.325909197330474854e-01 -2.761063277721405029e-01
-7.628723382949829102e-01 3.182361125946044922e-01 8.920360356569290161e-02
-7.371767759323120117e-01 3.666764497756958008e-02 1.410450041294097900e-01
-7.595990896224975586e-01 8.950912207365036011e-02 2.290850728750228882e-01
-6.693283319473266602e-01 2.312882244586944580e-01 -1.776177287101745605e-01
-6.997283101081848145e-01 9.631069749593734741e-02 -2.449115961790084839e-01
-6.737545728683471680e-01 3.833819180727005005e-02 3.509557992219924927e-02
-8.265178203582763672e-01 2.704744040966033936e-02 -8.230026066303253174e-02
-8.260507583618164062e-01 1.956949234008789062e-01 -2.364500313997268677e-01
-8.810446858406066895e-01 2.238712757825851440e-01 3.817280381917953491e-02
-6.195719838142395020e-01 1.573763638734817505e-01 5.426552891731262207e-02
-8.905992507934570312e-01 1.493553966283798218e-01 3.881274536252021790e-02
-7.371814250946044922e-01 2.927658557891845703e-01 -1.446418911218643188e-01
-8.541560769081115723e-01 1.389437466859817505e-01 -2.059344500303268433e-01
-8.849090933799743652e-01 1.912689507007598877e-01 -8.794052153825759888e-02
-8.065172433853149414e-01 2.263873964548110962e-01 -2.319208979606628418e-01
-6.783111691474914551e-01 3.241373598575592041e-02 1.865818351507186890e-02
-7.956812977790832520e-01 2.568305432796478271e-01 -2.026104032993316650e-01
-7.567974328994750977e-01 3.235173523426055908e-01 2.618233487010002136e-02
-8.498850464820861816e-01 5.847923457622528076e-02 -1.254095584154129028e-01
-6.597917675971984863e-01 2.731823921203613281e-01 8.800423145294189453e-02
-8.305172324180603027e-01 2.821267545223236084e-01 -9.430010616779327393e-02
-6.957676410675048828e-01 4.136886447668075562e-02 -1.631564348936080933e-01
-8.429645299911499023e-01 3.749102354049682617e-02 -3.875920176506042480e-02
-6.555412411689758301e-01 1.137534677982330322e-01 -1.857955157756805420e-01
-6.201769113540649414e-01 1.521145552396774292e-01 -6.403746455907821655e-02
-7.262608408927917480e-01 2.850672006607055664e-01 -1.572593599557876587e-01
-8.492023944854736328e-01 4.660077393054962158e-02 -7.600127905607223511e-02
-8.909975290298461914e-01 1.902775317430496216e-01 -2.035994455218315125e-02
-8.363878130912780762e-01 5.504647642374038696e-02 -1.583143174648284912e-01
-8.166882991790771484e-01 5.003527551889419556e-02 -1.864262521266937256e-01
-8.128792047500610352e-01 1.961813867092132568e-02 2.275395765900611877e-02
-6.967560648918151855e-01 6.098262220621109009e-02 1.580174416303634644e-01
-7.292009592056274414e-01 3.147598505020141602e-01 -5.627853795886039734e-02
-6.227940320968627930e-01 2.056706547737121582e-01 -3.690727055072784424e-02
-7.403367161750793457e-01 3.211485743522644043e-01 -1.913129165768623352e-02
-8.674111962318420410e-01 2.242929339408874512e-01 1.210777312517166138e-01
-6.387666463851928711e-01 2.174473851919174194e-01 1.276694387197494507e-01
-8.233451247215270996e-01 6.775543838739395142e-02 1.539753377437591553e-01
-7.994175553321838379e-01 3.002976179122924805e-01 -9.607885777950286865e-02
-7.693992257118225098e-01 1.107130944728851318e-02 5.523835495114326477e-02
-8.170133233070373535e-01 2.430287301540374756e-01 2.116123139858245850e-01
