-2.054481059312820435e-01 -1.672862470149993896e-01 -1.862050443887710571e-01
-8.985196053981781006e-02 -5.340908095240592957e-02 1.469541639089584351e-01
-2.331750690937042236e-01 -1.079127937555313110e-01 -3.330724537372589111e-01
-2.181143313646316528e-01 -1.484993249177932739e-01 -2.708734869956970215e-01
-2.563461959362030029e-01 -7.595907151699066162e-02 -3.175797164440155029e-01
-1.246018782258033752e-01 -2.606028690934181213e-02 -1.038285195827484131e-01
-1.396189182996749878e-01 -3.962505981326103210e-02 2.540249824523925781e-01
-1.960616409778594971e-01 7.267594337463378906e-04 1.319039762020111084e-01
-2.164669632911682129e-01 -6.219778209924697876e-02 3.380388319492340088e-01
-1.279956549406051636e-01 -2.238454669713973999e-02 1.545989662408828735e-01
-2.638775110244750977e-01 -1.137329638004302979e-02 -1.382878273725509644e-01
-2.000357061624526978e-01 -2.107723057270050049e-02 2.654144465923309326e-01
-3.602544665336608887e-01 -6.518023461103439331e-02 -1.651507429778575897e-02
-2.043647617101669312e-01 -1.609394848346710205e-01 -2.236010432243347168e-01
-2.215180695056915283e-01 -1.685060560703277588e-01 9.558835625648498535e-02
-2.437297403812408447e-01 -1.719374507665634155e-01 1.398216374218463898e-02
-2.522453665733337402e-01 -8.864343166351318359e-03 2.057323604822158813e-01
-2.964921593666076660e-01 -9.925679117441177368e-02 2.646025419235229492e-01
-1.864474862813949585e-01 1.503743231296539307e-03 -1.315769180655479431e-02
-3.449043929576873779e-01 -1.021039858460426331e-01 -1.443608552217483521e-01
-3.016835153102874756e-01 -7.411118596792221069e-02 -2.663505971431732178e-01
-2.403323352336883545e-01 -1.685153841972351074e-01 -1.497651934623718262e-01
-3.253089785575866699e-01 -1.357325613498687744e-01 -1.110466644167900085e-01
-1.977211683988571167e-01 -5.255937576293945312e-03 1.885727494955062866e-01
-1.546619087457656860e-01 -3.635386005043983459e-02 -2.182493060827255249e-01
-2.967703938484191895e-01 -1.432543247938156128e-01 -1.892046928405761719e-01
-2.812958359718322754e-01 -1.632938683032989502e-01 -3.049653768539428711e-02
-2.026842683553695679e-01 -1.483875215053558350e-01 -2.723914384841918945e-01
-1.870201528072357178e-01 -7.664404809474945068e-03 -1.182766929268836975e-01
-1.224167644977569580e-01 -2.867590263485908508e-02 1.729578673839569092e-01
-2.635741829872131348e-01 -1.574038863182067871e-01 -1.922905892133712769e-01
-1.027361378073692322e-01 -1.515949070453643799e-01 -2.434704452753067017e-02
-3.251999914646148682e-01 -1.352038383483886719e-01 6.579086184501647949e-02
-8.421416580677032471e-02 -4.618138819932937622e-02 6.857539410702884197e-04
-2.533982396125793457e-01 -3.368321433663368225e-02 -2.428585141897201538e-01
-3.289230465888977051e-01 -2.581263333559036255e-02 9.282823652029037476e-02
-1.082712709903717041e-01 -2.797998860478401184e-02 9.390006214380264282e-02
-1.064970418810844421e-01 -1.470991373062133789e-01 8.099932223558425903e-02
-1.498732566833496094e-01 -1.707098484039306641e-01 -4.194798320531845093e-02
-3.406929969787597656e-01 -3.409295901656150818e-02 6.599933654069900513e-02
-2.443444877862930298e-01 -9.674355387687683105e-03 -1.454039365053176880e-01
-2.680894732475280762e-01 1.525327563285827637e-03 4.981935396790504456e-02
-2.812250852584838867e-01 -1.287433505058288574e-02 -1.207672953605651855e-01
-2.216885536909103394e-01 -1.361324340105056763e-01 2.559239268302917480e-01
-1.342977583408355713e-01 -1.584602892398834229e-01 9.454052895307540894e-02
-3.186931610107421875e-01 -3.095628693699836731e-02 1.746083199977874756e-01
-2.779455482959747314e-01 -1.096682995557785034e-02 1.818411946296691895e-01
-2.479916214942932129e-01 -2.468342706561088562e-02 2.720833718776702881e-01
-3.113419115543365479e-01 -1.331353932619094849e-02 -5.606147460639476776e-03
-3.207722604274749756e-01 -3.805056959390640259e-02 -1.520804762840270996e-01
-3.046152591705322266e-01 -1.139018684625625610e-02 9.403703361749649048e-02
-1.361112296581268311e-01 -1.683442294597625732e-02 -7.318384200334548950e-02
-3.440935015678405762e-01 -4.461168125271797180e-02 1.130192950367927551e-01
-8.835406601428985596e-02 -1.406376659870147705e-01 -3.948286920785903931e-02
-3.335036337375640869e-01 -1.269154846668243408e-01 -1.187788546085357666e-01
-3.597168922424316406e-01 -7.645694911479949951e-02 -6.050018966197967529e-02
-1.022864207625389099e-01 -3.665899112820625305e-02 1.307860314846038818e-01
-2.312407791614532471e-01 -1.462783217430114746e-01 2.171366214752197266e-01
-3.458793461322784424e-01 -3.840970247983932495e-02 -2.890624804422259331e-03
-2.678995132446289062e-01 -1.674756258726119995e-01 -5.711433663964271545e-02
-1.273092329502105713e-01 -8.976663649082183838e-02 -2.745588421821594238e-01
-1.973723471164703369e-01 -1.384159773588180542e-01 -2.973110079765319824e-01
-2.817721366882324219e-01 -1.310608386993408203e-01 -2.611947953701019287e-01
-1.120545044541358948e-01 -1.549499630928039551e-01 -8.835982531309127808e-02
-3.452919721603393555e-01 -1.119362339377403259e-01 -1.148059815168380737e-01
-2.855880260467529297e-01 -7.995076477527618408e-03 1.411196291446685791e-01
-3.082682490348815918e-01 -1.319031417369842529e-01 1.561605781316757202e-01
-1.728703230619430542e-01 -1.097155362367630005e-02 1.956939101219177246e-01
-2.344193160533905029e-01 -7.392594218254089355e-02 -3.259516954421997070e-01
-1.658654510974884033e-01 -2.876161411404609680e-02 -2.051387727260589600e-01
-1.513270139694213867e-01 -7.581144571304321289e-03 -2.832132577896118164e-02
-2.098302543163299561e-01 -1.017651781439781189e-01 -3.385930359363555908e-01
-3.450597524642944336e-01 -3.705909475684165955e-02 1.667708158493041992e-02
-3.601747751235961914e-01 -9.295976907014846802e-02 1.473592966794967651e-02
-2.461492866277694702e-01 -1.724529862403869629e-01 -1.554159261286258698e-02
-2.103255242109298706e-01 -4.175663366913795471e-02 3.169838786125183105e-01
-2.953580021858215332e-01 -1.502934247255325317e-01 8.964198082685470581e-02
-1.616601794958114624e-01 -1.730266809463500977e-01 -1.881153509020805359e-02
-3.517432212829589844e-01 -7.642503827810287476e-02 -1.227433606982231140e-01
-3.224763870239257812e-01 -1.336188912391662598e-01 -1.422296911478042603e-01
-9.667938202619552612e-02 -1.060641258955001831e-01 1.972181499004364014e-01
-8.822596818208694458e-02 -6.930876523256301880e-02 -1.532072573900222778e-01
-1.228647753596305847e-01 -2.453277632594108582e-02 -8.546553552150726318e-02
-1.490194797515869141e-01 -4.827620834112167358e-02 -2.456811666488647461e-01
-1.533737331628799438e-01 -2.020449191331863403e-02 2.114130705595016479e-01
-2.353554666042327881e-01 -1.526387929916381836e-01 -2.487091273069381714e-01
-1.459325850009918213e-01 -1.269996911287307739e-02 1.436840295791625977e-01
-2.630628347396850586e-01 1.618765294551849365e-03 -4.984011407941579819e-03
-3.064085543155670166e-01 -1.251464188098907471e-01 1.870722621679306030e-01
-1.024736836552619934e-01 -1.482632905244827271e-01 -9.725736826658248901e-02
-9.226835519075393677e-02 -3.911343589425086975e-02 6.874276697635650635e-02
-2.011280506849288940e-01 -1.148110702633857727e-01 -3.313718438148498535e-01
-6.690056622028350830e-02 -7.751891016960144043e-02 -2.640767022967338562e-02
-1.582898497581481934e-01 -1.646515876054763794e-01 -1.668913811445236206e-01
-3.232979178428649902e-01 -5.820349603891372681e-02 2.227823734283447266e-01
-1.209352761507034302e-01 -1.563025116920471191e-01 -1.253925710916519165e-01
-1.868886798620223999e-01 -1.483006477355957031e-01 -2.686199843883514404e-01
-8.201588690280914307e-02 -1.346609741449356079e-01 -1.922271400690078735e-02
-6.962636113166809082e-02 -7.417598366737365723e-02 7.198227941989898682e-02
-2.095582187175750732e-01 -1.219151169061660767e-01 2.935495972633361816e-01
-2.229592353105545044e-01 -1.719725430011749268e-01 -1.365108639001846313e-01
-8.941977471113204956e-02 -7.433377951383590698e-02 1.868562251329421997e-01
-2.594276666641235352e-01 -5.831051245331764221e-02 3.194832801818847656e-01
-2.224301844835281372e-01 -2.822409942746162415e-02 -2.352146804332733154e-01
-2.241865694522857666e-01 -1.707392632961273193e-01 7.085968554019927979e-02
-1.883479356765747070e-01 -1.687155216932296753e-01 9.693190455436706543e-02
-2.310217916965484619e-01 2.123184502124786377e-03 1.335520744323730469e-01
-3.106610476970672607e-01 -1.718436926603317261e-02 -6.495808809995651245e-02
-1.452001035213470459e-01 -4.154265671968460083e-02 2.676025927066802979e-01
-1.691056787967681885e-01 -9.424233436584472656e-02 3.195004463195800781e-01
-3.009130656719207764e-01 -4.368556290864944458e-02 -2.159712165594100952e-01
-3.539413809776306152e-01 -1.076294779777526855e-01 2.130641415715217590e-02
-2.710597515106201172e-01 -5.485035479068756104e-03 1.563117653131484985e-01
-1.812423616647720337e-01 -5.219899117946624756e-03 1.683387607336044312e-01
-3.045969903469085693e-01 -4.036372527480125427e-02 -1.995081901550292969e-01
-8.180037140846252441e-02 -6.922737509012222290e-02 1.483048349618911743e-01
-1.626610159873962402e-01 -2.564862370491027832e-03 1.325202547013759613e-02
-2.797402143478393555e-01 -2.311472967267036438e-02 2.349216192960739136e-01
-2.409894615411758423e-01 4.112623631954193115e-03 -7.838498800992965698e-03
-3.184031546115875244e-01 -1.638614386320114136e-02 1.537777669727802277e-02
-6.763978302478790283e-02 -7.290033996105194092e-02 2.454695664346218109e-02
-1.783293932676315308e-01 -1.195266991853713989e-01 2.913197875022888184e-01
-7.364203035831451416e-02 -1.236841976642608643e-01 -2.357456460595130920e-02
-1.036588698625564575e-01 -4.237048700451850891e-02 -1.192232370376586914e-01
-1.861937642097473145e-01 -1.659745424985885620e-01 1.181751862168312073e-01
-1.382780671119689941e-01 -6.057509034872055054e-02 -2.575854659080505371e-01
-1.433397829532623291e-01 -1.640157848596572876e-01 6.991500407457351685e-02
-1.479831635951995850e-01 -7.334839552640914917e-02 3.066110908985137939e-01
-1.976227909326553345e-01 -1.763049215078353882e-01 -7.082299888134002686e-02
-3.570262789726257324e-01 -9.786480665206909180e-02 4.590128362178802490e-02
-1.971424967050552368e-01 -1.652426421642303467e-01 1.274525374174118042e-01
-1.113478317856788635e-01 -2.530765533447265625e-02 -2.160778641700744629e-02
-1.314415633678436279e-01 -8.321535587310791016e-02 2.855265438556671143e-01
-1.359438896179199219e-01 -1.007188409566879272e-01 2.812867760658264160e-01
-1.700609624385833740e-01 -1.737470030784606934e-01 4.138996358960866928e-03
-3.401829898357391357e-01 -8.719938993453979492e-02 1.714608669281005859e-01
-1.871630549430847168e-01 -1.717781424522399902e-01 6.509244441986083984e-02
-1.413401514291763306e-01 -1.172526478767395020e-01 2.642601728439331055e-01
-3.434118628501892090e-01 -9.595571458339691162e-02 -1.600798517465591431e-01
-2.268446832895278931e-01 5.461528897285461426e-03 1.893659681081771851e-02
-2.634706199169158936e-01 -1.005056202411651611e-01 -3.185530304908752441e-01
-6.742227077484130859e-02 -1.046132668852806091e-01 -5.712726712226867676e-02
-1.404801905155181885e-01 -1.673834174871444702e-01 -7.752806693315505981e-02
-1.773523986339569092e-01 -1.694235205650329590e-01 8.149401843547821045e-02
-3.563819527626037598e-01 -9.155187755823135376e-02 -8.732242882251739502e-02
-3.553678393363952637e-01 -9.900994598865509033e-02 6.039527431130409241e-02
-2.891271412372589111e-01 -1.097499579191207886e-02 1.554159075021743774e-01
-2.534244954586029053e-01 -4.678140580654144287e-02 3.126950562000274658e-01
-1.823199838399887085e-01 -4.036223143339157104e-02 -2.585923075675964355e-01
-1.247142106294631958e-01 -1.635357737541198730e-02 4.064138606190681458e-02
-2.795089483261108398e-01 -1.610257625579833984e-01 4.424446821212768555e-02
-2.786752283573150635e-01 -4.005247354507446289e-02 2.794539928436279297e-01
-2.846637368202209473e-01 -3.764471411705017090e-02 2.670180499553680420e-01
-1.764534115791320801e-01 -4.856526851654052734e-03 -7.744809240102767944e-02
-2.744485735893249512e-01 -1.071003153920173645e-01 2.833945453166961670e-01
-3.388128280639648438e-01 -4.269967600703239441e-02 -1.012665554881095886e-01
-1.902030855417251587e-01 -4.279181361198425293e-03 -9.476373344659805298e-02
-2.701070010662078857e-01 -4.307272285223007202e-02 -2.555040121078491211e-01
-1.842557638883590698e-01 -2.459050342440605164e-02 2.673559784889221191e-01
-6.452775001525878906e-02 -8.585733920335769653e-02 -5.809438880532979965e-05
-2.314975857734680176e-01 -1.741958707571029663e-01 1.948333578184247017e-03
-2.765153348445892334e-01 -1.627693027257919312e-01 -1.067503169178962708e-01
-2.772330045700073242e-01 -3.707982972264289856e-02 -2.319421321153640747e-01
-3.335933387279510498e-01 -6.673669815063476562e-02 1.993857920169830322e-01
-3.576394319534301758e-01 -1.013710051774978638e-01 -1.752378232777118683e-02
-2.194220721721649170e-01 -1.294190436601638794e-02 -1.698217540979385376e-01
-2.145179063081741333e-01 9.389966726303100586e-04 1.468201130628585815e-01
-7.951338589191436768e-02 -1.148992404341697693e-01 -1.308163404464721680e-01
-2.637930512428283691e-01 -8.386994153261184692e-02 3.178620636463165283e-01
-3.411826491355895996e-01 -1.172005385160446167e-01 8.564728498458862305e-02
-2.437584847211837769e-01 -1.664058566093444824e-01 -1.634830534458160400e-01
-2.274710237979888916e-01 -7.093951106071472168e-03 -1.349940747022628784e-01
-2.612138092517852783e-01 -1.678175628185272217e-01 2.279319800436496735e-02
-3.228875398635864258e-01 -2.533309534192085266e-02 -7.563298940658569336e-02
-7.787312567234039307e-02 -1.292463541030883789e-01 8.125232532620429993e-03
-7.762694358825683594e-02 -8.776880800724029541e-02 1.430484950542449951e-01
-2.961984574794769287e-01 -1.392933577299118042e-01 1.552949696779251099e-01
-9.582719951868057251e-02 -5.200095474720001221e-02 1.696872115135192871e-01
-3.263683915138244629e-01 -1.022407114505767822e-01 -2.139883786439895630e-01
-2.193460613489151001e-01 5.634352564811706543e-03 3.594476357102394104e-02
-2.800830602645874023e-01 -1.621793955564498901e-01 2.239044383168220520e-02
-2.711716592311859131e-01 -8.113309741020202637e-04 1.020640134811401367e-01
-1.736261844635009766e-01 -1.432943642139434814e-01 2.255368232727050781e-01
-3.494742512702941895e-01 -1.155135035514831543e-01 9.363986551761627197e-03
-2.572549879550933838e-01 -1.640866994857788086e-01 -1.573385298252105713e-01
-3.409823179244995117e-01 -4.174422100186347961e-02 -8.411771059036254883e-02
-3.101254105567932129e-01 -1.459687501192092896e-01 5.856883153319358826e-02
-1.126433685421943665e-01 -1.423798501491546631e-01 1.333825439214706421e-01
-1.637167632579803467e-01 -1.617310643196105957e-01 1.280370503664016724e-01
-1.773693263530731201e-01 -1.218940317630767822e-02 -1.371076405048370361e-01
-7.152728736400604248e-02 -1.169120669364929199e-01 3.942694887518882751e-02
-3.108376264572143555e-01 -6.339004635810852051e-02 2.551716268062591553e-01
-2.987762391567230225e-01 -1.330722719430923462e-01 -2.232230603694915771e-01
-1.502461135387420654e-01 -1.389659196138381958e-01 -2.637730836868286133e-01
-1.220166012644767761e-01 -4.742590710520744324e-02 2.372826039791107178e-01
-2.992257177829742432e-01 -5.050396919250488281e-02 -2.354040592908859253e-01
-3.426963090896606445e-01 -3.811497613787651062e-02 8.495441824197769165e-02
-2.491372227668762207e-01 -1.715360879898071289e-01 -7.820259034633636475e-02
-2.083878964185714722e-01 -1.726752966642379761e-01 5.887841805815696716e-02
-7.951866090297698975e-02 -1.276981532573699951e-01 5.073296651244163513e-02
-1.532262712717056274e-01 -1.631856113672256470e-01 1.009654179215431213e-01
-3.226116001605987549e-01 -7.533922046422958374e-02 2.312575727701187134e-01
-2.561333775520324707e-01 -1.272737979888916016e-03 1.451805233955383301e-01
-1.176921799778938293e-01 -1.105521246790885925e-01 -2.556172609329223633e-01
-6.765207648277282715e-02 -1.019595935940742493e-01 6.020789965987205505e-02
-2.746617794036865234e-01 -1.382533311843872070e-01 2.029482424259185791e-01
-3.597280085086822510e-01 -6.516602635383605957e-02 4.271282255649566650e-02
-1.414593905210494995e-01 -1.695737242698669434e-02 -9.369719773530960083e-02
-1.087958440184593201e-01 -2.558055520057678223e-02 5.222399532794952393e-02
-2.239926159381866455e-01 -1.751403808593750000e-01 -7.920126616954803467e-02
-6.705135107040405273e-02 -1.091664582490921021e-01 -2.667510136961936951e-02
-2.923411130905151367e-01 -6.911851465702056885e-03 -3.084618225693702698e-02
-2.814080417156219482e-01 -1.267907172441482544e-01 2.307963371276855469e-01
-2.877897918224334717e-01 -7.275246083736419678e-03 1.265323311090469360e-01
-2.864454090595245361e-01 -1.462026536464691162e-01 1.438321769237518311e-01
-8.936801552772521973e-02 -8.273297548294067383e-02 -1.796942502260208130e-01
-1.538117676973342896e-01 -8.655094355344772339e-02 3.115561902523040771e-01
-9.712197631597518921e-02 -1.390084922313690186e-01 9.233335405588150024e-02
-9.405950456857681274e-02 -1.391371339559555054e-01 -1.163941845297813416e-01
-1.631036847829818726e-01 -1.703576445579528809e-01 4.735171794891357422e-02
-3.064460754394531250e-01 -9.714960306882858276e-02 2.497316300868988037e-01
-3.370043039321899414e-01 -4.186871647834777832e-02 1.424375623464584351e-01
-3.314742445945739746e-01 -2.935596555471420288e-02 1.061155050992965698e-01
-3.335852324962615967e-01 -1.104273498058319092e-01 -1.778720468282699585e-01
-1.290689110755920410e-01 -1.642783582210540771e-01 -1.684036105871200562e-02
-1.226291954517364502e-01 -1.251027286052703857e-01 2.184391170740127563e-01
-1.190618500113487244e-01 -6.514426320791244507e-02 2.581248581409454346e-01
-1.737452298402786255e-01 -1.623896062374114990e-01 -2.019502073526382446e-01
-1.506237685680389404e-01 -1.297194063663482666e-01 2.471265047788619995e-01
-7.615418732166290283e-02 -1.262152045965194702e-01 -4.979236051440238953e-02
-2.243876308202743530e-01 -1.724667847156524658e-01 4.909712076187133789e-02
-1.221304163336753845e-01 -3.025265410542488098e-02 -1.218989714980125427e-01
-3.306095600128173828e-01 -4.575078561902046204e-02 1.805859655141830444e-01
-2.114123553037643433e-01 -7.892151176929473877e-02 3.406587839126586914e-01
-1.766206473112106323e-01 8.003041148185729980e-04 6.432066857814788818e-02
-2.439524531364440918e-01 -1.643780469894409180e-01 -1.791473329067230225e-01
-2.577959001064300537e-01 -1.701827496290206909e-01 -2.600980177521705627e-02
-2.286113053560256958e-01 -7.949403673410415649e-02 3.384828567504882812e-01
-1.569311469793319702e-01 -1.164250522851943970e-01 2.823463380336761475e-01
-2.698199152946472168e-01 -1.635906100273132324e-01 -1.256649047136306763e-01
-2.022830098867416382e-01 -1.487092375755310059e-01 2.150342762470245361e-01
-3.343504965305328369e-01 -1.046468317508697510e-01 1.629529744386672974e-01
-2.278549522161483765e-01 -1.224699243903160095e-01 2.888320982456207275e-01
-2.414110749959945679e-01 -3.780245780944824219e-03 1.823069602251052856e-01
-2.457246333360671997e-01 2.017706632614135742e-03 1.218752935528755188e-01
-2.029053568840026855e-01 -1.762528121471405029e-01 -7.406745571643114090e-03
-2.408650517463684082e-01 -1.716865897178649902e-01 -1.084312647581100464e-01
-2.227925956249237061e-01 -1.592377275228500366e-01 1.605070233345031738e-01
-2.465149909257888794e-01 4.455275833606719971e-03 1.898570731282234192e-02
-1.547709405422210693e-01 -2.917200699448585510e-02 -1.914426684379577637e-01
-1.454109847545623779e-01 -7.686339318752288818e-03 2.418280392885208130e-02
-2.419847398996353149e-01 -1.665530055761337280e-01 8.997645229101181030e-02
-1.556387692689895630e-01 -2.541701123118400574e-02 2.373007088899612427e-01
-2.981863021850585938e-01 -1.513448208570480347e-01 6.793946772813796997e-02
-2.816787064075469971e-01 -1.631452441215515137e-01 -4.519489035010337830e-02
-9.717807173728942871e-02 -4.223835840821266174e-02 -8.733616769313812256e-02
-1.326691806316375732e-01 -1.512726247310638428e-01 1.384729892015457153e-01
-1.415302455425262451e-01 -3.048878163099288940e-02 2.304975539445877075e-01
-1.426798701286315918e-01 -4.420050606131553650e-02 -2.251597791910171509e-01
-2.315923869609832764e-01 -7.605224847793579102e-03 2.111514508724212646e-01
-2.258016467094421387e-01 -1.727580726146697998e-01 -1.229031234979629517e-01
-6.722463667392730713e-02 -1.104977279901504517e-01 -1.212196052074432373e-02
-2.658948898315429688e-01 -1.188427209854125977e-03 1.242411881685256958e-01
-1.871737837791442871e-01 -9.354661405086517334e-02 -3.334232866764068604e-01
-1.504737585783004761e-01 -7.049970328807830811e-03 9.113913774490356445e-02
-2.215199768543243408e-01 -1.535131335258483887e-01 -2.526165246963500977e-01
-2.259124368429183960e-01 -1.267603188753128052e-01 -3.168736398220062256e-01
-1.540940105915069580e-01 -8.382492512464523315e-02 -3.060817718505859375e-01
-1.708275377750396729e-01 -1.503451019525527954e-01 1.959595680236816406e-01
-2.398374527692794800e-01 -1.957771182060241699e-02 -1.984324455261230469e-01
-2.808526158332824707e-01 -1.369923353195190430e-03 3.564799949526786804e-02
-9.444668889045715332e-02 -7.990683615207672119e-02 2.065853625535964966e-01
-2.822956442832946777e-01 -1.546576917171478271e-01 9.907936304807662964e-02
-2.537599802017211914e-01 -1.684150248765945435e-01 4.225113242864608765e-02
-2.224708348512649536e-01 -1.360121518373489380e-01 -3.016293346881866455e-01
-3.234250843524932861e-01 -3.476993739604949951e-02 -1.296021044254302979e-01
-2.230860590934753418e-01 -4.145264625549316406e-03 -1.139884814620018005e-01
-8.702777326107025146e-02 -1.050630956888198853e-01 1.674533635377883911e-01
-2.692668139934539795e-01 -1.541725993156433105e-01 1.346924304962158203e-01
-1.115761920809745789e-01 -1.333697140216827393e-01 1.690446287393569946e-01
-1.160388365387916565e-01 -1.559438854455947876e-01 -1.033710911870002747e-01
-1.567062437534332275e-01 -4.073419421911239624e-02 -2.349148094654083252e-01
-2.907080948352813721e-01 -1.477576792240142822e-02 1.766033023595809937e-01
-1.924659013748168945e-01 -1.448556035757064819e-02 -1.664140522480010986e-01
-1.113653033971786499e-01 -1.292669028043746948e-01 1.824500858783721924e-01
-1.858607381582260132e-01 -1.968502998352050781e-02 2.517736256122589111e-01
-2.219254374504089355e-01 -3.036484122276306152e-04 1.608370393514633179e-01
-1.370401829481124878e-01 -1.642238497734069824e-01 4.501453042030334473e-02
-1.603537201881408691e-01 -8.581571280956268311e-03 -7.555867731571197510e-02
-2.274462133646011353e-01 -1.753551065921783447e-01 -3.189908713102340698e-02
-9.831959754228591919e-02 -3.573369979858398438e-02 -4.056070744991302490e-02
-1.971196979284286499e-01 -1.168829947710037231e-01 3.024594485759735107e-01
-7.745526731014251709e-02 -7.296252250671386719e-02 1.313026994466781616e-01
-1.491924524307250977e-01 -1.670482754707336426e-01 5.282030999660491943e-02
-2.668328881263732910e-01 -1.460538655519485474e-01 1.823711991310119629e-01
-1.854699105024337769e-01 2.570338547229766846e-03 5.130402743816375732e-02
-2.677486240863800049e-01 -1.492087543010711670e-01 -2.259345948696136475e-01
-8.887570351362228394e-02 -1.040923148393630981e-01 -1.842744499444961548e-01
-2.773358225822448730e-01 -1.644076555967330933e-01 -1.226978749036788940e-02
-1.431211531162261963e-01 -1.536848992109298706e-01 -2.037382721900939941e-01
-2.128738760948181152e-01 -1.752581894397735596e-01 -9.570056945085525513e-02
-2.748644351959228516e-01 -1.643579602241516113e-01 -8.831312507390975952e-02
-1.199155375361442566e-01 -1.316712796688079834e-01 -2.303953021764755249e-01
-2.668965458869934082e-01 -1.601277440786361694e-01 -1.668990105390548706e-01
-1.582089811563491821e-01 -4.114396870136260986e-03 7.897399365901947021e-02
-1.926168948411941528e-01 -9.064841270446777344e-02 3.330276310443878174e-01
-2.709683179855346680e-01 -1.218620836734771729e-01 -2.929538786411285400e-01
-1.667534708976745605e-01 -4.090823233127593994e-03 1.224549636244773865e-01
-2.825160622596740723e-01 -1.563234925270080566e-01 8.417952060699462891e-02
-2.980176508426666260e-01 -1.434924453496932983e-01 1.278039067983627319e-01
-2.080997824668884277e-01 -1.301916241645812988e-01 -3.139116466045379639e-01
-3.592650294303894043e-01 -9.694096446037292480e-02 -2.289386466145515442e-04
-3.193165957927703857e-01 -1.168810874223709106e-01 -2.117751091718673706e-01
-2.308662235736846924e-01 -6.205730140209197998e-02 3.358494937419891357e-01
-1.685405969619750977e-01 -1.691902577877044678e-01 -1.457586139440536499e-01
-2.755122780799865723e-01 -1.498988568782806396e-01 -2.089047729969024658e-01
-1.079702526330947876e-01 -1.513369828462600708e-01 4.945289343595504761e-02
-1.125926151871681213e-01 -4.452570527791976929e-02 -1.601214855909347534e-01
-1.315922141075134277e-01 -1.406104862689971924e-02 -8.108068257570266724e-03
-2.615680396556854248e-01 -2.878167107701301575e-02 2.730797827243804932e-01
-1.312229633331298828e-01 -1.590976119041442871e-02 1.091547980904579163e-01
-1.353214681148529053e-01 -1.398241221904754639e-01 1.952614039182662964e-01
-3.345789611339569092e-01 -1.282286643981933594e-01 5.749875679612159729e-02
-2.473487257957458496e-01 4.591532051563262939e-03 4.132953286170959473e-02
-2.179078608751296997e-01 -1.410196423530578613e-01 2.415062189102172852e-01
-3.544603288173675537e-01 -7.883813232183456421e-02 -1.076066568493843079e-01
-2.406865805387496948e-01 -5.035526305437088013e-02 -2.903558611869812012e-01
-1.732240021228790283e-01 -1.757075637578964233e-02 -1.631127446889877319e-01
-8.305920660495758057e-02 -1.334616243839263916e-01 -7.033482939004898071e-02
-2.718078196048736572e-01 -7.537901401519775391e-03 -9.938611090183258057e-02
-2.242578268051147461e-01 -1.423625946044921875e-01 -2.865122556686401367e-01
-1.140945553779602051e-01 -1.576596051454544067e-01 -5.331841856241226196e-02
-1.303628534078598022e-01 -1.696424186229705811e-02 -4.692920669913291931e-02
-3.276311457157135010e-01 -1.357449889183044434e-01 4.130976274609565735e-02
-2.395533621311187744e-01 -1.521414816379547119e-01 1.859947741031646729e-01
-1.479002237319946289e-01 -1.070105284452438354e-01 2.881841957569122314e-01
-2.695400416851043701e-01 -1.353248953819274902e-01 2.209263592958450317e-01
-1.048201769590377808e-01 -2.835119143128395081e-02 5.835368297994136810e-03
-7.645252346992492676e-02 -5.659120529890060425e-02 -1.411320827901363373e-02
-2.008702903985977173e-01 -1.413697004318237305e-01 2.417652904987335205e-01
-1.093630418181419373e-01 -1.120181530714035034e-01 -2.368482202291488647e-01
-3.325956463813781738e-01 -5.155749991536140442e-02 -1.586505472660064697e-01
-1.867925822734832764e-01 -9.973448514938354492e-02 3.236728608608245850e-01
-2.848948836326599121e-01 -5.439744889736175537e-02 -2.637691199779510498e-01
-1.988121122121810913e-01 -1.755930632352828979e-01 -9.259722381830215454e-02
-1.671513617038726807e-01 -3.758780658245086670e-03 -3.877524659037590027e-02
-1.647664308547973633e-01 -1.167610734701156616e-01 -3.127207756042480469e-01
-2.361635863780975342e-01 -1.597716659307479858e-01 1.477177143096923828e-01
-2.107626050710678101e-01 -1.115305721759796143e-02 -1.580978035926818848e-01
-3.445205092430114746e-01 -7.778204977512359619e-02 1.607360243797302246e-01
-8.020640909671783447e-02 -1.082584932446479797e-01 -1.453295648097991943e-01
-3.518611788749694824e-01 -9.936799854040145874e-02 -1.080040484666824341e-01
-3.384325504302978516e-01 -4.825093597173690796e-02 -1.258621662855148315e-01
-2.437752038240432739e-01 -4.698827862739562988e-03 -1.115325614809989929e-01
-3.188118338584899902e-01 -1.975947618484497070e-02 -4.628194123506546021e-02
-2.493107020854949951e-01 3.824420273303985596e-03 7.864551246166229248e-02
-2.812844514846801758e-01 -1.000595316290855408e-01 -3.006467819213867188e-01
-2.951831817626953125e-01 -6.819367408752441406e-03 -1.067960076034069061e-02
-8.154655992984771729e-02 -8.294852823019027710e-02 -1.493870615959167480e-01
-3.555144071578979492e-01 -7.769196480512619019e-02 1.012772545218467712e-01
-2.939093112945556641e-01 -8.423776924610137939e-02 2.830543518066406250e-01
-1.696629822254180908e-01 -1.346176415681838989e-01 2.505524456501007080e-01
-1.916134953498840332e-01 3.575310111045837402e-04 -4.608483612537384033e-02
-3.280123770236968994e-01 -1.275469809770584106e-01 1.031744703650474548e-01
-2.249992489814758301e-01 -1.007875800132751465e-02 2.254630327224731445e-01
-2.485290020704269409e-01 -1.352128386497497559e-01 -2.900419533252716064e-01
-6.454622745513916016e-02 -8.988060802221298218e-02 -2.033828571438789368e-02
-1.184673756361007690e-01 -1.133691817522048950e-01 2.359919250011444092e-01
-1.569159328937530518e-01 -1.579165458679199219e-01 1.433345526456832886e-01
-1.439652442932128906e-01 -1.527271419763565063e-02 1.587228626012802124e-01
-8.123542368412017822e-02 -4.928495362401008606e-02 2.988968603312969208e-02
-8.076661825180053711e-02 -6.568579375743865967e-02 -1.078986898064613342e-01
-2.704584896564483643e-01 -1.562784612178802490e-01 1.180120706558227539e-01
-3.391700983047485352e-01 -6.730987876653671265e-02 1.806018054485321045e-01
-3.017545044422149658e-01 -1.545982062816619873e-01 -4.274561256170272827e-02
-1.238564401865005493e-01 -2.184890210628509521e-02 -6.616298109292984009e-02
-1.099754944443702698e-01 -6.602654606103897095e-02 -2.135547101497650146e-01
-1.298461407423019409e-01 -7.537011057138442993e-02 -2.670735120773315430e-01
-2.817434072494506836e-01 -5.261706188321113586e-02 2.931016683578491211e-01
-3.194209039211273193e-01 -1.442315578460693359e-01 -8.039003238081932068e-03
-1.934252083301544189e-01 -3.089041262865066528e-02 2.904994487762451172e-01
-3.435708880424499512e-01 -3.974837437272071838e-02 -5.177259072661399841e-02
-1.509671509265899658e-01 -1.396049261093139648e-01 2.179700434207916260e-01
-2.132959216833114624e-01 4.460319876670837402e-03 9.268121421337127686e-02
-3.608888983726501465e-01 -6.639963388442993164e-02 1.030254177749156952e-02
-3.555359244346618652e-01 -5.216623842716217041e-02 1.825315994210541248e-04
-3.038725256919860840e-01 -1.942695677280426025e-02 1.669715791940689087e-01
-2.789343297481536865e-01 -2.795254811644554138e-02 -1.993526667356491089e-01
-1.107913330197334290e-01 -1.444277018308639526e-01 1.162457689642906189e-01
-1.593793183565139771e-01 -5.042237415909767151e-02 3.009774684906005859e-01
-1.944473385810852051e-01 -4.736165702342987061e-02 3.211697340011596680e-01
-2.925752401351928711e-01 -1.123024374246597290e-01 2.488457709550857544e-01
-2.037869691848754883e-01 -1.015424728393554688e-02 2.217494398355484009e-01
-1.597609966993331909e-01 -1.714744865894317627e-01 1.865764334797859192e-02
-1.117510795593261719e-01 -1.559636294841766357e-01 8.921926841139793396e-03
-1.506114751100540161e-01 -2.114012837409973145e-02 -1.452123522758483887e-01
-1.096445769071578979e-01 -2.480076998472213745e-02 3.275096416473388672e-02
-3.160064518451690674e-01 -8.031675219535827637e-02 2.450808733701705933e-01
-3.279533982276916504e-01 -8.985365927219390869e-02 2.084121704101562500e-01
-2.381203770637512207e-01 4.806973040103912354e-03 7.177995983511209488e-03
-1.224674805998802185e-01 -1.556113362312316895e-01 7.918714731931686401e-02
-1.967440694570541382e-01 -1.342013031244277954e-01 2.630946636199951172e-01
-1.779949665069580078e-01 -1.690165102481842041e-01 -1.601175963878631592e-01
-3.067645728588104248e-01 -2.960822731256484985e-02 2.043521106243133545e-01
-1.564695090055465698e-01 -1.257543265819549561e-01 2.627868056297302246e-01
-1.135633066296577454e-01 -4.425384849309921265e-02 2.076064199209213257e-01
-8.165387809276580811e-02 -5.705088004469871521e-02 -7.639420032501220703e-02
-3.520528972148895264e-01 -1.103506982326507568e-01 -5.578435212373733521e-02
-2.823477089405059814e-01 -1.935689151287078857e-02 -1.565406322479248047e-01
-3.089291155338287354e-01 -1.438727527856826782e-01 -1.417225301265716553e-01
-1.319254785776138306e-01 -1.328331977128982544e-02 1.080940850079059601e-02
-1.311925798654556274e-01 -1.333842426538467407e-02 2.649340406060218811e-02
-2.518239021301269531e-01 -2.740174531936645508e-04 -6.205387040972709656e-02
-9.836957603693008423e-02 -9.149507433176040649e-02 -2.139297723770141602e-01
-2.260522246360778809e-01 3.323636949062347412e-03 1.184896007180213928e-01
-1.007990241050720215e-01 -7.229536771774291992e-02 -2.008635401725769043e-01
-1.063559204339981079e-01 -3.280524164438247681e-02 -7.041599601507186890e-02
-2.536197900772094727e-01 -2.330428361892700195e-02 -2.064807415008544922e-01
-2.223080694675445557e-01 -3.269005194306373596e-02 -2.497909218072891235e-01
-7.712459564208984375e-02 -6.653432548046112061e-02 1.147034764289855957e-01
-1.532874703407287598e-01 -1.198226958513259888e-02 -8.749938011169433594e-02
-3.597088456153869629e-01 -9.381893277168273926e-02 -3.529113903641700745e-02
-2.841607928276062012e-01 -1.371046155691146851e-01 1.911705285310745239e-01
-2.077216953039169312e-01 -1.740600019693374634e-01 -1.199395805597305298e-01
-8.688770234584808350e-02 -4.562957957386970520e-02 -3.580930829048156738e-02
-2.170117944478988647e-01 -1.040982156991958618e-01 3.223411142826080322e-01
-3.029515445232391357e-01 -1.186556890606880188e-01 -2.482276260852813721e-01
-3.452556729316711426e-01 -3.952765464782714844e-02 -3.170360252261161804e-02
-2.467804849147796631e-01 -9.372967481613159180e-02 3.230873048305511475e-01
-3.220708370208740234e-01 -1.201274544000625610e-01 -1.957913041114807129e-01
-6.500001251697540283e-02 -8.838740736246109009e-02 3.678500652313232422e-02
-2.648811638355255127e-01 -3.989806398749351501e-02 2.937245368957519531e-01
-1.174281686544418335e-01 -9.282811731100082397e-02 -2.582716941833496094e-01
-1.333623230457305908e-01 -5.802914127707481384e-02 -2.446920573711395264e-01
-7.591639459133148193e-02 -1.150739789009094238e-01 8.983599394559860229e-02
-1.714936494827270508e-01 -1.734348833560943604e-01 -9.424104541540145874e-02
-7.383894920349121094e-02 -6.804835051298141479e-02 -6.805414706468582153e-02
-1.986932754516601562e-01 -7.060542702674865723e-04 -6.995134800672531128e-02
-3.288622796535491943e-01 -1.237101554870605469e-01 -1.589134931564331055e-01
-3.401682674884796143e-01 -5.745396763086318970e-02 -1.457805335521697998e-01
-2.844688296318054199e-01 -8.607300370931625366e-02 -2.973080575466156006e-01
-1.555132418870925903e-01 -1.477378904819488525e-01 1.924309879541397095e-01
-3.177976608276367188e-01 -2.682197466492652893e-02 1.590033024549484253e-01
-1.332347542047500610e-01 -3.099759295582771301e-02 -1.574474424123764038e-01
-1.920508146286010742e-01 -1.620529592037200928e-01 1.473862975835800171e-01
-1.050694733858108521e-01 -8.404782414436340332e-02 2.356148958206176758e-01
-2.688623070716857910e-01 -1.673412770032882690e-01 -4.122050851583480835e-02
-2.907111048698425293e-01 -2.500326931476593018e-02 2.231386154890060425e-01
-1.199412271380424500e-01 -2.007650583982467651e-02 8.365754783153533936e-02
-2.288144379854202271e-01 -1.636517941951751709e-01 1.285668462514877319e-01
-1.158060431480407715e-01 -1.502797752618789673e-01 9.643486887216567993e-02
-2.124480605125427246e-01 5.257479846477508545e-03 2.325664274394512177e-02
-1.381348669528961182e-01 -6.743430346250534058e-02 2.918449044227600098e-01
-2.020093053579330444e-01 -1.528103202581405640e-01 1.975807100534439087e-01
-1.106665059924125671e-01 -1.479253768920898438e-01 -1.440163254737854004e-01
-2.185134738683700562e-01 -1.506276279687881470e-01 2.048755288124084473e-01
-1.635631918907165527e-01 -1.706679761409759521e-01 -1.187832802534103394e-01
-7.151249051094055176e-02 -7.287450134754180908e-02 8.790937066078186035e-02
-8.950907737016677856e-02 -5.790542066097259521e-02 -1.252441853284835815e-01
-2.493100464344024658e-01 -6.258792430162429810e-02 -3.071326911449432373e-01
-2.004497796297073364e-01 3.780819475650787354e-03 8.625155687332153320e-02
-3.310959339141845703e-01 -1.036845147609710693e-01 -1.978271454572677612e-01
-3.087378740310668945e-01 -3.758842870593070984e-02 -1.817736178636550903e-01
-1.672312319278717041e-01 -1.740953624248504639e-01 -3.249057382345199585e-02
-2.037021815776824951e-01 -1.594793796539306641e-01 1.641815751791000366e-01
-3.507708311080932617e-01 -8.870508521795272827e-02 1.210603788495063782e-01
-1.809448152780532837e-01 -1.727011799812316895e-01 -1.246099174022674561e-01
-1.791417300701141357e-01 -8.029267191886901855e-02 3.319171369075775146e-01
-1.304472535848617554e-01 -1.401705294847488403e-02 6.504635512828826904e-02
-1.873628199100494385e-01 -6.940904259681701660e-02 -3.170068860054016113e-01
-2.022428214550018311e-01 -1.172460615634918213e-03 1.597336977720260620e-01
-8.418297767639160156e-02 -6.863068044185638428e-02 -1.341821253299713135e-01
-3.453980386257171631e-01 -1.079919189214706421e-01 1.016754508018493652e-01
-3.552395105361938477e-01 -5.603235960006713867e-02 -4.594988748431205750e-02
-2.476739585399627686e-01 -1.474069654941558838e-01 -2.575529515743255615e-01
-8.545950055122375488e-02 -1.288334578275680542e-01 -1.200766339898109436e-01
-2.983182668685913086e-01 -1.292206346988677979e-02 -7.610280066728591919e-02
-1.238241866230964661e-01 -3.966629505157470703e-02 2.213044166564941406e-01
-1.836710274219512939e-01 -1.280276179313659668e-01 -3.114446699619293213e-01
-2.172116786241531372e-01 5.348473787307739258e-03 6.837390363216400146e-02
-1.220752149820327759e-01 -1.384813934564590454e-01 -2.174913287162780762e-01
-2.207662463188171387e-01 -1.623324453830718994e-01 1.427734643220901489e-01
-1.126651391386985779e-01 -5.069674178957939148e-02 2.216673642396926880e-01
-2.178191989660263062e-01 -1.743403673171997070e-01 2.738311514258384705e-02
-3.066774606704711914e-01 -1.518578529357910156e-01 -1.068534515798091888e-02
-1.625043004751205444e-01 -3.929554298520088196e-02 2.852147519588470459e-01
-3.265324234962463379e-01 -2.171619981527328491e-02 -8.403195533901453018e-05
-1.655211448669433594e-01 -3.038978949189186096e-02 2.667888104915618896e-01
-2.013670355081558228e-01 -8.530005812644958496e-02 -3.350484669208526611e-01
-2.519412636756896973e-01 -1.252223253250122070e-01 2.687175273895263672e-01
-8.783869445323944092e-02 -1.381141096353530884e-01 3.500243276357650757e-02
-2.093309462070465088e-01 -1.321518570184707642e-01 2.693418562412261963e-01
-2.668719291687011719e-01 -1.101984828710556030e-02 2.006504237651824951e-01
-3.494379222393035889e-01 -8.811695873737335205e-02 -1.369855403900146484e-01
-2.700424194335937500e-01 -1.610871255397796631e-01 -1.506446003913879395e-01
-2.892433404922485352e-01 -1.599191129207611084e-01 -6.325225532054901123e-02
-1.884287893772125244e-01 -1.735602319240570068e-01 4.251202940940856934e-02
-3.099156916141510010e-01 -1.190153509378433228e-02 2.546532824635505676e-02
-1.660824716091156006e-01 -1.809153705835342407e-02 2.230998277664184570e-01
-3.437229394912719727e-01 -1.234972029924392700e-01 -2.428117580711841583e-02
-8.333516120910644531e-02 -9.877722710371017456e-02 -1.651523709297180176e-01
-2.931485772132873535e-01 -1.857435703277587891e-02 1.912873685359954834e-01
-3.504713773727416992e-01 -5.925806239247322083e-02 1.183490529656410217e-01
-2.527759373188018799e-01 -1.467024981975555420e-01 1.977617442607879639e-01
-2.278220653533935547e-01 -1.578759402036666870e-01 -2.314968854188919067e-01
-2.722371816635131836e-01 -1.655529439449310303e-01 4.373888950794935226e-03
-3.032928109169006348e-01 -1.510649621486663818e-01 -1.060168892145156860e-01
-1.487136334180831909e-01 -1.017324030399322510e-01 -3.051233291625976562e-01
-1.302403509616851807e-01 -1.639040708541870117e-01 1.073126122355461121e-02
-1.650229692459106445e-01 -6.011526286602020264e-02 -2.884705960750579834e-01
-2.442749291658401489e-01 -1.729825735092163086e-01 -5.272739380598068237e-02
-2.411561608314514160e-01 1.873396337032318115e-03 -4.757311940193176270e-02
-1.481059193611145020e-01 -1.655251532793045044e-02 1.796176284551620483e-01
-9.261105954647064209e-02 -1.383744031190872192e-01 7.144987583160400391e-02
-3.072208464145660400e-01 -1.330269277095794678e-01 -2.015685737133026123e-01
-1.330199539661407471e-01 -1.737021654844284058e-02 1.347897499799728394e-01
-7.891313731670379639e-02 -5.590981245040893555e-02 8.076614141464233398e-02
-2.126648575067520142e-01 -1.764545142650604248e-01 -4.907891526818275452e-02
-1.301645338535308838e-01 -4.920131340622901917e-02 2.576411366462707520e-01
-3.428947031497955322e-01 -1.068072766065597534e-01 1.199304908514022827e-01
-2.771078348159790039e-01 -1.738809049129486084e-03 -1.626605540513992310e-02
-2.366753220558166504e-01 -1.739400625228881836e-01 -6.856963783502578735e-02
-3.134382069110870361e-01 -1.343679577112197876e-01 -1.764622181653976440e-01
-2.076711356639862061e-01 2.032421529293060303e-03 -4.553632438182830811e-02
-2.339158952236175537e-01 -4.592138528823852539e-02 3.207750320434570312e-01
-9.480658173561096191e-02 -3.575644269585609436e-02 4.077677801251411438e-02
-9.680634737014770508e-02 -3.473102301359176636e-02 -6.327601149678230286e-03
-2.619521021842956543e-01 -1.467944234609603882e-01 -2.437749654054641724e-01
-1.393803656101226807e-01 -1.312728226184844971e-02 1.202043294906616211e-01
-2.128804624080657959e-01 -1.677396744489669800e-01 1.069676056504249573e-01
-2.606040239334106445e-01 -1.636057943105697632e-01 8.034954220056533813e-02
-2.055026292800903320e-01 4.976406693458557129e-03 4.638175666332244873e-02
-3.405486345291137695e-01 -1.236694008111953735e-01 -8.483065664768218994e-02
-3.471474051475524902e-01 -5.215397849678993225e-02 -9.542513638734817505e-02
-1.077044233679771423e-01 -1.544972658157348633e-01 -3.887070715427398682e-02
-2.829691767692565918e-01 -7.200561463832855225e-03 -7.055396586656570435e-02
-2.853066623210906982e-01 -3.400951623916625977e-03 7.892665266990661621e-02
-3.547738790512084961e-01 -5.258206278085708618e-02 -2.678162604570388794e-02
-3.326600193977355957e-01 -1.240769326686859131e-01 -1.389073282480239868e-01
-1.459801197052001953e-01 -1.632770150899887085e-01 8.433984965085983276e-02
-2.983188629150390625e-01 -1.097733676433563232e-01 -2.692538797855377197e-01
-1.690077483654022217e-01 -8.774728327989578247e-02 -3.212231695652008057e-01
-3.618583083152770996e-01 -8.433419466018676758e-02 -1.734835840761661530e-02
-2.251866608858108521e-01 2.193637192249298096e-03 -5.123680830001831055e-02
-1.855858713388442993e-01 -1.759681552648544312e-01 -6.077408045530319214e-02
-2.475189566612243652e-01 2.990789711475372314e-03 1.031223237514495850e-01
-2.441144138574600220e-01 2.694867551326751709e-03 -3.160195797681808472e-02
-2.783434391021728516e-01 -9.374561905860900879e-02 2.961273491382598877e-01
-8.540946245193481445e-02 -1.133284196257591248e-01 1.447669565677642822e-01
-1.445300132036209106e-01 -1.686089038848876953e-01 4.696625284850597382e-03
-2.101866751909255981e-01 -2.507441118359565735e-02 -2.225225567817687988e-01
-1.790160089731216431e-01 -2.454131096601486206e-02 -2.023291140794754028e-01
-3.440580964088439941e-01 -8.988992124795913696e-02 1.525471806526184082e-01
-2.094611823558807373e-01 -1.343274861574172974e-02 2.395219355821609497e-01
-3.369592130184173584e-01 -1.152172908186912537e-01 -1.510970890522003174e-01
-1.507433056831359863e-01 -1.514365524053573608e-02 -1.064548715949058533e-01
-2.264045029878616333e-01 -4.014978930354118347e-02 -2.705745100975036621e-01
-3.142564892768859863e-01 -2.143798023462295532e-02 1.416714042425155640e-01
-2.633946835994720459e-01 -8.591406047344207764e-03 -1.205225810408592224e-01
-2.375805675983428955e-01 -1.518887281417846680e-02 -1.788996905088424683e-01
-3.056660890579223633e-01 -2.203632891178131104e-02 -1.194360330700874329e-01
-6.955567002296447754e-02 -7.300896197557449341e-02 -4.538173601031303406e-02
-2.621009051799774170e-01 2.336077392101287842e-03 1.331696473062038422e-02
-9.860210120677947998e-02 -1.487291604280471802e-01 -9.800173342227935791e-03
-3.386563062667846680e-01 -1.278949230909347534e-01 -5.928453058004379272e-02
-2.853967249393463135e-01 -1.668368279933929443e-02 -1.364700496196746826e-01
-3.176352679729461670e-01 -7.884702086448669434e-02 -2.394798696041107178e-01
-1.203498393297195435e-01 -2.385563030838966370e-02 1.319062858819961548e-01
-1.837448477745056152e-01 2.262555062770843506e-03 3.117030113935470581e-02
-2.120384275913238525e-01 -9.451666474342346191e-02 3.326589763164520264e-01
-2.907298207283020020e-01 -1.594021767377853394e-01 -1.204872317612171173e-02
-1.364187002182006836e-01 -1.295098960399627686e-01 -2.646240890026092529e-01
-2.889384627342224121e-01 -1.498354077339172363e-01 -1.767707020044326782e-01
-1.226733699440956116e-01 -4.995469003915786743e-02 -2.041709423065185547e-01
-3.513119220733642578e-01 -1.074121668934822083e-01 -8.504061400890350342e-02
-1.717361658811569214e-01 -2.141839265823364258e-02 -1.806057244539260864e-01
-1.992686092853546143e-01 -7.077446579933166504e-02 3.393560349941253662e-01
-2.397076487541198730e-01 -1.245215535163879395e-02 1.186276152729988098e-01
-2.736856341361999512e-01 4.678942561149597168e-01 4.636330008506774902e-01
-2.432677745819091797e-01 3.400485515594482422e-01 2.468469440937042236e-01
-3.051354885101318359e-01 2.448810487985610962e-01 2.424222826957702637e-01
-2.976024746894836426e-01 3.828745186328887939e-01 5.349665880203247070e-01
-3.194642066955566406e-01 3.590475916862487793e-01 1.642715781927108765e-01
-2.845680713653564453e-01 1.627755314111709595e-01 3.303697705268859863e-01
-3.157127499580383301e-01 4.500408768653869629e-01 4.273326992988586426e-01
-2.872426211833953857e-01 5.140523910522460938e-01 3.385208249092102051e-01
-2.862814962863922119e-01 1.250238865613937378e-01 1.060072630643844604e-01
-3.118595480918884277e-01 2.846931219100952148e-01 1.056369319558143616e-01
-2.644310295581817627e-01 2.923385202884674072e-01 -7.242280244827270508e-02
-2.575688660144805908e-01 3.118591606616973877e-01 -9.931221604347229004e-03
-2.161388248205184937e-01 8.847317099571228027e-02 1.659594178199768066e-01
-2.524662613868713379e-01 3.164020776748657227e-01 3.737156093120574951e-02
-2.501584887504577637e-01 3.793614506721496582e-01 4.078407883644104004e-01
-2.800394892692565918e-01 1.503240466117858887e-01 -1.028975248336791992e-01
-3.210814297199249268e-01 3.836321234703063965e-01 1.716280430555343628e-01
-3.132345676422119141e-01 4.311031401157379150e-01 5.718301236629486084e-02
-2.159657031297683716e-01 5.674496293067932129e-02 1.587321758270263672e-01
-3.037870824337005615e-01 2.242867946624755859e-01 8.372278511524200439e-02
-2.889980971813201904e-01 2.144317924976348877e-01 4.013990163803100586e-01
-2.571825981140136719e-01 4.237459599971771240e-02 -6.232884526252746582e-02
-2.228359282016754150e-01 1.329182386398315430e-01 3.845751285552978516e-01
-3.062424659729003906e-01 2.622983455657958984e-01 1.497898995876312256e-02
-2.913922667503356934e-01 1.697429865598678589e-01 -2.502188086509704590e-02
-2.209689915180206299e-01 3.041058778762817383e-03 1.522900462150573730e-01
-2.717082500457763672e-01 4.693370759487152100e-01 4.147921502590179443e-01
-2.975163161754608154e-01 2.152748405933380127e-01 2.985183894634246826e-01
-2.722969651222229004e-01 4.401237368583679199e-01 1.557287871837615967e-01
-2.986590862274169922e-01 2.094256877899169922e-01 -4.567652940750122070e-03
-3.114220201969146729e-01 4.209534525871276855e-01 3.784966468811035156e-02
-2.426252663135528564e-01 3.051888644695281982e-01 1.244082152843475342e-01
-2.253588587045669556e-01 3.996729850769042969e-03 2.232511341571807861e-01
-2.813783288002014160e-01 1.173572391271591187e-01 2.206827253103256226e-01
-3.046177625656127930e-01 3.074097633361816406e-01 4.066983461380004883e-01
-3.132124543190002441e-01 3.935228586196899414e-01 4.207847118377685547e-01
-2.288383692502975464e-01 2.520295381546020508e-01 2.741415500640869141e-01
-3.091363906860351562e-01 2.616282105445861816e-01 1.770265251398086548e-01
-3.171352148056030273e-01 4.731386303901672363e-01 4.110188782215118408e-01
-3.143747448921203613e-01 4.519339501857757568e-01 4.418817758560180664e-01
-2.859881222248077393e-01 4.587183892726898193e-01 1.056669428944587708e-01
-3.071699142456054688e-01 2.912368774414062500e-01 3.418865501880645752e-01
