6.065627336502075195e-01 6.130751594901084900e-02 9.548849612474441528e-02
8.808647990226745605e-01 -2.101720124483108521e-02 -4.062451794743537903e-02
6.812548637390136719e-01 1.339361071586608887e-03 4.010801762342453003e-02
9.962904453277587891e-01 -1.196713745594024658e-02 -3.420188650488853455e-02
7.927887439727783203e-01 7.848420739173889160e-02 -8.397618308663368225e-03
8.720265626907348633e-01 2.745930105447769165e-04 -2.499787658452987671e-01
6.591151356697082520e-01 1.778446137905120850e-03 -1.084289252758026123e-01
7.649211883544921875e-01 -1.411258429288864136e-02 -1.195918396115303040e-02
7.630180716514587402e-01 -1.178938522934913635e-02 3.192139789462089539e-02
1.003832221031188965e+00 2.734040841460227966e-03 -1.304690539836883545e-01
9.106960296630859375e-01 6.571178138256072998e-02 8.460570126771926880e-02
8.487359881401062012e-01 6.210080534219741821e-02 2.117313891649246216e-01
7.219120860099792480e-01 6.086790561676025391e-02 2.156280428171157837e-01
8.419521450996398926e-01 3.135772421956062317e-02 -2.735502123832702637e-01
7.816139459609985352e-01 6.516151130199432373e-02 -1.771031618118286133e-01
7.310592532157897949e-01 7.742744684219360352e-02 -8.046439290046691895e-02
6.729129552841186523e-01 -8.328612893819808960e-04 -1.174962297081947327e-01
1.011940240859985352e+00 2.541032806038856506e-02 -1.018932536244392395e-01
8.158146142959594727e-01 -3.712914884090423584e-03 -2.451131492853164673e-01
9.449486732482910156e-01 5.099346488714218140e-02 1.794912815093994141e-01
6.827012300491333008e-01 6.470842659473419189e-02 1.798520386219024658e-01
7.117953300476074219e-01 -8.277308195829391479e-03 -5.188452079892158508e-02
6.266349554061889648e-01 7.252874225378036499e-02 5.688632279634475708e-02
8.961552977561950684e-01 -5.128782242536544800e-03 1.649434566497802734e-01
7.154430747032165527e-01 8.090382814407348633e-02 2.194517478346824646e-02
7.533110380172729492e-01 3.398916497826576233e-02 2.491355091333389282e-01
7.483999729156494141e-01 -1.325936987996101379e-02 -6.190729886293411255e-02
9.789047241210937500e-01 -1.381641626358032227e-02 -7.230766117572784424e-02
9.807595014572143555e-01 5.066704750061035156e-02 1.738433912396430969e-02
7.893151044845581055e-01 2.700356021523475647e-02 -2.918798625469207764e-01
8.858898878097534180e-01 6.882604956626892090e-02 -1.446223258972167969e-02
7.111818194389343262e-01 -4.845637828111648560e-03 -1.655344069004058838e-01
8.767604827880859375e-01 -1.738838478922843933e-02 5.665507912635803223e-02
8.843482136726379395e-01 5.588718503713607788e-02 -1.578138619661331177e-01
9.744675159454345703e-01 -1.038499176502227783e-04 1.561847478151321411e-01
9.093652963638305664e-01 -4.684027284383773804e-03 1.657371670007705688e-01
5.900846123695373535e-01 2.649813517928123474e-02 1.037059631198644638e-02
9.845741391181945801e-01 -1.382187753915786743e-02 1.089887600392103195e-02
8.681266307830810547e-01 7.211394608020782471e-02 1.769495382905006409e-02
5.748471021652221680e-01 4.475558921694755554e-02 -1.278218328952789307e-01
5.783706307411193848e-01 6.153495609760284424e-02 -1.429216843098402023e-02
6.273616552352905273e-01 5.968783050775527954e-02 1.362696588039398193e-01
5.845268368721008301e-01 2.581743337213993073e-02 -9.074570983648300171e-02
8.997532725334167480e-01 6.591781228780746460e-02 1.203840896487236023e-01
9.410719275474548340e-01 -1.826015859842300415e-02 1.232553180307149887e-02
8.098690509796142578e-01 -1.793447509407997131e-02 -1.099127009510993958e-01
5.699061155319213867e-01 3.772403672337532043e-02 -9.446942806243896484e-02
8.950216770172119141e-01 6.639216095209121704e-02 -3.687986359000205994e-02
7.413274645805358887e-01 5.324270203709602356e-02 -2.442040145397186279e-01
1.043588757514953613e+00 1.949745975434780121e-02 2.549351006746292114e-02
7.161642909049987793e-01 -7.936228066682815552e-03 -1.311105675995349884e-02
9.321041107177734375e-01 -4.936996847391128540e-03 1.577037721872329712e-01
8.669668436050415039e-01 9.254956617951393127e-03 2.278432548046112061e-01
8.263499736785888672e-01 -1.406163349747657776e-02 -1.806458085775375366e-01
8.581405878067016602e-01 -1.993029192090034485e-02 -1.026932969689369202e-01
6.973091363906860352e-01 9.312855079770088196e-03 -2.442889809608459473e-01
7.428384423255920410e-01 8.082160353660583496e-02 3.952101245522499084e-02
1.020233154296875000e+00 2.625758759677410126e-02 -7.583194226026535034e-02
8.377912640571594238e-01 4.142744094133377075e-02 -2.544479072093963623e-01
8.720030784606933594e-01 9.699836373329162598e-03 -2.668599784374237061e-01
8.451966047286987305e-01 5.348953604698181152e-02 -2.058931589126586914e-01
6.490722894668579102e-01 7.396417111158370972e-02 -8.847466111183166504e-02
7.419929504394531250e-01 6.405107676982879639e-02 2.128998339176177979e-01
6.698074340820312500e-01 6.648985296487808228e-02 -1.696889102458953857e-01
6.491008996963500977e-01 7.700102031230926514e-02 -2.687988430261611938e-02
7.526757717132568359e-01 7.474951446056365967e-02 1.524352580308914185e-01
7.704347968101501465e-01 7.039947062730789185e-02 1.859247386455535889e-01
1.043621778488159180e+00 9.850872680544853210e-03 -4.206958226859569550e-03
6.606724262237548828e-01 1.093959435820579529e-03 -5.027541518211364746e-02
8.220419287681579590e-01 5.951447784900665283e-02 2.325520962476730347e-01
7.770212888717651367e-01 -1.311882585287094116e-02 3.429371118545532227e-02
6.048367023468017578e-01 2.102910354733467102e-02 2.154703810811042786e-02
1.001296520233154297e+00 -2.525307238101959229e-03 1.105439886450767517e-01
7.310832142829895020e-01 7.092233747243881226e-03 1.570982486009597778e-01
7.693217992782592773e-01 7.896489650011062622e-02 9.111677855253219604e-02
8.749271631240844727e-01 -9.844116866588592529e-03 1.331516653299331665e-01
9.755527377128601074e-01 -1.551920175552368164e-02 -1.107445918023586273e-02
7.018036246299743652e-01 7.906952500343322754e-02 -5.002944543957710266e-02
9.589918255805969238e-01 5.024205893278121948e-02 -7.761893421411514282e-02
6.883926391601562500e-01 8.015437424182891846e-02 1.638599112629890442e-02
6.300151944160461426e-01 7.138146460056304932e-02 -9.331463277339935303e-02
8.901837468147277832e-01 6.589710712432861328e-02 1.414783149957656860e-01
9.802811145782470703e-01 -1.022943854331970215e-02 8.016918599605560303e-02
5.643355250358581543e-01 4.586487263441085815e-02 -6.327598541975021362e-02
9.395641684532165527e-01 4.288664087653160095e-03 1.969739347696304321e-01
6.690723299980163574e-01 6.123801693320274353e-02 1.796671152114868164e-01
7.210885286331176758e-01 -6.891191005706787109e-03 -1.578971743583679199e-01
8.015252351760864258e-01 7.539152354001998901e-02 1.306386739015579224e-01
7.550733685493469238e-01 -1.139931753277778625e-02 -1.533064842224121094e-01
7.772620320320129395e-01 3.120194561779499054e-02 -2.898595333099365234e-01
9.305896759033203125e-01 9.871164336800575256e-03 2.183216959238052368e-01
7.805645465850830078e-01 -8.334070444107055664e-03 9.608739614486694336e-02
7.693022489547729492e-01 1.316970586776733398e-02 -2.859379351139068604e-01
7.942079901695251465e-01 7.034444063901901245e-02 1.831168085336685181e-01
9.174126982688903809e-01 6.385904550552368164e-02 1.038576140999794006e-01
8.578418493270874023e-01 -1.985493302345275879e-02 9.502694010734558105e-04
7.887554168701171875e-01 1.650962978601455688e-03 1.727923601865768433e-01
9.707074165344238281e-01 3.024616837501525879e-02 -1.647206544876098633e-01
9.583016633987426758e-01 3.545092418789863586e-02 -1.655448228120803833e-01
6.225035190582275391e-01 7.326132804155349731e-02 2.797414362430572510e-02
8.078820109367370605e-01 7.712323963642120361e-02 -1.904700323939323425e-02
9.231247305870056152e-01 -9.065322577953338623e-03 1.343066096305847168e-01
6.998449563980102539e-01 1.840437576174736023e-02 1.771394759416580200e-01
8.289149403572082520e-01 1.853362470865249634e-02 -2.864651381969451904e-01
6.371402740478515625e-01 6.991337239742279053e-02 -1.187784373760223389e-01
7.417554259300231934e-01 -8.475646376609802246e-03 4.261720180511474609e-02
7.262293696403503418e-01 -2.920534461736679077e-04 1.035842150449752808e-01
6.855287551879882812e-01 7.396252453327178955e-02 -1.164221465587615967e-01
6.273267269134521484e-01 7.079325616359710693e-02 7.882878929376602173e-02
7.080959677696228027e-01 7.371088862419128418e-02 1.479961574077606201e-01
6.595812439918518066e-01 5.837935954332351685e-02 -2.062380462884902954e-01
8.464829921722412109e-01 7.371168583631515503e-02 9.787721931934356689e-02
7.068070173263549805e-01 -4.014894366264343262e-04 7.354389876127243042e-02
7.513228654861450195e-01 -8.134812116622924805e-03 -1.877382695674896240e-01
8.949218392372131348e-01 2.943661063909530640e-03 2.042841464281082153e-01
8.344194889068603516e-01 7.059810310602188110e-02 -8.993045240640640259e-02
7.140459418296813965e-01 7.615409791469573975e-02 1.291903108358383179e-01
7.010289430618286133e-01 1.376685500144958496e-02 1.592415422201156616e-01
7.522558569908142090e-01 6.627441197633743286e-02 2.063718289136886597e-01
9.576675891876220703e-01 4.798042029142379761e-02 -9.970168024301528931e-02
9.927786588668823242e-01 4.693502187728881836e-02 1.350831333547830582e-02
8.476011753082275391e-01 7.461972534656524658e-02 3.057940304279327393e-02
7.952776551246643066e-01 -1.760560646653175354e-02 -8.254048973321914673e-02
9.984587430953979492e-01 1.450179982930421829e-02 1.750304847955703735e-01
6.199259161949157715e-01 6.749904155731201172e-02 9.021342545747756958e-02
5.769485235214233398e-01 2.968724444508552551e-02 -7.002759724855422974e-02
7.236235737800598145e-01 -8.523628115653991699e-03 -8.484227582812309265e-04
8.935855627059936523e-01 -5.562737584114074707e-03 -2.220436930656433105e-01
8.337450027465820312e-01 7.257684320211410522e-02 -6.428639590740203857e-02
7.854334115982055664e-01 5.218376964330673218e-02 2.527900338172912598e-01
8.927748799324035645e-01 -2.082461118698120117e-02 -2.507494203746318817e-02
6.115829944610595703e-01 3.240415453910827637e-02 -2.035874575376510620e-01
8.725379705429077148e-01 7.039702683687210083e-02 1.072619259357452393e-01
8.439121246337890625e-01 6.661254167556762695e-02 1.869583278894424438e-01
7.554012537002563477e-01 7.733348011970520020e-02 -7.327558845281600952e-02
9.096465110778808594e-01 -1.333947107195854187e-02 -1.710590124130249023e-01
6.660926938056945801e-01 1.380395144224166870e-03 -1.348146498203277588e-01
9.333475232124328613e-01 -1.782307773828506470e-02 3.312512487173080444e-02
7.551032304763793945e-01 8.054456114768981934e-02 1.149383280426263809e-02
8.034639954566955566e-01 7.836913317441940308e-02 2.463641762733459473e-02
6.867904067039489746e-01 -7.974319159984588623e-04 2.647213637828826904e-02
8.941547274589538574e-01 4.587082564830780029e-02 -1.997271031141281128e-01
9.670690894126892090e-01 -5.340613424777984619e-03 -1.619147062301635742e-01
9.172819852828979492e-01 6.502187252044677734e-02 3.096002340316772461e-02
6.387860774993896484e-01 1.116517931222915649e-02 -1.699714362621307373e-01
8.998876214027404785e-01 -7.607843726873397827e-03 1.492149829864501953e-01
7.636322379112243652e-01 -4.228446632623672485e-03 1.149771884083747864e-01
7.086396813392639160e-01 8.040057122707366943e-02 -1.489808224141597748e-02
9.030917286872863770e-01 4.705641418695449829e-02 -1.855112016201019287e-01
6.398667097091674805e-01 7.633201777935028076e-02 -4.259590059518814087e-05
8.869777321815490723e-01 -1.457484439015388489e-02 9.216203540563583374e-02
7.675465941429138184e-01 8.020661771297454834e-02 1.816545799374580383e-02
5.923266410827636719e-01 6.706705689430236816e-02 -1.929089054465293884e-02
9.334908127784729004e-01 1.126880198717117310e-02 -2.290070652961730957e-01
7.768640518188476562e-01 -5.701523274183273315e-03 1.156525388360023499e-01
8.301846683025360107e-02 2.192950807511806488e-02 1.262705624103546143e-01
4.310379028320312500e-01 2.179283648729324341e-03 2.523798309266567230e-02
3.994882702827453613e-01 -1.734849065542221069e-03 9.941142052412033081e-02
4.736852645874023438e-01 7.529877126216888428e-02 2.790985628962516785e-02
1.165561527013778687e-01 2.846750430762767792e-02 1.707617193460464478e-01
3.934223651885986328e-01 6.463166326284408569e-03 2.038368582725524902e-01
1.711474359035491943e-01 5.392307788133621216e-02 -2.538619935512542725e-02
4.659888148307800293e-01 6.674937158823013306e-02 1.710918694734573364e-01
3.377272784709930420e-01 6.597528606653213501e-02 1.897648572921752930e-01
2.139932215213775635e-01 4.771853983402252197e-02 2.135267257690429688e-01
2.682690918445587158e-01 6.606408208608627319e-02 -1.081577390432357788e-01
2.584538757801055908e-01 -2.227014862000942230e-02 1.042855158448219299e-02
1.795845329761505127e-01 -1.101418770849704742e-02 2.073755264282226562e-01
3.159147202968597412e-01 7.239177078008651733e-02 -6.158655881881713867e-02
4.067109227180480957e-01 4.980452358722686768e-03 -1.674091815948486328e-01
4.160435497760772705e-01 7.722782343626022339e-02 -2.782061509788036346e-02
2.067393064498901367e-01 5.572883039712905884e-02 -1.423031985759735107e-01
4.938785731792449951e-01 2.029697224497795105e-02 7.129862904548645020e-02
3.101744055747985840e-01 -1.698455028235912323e-02 -5.150740221142768860e-02
1.596814543008804321e-01 4.257872700691223145e-02 -1.888675242662429810e-01
4.555107951164245605e-01 9.148107841610908508e-03 7.314430177211761475e-02
3.447206020355224609e-01 6.442628055810928345e-02 -2.020864635705947876e-01
4.078249037265777588e-01 6.996350735425949097e-02 -1.578846871852874756e-01
2.009864598512649536e-01 3.571011498570442200e-02 2.572791278362274170e-01
3.696242570877075195e-01 -5.825174972414970398e-03 -1.227403804659843445e-01
2.392329573631286621e-01 -1.357108913362026215e-02 -2.112463861703872681e-01
4.618017971515655518e-01 1.041122060269117355e-02 -5.350221693515777588e-02
1.788251399993896484e-01 -7.156951352953910828e-03 2.269435226917266846e-01
2.741882205009460449e-01 6.733530014753341675e-02 -9.469649940729141235e-02
2.765613198280334473e-01 -2.083753608167171478e-02 -1.907029002904891968e-02
3.964910805225372314e-01 1.125859096646308899e-02 -2.285126745700836182e-01
1.749533116817474365e-01 -2.393161319196224213e-02 7.716900110244750977e-02
3.652234375476837158e-01 -9.671257808804512024e-03 3.686267510056495667e-02
2.970773279666900635e-01 1.626718975603580475e-02 3.046321570873260498e-01
3.007765710353851318e-01 -3.123844042420387268e-03 -2.457849979400634766e-01
2.574502229690551758e-01 -2.244088612496852875e-02 -2.790767233818769455e-03
5.427413582801818848e-01 4.520060867071151733e-02 3.414136916399002075e-02
5.098490118980407715e-01 2.606715820729732513e-02 6.671329587697982788e-02
3.526447713375091553e-01 -8.711772039532661438e-03 -1.200865432620048523e-01
1.679271459579467773e-01 3.337735682725906372e-02 2.301225364208221436e-01
8.315414190292358398e-02 2.134361118078231812e-02 -1.692741066217422485e-01
5.362455546855926514e-02 -8.200032636523246765e-03 7.511597126722335815e-02
1.293395459651947021e-01 3.112946450710296631e-02 -2.128498405218124390e-01
2.154033631086349487e-01 -2.488436736166477203e-02 1.280956342816352844e-02
5.124469995498657227e-01 2.593063376843929291e-02 3.428762406110763550e-02
2.687250971794128418e-01 -1.429025270044803619e-02 -1.829181909561157227e-01
1.804167032241821289e-01 5.227701365947723389e-02 -1.256237179040908813e-01
3.623104989528656006e-01 -8.874518796801567078e-03 -8.609245717525482178e-02
3.014267981052398682e-01 6.751158088445663452e-02 -1.389810442924499512e-01
2.056383639574050903e-01 -2.392573095858097076e-02 -9.590453654527664185e-02
4.537158608436584473e-01 2.916925586760044098e-02 2.332297712564468384e-01
4.281427264213562012e-01 7.742590457201004028e-02 -4.055457655340433121e-03
4.476948380470275879e-01 7.692585140466690063e-02 1.187822315841913223e-03
1.988297104835510254e-01 5.511476099491119385e-02 -1.321103125810623169e-01
4.474607110023498535e-01 7.684592902660369873e-02 3.059935569763183594e-02
3.328597843647003174e-01 -9.506804868578910828e-03 1.407279968261718750e-01
2.620321512222290039e-01 6.149464100599288940e-02 -1.663824319839477539e-01
3.533374667167663574e-01 -9.414976462721824646e-03 -1.050278469920158386e-01
2.876285314559936523e-01 7.064582407474517822e-02 -1.762224920094013214e-02
3.035515546798706055e-01 -1.560778357088565826e-02 9.711005538702011108e-02
3.453955352306365967e-01 7.006922364234924316e-02 -1.446083039045333862e-01
4.019458591938018799e-01 6.472708657383918762e-03 -1.893459856510162354e-01
2.503702044486999512e-01 5.701783299446105957e-02 -1.982611566781997681e-01
2.480133771896362305e-01 3.112354502081871033e-02 -3.142574429512023926e-01
2.360102385282516479e-01 5.051171034574508667e-02 2.211290895938873291e-01
1.315308362245559692e-01 -1.541302539408206940e-02 1.562431603670120239e-01
2.592975199222564697e-01 -2.043530531227588654e-02 7.889447361230850220e-02
4.779110550880432129e-01 6.826540082693099976e-02 -1.229319274425506592e-01
1.130100339651107788e-01 -2.091578580439090729e-02 -1.293990612030029297e-01
3.261370062828063965e-01 2.628877013921737671e-02 3.117918372154235840e-01
3.963952064514160156e-01 6.577973067760467529e-02 2.074558287858963013e-01
1.302602738142013550e-01 -2.389262430369853973e-02 5.679807811975479126e-02
1.200109720230102539e-01 -2.416957356035709381e-02 -7.853819429874420166e-02
4.204426407814025879e-01 7.434086874127388000e-03 -1.606043577194213867e-01
3.333187699317932129e-01 5.790308862924575806e-02 -2.437149882316589355e-01
4.767142832279205322e-01 5.503573268651962280e-02 2.137534022331237793e-01
2.136579453945159912e-01 -1.011932455003261566e-02 2.166981399059295654e-01
3.488833904266357422e-01 -6.136329844594001770e-03 -1.641062200069427490e-01
5.094566345214843750e-01 2.502456866204738617e-02 4.588761925697326660e-02
1.969463527202606201e-01 -2.047810517251491547e-02 1.281513422727584839e-01
1.684050112962722778e-01 -2.166387252509593964e-02 1.132716462016105652e-01
3.911923170089721680e-01 4.896637052297592163e-02 -2.728905677795410156e-01
3.217243552207946777e-01 3.672221675515174866e-03 2.564842998981475830e-01
2.352749109268188477e-01 6.376583874225616455e-02 -6.048227474093437195e-02
1.326768249273300171e-01 -2.502088062465190887e-02 2.974482253193855286e-02
1.427429169416427612e-01 -1.398249529302120209e-02 1.736133247613906860e-01
2.062366902828216553e-01 -2.543576247990131378e-02 -2.462869137525558472e-02
2.591801583766937256e-01 -2.205093763768672943e-02 2.309405803680419922e-02
3.279566168785095215e-01 5.980246514081954956e-02 -2.306079715490341187e-01
3.331718742847442627e-01 -1.460164971649646759e-02 -1.100001297891139984e-02
2.077688872814178467e-01 -2.538844011723995209e-02 -1.064052432775497437e-02
1.529257744550704956e-01 4.980693012475967407e-02 -5.573141947388648987e-02
7.210016250610351562e-02 1.448891591280698776e-02 -1.719046980142593384e-01
1.768421381711959839e-01 4.569758847355842590e-02 -1.934556066989898682e-01
1.024077087640762329e-01 -2.274540252983570099e-02 -8.078169077634811401e-02
1.493255645036697388e-01 -1.207726635038852692e-02 1.890914589166641235e-01
7.745403051376342773e-02 7.829841226339340210e-03 1.552767455577850342e-01
4.793361127376556396e-01 7.432095706462860107e-02 5.287124961614608765e-02
4.292354583740234375e-01 1.713519915938377380e-03 -1.338214613497257233e-02
1.572417318820953369e-01 -2.619489841163158417e-02 -3.752452135086059570e-02
3.055433034896850586e-01 -1.757275499403476715e-02 3.203543275594711304e-02
5.385422706604003906e-02 9.735183790326118469e-03 8.924772590398788452e-02
3.654119074344635010e-01 7.641362398862838745e-02 4.630379844456911087e-03
3.288171887397766113e-01 7.241406291723251343e-02 -8.772540092468261719e-02
3.788843452930450439e-01 7.634165883064270020e-02 5.576055869460105896e-02
2.871648073196411133e-01 6.423342972993850708e-02 -1.651713103055953979e-01
1.563432663679122925e-01 -1.689414121210575104e-02 1.592431813478469849e-01
2.922716140747070312e-01 4.814376682043075562e-02 2.744620740413665771e-01
4.144156575202941895e-01 4.214017838239669800e-02 -2.713174819946289062e-01
1.917924284934997559e-01 -2.575744129717350006e-02 -4.319234564900398254e-02
3.493506312370300293e-01 6.516983360052108765e-02 2.027724832296371460e-01
2.520822882652282715e-01 5.575308948755264282e-02 -2.110550105571746826e-01
3.415764272212982178e-01 7.508540898561477661e-02 -1.112445816397666931e-02
3.174979388713836670e-01 7.340121269226074219e-02 7.726263720542192459e-03
1.939959377050399780e-01 5.695987492799758911e-02 -7.754053920507431030e-02
3.779580891132354736e-01 7.531677186489105225e-02 8.667319267988204956e-02
3.919364511966705322e-01 7.726981490850448608e-02 -5.345645360648632050e-03
3.961286246776580811e-01 6.739743053913116455e-02 1.951834857463836670e-01
5.316900014877319336e-01 5.577534809708595276e-02 -7.880091667175292969e-02
3.208093047142028809e-01 7.232987135648727417e-02 7.808641344308853149e-02
2.928832769393920898e-01 9.123995900154113770e-03 -3.019274771213531494e-01
5.109438300132751465e-01 2.504850924015045166e-02 8.848704397678375244e-03
2.810293734073638916e-01 -4.379523918032646179e-03 -2.517564892768859863e-01
2.498352825641632080e-01 -2.295639924705028534e-02 -3.022055886685848236e-02
5.228347778320312500e-01 6.626497954130172729e-02 -3.028978034853935242e-02
2.375211268663406372e-01 4.264937341213226318e-02 2.627416253089904785e-01
1.127807348966598511e-01 -2.464846707880496979e-02 -9.395539760589599609e-03
4.262273907661437988e-01 7.133226096630096436e-02 1.550602763891220093e-01
2.718234062194824219e-01 6.376468390226364136e-02 -1.515467613935470581e-01
2.399528771638870239e-01 -1.970752142369747162e-02 -1.423317641019821167e-01
9.078124165534973145e-02 1.962799951434135437e-02 -1.949410587549209595e-01
2.403262555599212646e-01 4.924009740352630615e-02 2.333496510982513428e-01
3.136615753173828125e-01 2.577623538672924042e-02 -3.200041949748992920e-01
3.940248489379882812e-02 6.716847419738769531e-04 4.259132221341133118e-02
3.060994148254394531e-01 -1.261552982032299042e-02 1.411314606666564941e-01
2.794920504093170166e-01 6.615406274795532227e-02 -1.281735748052597046e-01
3.973702490329742432e-01 7.502111047506332397e-02 -9.016338735818862915e-02
4.076468646526336670e-01 -1.272980123758316040e-03 7.591615617275238037e-02
2.314594686031341553e-01 5.400551855564117432e-02 -2.025041282176971436e-01
3.087522089481353760e-01 7.192885130643844604e-02 5.837303772568702698e-02
4.691951274871826172e-01 7.323943823575973511e-02 -7.573532313108444214e-02
6.098319590091705322e-02 -1.540295593440532684e-02 3.839433565735816956e-02
5.277026295661926270e-01 5.151093751192092896e-02 -1.012562140822410583e-01
4.202375411987304688e-01 7.741753011941909790e-02 3.153691068291664124e-02
1.788652092218399048e-01 4.338733479380607605e-02 -2.146766632795333862e-01
2.723197937011718750e-01 6.896885484457015991e-02 2.031084336340427399e-02
3.976585865020751953e-01 2.578823827207088470e-02 2.809231579303741455e-01
2.577975392341613770e-01 5.837232619524002075e-02 1.856658309698104858e-01
3.786501884460449219e-01 7.527760416269302368e-02 -7.685439288616180420e-02
4.521118402481079102e-01 2.062157541513442993e-02 2.007634937763214111e-01
1.926041543483734131e-01 4.194168746471405029e-02 2.210400700569152832e-01
1.051152348518371582e-01 3.522729501128196716e-02 -1.172175779938697815e-01
3.574855327606201172e-01 -9.742537513375282288e-03 7.539509981870651245e-02
7.007379829883575439e-02 1.793897897005081177e-02 1.090925261378288269e-01
3.931121230125427246e-01 1.352706830948591232e-02 2.453941404819488525e-01
4.371487498283386230e-01 1.131505705416202545e-02 1.644918173551559448e-01
4.701976776123046875e-01 1.417183130979537964e-02 -8.219251036643981934e-02
2.225117981433868408e-01 -2.176474593579769135e-02 9.681924432516098022e-02
1.057519912719726562e-01 3.401360660791397095e-02 -1.347785145044326782e-01
1.570821404457092285e-01 4.224921017885208130e-02 1.613448709249496460e-01
3.361011147499084473e-01 -1.275410689413547516e-02 7.415856420993804932e-02
3.416281640529632568e-01 7.260391116142272949e-02 -1.009412258863449097e-01
3.854897320270538330e-01 6.440678238868713379e-02 2.168906927108764648e-01
2.312737256288528442e-01 4.849769175052642822e-02 -2.424909919500350952e-01
3.442462980747222900e-01 5.553996562957763672e-02 2.605217397212982178e-01
3.793500065803527832e-01 3.926214203238487244e-02 -2.939155697822570801e-01
5.196762681007385254e-01 2.998920716345310211e-02 -3.577087447047233582e-02
3.718802034854888916e-01 -7.886720821261405945e-03 6.570275872945785522e-02
2.481285482645034790e-01 -1.426428370177745819e-02 -1.998302936553955078e-01
7.506974041461944580e-02 2.396203018724918365e-02 8.491759002208709717e-02
4.161405861377716064e-01 2.025488577783107758e-02 -2.428760826587677002e-01
4.286892414093017578e-01 7.368741557002067566e-03 1.449568867683410645e-01
1.950080543756484985e-01 1.551050692796707153e-03 2.633670568466186523e-01
3.811787068843841553e-01 -4.947969689965248108e-03 -1.031369119882583618e-01
5.065542459487915039e-01 3.192420676350593567e-02 1.396625936031341553e-01
3.843853771686553955e-01 5.318289250135421753e-02 -2.628308236598968506e-01
3.339877128601074219e-01 7.144888490438461304e-02 -1.141361370682716370e-01
1.249714940786361694e-01 4.388585314154624939e-02 -2.475060150027275085e-02
4.134269952774047852e-01 3.261728212237358093e-03 1.350648403167724609e-01
2.089313268661499023e-01 4.928863421082496643e-02 1.956899166107177734e-01
3.769182562828063965e-01 -8.187951520085334778e-03 -3.781500970944762230e-03
4.499009847640991211e-01 6.876232475042343140e-02 1.680736541748046875e-01
2.678466737270355225e-01 -2.135543338954448700e-02 -4.527092352509498596e-02
1.601423472166061401e-01 -2.041811123490333557e-03 -2.708767950534820557e-01
4.652570188045501709e-02 1.133062597364187241e-02 -9.474293142557144165e-02
4.749774932861328125e-02 4.949864000082015991e-03 7.686238735914230347e-02
2.947499155998229980e-01 7.112209498882293701e-02 3.526565060019493103e-02
1.410694122314453125e-01 -2.406332455575466156e-02 6.321913003921508789e-02
1.455145478248596191e-01 3.334733098745346069e-02 -2.269246876239776611e-01
3.791659176349639893e-01 7.431825250387191772e-02 1.090501174330711365e-01
2.130036652088165283e-01 6.052561104297637939e-02 -6.091118231415748596e-02
3.276340067386627197e-01 -2.782475203275680542e-03 2.132662087678909302e-01
4.176389873027801514e-01 -5.196835845708847046e-04 -2.981664240360260010e-02
7.901738584041595459e-02 2.672807872295379639e-02 7.383452355861663818e-02
3.837660551071166992e-01 7.172966748476028442e-02 -1.389083266258239746e-01
2.041753232479095459e-01 -1.769688539206981659e-02 -1.884653866291046143e-01
4.356387257575988770e-01 6.273841112852096558e-02 2.159990817308425903e-01
4.614081680774688721e-01 1.024641469120979309e-02 6.225655600428581238e-02
8.702252805233001709e-02 -9.124772623181343079e-03 1.430500149726867676e-01
3.031313419342041016e-01 -1.085346005856990814e-02 -1.814219355583190918e-01
2.580091357231140137e-01 1.728182658553123474e-02 -3.219094872474670410e-01
4.779199361801147461e-01 3.991711139678955078e-02 -2.037937492132186890e-01
4.125821590423583984e-01 7.101806253194808960e-02 1.611671596765518188e-01
2.545447051525115967e-01 4.436788707971572876e-02 -2.797250449657440186e-01
3.518850803375244141e-01 -7.070800289511680603e-03 1.387339532375335693e-01
4.363485574722290039e-01 3.220826387405395508e-03 9.396154433488845825e-03
5.013521909713745117e-01 6.770489364862442017e-02 1.136256381869316101e-01
3.105184435844421387e-01 7.239227741956710815e-02 -4.358569532632827759e-02
4.033705592155456543e-01 5.580377951264381409e-02 2.579456269741058350e-01
3.767337203025817871e-01 -8.160429075360298157e-03 -1.802134513854980469e-02
4.003306031227111816e-01 1.576324924826622009e-03 1.463196128606796265e-01
3.290636539459228516e-01 6.710706651210784912e-02 -1.694539189338684082e-01
3.190773427486419678e-01 -1.630194671452045441e-02 1.061803102493286133e-02
3.324029147624969482e-01 -1.376189477741718292e-02 -7.020827382802963257e-02
1.675738990306854248e-01 -2.569764293730258942e-02 -6.691686809062957764e-02
3.352518975734710693e-01 -9.350888431072235107e-04 -2.284941673278808594e-01
1.867338716983795166e-01 -1.633005775511264801e-02 1.714215874671936035e-01
4.662824273109436035e-01 6.410998851060867310e-02 -1.664892137050628662e-01
4.253155291080474854e-01 1.669105328619480133e-02 -2.152511179447174072e-01
3.473074138164520264e-01 3.425633534789085388e-03 2.364308387041091919e-01
4.140667617321014404e-02 1.148751005530357361e-02 -4.705763980746269226e-02
2.162790000438690186e-01 -1.343088038265705109e-02 1.937418580055236816e-01
2.307860255241394043e-01 3.632901236414909363e-02 -2.953679859638214111e-01
3.293217122554779053e-01 4.603426903486251831e-02 -2.929321229457855225e-01
5.076763033866882324e-01 6.428506225347518921e-02 -1.023800000548362732e-01
2.372243404388427734e-01 1.502268202602863312e-02 -3.190696239471435547e-01
4.001049697399139404e-01 7.688156515359878540e-02 5.533371120691299438e-02
3.723709285259246826e-01 -3.503976389765739441e-03 1.444594115018844604e-01
6.239843368530273438e-02 2.369571849703788757e-02 -3.992993757128715515e-02
1.375534832477569580e-01 4.647114872932434082e-02 2.654644474387168884e-02
4.048773050308227539e-01 3.635665401816368103e-03 1.594802141189575195e-01
4.816572070121765137e-01 1.706310175359249115e-02 8.557489514350891113e-02
2.926771938800811768e-01 -1.459512673318386078e-02 -1.501227915287017822e-01
2.664731144905090332e-01 -1.296173967421054840e-02 1.775483191013336182e-01
4.359634220600128174e-01 7.170011103153228760e-02 1.474033892154693604e-01
4.397572278976440430e-01 7.634668797254562378e-02 -4.602101072669029236e-02
3.906067013740539551e-01 -5.861250683665275574e-03 -4.624968394637107849e-03
2.243464887142181396e-01 -2.077678777277469635e-02 1.121646240353584290e-01
3.715115785598754883e-01 6.273223087191581726e-03 -2.324823439121246338e-01
3.873975872993469238e-01 7.285324856638908386e-03 2.175941169261932373e-01
3.411618769168853760e-01 4.712264984846115112e-02 -2.893844544887542725e-01
2.410466670989990234e-01 -2.358410321176052094e-02 1.263624988496303558e-03
2.543798387050628662e-01 -5.772491917014122009e-03 -2.573254704475402832e-01
1.339828819036483765e-01 2.259736880660057068e-03 2.286287844181060791e-01
1.628232002258300781e-01 5.149549990892410278e-02 4.583703354001045227e-02
2.632677257061004639e-01 -1.862075738608837128e-02 1.091944053769111633e-01
4.821632504463195801e-01 7.446551322937011719e-02 -6.186821497976779938e-03
9.128507971763610840e-02 3.434516116976737976e-02 -4.007327556610107422e-02
2.383010834455490112e-01 -2.380405552685260773e-02 -1.773155666887760162e-02
3.332125544548034668e-01 7.444182038307189941e-02 2.726140618324279785e-02
9.319598972797393799e-02 1.688971370458602905e-02 -2.090046852827072144e-01
7.500201463699340820e-02 2.894502691924571991e-02 -1.542918197810649872e-02
3.079130053520202637e-01 -1.293108426034450531e-02 -1.491849869489669800e-01
4.794523715972900391e-01 1.505114510655403137e-02 -4.179154336452484131e-02
2.248190641403198242e-01 7.996540516614913940e-04 2.675977647304534912e-01
4.622003734111785889e-01 7.616680115461349487e-02 -1.183216460049152374e-03
1.724179387092590332e-01 5.398037284612655640e-02 2.043412998318672180e-02
1.334100961685180664e-01 -2.559016831219196320e-02 -4.629858955740928650e-02
2.243739962577819824e-01 -1.150483824312686920e-02 2.066287547349929810e-01
4.215745031833648682e-01 1.245127990841865540e-03 -6.597784161567687988e-02
1.479871720075607300e-01 -2.699699252843856812e-04 -2.692299187183380127e-01
3.427735567092895508e-01 7.516783475875854492e-02 1.619246043264865875e-02
8.017547428607940674e-02 -1.810843311250209808e-02 6.344614923000335693e-02
1.430260986089706421e-01 -2.605875022709369659e-02 -2.476640976965427399e-02
2.037169933319091797e-01 -2.123129554092884064e-02 1.160455718636512756e-01
5.109670162200927734e-01 5.507989972829818726e-02 1.633512973785400391e-01
3.558050096035003662e-01 1.366468891501426697e-02 2.765850722789764404e-01
5.423823595046997070e-01 5.559236556291580200e-02 -1.871895045042037964e-02
3.624891340732574463e-01 7.582041621208190918e-02 -3.967032581567764282e-02
2.791734039783477783e-01 6.788146495819091797e-02 9.052701294422149658e-02
1.267956942319869995e-01 4.142857342958450317e-02 -1.134331002831459045e-01
4.599827527999877930e-01 7.142501324415206909e-02 1.343526691198348999e-01
2.409653961658477783e-01 -3.800580278038978577e-03 -2.715859413146972656e-01
3.590053915977478027e-01 5.672106146812438965e-02 2.574674487113952637e-01
2.136040329933166504e-01 -3.611313179135322571e-03 2.498710751533508301e-01
3.941036760807037354e-01 6.158124655485153198e-02 2.337969988584518433e-01
2.121915817260742188e-01 6.081675738096237183e-02 2.653359621763229370e-02
2.136115133762359619e-01 2.290644682943820953e-02 -3.127630054950714111e-01
1.138927042484283447e-01 2.185944467782974243e-02 -2.280815243721008301e-01
3.306187391281127930e-01 1.417895127087831497e-02 2.911373674869537354e-01
1.691518276929855347e-01 -2.590778283774852753e-02 2.063392661511898041e-02
1.253052055835723877e-01 3.381133079528808594e-02 1.571611911058425903e-01
3.984618186950683594e-01 7.659691572189331055e-02 -5.068026855587959290e-02
3.525482714176177979e-01 -1.083716191351413727e-02 6.462500244379043579e-02
4.594479799270629883e-01 8.743086829781532288e-03 3.682616632431745529e-03
2.422963678836822510e-01 -1.911938004195690155e-02 1.234839931130409241e-01
4.727503061294555664e-01 4.234329611063003540e-02 2.308148592710494995e-01
1.207969486713409424e-01 -1.120730675756931305e-02 1.732472628355026245e-01
2.195862382650375366e-01 -2.216004393994808197e-02 -1.207632720470428467e-01
4.656979441642761230e-01 3.680544719099998474e-02 -2.183267623186111450e-01
3.487882018089294434e-01 7.492081820964813232e-02 5.638535320758819580e-02
1.267865896224975586e-01 4.271733760833740234e-02 5.983982607722282410e-02
3.030421733856201172e-01 6.709111481904983521e-02 1.462698429822921753e-01
2.976822555065155029e-01 7.067456841468811035e-02 6.661594659090042114e-02
8.712103962898254395e-02 2.693445980548858643e-02 1.043045744299888611e-01
4.440862536430358887e-01 7.032301276922225952e-02 1.575662940740585327e-01
2.395504862070083618e-01 6.503772735595703125e-02 -1.256030984222888947e-02
5.391582250595092773e-01 6.000423431396484375e-02 -2.285929629579186440e-03
2.699321508407592773e-01 5.938546359539031982e-02 1.909001320600509644e-01
4.630783200263977051e-01 7.216123491525650024e-02 -9.999951720237731934e-02
4.457934796810150146e-01 4.113125056028366089e-02 2.590286135673522949e-01
3.307880163192749023e-01 6.267524510622024536e-02 -2.110703289508819580e-01
1.580212712287902832e-01 4.459893703460693359e-02 1.417562216520309448e-01
1.278272271156311035e-01 -2.553977258503437042e-02 -1.556381583213806152e-02
3.481881022453308105e-01 -1.179165951907634735e-02 5.326380580663681030e-02
3.409456312656402588e-01 3.540702164173126221e-03 -2.498570680618286133e-01
4.906105995178222656e-01 3.287332132458686829e-02 1.842169910669326782e-01
2.608307003974914551e-01 6.043634563684463501e-02 1.691797375679016113e-01
2.235805839300155640e-01 4.721060395240783691e-04 -2.904823124408721924e-01
4.858753681182861328e-01 1.625289395451545715e-02 1.971452869474887848e-02
1.557312309741973877e-01 -2.584872581064701080e-02 2.082855068147182465e-02
2.620135247707366943e-01 6.783488392829895020e-02 1.355479843914508820e-02
1.350551843643188477e-01 4.551119357347488403e-02 -6.801468878984451294e-02
1.670835167169570923e-01 -2.881692722439765930e-03 2.386520653963088989e-01
3.338137865066528320e-01 8.439179509878158569e-03 2.704826593399047852e-01
2.700882554054260254e-01 -1.234462670981884003e-02 -2.010773420333862305e-01
2.886002659797668457e-01 -1.726597733795642853e-02 -1.125308200716972351e-01
1.858655959367752075e-01 -1.973656751215457916e-02 1.381837129592895508e-01
4.690696895122528076e-01 6.599543988704681396e-02 -1.514326632022857666e-01
1.908364295959472656e-01 5.705086886882781982e-02 3.730347752571105957e-02
1.194620430469512939e-01 3.821384534239768982e-02 -1.318498700857162476e-01
1.166623383760452271e-01 -1.537171937525272369e-02 1.437338888645172119e-01
4.655780792236328125e-01 6.224071979522705078e-02 1.983329653739929199e-01
3.416657745838165283e-01 6.109298765659332275e-02 -2.258359640836715698e-01
3.697586655616760254e-01 -2.289056777954101562e-03 -1.682034283876419067e-01
3.644181489944458008e-01 -1.017385534942150116e-02 -2.290260512381792068e-03
4.413758516311645508e-01 6.297431886196136475e-03 8.608749508857727051e-02
4.698064923286437988e-01 7.057725638151168823e-02 -1.107482314109802246e-01
1.358939409255981445e-01 -2.278991974890232086e-02 8.236249536275863647e-02
4.754190444946289062e-01 5.663829296827316284e-02 -1.896252334117889404e-01
7.395692169666290283e-02 2.573174983263015747e-02 6.028029695153236389e-02
3.875945806503295898e-01 4.554851353168487549e-02 2.886815667152404785e-01
4.757304191589355469e-01 2.163976244628429413e-02 -1.426129043102264404e-01
2.021882534027099609e-01 5.945615470409393311e-02 3.159733023494482040e-03
3.854376077651977539e-02 9.044906124472618103e-03 -4.809226840734481812e-03
2.164521813392639160e-01 -7.994612678885459900e-03 2.289958745241165161e-01
3.356985449790954590e-01 5.982641875743865967e-02 2.351892292499542236e-01
4.179643094539642334e-02 -1.035886444151401520e-02 -2.059931308031082153e-02
2.237525880336761475e-01 5.979483574628829956e-02 -1.190227270126342773e-01
2.622763216495513916e-01 -2.199932001531124115e-02 -3.028927743434906006e-02
4.598293900489807129e-01 1.182541437447071075e-02 1.028556525707244873e-01
1.312874704599380493e-01 3.526495397090911865e-02 -1.903845220804214478e-01
4.482371211051940918e-01 6.882412359118461609e-03 6.047039851546287537e-02
2.001524567604064941e-01 5.283545702695846558e-02 -1.653201878070831299e-01
4.938874840736389160e-01 7.281890511512756348e-02 4.511859640479087830e-02
1.103226393461227417e-01 3.423570841550827026e-02 1.139917820692062378e-01
1.582320928573608398e-01 -2.118629775941371918e-02 -1.539993584156036377e-01
4.522628188133239746e-01 7.153528928756713867e-02 -1.187767609953880310e-01
4.360221028327941895e-01 7.442606985569000244e-02 -9.151853621006011963e-02
1.089386045932769775e-01 3.883469849824905396e-02 3.648153319954872131e-02
1.829982548952102661e-01 2.922799438238143921e-03 -2.912949919700622559e-01
1.476602107286453247e-01 -2.476754225790500641e-02 5.176758766174316406e-02
2.625827193260192871e-01 6.325429677963256836e-02 1.375733762979507446e-01
1.894589066505432129e-01 4.752914607524871826e-02 -1.987650841474533081e-01
2.672175467014312744e-01 -2.038771472871303558e-02 6.408540159463882446e-02
1.775248348712921143e-01 -2.525069005787372589e-02 -7.957548648118972778e-02
2.906695604324340820e-01 5.279311910271644592e-03 2.769224643707275391e-01
4.486920237541198730e-01 7.593848556280136108e-02 6.852508336305618286e-02
3.057506978511810303e-01 6.359703838825225830e-02 -1.890800297260284424e-01
3.047096729278564453e-01 -6.964595988392829895e-03 2.011403739452362061e-01
3.899748027324676514e-01 7.690143585205078125e-02 4.497923702001571655e-02
4.004834294319152832e-01 7.745844870805740356e-02 3.450884018093347549e-03
9.074066579341888428e-02 -2.261043526232242584e-02 -1.102844998240470886e-02
2.211909294128417969e-01 6.152335554361343384e-02 -6.938260793685913086e-02
4.800619781017303467e-01 6.540053337812423706e-02 -1.422440856695175171e-01
4.040799736976623535e-01 7.026318460702896118e-03 1.917526870965957642e-01
1.919963955879211426e-01 -2.588084898889064789e-02 -2.969995513558387756e-02
4.041114747524261475e-01 7.222510874271392822e-02 1.477478444576263428e-01
3.800033926963806152e-01 7.317088544368743896e-02 -1.178294643759727478e-01
3.457936942577362061e-01 -6.870998069643974304e-03 1.523441523313522339e-01
5.122469067573547363e-01 2.992001175880432129e-02 -8.227818459272384644e-02
5.239455401897430420e-02 1.322018075734376907e-02 -1.127193644642829895e-01
3.332120180130004883e-01 6.728743761777877808e-02 1.737165302038192749e-01
2.267495393753051758e-01 -9.958753362298011780e-03 -2.423028200864791870e-01
4.235306382179260254e-01 2.306791022419929504e-03 8.516882359981536865e-02
5.019699335098266602e-01 6.303619593381881714e-02 -1.224792897701263428e-01
4.094515144824981689e-01 1.076789945363998413e-02 2.101715356111526489e-01
3.456313312053680420e-01 -1.232511363923549652e-02 -5.602290108799934387e-02
4.811452627182006836e-01 7.469056546688079834e-02 1.329404488205909729e-02
2.677613496780395508e-01 -1.937926374375820160e-02 8.794768154621124268e-02
1.790879219770431519e-01 -1.363292522728443146e-02 1.907704025506973267e-01
4.171720445156097412e-01 6.754112988710403442e-02 -1.765990853309631348e-01
1.904261112213134766e-01 -2.210190333425998688e-02 -1.397867053747177124e-01
4.281298518180847168e-01 5.615578964352607727e-03 1.247215345501899719e-01
3.588261604309082031e-01 4.315583407878875732e-02 2.984637916088104248e-01
2.563849985599517822e-01 -1.480616070330142975e-02 -1.884420067071914673e-01
4.551195800304412842e-01 1.733344048261642456e-02 1.740042716264724731e-01
1.435115188360214233e-01 -2.449417300522327423e-02 -9.539299458265304565e-02
1.539315432310104370e-01 1.591993123292922974e-02 2.533348202705383301e-01
3.674577474594116211e-01 -2.249583601951599121e-03 1.679769605398178101e-01
4.406892657279968262e-01 5.696759372949600220e-02 -2.216229140758514404e-01
3.682885169982910156e-01 5.350674688816070557e-02 2.710214555263519287e-01
4.167420268058776855e-01 2.200752496719360352e-04 6.806030124425888062e-02
1.509114503860473633e-01 -2.611213736236095428e-02 1.010801643133163452e-04
2.252848595380783081e-01 5.807077139616012573e-02 1.362611353397369385e-01
3.848730623722076416e-01 2.669831737875938416e-03 1.865665614604949951e-01
1.311164796352386475e-01 -4.443768411874771118e-03 -2.477919161319732666e-01
2.715074121952056885e-01 6.898824870586395264e-02 -6.219427101314067841e-03
2.002910226583480835e-01 4.530939459800720215e-02 2.112564146518707275e-01
4.445913136005401611e-01 1.045129261910915375e-02 1.369051933288574219e-01
3.909257352352142334e-01 7.374888658523559570e-02 -1.115634962916374207e-01
1.870848536491394043e-01 -9.173909202218055725e-03 -2.503398060798645020e-01
6.340058147907257080e-02 1.692629978060722351e-02 9.158384799957275391e-02
2.312565445899963379e-01 6.199140101671218872e-03 -3.057926297187805176e-01
2.613164186477661133e-01 -1.571136899292469025e-02 1.521881818771362305e-01
3.022952973842620850e-01 2.983636222779750824e-02 3.134211599826812744e-01
3.134630024433135986e-01 -1.309708692133426666e-02 -1.367851346731185913e-01
2.684561014175415039e-01 5.637731775641441345e-02 -2.212008833885192871e-01
4.369714856147766113e-01 7.049783319234848022e-02 -1.410785764455795288e-01
1.902932822704315186e-01 5.476400256156921387e-02 -1.132941022515296936e-01
5.014698505401611328e-01 2.145016379654407501e-02 9.271781891584396362e-04
3.469411134719848633e-01 7.529754191637039185e-02 2.992917969822883606e-02
1.068084985017776489e-01 -1.678781025111675262e-02 -1.654057800769805908e-01
3.376189768314361572e-01 -1.367945782840251923e-02 -4.425064474344253540e-02
1.425749063491821289e-01 3.726015239953994751e-02 -1.980678886175155640e-01
2.429489046335220337e-01 6.484992802143096924e-02 4.889967665076255798e-02
4.569987952709197998e-01 7.023845613002777100e-02 1.495052725076675415e-01
2.125706672668457031e-01 5.649205297231674194e-02 1.295881569385528564e-01
1.337758600711822510e-01 3.981664404273033142e-02 -1.566454321146011353e-01
4.269137680530548096e-01 2.952875569462776184e-03 -7.934628427028656006e-02
1.270721703767776489e-01 4.404121637344360352e-02 -5.127196386456489563e-02
1.553411185741424561e-01 -2.626741863787174225e-02 -1.912778057157993317e-02
2.787204086780548096e-01 -1.897714100778102875e-02 -9.600816667079925537e-02
4.998061656951904297e-01 5.815746635198593140e-02 -1.494469195604324341e-01
1.593292504549026489e-01 4.676823318004608154e-02 1.206300184130668640e-01
2.689026594161987305e-01 -2.578223124146461487e-03 -2.677554190158843994e-01
7.414054870605468750e-02 -2.651797607541084290e-03 1.424533873796463013e-01
1.516505926847457886e-01 -1.078941114246845245e-02 -2.336089611053466797e-01
5.275090932846069336e-01 6.559871137142181396e-02 3.728730231523513794e-02
4.792248904705047607e-01 1.446323748677968979e-02 -2.211918868124485016e-02
4.918198287487030029e-01 6.300543248653411865e-02 -1.401947438716888428e-01
8.944472670555114746e-02 1.486466638743877411e-02 1.678761541843414307e-01
1.497212648391723633e-01 4.346793144941329956e-02 1.326599270105361938e-01
4.430367350578308105e-01 7.462577894330024719e-03 1.006437018513679504e-01
4.658510684967041016e-01 6.093223392963409424e-02 -1.835934221744537354e-01
1.552061289548873901e-01 -2.440549992024898529e-02 -1.023165136575698853e-01
2.668087184429168701e-01 6.784573942422866821e-02 -5.476913228631019592e-02
3.513772189617156982e-01 -1.166749931871891022e-02 3.949300572276115417e-02
2.405500560998916626e-01 3.136064112186431885e-02 2.955031096935272217e-01
3.836497664451599121e-01 -6.311798468232154846e-03 -5.749078467488288879e-02
3.785338997840881348e-02 6.946835666894912720e-03 -6.042118370532989502e-02
9.707628190517425537e-02 -2.156118862330913544e-02 4.898944124579429626e-02
2.529965043067932129e-01 5.390675738453865051e-02 2.162217795848846436e-01
3.725106120109558105e-01 1.460469514131546021e-02 2.682749330997467041e-01
6.567917764186859131e-02 -1.574658416211605072e-02 5.154341086745262146e-02
3.506243228912353516e-01 7.252294570207595825e-02 -1.113609671592712402e-01
3.885952532291412354e-01 -6.033310666680335999e-03 -2.877474948763847351e-02
3.999969661235809326e-01 7.628942281007766724e-02 7.537171989679336548e-02
2.977133095264434814e-01 6.873106211423873901e-02 1.126878559589385986e-01
3.558154702186584473e-01 6.595539301633834839e-02 -1.924403309822082520e-01
2.395069003105163574e-01 5.982618033885955811e-02 1.415635347366333008e-01
2.820316851139068604e-01 5.976290255784988403e-02 2.003176361322402954e-01
4.201274514198303223e-01 6.955107301473617554e-02 -1.582739949226379395e-01
3.572000861167907715e-01 6.024318933486938477e-02 2.390569895505905151e-01
2.487437129020690918e-01 2.187604084610939026e-03 2.730016708374023438e-01
5.344666242599487305e-01 6.046091020107269287e-02 -3.971985355019569397e-02
3.875679075717926025e-01 4.406922310590744019e-02 -2.842856943607330322e-01
3.402377963066101074e-01 7.356027513742446899e-02 -7.722166180610656738e-02
1.660730838775634766e-01 -1.157652400434017181e-02 -2.340692281723022461e-01
3.206070661544799805e-01 1.720786839723587036e-02 -3.092220127582550049e-01
3.173781037330627441e-01 6.340497732162475586e-02 1.992433369159698486e-01
1.229264885187149048e-01 1.968113705515861511e-03 -2.553234696388244629e-01
1.347534060478210449e-01 3.838919848203659058e-02 -1.728079319000244141e-01
3.550395965576171875e-01 6.778659671545028687e-02 1.819534599781036377e-01
4.843987524509429932e-01 4.826436936855316162e-02 -1.945037692785263062e-01
2.955785393714904785e-01 5.966700613498687744e-02 2.130061089992523193e-01
2.807516753673553467e-01 4.869347810745239258e-02 -2.735677957534790039e-01
3.393805921077728271e-01 5.557075142860412598e-03 2.541502714157104492e-01
5.191110372543334961e-01 5.489955097436904907e-02 -1.194132417440414429e-01
8.474457263946533203e-02 -1.007706485688686371e-02 -1.802114993333816528e-01
2.614968419075012207e-01 6.589584052562713623e-02 -9.516145288944244385e-02
2.373731434345245361e-01 -9.999746456742286682e-03 2.143741548061370850e-01
1.905590891838073730e-01 5.666261911392211914e-02 5.032595619559288025e-02
1.046002060174942017e-01 -1.947660930454730988e-02 9.264118969440460205e-02
4.298631548881530762e-01 1.787783578038215637e-03 -1.457118662074208260e-03
3.838518559932708740e-01 5.454377457499504089e-02 2.662047743797302246e-01
2.511807084083557129e-01 6.119006872177124023e-02 1.452341973781585693e-01
1.273320466279983521e-01 -1.911706291139125824e-02 -1.625590473413467407e-01
