-9.335782378911972046e-03 -5.381495356559753418e-01 -6.312677264213562012e-02
-1.666212826967239380e-02 1.806599497795104980e-01 8.943238854408264160e-02
-4.853182658553123474e-02 -3.101224601268768311e-01 8.430005609989166260e-02
-2.127351472154259682e-03 -3.514820337295532227e-02 9.640019387006759644e-02
-6.878539919853210449e-02 -1.104522794485092163e-01 -4.771494492888450623e-02
-8.157704770565032959e-02 -5.611793994903564453e-01 4.693803936243057251e-02
9.050623327493667603e-02 2.997274994850158691e-01 -6.753524765372276306e-03
-3.324607387185096741e-02 9.988792240619659424e-02 8.482544124126434326e-02
-4.273696243762969971e-02 -6.439296603202819824e-01 -5.844792351126670837e-02
3.773540258407592773e-02 7.316169738769531250e-01 -7.506706751883029938e-03
-9.107363224029541016e-02 -5.240701436996459961e-01 -2.438238449394702911e-02
-8.287177979946136475e-02 -4.337828159332275391e-01 -4.430335760116577148e-02
-7.454519718885421753e-02 -5.016360282897949219e-01 5.942423641681671143e-02
-5.787261202931404114e-02 -4.988837838172912598e-01 7.009536772966384888e-02
2.662919089198112488e-02 -2.011395692825317383e-01 -8.112830668687820435e-02
-2.896498516201972961e-02 4.036764204502105713e-01 -1.475124247372150421e-02
3.610976412892341614e-02 5.594347715377807617e-01 6.875295192003250122e-02
-6.329150497913360596e-02 1.000969335436820984e-01 3.320750221610069275e-02
-7.065298408269882202e-02 3.225824236869812012e-02 2.342979051172733307e-02
-2.016875706613063812e-02 3.857081532478332520e-01 -4.372500628232955933e-02
-3.729038685560226440e-02 3.064380586147308350e-01 4.777613654732704163e-02
6.731057167053222656e-02 -6.561219692230224609e-02 -2.662066929042339325e-02
-5.023016408085823059e-02 1.890161335468292236e-01 -3.111203573644161224e-02
9.888799861073493958e-03 -3.948182761669158936e-01 -7.162589579820632935e-02
-5.432546511292457581e-02 -5.302393436431884766e-01 -6.992059946060180664e-02
3.710866440087556839e-03 -1.667716801166534424e-01 8.943162858486175537e-02
-2.599397487938404083e-02 6.410757079720497131e-03 -8.651299029588699341e-02
-4.285803879611194134e-04 -4.201025068759918213e-01 -7.603079825639724731e-02
-7.711967080831527710e-02 -7.536900043487548828e-01 -9.293869137763977051e-03
-5.488498881459236145e-02 -5.170332789421081543e-01 6.935023516416549683e-02
1.264365203678607941e-02 -5.335552692413330078e-01 5.089058540761470795e-03
-3.574373200535774231e-02 3.403891921043395996e-01 -2.124531194567680359e-02
2.593517489731311798e-02 -2.618397772312164307e-01 -7.494322210550308228e-02
-4.245118796825408936e-02 2.484131157398223877e-01 -3.442984074354171753e-02
-7.257315516471862793e-02 -6.425735354423522949e-01 4.594692960381507874e-02
-5.241018533706665039e-02 -2.969968318939208984e-01 -7.850720733404159546e-02
-6.399627774953842163e-02 1.846347376704216003e-02 5.310093984007835388e-02
2.590919658541679382e-02 -3.490102589130401611e-01 4.536556825041770935e-02
3.295050933957099915e-03 -1.206175908446311951e-01 -9.564384073019027710e-02
6.687296926975250244e-02 2.387304157018661499e-01 -6.938485056161880493e-02
6.365294009447097778e-02 1.655051410198211670e-01 6.144856661558151245e-02
6.559243891388177872e-03 6.299195289611816406e-01 4.492703825235366821e-03
-5.711440742015838623e-02 9.873425588011741638e-03 -5.301345139741897583e-02
-7.782983779907226562e-02 -7.438749074935913086e-02 -1.193396467715501785e-02
-2.479657530784606934e-02 4.044235348701477051e-01 4.610544443130493164e-02
-6.458975840359926224e-03 -4.707605242729187012e-01 6.160065904259681702e-02
-3.632643073797225952e-02 3.654462695121765137e-01 2.071351557970046997e-02
-7.742204517126083374e-02 -9.249613434076309204e-02 3.626450896263122559e-02
-7.048679143190383911e-02 4.027751088142395020e-02 1.837980560958385468e-02
8.879736065864562988e-02 2.546035647392272949e-01 -6.383114494383335114e-03
-5.038499087095260620e-02 2.220555841922760010e-01 -1.855067908763885498e-02
1.655633561313152313e-02 5.840166807174682617e-01 5.656793713569641113e-02
-7.079633325338363647e-02 3.957946598529815674e-02 4.217025823891162872e-03
4.830670356750488281e-02 1.576706469058990479e-01 7.825938612222671509e-02
-4.129417985677719116e-02 -7.256762385368347168e-01 2.650822512805461884e-02
4.161326587200164795e-02 -3.864301741123199463e-02 7.173119485378265381e-02
4.202855750918388367e-02 -7.526631653308868408e-02 -7.852029800415039062e-02
-2.812003344297409058e-02 1.014981493353843689e-01 -7.811356335878372192e-02
1.966610550880432129e-03 9.859986603260040283e-02 -9.356186538934707642e-02
-7.763504050672054291e-03 -9.397519379854202271e-02 9.570159018039703369e-02
-5.211658030748367310e-02 -2.329356223344802856e-01 8.383273333311080933e-02
2.368171140551567078e-02 -1.704825460910797119e-01 7.638145983219146729e-02
-1.646430976688861847e-02 -1.212443038821220398e-01 9.543781727552413940e-02
-7.577832788228988647e-03 4.638277888298034668e-01 -4.391767457127571106e-02
-1.527351792901754379e-02 -4.442437589168548584e-01 -8.010265231132507324e-02
-1.605841331183910370e-02 3.060219585895538330e-01 -6.490455567836761475e-02
8.371250331401824951e-02 6.039832830429077148e-01 -3.244657814502716064e-02
-3.630905598402023315e-02 -2.229093201458454132e-02 -8.095209300518035889e-02
-4.663698375225067139e-02 -4.396307766437530518e-01 -7.881405204534530640e-02
1.099485903978347778e-02 2.754494249820709229e-01 -8.556518703699111938e-02
-8.659836649894714355e-02 -6.098044514656066895e-01 3.322118148207664490e-02
5.535230506211519241e-03 -5.212268233299255371e-01 3.400735184550285339e-02
-5.704968795180320740e-02 -1.015770956873893738e-01 -6.551789492368698120e-02
4.747083038091659546e-02 2.402761280536651611e-01 8.110205084085464478e-02
-6.656477600336074829e-02 -3.907577395439147949e-01 7.146111130714416504e-02
7.221108675003051758e-02 7.218559384346008301e-01 2.370063960552215576e-02
5.005519092082977295e-02 -1.124766170978546143e-01 5.014921352267265320e-02
-8.415223658084869385e-02 -2.999851107597351074e-01 -3.457025438547134399e-02
-8.972736448049545288e-02 -3.722317814826965332e-01 3.522170335054397583e-02
2.939213882200419903e-04 5.761991739273071289e-01 3.546804189682006836e-02
-3.382090479135513306e-02 3.277806937694549561e-01 -3.179486840963363647e-02
-6.273911567404866219e-04 5.594527721405029297e-01 4.123508930206298828e-02
5.647927056998014450e-03 -4.242619276046752930e-01 5.819128453731536865e-02
6.003280356526374817e-02 2.259365022182464600e-01 -7.607629895210266113e-02
-4.432749003171920776e-02 -6.154826283454895020e-01 -6.314665079116821289e-02
-3.263782709836959839e-02 3.803496062755584717e-01 3.160102665424346924e-02
-8.111028373241424561e-02 -1.038596853613853455e-01 -8.415635675191879272e-04
7.022878527641296387e-02 2.146414369344711304e-01 5.494420975446701050e-02
-7.574936002492904663e-02 -4.445465207099914551e-01 6.110450252890586853e-02
-3.237286582589149475e-02 -2.000900208950042725e-01 9.198993444442749023e-02
-5.653781443834304810e-02 1.397214680910110474e-01 4.485432058572769165e-02
-7.312408089637756348e-02 -1.050662621855735779e-01 -3.709265589714050293e-02
5.882739089429378510e-03 -2.393243610858917236e-01 8.272939920425415039e-02
4.855577647686004639e-02 4.846394360065460205e-01 -7.078304141759872437e-02
4.778414219617843628e-02 4.069449901580810547e-01 7.872480899095535278e-02
-8.967896550893783569e-02 -6.044404506683349609e-01 -2.233512513339519501e-02
7.797399908304214478e-02 6.334514021873474121e-01 3.708218410611152649e-02
7.859992980957031250e-02 7.353445142507553101e-02 2.660295460373163223e-03
-9.096778929233551025e-03 1.474011093378067017e-01 -8.703713864088058472e-02
-7.440168410539627075e-02 -3.485868871212005615e-01 6.436372548341751099e-02
1.595385745167732239e-02 -4.471192359924316406e-01 3.749851509928703308e-02
-2.070072479546070099e-02 -5.708410590887069702e-02 9.575064480304718018e-02
-8.529710024595260620e-02 -1.685605049133300781e-01 4.011224955320358276e-03
-9.497155249118804932e-02 -5.129902362823486328e-01 1.350009813904762268e-02
6.237306445837020874e-02 -9.641785919666290283e-02 2.168695256114006042e-02
-6.516052782535552979e-02 -3.413127362728118896e-01 -6.765066087245941162e-02
-8.299512416124343872e-02 -1.536767482757568359e-01 -1.142895594239234924e-02
-4.742175713181495667e-02 -1.580012440681457520e-01 8.625217527151107788e-02
-5.586285516619682312e-02 -1.888073831796646118e-01 8.084087073802947998e-02
-7.471895217895507812e-02 -6.486365795135498047e-01 4.323096573352813721e-02
3.765620291233062744e-02 -3.036295771598815918e-01 3.234825283288955688e-02
-2.079926989972591400e-02 1.180524379014968872e-01 9.121031314134597778e-02
6.776800751686096191e-02 4.289000928401947021e-01 6.337672472000122070e-02
4.031495377421379089e-02 1.900394409894943237e-01 8.512374758720397949e-02
5.859326198697090149e-02 7.377970218658447266e-01 2.833376824855804443e-02
3.100893087685108185e-02 1.821630150079727173e-01 -9.118010103702545166e-02
-5.094197764992713928e-02 1.601851545274257660e-03 -6.353344768285751343e-02
6.607258226722478867e-03 -4.479656219482421875e-01 5.220399051904678345e-02
9.459284134209156036e-03 4.681738913059234619e-01 7.351915538311004639e-02
-9.847807697951793671e-03 4.681479334831237793e-01 5.531578510999679565e-02
-9.526234120130538940e-02 -5.339236855506896973e-01 4.360308870673179626e-03
-3.057284653186798096e-02 -1.063604578375816345e-01 -8.865659683942794800e-02
-4.295817390084266663e-02 -7.576181888580322266e-01 1.007836870849132538e-02
9.313046187162399292e-02 4.215314388275146484e-01 -1.185666397213935852e-02
8.542239665985107422e-02 2.558546662330627441e-01 2.222168631851673126e-02
-2.940430073067545891e-03 -3.490472137928009033e-01 7.663622498512268066e-02
5.552981793880462646e-02 2.176216840744018555e-01 7.379859685897827148e-02
7.171334698796272278e-03 -5.703390240669250488e-01 -1.505434326827526093e-02
1.792892813682556152e-03 2.043284326791763306e-01 -8.774867653846740723e-02
-9.313049912452697754e-02 -3.484370112419128418e-01 1.008697040379047394e-02
-2.717450074851512909e-02 -1.247755885124206543e-01 -9.075388312339782715e-02
2.440065704286098480e-02 -4.129460155963897705e-01 -4.632148146629333496e-02
3.313840553164482117e-02 -4.002124667167663574e-01 -4.196892492473125458e-03
2.339880913496017456e-03 -2.647219896316528320e-01 -8.971773087978363037e-02
-2.092316001653671265e-02 -6.942409873008728027e-01 9.490298107266426086e-03
6.402429938316345215e-02 6.734691262245178223e-01 4.438582435250282288e-02
-7.181409746408462524e-02 9.879443794488906860e-03 -1.032593194395303726e-02
6.532176584005355835e-02 -6.919553875923156738e-02 1.916466839611530304e-02
1.224605459719896317e-02 -4.904583990573883057e-01 -4.678627848625183105e-02
2.173561975359916687e-02 2.218656092882156372e-01 9.268241375684738159e-02
-8.005949854850769043e-02 -1.957454681396484375e-01 4.648791998624801636e-02
2.315108664333820343e-02 2.952875196933746338e-01 9.038368612527847290e-02
4.503205418586730957e-02 2.661260068416595459e-01 8.290957659482955933e-02
3.966698795557022095e-02 -2.851884365081787109e-01 3.283066302537918091e-02
-6.330911815166473389e-02 1.205217689275741577e-01 -1.688184216618537903e-03
-1.081614871509373188e-03 3.969336748123168945e-01 -6.493442505598068237e-02
4.276037216186523438e-02 6.871215105056762695e-01 -3.455048054456710815e-02
8.155239373445510864e-02 4.733543097972869873e-01 -4.845749586820602417e-02
-4.164661094546318054e-02 -3.304865956306457520e-01 -8.458970487117767334e-02
-9.142138995230197906e-03 2.338759452104568481e-01 -7.969069480895996094e-02
8.923175185918807983e-02 4.008307456970214844e-01 2.403333596885204315e-02
-6.926187872886657715e-02 -5.962383151054382324e-01 5.470349639654159546e-02
-2.385311387479305267e-02 2.745771408081054688e-01 7.508198171854019165e-02
-6.902591884136199951e-02 -7.000130414962768555e-02 5.597964674234390259e-02
6.662875413894653320e-02 7.508759498596191406e-01 -8.460734039545059204e-03
-2.754223346710205078e-02 -3.701036572456359863e-01 -8.697664737701416016e-02
-2.647536993026733398e-02 4.279122054576873779e-01 -1.034972723573446274e-02
-2.132921107113361359e-02 3.835143446922302246e-01 5.878816917538642883e-02
8.600487560033798218e-02 2.849785089492797852e-01 2.444388531148433685e-02
1.195784471929073334e-02 -8.606092631816864014e-02 9.052480757236480713e-02
4.215633496642112732e-02 -2.673254013061523438e-01 -4.824118316173553467e-02
1.290671806782484055e-02 3.387066423892974854e-01 8.802073448896408081e-02
9.051975607872009277e-02 6.112765073776245117e-01 -5.335664027370512486e-04
8.843688666820526123e-02 3.118759989738464355e-01 -2.895624376833438873e-02
3.116314299404621124e-02 -2.242260724306106567e-01 6.143494695425033569e-02
-7.637328654527664185e-02 -1.188281029462814331e-01 -3.039010427892208099e-02
-5.012826621532440186e-02 -7.692584395408630371e-01 1.005610078573226929e-02
1.985762733966112137e-03 4.990827143192291260e-01 6.253578513860702515e-02
-5.939011648297309875e-02 -3.022962510585784912e-01 7.863277941942214966e-02
3.919597715139389038e-02 -2.901362180709838867e-01 3.253347054123878479e-02
-2.224585227668285370e-02 -4.048830270767211914e-01 7.926663756370544434e-02
2.489587105810642242e-02 -4.606610834598541260e-01 -9.165368042886257172e-03
1.596878096461296082e-02 3.956648409366607666e-01 -7.576201856136322021e-02
-2.423751913011074066e-02 -6.735690832138061523e-01 2.823112159967422485e-02
4.097799211740493774e-02 7.369032502174377441e-01 -9.083954617381095886e-03
2.122795395553112030e-02 6.329765915870666504e-01 -3.344939649105072021e-02
7.594436407089233398e-02 1.033440530300140381e-01 -4.149590432643890381e-02
-2.030574530363082886e-02 3.805794417858123779e-01 -4.478554800152778625e-02
8.387570828199386597e-02 6.355047821998596191e-01 2.560891211032867432e-02
6.500212848186492920e-02 -9.154693782329559326e-02 -2.742319926619529724e-02
4.517929628491401672e-02 -1.883951425552368164e-01 -5.996042117476463318e-02
5.804715678095817566e-02 -1.666621118783950806e-01 -2.822381630539894104e-02
-7.300408929586410522e-02 1.334515586495399475e-02 7.593217305839061737e-03
8.661283552646636963e-02 2.880392074584960938e-01 -3.355755284428596497e-02
-7.181952148675918579e-02 -5.277466177940368652e-01 5.988184735178947449e-02
2.267424017190933228e-02 2.030852288007736206e-01 -9.146209061145782471e-02
8.954550325870513916e-02 6.130402684211730957e-01 1.016015745699405670e-02
-8.674515783786773682e-02 -3.739517629146575928e-01 -3.364475443959236145e-02
-5.362543091177940369e-02 -4.757552742958068848e-01 -7.379163056612014771e-02
-8.951104432344436646e-02 -6.737493276596069336e-01 2.159832947654649615e-04
1.638400927186012268e-02 -2.609057128429412842e-01 -8.306298404932022095e-02
-8.395683765411376953e-02 -1.501670181751251221e-01 1.709074154496192932e-02
8.015470951795578003e-02 1.408632695674896240e-01 -3.382367268204689026e-02
1.123537681996822357e-02 3.741088807582855225e-01 8.492236584424972534e-02
-1.804887317121028900e-02 -6.896634697914123535e-01 1.876424183137714863e-03
7.035656273365020752e-02 -2.676657773554325104e-02 1.080122776329517365e-02
-3.449877724051475525e-02 3.422199189662933350e-02 -7.838833332061767578e-02
-9.261040389537811279e-02 -4.322976469993591309e-01 2.738419547677040100e-02
-6.779647618532180786e-02 -1.894003897905349731e-01 6.852924078702926636e-02
-1.363040413707494736e-02 7.719130814075469971e-02 9.535393863916397095e-02
-7.468606811016798019e-03 3.937536180019378662e-01 7.296359539031982422e-02
4.645164590328931808e-03 6.160559654235839844e-01 2.151746302843093872e-02
2.373520098626613617e-02 -5.498567223548889160e-02 -9.211307764053344727e-02
-2.810157462954521179e-02 4.279952645301818848e-01 1.850404078140854836e-03
-7.149824500083923340e-02 -1.484009921550750732e-01 -4.698504135012626648e-02
-9.124003350734710693e-02 -6.428279280662536621e-01 -6.401578895747661591e-03
2.464771829545497894e-02 7.017838358879089355e-01 4.435489885509014130e-03
-4.400734603404998779e-02 3.201297670602798462e-02 -6.898967921733856201e-02
-5.376441031694412231e-02 9.362103044986724854e-02 -4.540198668837547302e-02
-3.910333849489688873e-03 4.380782842636108398e-01 -5.469338223338127136e-02
1.916823722422122955e-02 -3.097033202648162842e-01 6.282703578472137451e-02
-3.866145014762878418e-02 -7.459838986396789551e-01 1.200901065021753311e-02
4.365253075957298279e-02 3.707280457019805908e-01 8.197113871574401855e-02
4.786094278097152710e-02 8.018760383129119873e-02 -8.262680470943450928e-02
-5.253354087471961975e-02 2.204014658927917480e-01 -8.364128880202770233e-03
7.364598102867603302e-03 5.250096917152404785e-01 -4.811115190386772156e-02
5.570071190595626831e-02 3.924378156661987305e-01 -7.549364119768142700e-02
-4.212751984596252441e-02 -6.769285798072814941e-01 4.286246746778488159e-02
-1.135324314236640930e-02 1.598040461540222168e-01 -8.492720872163772583e-02
6.870479881763458252e-02 3.216209113597869873e-01 -6.812642514705657959e-02
4.250062629580497742e-02 -2.826990187168121338e-01 2.529548481106758118e-02
1.820369856432080269e-03 -3.731244206428527832e-01 -8.044786006212234497e-02
6.008049845695495605e-02 -1.419455111026763916e-01 -2.993283048272132874e-02
7.277080416679382324e-02 7.335432171821594238e-01 -1.209071464836597443e-02
8.291830122470855713e-02 4.144718348979949951e-01 4.137657582759857178e-02
8.790268003940582275e-02 3.356808722019195557e-01 2.356154471635818481e-02
-3.268205374479293823e-02 -5.457472205162048340e-01 -7.212324440479278564e-02
8.586857467889785767e-02 4.786297082901000977e-01 3.494133055210113525e-02
5.742960050702095032e-02 5.642182379961013794e-02 6.091579422354698181e-02
2.978221513330936432e-02 -3.926971852779388428e-01 -3.926153481006622314e-02
-9.056820720434188843e-02 -4.636275768280029297e-01 -2.645130828022956848e-02
6.519817560911178589e-02 5.880640745162963867e-01 5.611813068389892578e-02
5.797873809933662415e-02 -1.352931857109069824e-01 -4.139674454927444458e-02
-5.245570093393325806e-02 -7.801752090454101562e-01 -5.558688193559646606e-03
-8.918638527393341064e-02 -2.435323745012283325e-01 8.750961162149906158e-03
-1.184938289225101471e-02 -1.745692640542984009e-01 9.337735921144485474e-02
-4.586309567093849182e-02 -1.947468221187591553e-01 -8.155605942010879517e-02
7.072321325540542603e-02 2.949794530868530273e-01 -6.580838561058044434e-02
-7.625211030244827271e-02 -6.708097457885742188e-02 -1.768096163868904114e-02
8.357221633195877075e-02 6.504082679748535156e-01 -2.322212792932987213e-02
8.282553404569625854e-02 4.409531056880950928e-01 4.177469760179519653e-02
3.883228823542594910e-02 8.531738817691802979e-02 8.286353945732116699e-02
8.189547806978225708e-02 2.380873411893844604e-01 -4.320661351084709167e-02
3.955240547657012939e-02 1.339759677648544312e-01 8.424174040555953979e-02
-3.866383433341979980e-02 3.445913493633270264e-01 2.362278103828430176e-02
7.841352373361587524e-02 6.889241933822631836e-01 2.456895262002944946e-02
-7.473608851432800293e-02 -3.721206635236740112e-02 3.135968744754791260e-02
-5.406992137432098389e-02 -3.604874610900878906e-01 -7.718341052532196045e-02
2.206670120358467102e-03 -5.971652865409851074e-01 -1.567130163311958313e-02
-2.214964479207992554e-02 5.969373881816864014e-02 -8.569027483463287354e-02
5.802617222070693970e-02 -8.629611879587173462e-02 -5.321107432246208191e-02
2.806711941957473755e-02 -3.644129335880279541e-01 3.693596273660659790e-02
9.180423617362976074e-02 3.425657451152801514e-01 -7.882096804678440094e-03
3.772791847586631775e-02 2.667672634124755859e-01 8.681696653366088867e-02
-6.866135448217391968e-02 -3.585741817951202393e-01 7.041542977094650269e-02
-5.085771437734365463e-03 4.140299260616302490e-01 -5.811976641416549683e-02
4.962333291769027710e-02 -1.948660463094711304e-01 3.280851244926452637e-02
-2.439131774008274078e-02 -2.308277040719985962e-01 -9.201597422361373901e-02
-3.067655488848686218e-02 1.485387235879898071e-01 8.289330452680587769e-02
-7.487330120056867599e-03 -4.594332277774810791e-01 6.438981741666793823e-02
4.020761325955390930e-02 6.794144958257675171e-02 8.091318607330322266e-02
-7.684198021888732910e-02 -1.073851585388183594e-01 4.180023446679115295e-02
-9.478080272674560547e-02 -4.356879591941833496e-01 -3.130151657387614250e-03
7.981081306934356689e-02 4.131755530834197998e-01 -5.318728461861610413e-02
4.788672551512718201e-02 7.540859580039978027e-01 1.342029869556427002e-02
-7.782524824142456055e-02 -5.863136053085327148e-02 2.039784193038940430e-02
-1.707971282303333282e-02 -1.498528420925140381e-01 -9.426167607307434082e-02
9.152108430862426758e-02 3.441896438598632812e-01 3.608421422541141510e-03
5.912163108587265015e-02 -7.236631959676742554e-02 3.845273703336715698e-02
1.624810509383678436e-02 2.864352166652679443e-01 9.123688191175460815e-02
6.093097105622291565e-02 4.568573236465454102e-01 -6.894155591726303101e-02
-1.970040798187255859e-02 2.343612760305404663e-01 8.323101699352264404e-02
-5.704156309366226196e-02 -1.072837784886360168e-01 7.685114443302154541e-02
1.512646861374378204e-02 1.127145662903785706e-01 9.494244307279586792e-02
8.440124988555908203e-02 3.577782809734344482e-01 3.601310402154922485e-02
-6.916062440723180771e-03 -4.974501430988311768e-01 -6.878431886434555054e-02
-6.064650788903236389e-02 -2.656971849501132965e-02 6.586714088916778564e-02
-9.093958139419555664e-02 -3.144474923610687256e-01 2.261651493608951569e-02
1.277960650622844696e-02 -4.680455327033996582e-01 -5.276038125157356262e-02
4.258858785033226013e-02 1.891952455043792725e-01 -8.733121305704116821e-02
-4.519508779048919678e-02 2.298380881547927856e-01 -3.278313949704170227e-02
8.461228013038635254e-02 3.118348419666290283e-01 3.206809982657432556e-02
6.852464377880096436e-02 7.139974832534790039e-02 -5.553496256470680237e-02
-2.371044643223285675e-02 -1.336249858140945435e-01 -9.227253496646881104e-02
3.565814346075057983e-02 -5.494293570518493652e-02 7.636205106973648071e-02
6.215005367994308472e-02 5.225293338298797607e-02 -6.485974043607711792e-02
3.338670358061790466e-02 4.910005629062652588e-01 -6.968192756175994873e-02
-9.002870321273803711e-02 -3.181321620941162109e-01 -1.604016870260238647e-02
1.770301908254623413e-02 4.518017172813415527e-01 7.888433337211608887e-02
5.300979688763618469e-02 3.585231304168701172e-01 -7.838223874568939209e-02
-1.696210168302059174e-02 -5.417664647102355957e-01 5.696754157543182373e-02
7.423636317253112793e-02 1.812342554330825806e-02 7.463825866580009460e-03
3.400180116295814514e-02 -3.192513883113861084e-01 3.668098151683807373e-02
8.566076308488845825e-02 1.970559209585189819e-01 -1.782733388245105743e-02
-2.223244123160839081e-02 3.877506256103515625e-01 -3.938532993197441101e-02
-6.085365265607833862e-02 -7.748985290527343750e-01 -1.804796606302261353e-02
4.284024238586425781e-02 3.005498945713043213e-01 8.396574854850769043e-02
1.343942712992429733e-02 2.268415838479995728e-01 9.360487759113311768e-02
-1.639437302947044373e-02 4.339793324470520020e-01 -3.718095272779464722e-02
1.247734762728214264e-02 -4.134599566459655762e-01 5.187289044260978699e-02
-1.215384062379598618e-02 1.243357211351394653e-01 9.415972977876663208e-02
5.842526257038116455e-02 5.915221571922302246e-02 -7.074727863073348999e-02
1.605157367885112762e-02 4.359026849269866943e-01 8.017860352993011475e-02
-2.790318801999092102e-02 3.210695981979370117e-01 -4.606152698397636414e-02
1.089227758347988129e-02 -3.092040419578552246e-01 7.132232934236526489e-02
5.510523542761802673e-02 -1.710844635963439941e-01 2.281971648335456848e-02
-3.179649636149406433e-02 -2.305945381522178650e-02 -8.436540514230728149e-02
-4.086779430508613586e-02 -6.086810231208801270e-01 -6.415574252605438232e-02
-6.256054341793060303e-02 -1.909937709569931030e-01 -6.500513106584548950e-02
-4.762434586882591248e-02 3.915321081876754761e-02 -6.368537992238998413e-02
2.349650301039218903e-02 4.089674651622772217e-01 -7.687373459339141846e-02
-2.542115002870559692e-02 4.008367359638214111e-01 -2.786829695105552673e-02
5.824612081050872803e-02 -9.170901775360107422e-02 -5.160837247967720032e-02
8.340642601251602173e-02 5.393360853195190430e-01 3.773642703890800476e-02
3.455905243754386902e-02 2.471703886985778809e-01 8.836932480335235596e-02
7.481282204389572144e-02 7.579021155834197998e-02 2.531634457409381866e-02
7.713277637958526611e-02 4.714068174362182617e-01 5.097688734531402588e-02
6.998627632856369019e-02 4.104303717613220215e-01 6.122675538063049316e-02
-7.873335480690002441e-02 -8.635496348142623901e-02 2.784847281873226166e-02
-4.511098563671112061e-02 -2.972165942192077637e-01 8.595465868711471558e-02
1.832424104213714600e-02 9.336255490779876709e-02 9.390679001808166504e-02
3.834208101034164429e-02 -2.627313435077667236e-01 -5.766513571143150330e-02
-9.238587319850921631e-02 -4.917213618755340576e-01 2.843262813985347748e-02
-1.080225687474012375e-03 -2.980562150478363037e-01 -8.854318410158157349e-02
2.360593155026435852e-02 -2.386865913867950439e-01 6.836708635091781616e-02
-2.242903225123882294e-02 2.430700361728668213e-01 -6.742393225431442261e-02
7.408497482538223267e-02 5.345449447631835938e-01 -5.329849198460578918e-02
8.740120381116867065e-02 4.552835822105407715e-01 -3.773691877722740173e-02
3.254236653447151184e-02 2.620276510715484619e-01 8.898223191499710083e-02
5.132645834237337112e-03 2.202332019805908203e-01 9.361927211284637451e-02
4.927705228328704834e-02 -2.641524672508239746e-01 -1.247631153091788292e-04
-4.743251577019691467e-02 2.445825636386871338e-01 -2.045608684420585632e-02
-3.050839155912399292e-02 -3.475306034088134766e-01 -8.759074658155441284e-02
2.801023423671722412e-02 -8.623082190752029419e-02 8.047398924827575684e-02
-4.935238510370254517e-02 1.041970700025558472e-01 6.692734360694885254e-02
8.475118875503540039e-02 1.909221559762954712e-01 9.697253815829753876e-03
-7.004481554031372070e-02 -3.733868300914764404e-01 6.886760890483856201e-02
1.696888729929924011e-02 5.260285735130310059e-01 -5.669861659407615662e-02
7.552383840084075928e-02 7.300206422805786133e-01 -8.064786903560161591e-03
-7.987957447767257690e-02 -1.242829263210296631e-01 3.418227657675743103e-02
1.694862358272075653e-02 -5.116891264915466309e-01 -1.564804278314113617e-02
-3.445691987872123718e-02 -1.015630364418029785e-02 -8.163210749626159668e-02
7.394511252641677856e-02 4.773706793785095215e-01 5.507246032357215881e-02
6.126432865858078003e-02 1.901859045028686523e-01 -7.420321553945541382e-02
-6.313840858638286591e-03 1.093025207519531250e-01 -9.061625599861145020e-02
1.707793213427066803e-02 -2.845663130283355713e-01 -8.011998236179351807e-02
3.489825874567031860e-03 -3.124933540821075439e-01 7.670321315526962280e-02
-4.917666316032409668e-03 -3.784137070178985596e-01 -8.315438032150268555e-02
3.949208557605743408e-02 5.696895718574523926e-01 6.743588298559188843e-02
-4.917429760098457336e-02 1.010764241218566895e-01 -5.267640203237533569e-02
-6.292143464088439941e-02 1.175774037837982178e-01 -7.561163045465946198e-03
8.247433602809906006e-02 2.985888421535491943e-01 3.671372681856155396e-02
4.543936625123023987e-02 7.344701290130615234e-01 2.766811475157737732e-02
-3.949486091732978821e-02 -7.531895041465759277e-01 7.194226607680320740e-03
9.293662756681442261e-02 4.021962881088256836e-01 1.768950023688375950e-03
-9.548921883106231689e-02 -4.900174140930175781e-01 3.204649081453680992e-03
-1.181424222886562347e-02 -1.389368176460266113e-01 9.474570304155349731e-02
3.713960573077201843e-02 -3.198317587375640869e-01 2.828677743673324585e-02
-4.232226684689521790e-02 1.738945581018924713e-02 8.328896015882492065e-02
6.233189254999160767e-02 7.304309308528900146e-02 -6.648579239845275879e-02
-1.600087061524391174e-02 -6.373705863952636719e-01 3.013556450605392456e-02
-5.918576195836067200e-02 1.538441181182861328e-01 2.820237912237644196e-02
-7.571437209844589233e-02 -7.971622049808502197e-02 -2.371183037757873535e-02
-7.213056087493896484e-02 -1.813236996531486511e-02 3.693715110421180725e-02
8.288812637329101562e-02 4.534634947776794434e-01 -4.709902405738830566e-02
-7.687518000602722168e-02 -4.629359394311904907e-02 -4.059772938489913940e-03
-4.740645736455917358e-02 2.788658142089843750e-01 7.385042496025562286e-03
-1.111701410263776779e-02 -2.068659216165542603e-01 9.168519079685211182e-02
4.873354453593492508e-03 4.063386619091033936e-01 7.932672649621963501e-02
2.092964388430118561e-02 2.643348574638366699e-01 9.175903350114822388e-02
9.531134739518165588e-03 3.188159465789794922e-01 -8.125246316194534302e-02
8.980870991945266724e-02 5.249648690223693848e-01 2.226164750754833221e-02
7.688003033399581909e-02 3.239478170871734619e-01 5.005259439349174500e-02
8.337664417922496796e-03 5.321195721626281738e-01 -4.746887832880020142e-02
2.386737801134586334e-02 -4.032084345817565918e-01 -5.059079080820083618e-02
-6.793230026960372925e-02 -2.381763309240341187e-01 7.032623142004013062e-02
2.069273963570594788e-03 -3.669849038124084473e-01 -8.099138736724853516e-02
4.580205678939819336e-02 3.483838737010955811e-01 8.158291876316070557e-02
1.111792214214801788e-02 6.351379752159118652e-01 2.971988916397094727e-02
-1.588817127048969269e-02 -8.395219594240188599e-02 9.612823277711868286e-02
3.304445371031761169e-02 -3.986131250858306885e-01 4.080026992596685886e-04
6.474087387323379517e-02 6.626605987548828125e-01 4.598268121480941772e-02
5.629197508096694946e-02 -1.687442958354949951e-01 1.890162564814090729e-02
-4.364103823900222778e-02 2.985095381736755371e-01 -8.863701485097408295e-03
2.735374681651592255e-02 -3.532630801200866699e-01 -5.714089795947074890e-02
-8.681048452854156494e-02 -5.475664734840393066e-01 -3.448998928070068359e-02
2.482037059962749481e-02 -8.314952999353408813e-02 -9.049577265977859497e-02
-5.201946571469306946e-02 3.406943380832672119e-02 7.172083854675292969e-02
1.588930562138557434e-02 -4.780840575695037842e-01 -4.314735904335975647e-02
9.222342818975448608e-02 4.087221026420593262e-01 -1.896444521844387054e-02
8.863499760627746582e-02 3.168606460094451904e-01 1.799943856894969940e-02
-5.524620413780212402e-02 -8.435560390353202820e-03 7.174587249755859375e-02
-6.231668218970298767e-02 1.363926678895950317e-01 8.753874339163303375e-03
-9.285784512758255005e-02 -5.374062657356262207e-01 2.405803464353084564e-02
6.458151619881391525e-03 -5.640988945960998535e-01 -2.715282887220382690e-02
1.299404725432395935e-02 6.585879325866699219e-01 7.832248695194721222e-03
-1.167285256087779999e-02 -6.419418454170227051e-01 -3.423541411757469177e-02
-2.726820064708590508e-03 -4.081342816352844238e-01 6.870250403881072998e-02
-8.868142962455749512e-02 -5.679272413253784180e-01 -2.879933826625347137e-02
-6.028952077031135559e-02 -4.291616380214691162e-01 7.390020787715911865e-02
-6.640314310789108276e-02 6.182917952537536621e-02 3.427462279796600342e-02
5.672846361994743347e-02 3.348276764154434204e-02 -7.089446485042572021e-02
2.316253259778022766e-02 -4.630285501480102539e-02 8.672264963388442993e-02
4.865131154656410217e-02 2.930177152156829834e-01 8.059019595384597778e-02
-2.247471921145915985e-02 1.985512524843215942e-01 8.462154865264892578e-02
1.781112328171730042e-02 4.432995915412902832e-01 7.983944565057754517e-02
7.288505882024765015e-02 4.396853446960449219e-01 5.734971910715103149e-02
-8.283340185880661011e-02 -6.046036481857299805e-01 -3.774260729551315308e-02
8.283194899559020996e-02 6.848787069320678711e-01 -1.298796385526657104e-02
-9.997652843594551086e-03 -4.292386472225189209e-01 -7.988433539867401123e-02
3.115293197333812714e-02 -3.350789248943328857e-01 -5.453871563076972961e-02
-7.000030577182769775e-02 -6.305120140314102173e-02 -3.772958740592002869e-02
-8.371798694133758545e-02 -4.912797808647155762e-01 -4.255335777997970581e-02
-5.296336486935615540e-02 -6.750763207674026489e-02 7.878417521715164185e-02
5.950675159692764282e-02 3.694952428340911865e-01 7.201089709997177124e-02
-3.072153963148593903e-02 -1.518763154745101929e-01 9.316388517618179321e-02
9.085910767316818237e-02 3.142848908901214600e-01 -9.595433948561549187e-05
-7.020068168640136719e-02 -5.551288723945617676e-01 5.863306671380996704e-02
-3.570406883955001831e-02 -1.459420472383499146e-01 9.174393117427825928e-02
4.954711720347404480e-02 1.742760092020034790e-01 -8.353752642869949341e-02
-9.301643818616867065e-02 -4.332422614097595215e-01 -1.566704362630844116e-02
-9.031463414430618286e-02 -5.505256652832031250e-01 3.140791505575180054e-02
3.628924489021301270e-02 -2.911543250083923340e-01 3.929761052131652832e-02
6.935041397809982300e-02 4.351891875267028809e-01 6.156165152788162231e-02
1.861099898815155029e-02 4.968220889568328857e-01 -6.303171068429946899e-02
-8.383420854806900024e-02 -5.774169564247131348e-01 -3.839792683720588684e-02
-5.176483467221260071e-02 2.105493247509002686e-01 -1.793684810400009155e-02
1.089350506663322449e-02 3.305693566799163818e-01 8.827487379312515259e-02
1.893745176494121552e-02 -4.969221651554107666e-01 -1.921528764069080353e-02
-2.616171911358833313e-02 2.118486613035202026e-01 -6.770613044500350952e-02
-7.698567211627960205e-02 -6.263530850410461426e-01 -4.387160018086433411e-02
1.860455609858036041e-02 1.156525164842605591e-01 9.404023736715316772e-02
3.805951680988073349e-03 6.052797436714172363e-01 2.782423794269561768e-02
-9.395252913236618042e-02 -3.961987793445587158e-01 1.565661095082759857e-02
-2.849029842764139175e-03 -4.854091405868530273e-01 -6.771860271692276001e-02
4.499118775129318237e-02 -3.006199598312377930e-01 -2.017123810946941376e-02
4.473818466067314148e-02 3.895857930183410645e-02 -8.339931815862655640e-02
6.694132834672927856e-02 9.845110774040222168e-02 -6.146555021405220032e-02
-4.526235163211822510e-03 3.132110238075256348e-01 8.469047397375106812e-02
1.591202616691589355e-02 -2.159988880157470703e-01 7.813854515552520752e-02
2.456230297684669495e-02 -4.531934559345245361e-01 8.034724742174148560e-03
-6.044198572635650635e-02 1.331073790788650513e-01 -1.382151897996664047e-02
4.574564471840858459e-02 -3.171412646770477295e-02 -7.828795909881591797e-02
8.111435920000076294e-02 1.544812917709350586e-01 1.926807872951030731e-02
-1.164394803345203400e-02 2.524948678910732269e-03 9.685163944959640503e-02
7.969993352890014648e-02 6.432921290397644043e-01 3.270737454295158386e-02
1.815757714211940765e-02 4.275135993957519531e-01 -7.283472269773483276e-02
-8.308161050081253052e-03 4.951342046260833740e-01 -3.326213359832763672e-02
-9.169912338256835938e-02 -3.644708395004272461e-01 -1.496007665991783142e-02
7.180069386959075928e-02 8.449862897396087646e-02 -4.995198175311088562e-02
-2.998439222574234009e-02 4.034238457679748535e-01 -1.005085930228233337e-02
4.692539572715759277e-02 6.595774292945861816e-01 -4.363523796200752258e-02
9.541321545839309692e-03 6.405351758003234863e-01 1.840806752443313599e-02
-7.463289052248001099e-02 -6.825743317604064941e-01 -3.831368684768676758e-02
2.755112759768962860e-02 -2.311908602714538574e-01 -7.710300385951995850e-02
3.963281586766242981e-02 -1.677577346563339233e-01 5.834152549505233765e-02
8.914573490619659424e-02 3.105579018592834473e-01 1.424081437289714813e-02
-4.128651320934295654e-02 -1.495401114225387573e-01 -8.344963192939758301e-02
9.969366714358329773e-03 1.746238321065902710e-01 -9.173952043056488037e-02
-9.023907780647277832e-02 -6.581525206565856934e-01 9.461853653192520142e-03
1.206472609192132950e-02 7.723867893218994141e-02 9.544286131858825684e-02
1.214666292071342468e-02 -2.136135697364807129e-01 8.113147318363189697e-02
5.401715636253356934e-02 -1.253626048564910889e-01 3.921633213758468628e-02
8.061421662569046021e-02 9.850925952196121216e-02 -9.579847566783428192e-03
5.434630811214447021e-02 4.485724568367004395e-01 -7.244957238435745239e-02
-8.472469449043273926e-02 -1.690964996814727783e-01 2.045510150492191315e-02
3.487919270992279053e-02 -1.022023409605026245e-01 7.265075296163558960e-02
-4.008808359503746033e-02 1.450501233339309692e-01 -5.991697311401367188e-02
7.811626046895980835e-02 6.231217086315155029e-02 -1.413383707404136658e-02
-4.555572196841239929e-02 -7.708880901336669922e-01 -2.856102772057056427e-03
4.267082735896110535e-02 -4.688237607479095459e-02 6.972090154886245728e-02
2.152729593217372894e-02 4.818538427352905273e-01 7.638500630855560303e-02
5.049733817577362061e-02 -2.097676247358322144e-01 -4.215820506215095520e-02
-4.683971870690584183e-03 -6.315810680389404297e-01 3.450176154728978872e-04
7.666446268558502197e-02 3.691880702972412109e-01 -5.832550302147865295e-02
9.172165393829345703e-02 4.231232106685638428e-01 1.445554848760366440e-02
2.699093706905841827e-02 7.059156298637390137e-01 1.770993322134017944e-02
9.075526893138885498e-02 3.701666295528411865e-01 1.464866008609533310e-02
1.081344019621610641e-02 1.475673019886016846e-01 9.552448987960815430e-02
-4.506021738052368164e-02 2.575701773166656494e-01 -2.374570444226264954e-02
-4.224206879734992981e-02 4.151647537946701050e-02 -7.003922760486602783e-02
-2.910340763628482819e-02 2.088863551616668701e-01 -6.479059159755706787e-02
-6.525745987892150879e-02 -7.146033048629760742e-01 -3.958562761545181274e-02
3.180492669343948364e-02 1.652526408433914185e-01 -9.133113920688629150e-02
-4.613520205020904541e-02 2.136888802051544189e-01 5.243667587637901306e-02
-9.029281884431838989e-02 -6.633667349815368652e-01 3.739446634426712990e-03
5.187383666634559631e-02 -2.379286438226699829e-01 -2.056177705526351929e-02
4.188083484768867493e-02 6.906443238258361816e-01 4.360864311456680298e-02
-6.872508674860000610e-02 -3.765191137790679932e-02 5.174345523118972778e-02
3.319777920842170715e-02 7.144416570663452148e-01 -1.254992373287677765e-02
-7.917814701795578003e-02 -1.355952322483062744e-01 -2.439581975340843201e-02
4.153237491846084595e-02 -1.077491790056228638e-01 6.417419761419296265e-02
7.129406183958053589e-02 6.211810111999511719e-01 4.695323109626770020e-02
4.146001860499382019e-02 -1.522536426782608032e-01 5.801383405923843384e-02
1.874807849526405334e-02 5.096136927604675293e-01 -6.093905866146087646e-02
8.198859542608261108e-02 1.233171373605728149e-01 -1.077381428331136703e-03
8.758625388145446777e-02 5.519210696220397949e-01 -3.101845271885395050e-02
-9.496960788965225220e-02 -4.915317296981811523e-01 1.450572255998849869e-02
-2.257512509822845459e-02 3.274406492710113525e-01 -5.313605815172195435e-02
-6.108245626091957092e-02 5.863527208566665649e-02 5.227819085121154785e-02
-2.711013145744800568e-02 -4.365652501583099365e-01 7.727371156215667725e-02
1.427217014133930206e-02 2.674481272697448730e-01 9.208681434392929077e-02
-3.490157797932624817e-02 -7.053695917129516602e-01 2.866456471383571625e-02
-5.240333080291748047e-02 -1.258308887481689453e-01 8.195602893829345703e-02
4.107610881328582764e-02 1.030545905232429504e-01 8.193671703338623047e-02
-1.536613516509532928e-02 -4.790646135807037354e-01 -7.609838992357254028e-02
3.332554548978805542e-02 -2.986236214637756348e-01 -5.900421366095542908e-02
-1.390097383409738541e-02 9.168466925621032715e-02 -8.829481154680252075e-02
-2.134938165545463562e-02 -8.250552415847778320e-02 9.557868540287017822e-02
-5.273845791816711426e-02 1.084296256303787231e-01 6.060623750090599060e-02
-6.933369487524032593e-02 -1.212963834404945374e-01 6.128807738423347473e-02
-4.925520718097686768e-02 -1.405041366815567017e-01 -7.663480192422866821e-02
7.600345462560653687e-02 3.568772971630096436e-01 5.265123769640922546e-02
-4.951058700680732727e-02 -2.601220831274986267e-02 -6.818789988756179810e-02
-4.558749869465827942e-02 2.908743321895599365e-01 1.998053677380084991e-02
-6.895931065082550049e-02 -4.931085705757141113e-01 6.463771313428878784e-02
-7.557505369186401367e-02 -6.239032745361328125e-01 4.628954455256462097e-02
-8.854311704635620117e-02 -4.396200180053710938e-01 4.048478603363037109e-02
-4.821996670216321945e-03 5.266690850257873535e-01 -2.886441908776760101e-02
1.061703916639089584e-02 -6.290894001722335815e-03 -9.615942090749740601e-02
7.912633568048477173e-02 6.186909675598144531e-01 -3.738125413656234741e-02
7.388935238122940063e-02 5.716522037982940674e-02 -3.868211060762405396e-02
7.767996191978454590e-02 1.435150951147079468e-01 2.997507341206073761e-02
-3.744047507643699646e-02 3.480238020420074463e-01 2.874024026095867157e-02
2.008921280503273010e-02 -4.893230497837066650e-01 -1.936991326510906219e-02
3.097042627632617950e-02 -3.978855907917022705e-01 1.462087780237197876e-02
3.143712505698204041e-02 -2.441541850566864014e-01 -7.123657315969467163e-02
2.784400247037410736e-02 -9.006741642951965332e-02 -8.852173388004302979e-02
-4.154865443706512451e-02 -3.186661005020141602e-02 8.650660514831542969e-02
2.937659434974193573e-02 3.989614546298980713e-01 -7.908039540052413940e-02
7.468960247933864594e-03 -4.990585446357727051e-01 -5.276044085621833801e-02
6.710282713174819946e-02 2.279090732336044312e-01 -6.883731484413146973e-02
5.200717598199844360e-02 -2.414164841175079346e-01 -1.279032882302999496e-02
8.361355215311050415e-02 1.565710902214050293e-01 -1.739928685128688812e-02
-1.947500370442867279e-02 -4.436771869659423828e-01 7.386262714862823486e-02
-1.463377289474010468e-02 -4.186603426933288574e-01 -8.249574899673461914e-02
-7.731723040342330933e-02 -5.857041478157043457e-01 -4.748807474970817566e-02
8.523309603333473206e-03 -4.428984522819519043e-01 5.078843608498573303e-02
4.711307212710380554e-02 7.219058275222778320e-01 -2.411164343357086182e-02
-1.171645708382129669e-02 -6.365542411804199219e-01 -3.702545911073684692e-02
1.314704492688179016e-02 6.494343280792236328e-01 -9.096162393689155579e-03
-3.131155669689178467e-02 3.207183778285980225e-01 -3.966102749109268188e-02
-2.638295292854309082e-02 -4.093560576438903809e-01 7.988096028566360474e-02
-6.396387703716754913e-03 -5.861534476280212402e-01 3.321838006377220154e-02
8.405190706253051758e-02 5.193654894828796387e-01 3.756352886557579041e-02
9.752614423632621765e-03 1.303485333919525146e-01 -9.362625330686569214e-02
2.355330251157283783e-02 -4.648201465606689453e-01 3.273743204772472382e-03
-1.309019979089498520e-03 -4.487493038177490234e-01 6.085932254791259766e-02
-8.219643682241439819e-02 -1.802319735288619995e-01 -2.283615432679653168e-02
8.583133667707443237e-02 1.948441565036773682e-01 7.504553068429231644e-04
-2.658035047352313995e-02 2.798071801662445068e-01 7.140213251113891602e-02
8.654786646366119385e-02 6.113858819007873535e-01 -2.471687458455562592e-02
-8.932247757911682129e-02 -5.881710052490234375e-01 -2.529352903366088867e-02
8.891934156417846680e-02 2.601823210716247559e-01 -1.118963118642568588e-02
-7.602088153362274170e-02 -2.268874496221542358e-01 -4.628067091107368469e-02
1.949690654873847961e-02 -2.531068325042724609e-01 -8.160984516143798828e-02
-4.930474795401096344e-03 5.723706483840942383e-01 1.414318289607763290e-02
-9.040850214660167694e-03 -3.483493328094482422e-01 -8.707731217145919800e-02
2.747739292681217194e-02 2.141450643539428711e-01 9.125988185405731201e-02
5.792289972305297852e-02 -1.777746975421905518e-01 3.478260012343525887e-03
6.534123793244361877e-03 -4.372369945049285889e-01 5.458049476146697998e-02
9.103566408157348633e-02 4.843977987766265869e-01 1.911106705665588379e-02
-9.105002880096435547e-02 -3.696661293506622314e-01 3.004902787506580353e-02
7.065974175930023193e-02 -3.843168914318084717e-02 -1.565555483102798462e-02
6.010070443153381348e-02 1.550157368183135986e-01 -7.424139976501464844e-02
3.156470134854316711e-02 1.138276085257530212e-01 -9.189447760581970215e-02
-7.570115476846694946e-02 -1.522238552570343018e-01 -3.802474215626716614e-02
2.387132681906223297e-02 -1.914480328559875488e-01 -8.412922173738479614e-02
3.336403518915176392e-02 -1.204923763871192932e-01 -8.267077803611755371e-02
-2.561087720096111298e-02 9.673860669136047363e-02 -8.055214583873748779e-02
9.364480525255203247e-02 4.579697549343109131e-01 -6.716385483741760254e-03
-2.527802623808383942e-02 4.125631153583526611e-01 4.175256192684173584e-02
-9.270740300416946411e-02 -4.181037247180938721e-01 -1.601669192314147949e-02
4.197577014565467834e-02 -3.240210115909576416e-01 -2.267590723931789398e-02
-8.936560899019241333e-02 -2.832507491111755371e-01 -1.228443533182144165e-02
-6.322930753231048584e-02 -2.787471413612365723e-01 7.574113458395004272e-02
-9.076605737209320068e-02 -3.037025332450866699e-01 -8.156834170222282410e-03
-1.034452300518751144e-02 -1.481144875288009644e-01 9.424739331007003784e-02
-7.349993288516998291e-02 5.056113004684448242e-04 -2.533820690587162971e-03
8.899452537298202515e-02 6.245118379592895508e-01 9.482324123382568359e-03
2.437511458992958069e-02 1.675183176994323730e-01 9.244530647993087769e-02
9.096872992813587189e-03 4.495945572853088379e-01 -6.451489031314849854e-02
-1.453384105116128922e-02 2.950579822063446045e-01 8.052690327167510986e-02
-8.206224441528320312e-02 -1.405307501554489136e-01 2.801360189914703369e-02
-1.827638363465666771e-03 4.951862394809722900e-01 -4.406380653381347656e-02
2.753054350614547729e-02 -3.097915649414062500e-01 -6.577078253030776978e-02
5.725670605897903442e-02 2.343899756669998169e-01 -7.843586802482604980e-02
1.515373028814792633e-02 -3.817153871059417725e-01 -6.844015419483184814e-02
8.044546842575073242e-02 6.246228218078613281e-01 3.443393856287002563e-02
-4.403043072670698166e-03 5.541425347328186035e-01 3.442231193184852600e-02
4.661834612488746643e-02 -2.458799183368682861e-01 2.537289261817932129e-02
-2.786655165255069733e-02 1.589259058237075806e-01 8.417992293834686279e-02
-5.443611368536949158e-02 -7.848379015922546387e-02 -6.687282025814056396e-02
2.408047020435333252e-02 -4.541216790676116943e-01 -2.771061845123767853e-02
-8.485849946737289429e-02 -4.559127688407897949e-01 -4.061170294880867004e-02
-5.529156327247619629e-02 -1.617711335420608521e-01 8.067072927951812744e-02
-5.445963889360427856e-02 7.881450653076171875e-02 6.230775266885757446e-02
3.542071580886840820e-02 -2.836008369922637939e-01 4.306098073720932007e-02
4.282476380467414856e-02 -3.088635206222534180e-01 -2.891168370842933655e-02
-2.554902806878089905e-02 -6.952552795410156250e-01 -3.325469046831130981e-02
-6.324348598718643188e-02 1.065376251935958862e-01 3.043896704912185669e-02
-9.553688578307628632e-03 1.791093945503234863e-01 -8.439899235963821411e-02
-1.403631735593080521e-02 1.164017915725708008e-01 -8.662426471710205078e-02
6.390137225389480591e-02 1.432155370712280273e-01 5.933468788862228394e-02
-6.783132255077362061e-02 -4.194510281085968018e-01 6.945084035396575928e-02
1.862884871661663055e-02 2.525533437728881836e-01 -8.878430724143981934e-02
-2.156714722514152527e-02 -4.004618823528289795e-01 -8.516126871109008789e-02
8.722482621669769287e-02 6.487744450569152832e-01 1.003847178071737289e-02
-5.092300474643707275e-03 -6.265456080436706543e-01 8.899651467800140381e-03
4.607870057225227356e-02 -2.899743020534515381e-01 3.336400026455521584e-03
-1.115306094288825989e-02 -2.621479928493499756e-01 8.827733248472213745e-02
-9.293796122074127197e-02 -3.598924577236175537e-01 -5.497362464666366577e-03
-5.361337214708328247e-02 2.226575314998626709e-01 1.256181951612234116e-02
-4.917383193969726562e-02 -1.960659772157669067e-01 8.554203063249588013e-02
-6.296253204345703125e-02 -8.235811442136764526e-02 6.785508990287780762e-02
6.255725026130676270e-02 -1.336217820644378662e-01 -1.505275629460811615e-02
5.888509005308151245e-02 -1.043100431561470032e-01 -4.713343083858489990e-02
-8.927132934331893921e-02 -2.791110575199127197e-01 2.520922571420669556e-02
-6.084663793444633484e-02 -2.752499878406524658e-01 -7.075551897287368774e-02
-4.774884728249162436e-04 -1.811946928501129150e-01 9.016509354114532471e-02
2.587989903986454010e-02 4.031813740730285645e-01 -7.805982977151870728e-02
4.279953241348266602e-02 4.181263744831085205e-01 -7.753284275531768799e-02
5.180751532316207886e-02 3.775823116302490234e-01 -7.795092463493347168e-02
7.134388387203216553e-02 3.590912222862243652e-01 5.944889038801193237e-02
4.227657243609428406e-02 6.742348670959472656e-01 -3.819512948393821716e-02
5.442628264427185059e-02 2.682712376117706299e-01 -8.023571968078613281e-02
-8.697101473808288574e-02 -2.110696732997894287e-01 1.999119110405445099e-02
