-4.614016115665435791e-01 -2.012837976217269897e-01 -3.155429661273956299e-02
-4.300522804260253906e-01 -5.991353839635848999e-02 -1.003908179700374603e-02
-4.391750693321228027e-01 -9.095753729343414307e-02 -4.633000120520591736e-02
-4.860077202320098877e-01 -1.873636394739151001e-01 8.724583312869071960e-03
-4.215607643127441406e-01 -2.090831100940704346e-01 2.482378855347633362e-02
-4.473528265953063965e-01 -1.373408883810043335e-01 -5.783601850271224976e-02
-4.471761584281921387e-01 -1.291311532258987427e-01 -5.746022984385490417e-02
-4.282632768154144287e-01 -1.020379811525344849e-01 4.228702932596206665e-02
-3.147371113300323486e-01 -2.175324559211730957e-01 -3.705356037244200706e-03
-3.767970204353332520e-01 -1.197503134608268738e-01 2.914482355117797852e-02
-4.975696206092834473e-01 -1.854663640260696411e-01 -1.356060430407524109e-02
-5.105661153793334961e-01 -1.525650918483734131e-01 2.421722374856472015e-02
-4.567978680133819580e-01 -1.626303344964981079e-01 -5.509622395038604736e-02
-3.233731687068939209e-01 -2.207666039466857910e-01 -1.703174784779548645e-02
-4.748600125312805176e-01 -6.210087239742279053e-02 -4.329251497983932495e-02
-4.993708431720733643e-01 -3.546275198459625244e-02 2.508312091231346130e-02
-3.542266488075256348e-01 -2.341965138912200928e-01 1.438804157078266144e-02
-5.098282694816589355e-01 -1.274812519550323486e-01 3.631123900413513184e-02
-5.554295778274536133e-01 -5.469986796379089355e-02 -4.629997909069061279e-02
-4.242118895053863525e-01 -2.262055277824401855e-01 -1.671778410673141479e-02
-4.777672588825225830e-01 -1.649440526962280273e-01 -5.088360235095024109e-02
-4.632707536220550537e-01 -1.077722758054733276e-01 -5.669910088181495667e-02
-3.678996562957763672e-01 -1.294402480125427246e-01 2.881279960274696350e-02
-4.129024744033813477e-01 -2.282039672136306763e-01 6.087557878345251083e-03
-4.909315109252929688e-01 -1.621255874633789062e-01 -4.823373630642890930e-02
-4.646790027618408203e-01 -1.415097415447235107e-01 -5.803966522216796875e-02
-3.500375151634216309e-01 -1.829820573329925537e-01 3.301380202174186707e-02
-4.621152281761169434e-01 -6.244600564241409302e-02 3.384998813271522522e-02
-4.031786918640136719e-01 -8.707922697067260742e-02 2.226541005074977875e-02
-3.813276886940002441e-01 -1.997116804122924805e-01 -4.477855190634727478e-02
-5.277768373489379883e-01 -1.596212089061737061e-01 -1.347212120890617371e-03
-3.571152687072753906e-01 -2.263908386230468750e-01 2.129204571247100830e-02
-4.349291324615478516e-01 -9.544317424297332764e-02 4.171385988593101501e-02
-5.139388442039489746e-01 -1.581296920776367188e-01 1.756810583174228668e-02
-4.534525573253631592e-01 -1.101261228322982788e-01 -5.577621608972549438e-02
-3.236362934112548828e-01 -1.905449926853179932e-01 -1.872558332979679108e-02
-5.888380408287048340e-01 -2.804917097091674805e-02 9.864006191492080688e-03
-3.617388010025024414e-01 -2.182589769363403320e-01 2.660284191370010376e-02
-5.471159219741821289e-01 -1.342811584472656250e-01 -3.314301371574401855e-02
-3.754707872867584229e-01 -1.398534774780273438e-01 3.697739541530609131e-02
-4.084588885307312012e-01 -2.129722237586975098e-01 2.564353868365287781e-02
-4.009526968002319336e-01 -1.256402730941772461e-01 4.183434695005416870e-02
-5.321118235588073730e-01 -5.578777939081192017e-02 -4.864168167114257812e-02
-5.562705993652343750e-01 -1.630328595638275146e-02 -2.619325369596481323e-02
-4.312726557254791260e-01 -1.130489930510520935e-01 4.530738294124603271e-02
-4.122998416423797607e-01 -7.237564027309417725e-02 -8.440119214355945587e-03
-3.229225873947143555e-01 -2.191989123821258545e-01 1.334333606064319611e-02
-3.537479639053344727e-01 -1.387026458978652954e-01 -2.241278626024723053e-02
-4.366281330585479736e-01 -1.481867283582687378e-01 -5.698040872812271118e-02
-4.641391336917877197e-01 -9.377356618642807007e-02 4.502689465880393982e-02
-5.801140069961547852e-01 -8.373563736677169800e-02 -3.579887002706527710e-02
-5.275611281394958496e-01 -1.446866244077682495e-02 7.803448941558599472e-03
-4.034602642059326172e-01 -9.199211001396179199e-02 -2.795081026852130890e-02
-3.507489562034606934e-01 -1.332454383373260498e-01 -1.206449232995510101e-02
-3.643285632133483887e-01 -1.742682307958602905e-01 -4.203085973858833313e-02
-5.162764787673950195e-01 -1.663196086883544922e-02 -1.307784672826528549e-02
-5.346190333366394043e-01 -1.475529372692108154e-02 -2.022256143391132355e-02
-3.883902430534362793e-01 -1.390190720558166504e-01 4.113582149147987366e-02
-5.351485610008239746e-01 -7.982280850410461426e-02 3.659314289689064026e-02
-3.263760805130004883e-01 -2.090403437614440918e-01 -2.258305437862873077e-02
-4.955565035343170166e-01 -1.741947829723358154e-01 1.652556471526622772e-02
-4.744884371757507324e-01 -1.926198005676269531e-01 -3.302523493766784668e-02
-4.751698374748229980e-01 -5.894053727388381958e-02 3.508333861827850342e-02
-5.981895923614501953e-01 -5.125918239355087280e-02 5.054872017353773117e-03
-4.731436073780059814e-01 -7.872949540615081787e-02 -5.060716718435287476e-02
-3.521894216537475586e-01 -2.080070674419403076e-01 2.954332903027534485e-02
-3.839881122112274170e-01 -1.488763839006423950e-01 4.138184338808059692e-02
-4.527370035648345947e-01 -4.912725090980529785e-02 1.661694794893264771e-02
-4.447292685508728027e-01 -2.146165668964385986e-01 4.476456437259912491e-03
-5.333274602890014648e-01 -1.529304385185241699e-01 -2.637671865522861481e-02
-4.968616962432861328e-01 -1.499597132205963135e-01 3.254060819745063782e-02
-4.313225746154785156e-01 -1.333736181259155273e-01 -5.569425225257873535e-02
-5.999360680580139160e-01 -3.889153897762298584e-02 -2.332519181072711945e-02
-5.294618606567382812e-01 -2.519584447145462036e-02 2.175619639456272125e-02
-4.135316610336303711e-01 -7.023935019969940186e-02 3.507039509713649750e-04
-4.356684386730194092e-01 -1.788773834705352783e-01 -5.244716629385948181e-02
-5.386153459548950195e-01 -7.157589495182037354e-02 3.569945320487022400e-02
-3.920084238052368164e-01 -2.118872553110122681e-01 2.935676276683807373e-02
-5.065407752990722656e-01 -1.348012685775756836e-01 3.503424301743507385e-02
-5.495145320892333984e-01 -8.224423229694366455e-02 -5.024001747369766235e-02
-5.135632753372192383e-01 -9.659726917743682861e-02 4.100115224719047546e-02
-5.784979462623596191e-01 -1.028376594185829163e-01 -2.469739317893981934e-02
-3.362401127815246582e-01 -2.190451323986053467e-01 2.090019360184669495e-02
-3.587504029273986816e-01 -2.149598300457000732e-01 -3.601799532771110535e-02
-5.379362106323242188e-01 -1.305882781744003296e-01 2.073298953473567963e-02
-5.696975588798522949e-01 -1.104672104120254517e-01 5.849911365658044815e-03
-4.475275576114654541e-01 -6.336714327335357666e-02 2.913884073495864868e-02
-4.733121991157531738e-01 -5.507484823465347290e-02 -3.821291029453277588e-02
-4.695801436901092529e-01 -1.982875466346740723e-01 8.596111088991165161e-03
-4.377045631408691406e-01 -5.699121206998825073e-02 -1.581535860896110535e-02
-5.665071606636047363e-01 -4.447818547487258911e-02 -4.158012568950653076e-02
-5.171974897384643555e-01 -1.626638174057006836e-01 9.607790037989616394e-03
-4.442586004734039307e-01 -7.093831151723861694e-02 3.315005078911781311e-02
-4.697393476963043213e-01 -1.184284165501594543e-01 -5.841481685638427734e-02
-4.330956339836120605e-01 -1.221286803483963013e-01 4.660909622907638550e-02
-4.775089621543884277e-01 -9.304849803447723389e-02 4.511208459734916687e-02
-4.106742739677429199e-01 -2.319289445877075195e-01 -1.380119845271110535e-02
-4.954637289047241211e-01 -7.614658772945404053e-02 -5.309665948152542114e-02
-4.463507831096649170e-01 -2.044416815042495728e-01 -3.649897128343582153e-02
-3.492777943611145020e-01 -2.285079360008239746e-01 -2.712373062968254089e-02
-4.716455936431884766e-01 -1.883597671985626221e-01 1.927326992154121399e-02
-5.620715618133544922e-01 -3.103861957788467407e-02 2.228776365518569946e-02
-4.249551296234130859e-01 -2.043977677822113037e-01 -4.278372973203659058e-02
-5.569859147071838379e-01 -1.231225132942199707e-01 -3.323337435722351074e-02
-4.499845504760742188e-01 -4.677297919988632202e-02 7.382895331829786301e-03
-5.225265622138977051e-01 -7.492333650588989258e-02 3.928529471158981323e-02
-5.476646423339843750e-01 -8.975304663181304932e-02 3.127649053931236267e-02
-4.222944974899291992e-01 -1.337065547704696655e-01 -5.403121560811996460e-02
-4.206436276435852051e-01 -1.811095476150512695e-01 3.974555805325508118e-02
-4.709802567958831787e-01 -9.013243019580841064e-02 -5.389045923948287964e-02
-5.501537322998046875e-01 -7.199438661336898804e-02 3.227818757295608521e-02
-3.584124147891998291e-01 -1.811771839857101440e-01 3.575872629880905151e-02
-5.431799888610839844e-01 -1.083145961165428162e-01 2.839885652065277100e-02
-3.469479084014892578e-01 -1.386330872774124146e-01 1.445897109806537628e-02
-3.436665832996368408e-01 -1.511038541793823242e-01 2.155791223049163818e-02
-3.588556945323944092e-01 -2.407341450452804565e-01 -1.582140289247035980e-02
-5.019102692604064941e-01 -1.593666672706604004e-01 2.470132522284984589e-02
-5.036162734031677246e-01 -1.694498807191848755e-01 1.489686779677867889e-02
-3.969473838806152344e-01 -8.645438402891159058e-02 -1.291383896023035049e-02
-3.627972304821014404e-01 -1.861388981342315674e-01 -4.194266721606254578e-02
-3.713582158088684082e-01 -1.655652225017547607e-01 3.935449942946434021e-02
-4.089583456516265869e-01 -1.975248306989669800e-01 3.467109054327011108e-02
-4.923027157783508301e-01 -3.788550198078155518e-02 -3.154740482568740845e-02
-5.011187791824340820e-01 -6.983429938554763794e-02 -5.173855274915695190e-02
-5.411428213119506836e-01 -5.881273001432418823e-02 -4.903772845864295959e-02
-3.625093996524810791e-01 -1.561080515384674072e-01 3.545254096388816833e-02
-3.273725211620330811e-01 -1.638398319482803345e-01 6.180167663842439651e-03
-3.365843296051025391e-01 -1.480586826801300049e-01 2.714130561798810959e-03
-5.758472681045532227e-01 -4.877201467752456665e-02 2.162928506731987000e-02
-3.536958098411560059e-01 -1.980907022953033447e-01 3.245206922292709351e-02
-6.006064414978027344e-01 -4.970051348209381104e-02 -2.359721995890140533e-02
-5.017503499984741211e-01 -2.545659244060516357e-02 1.467197574675083160e-02
-4.367221593856811523e-01 -5.484499782323837280e-02 -7.912270724773406982e-03
-5.159879326820373535e-01 -1.549690216779708862e-02 6.615594029426574707e-04
-5.646106600761413574e-01 -1.166245639324188232e-01 6.354929413646459579e-03
-4.178378283977508545e-01 -1.001188680529594421e-01 3.882428631186485291e-02
-3.922223448753356934e-01 -2.298727035522460938e-01 1.421988941729068756e-02
-5.627242326736450195e-01 -9.033189713954925537e-02 -4.467403888702392578e-02
-5.558153390884399414e-01 -7.571250200271606445e-03 -8.218527771532535553e-03
-3.440946936607360840e-01 -1.698708087205886841e-01 2.915829047560691833e-02
-4.365296959877014160e-01 -1.676103770732879639e-01 -5.504127591848373413e-02
-5.736105442047119141e-01 -1.136094927787780762e-01 -1.051404513418674469e-02
-4.814604222774505615e-01 -1.887879669666290283e-01 -3.240785375237464905e-02
-5.672562122344970703e-01 -7.031331956386566162e-02 2.533577941358089447e-02
-4.855929315090179443e-01 -1.421658098697662354e-01 3.940405324101448059e-02
-3.428866863250732422e-01 -1.863404065370559692e-01 -3.308273479342460632e-02
-4.386292994022369385e-01 -1.451782435178756714e-01 4.624938964843750000e-02
-4.020213782787322998e-01 -8.047157526016235352e-02 9.003454819321632385e-03
-4.207274019718170166e-01 -6.620286405086517334e-02 8.781950920820236206e-03
-4.335940182209014893e-01 -7.666216790676116943e-02 -3.547221049666404724e-02
-4.529307484626770020e-01 -1.812493056058883667e-01 3.283550590276718140e-02
-4.811384379863739014e-01 -1.862294971942901611e-01 1.477036625146865845e-02
-3.418257236480712891e-01 -2.063944041728973389e-01 2.722001448273658752e-02
-3.180291056632995605e-01 -1.832977533340454102e-01 2.818401437252759933e-03
-4.414100050926208496e-01 -1.008145138621330261e-01 -5.084487423300743103e-02
-5.338922142982482910e-01 -1.158846169710159302e-02 3.539869096130132675e-03
-5.792243480682373047e-01 -4.981774091720581055e-02 -3.890110552310943604e-02
-4.113366603851318359e-01 -1.142472773790359497e-01 -4.577978700399398804e-02
-3.501566052436828613e-01 -1.586155593395233154e-01 2.991219609975814819e-02
-4.994164705276489258e-01 -8.680151402950286865e-02 4.324077069759368896e-02
-4.102819263935089111e-01 -2.200962901115417480e-01 1.887112669646739960e-02
-3.560373187065124512e-01 -2.246123850345611572e-01 -3.116825781762599945e-02
-4.421734511852264404e-01 -1.926795542240142822e-01 -4.611631110310554504e-02
-4.882516264915466309e-01 -1.670953929424285889e-01 2.689525112509727478e-02
-4.746114015579223633e-01 -3.379043191671371460e-02 -1.191938854753971100e-02
-5.751261115074157715e-01 -1.193591952323913574e-02 4.040000494569540024e-03
-5.238079428672790527e-01 -1.565607488155364990e-01 1.000738516449928284e-02
-5.660736560821533203e-01 -1.327509433031082153e-02 -2.222501300275325775e-02
-5.462377667427062988e-01 -9.328684210777282715e-02 -5.048070102930068970e-02
-3.715456128120422363e-01 -1.553332060575485229e-01 3.862050548195838928e-02
-4.219345748424530029e-01 -1.634537279605865479e-01 -5.498529598116874695e-02
-5.656882524490356445e-01 -1.528836041688919067e-02 1.127372495830059052e-02
-5.543056726455688477e-01 -9.874262660741806030e-02 2.571985125541687012e-02
-5.401409864425659180e-01 -1.499517112970352173e-01 -1.724102720618247986e-02
-4.225337207317352295e-01 -1.740745604038238525e-01 -5.368392169475555420e-02
-3.875418305397033691e-01 -1.941401511430740356e-01 3.734417259693145752e-02
-4.103034734725952148e-01 -2.055874466896057129e-01 -4.392876103520393372e-02
-4.331670403480529785e-01 -6.476062536239624023e-02 -2.342851646244525909e-02
-4.827950596809387207e-01 -1.007898896932601929e-01 4.540613666176795959e-02
-4.402450323104858398e-01 -1.571375876665115356e-01 4.414763301610946655e-02
-5.061674714088439941e-01 -6.713005155324935913e-02 4.001744464039802551e-02
-4.130891561508178711e-01 -1.686676740646362305e-01 -5.368560180068016052e-02
-4.172540009021759033e-01 -7.642713934183120728e-02 -2.334712259471416473e-02
-4.404441118240356445e-01 -1.277129799127578735e-01 4.718523100018501282e-02
-4.846592545509338379e-01 -5.408369004726409912e-02 3.432847559452056885e-02
-4.861075282096862793e-01 -1.934922337532043457e-01 -1.157949119806289673e-02
-4.563002884387969971e-01 -6.628393381834030151e-02 -3.914364427328109741e-02
-3.511136472225189209e-01 -1.951183527708053589e-01 -3.728364035487174988e-02
-3.970231711864471436e-01 -2.240972220897674561e-01 -3.320306912064552307e-02
-5.692558288574218750e-01 -4.107485711574554443e-02 2.323194406926631927e-02
-5.685096383094787598e-01 -9.661458432674407959e-02 1.701824739575386047e-02
-5.261558294296264648e-01 -1.497573107481002808e-01 1.506154984235763550e-02
-5.827410817146301270e-01 -9.106568992137908936e-02 -2.944986894726753235e-02
-5.830256342887878418e-01 -1.391131430864334106e-02 -1.783249340951442719e-02
-5.440977811813354492e-01 -3.312464058399200439e-02 -3.894067928194999695e-02
-4.038341343402862549e-01 -1.600235998630523682e-01 4.450992867350578308e-02
-4.607160389423370361e-01 -1.220084354281425476e-01 4.682827368378639221e-02
-3.631049692630767822e-01 -2.061581313610076904e-01 3.193186968564987183e-02
-4.511839747428894043e-01 -7.845370471477508545e-02 3.904628753662109375e-02
-5.606436133384704590e-01 -1.251106709241867065e-01 -2.604645676910877228e-02
-4.179576337337493896e-01 -2.148785293102264404e-01 2.111309766769409180e-02
-4.516296386718750000e-01 -1.104215830564498901e-01 4.665144160389900208e-02
-4.554085433483123779e-01 -1.541721373796463013e-01 4.275129362940788269e-02
-3.370392024517059326e-01 -1.503503769636154175e-01 1.105333492159843445e-02
-5.125682353973388672e-01 -2.304764091968536377e-02 1.605005748569965363e-02
-4.127221107482910156e-01 -9.116712212562561035e-02 -3.396175429224967957e-02
-4.380679428577423096e-01 -2.208057343959808350e-01 -1.297067198902368546e-02
-6.011562347412109375e-01 -2.870851755142211914e-02 -1.599183119833469391e-02
-3.581455945968627930e-01 -2.322567850351333618e-01 -2.643091231584548950e-02
-3.666000366210937500e-01 -1.120072454214096069e-01 -3.716254141181707382e-03
-4.839957654476165771e-01 -1.051410883665084839e-01 -5.786073207855224609e-02
-5.217359662055969238e-01 -1.030636578798294067e-01 3.817281126976013184e-02
-4.300425648689270020e-01 -1.140386611223220825e-01 -5.178871378302574158e-02
-4.421383738517761230e-01 -6.350144743919372559e-02 -2.912512235343456268e-02
-5.880040526390075684e-01 -4.303485155105590820e-02 -3.356418013572692871e-02
-5.383980870246887207e-01 -1.169298067688941956e-01 2.759652957320213318e-02
-5.497913360595703125e-01 -3.835197538137435913e-02 -4.152820631861686707e-02
-5.534821152687072754e-01 -1.368846148252487183e-01 -9.299796074628829956e-03
-4.532845914363861084e-01 -1.541382968425750732e-01 -5.690944194793701172e-02
-5.462601780891418457e-01 -6.553929299116134644e-02 -4.976650699973106384e-02
-5.421819090843200684e-01 -5.964800715446472168e-02 3.397542983293533325e-02
-3.768665194511413574e-01 -1.168554723262786865e-01 -2.716344408690929413e-02
-5.910648107528686523e-01 -8.653769642114639282e-02 -1.759087108075618744e-02
-4.037808477878570557e-01 -1.023803576827049255e-01 3.438847512006759644e-02
-4.320261180400848389e-01 -1.217531114816665649e-01 -5.405857786536216736e-02
-4.488314092159271240e-01 -1.716528981924057007e-01 3.838831931352615356e-02
-4.523394107818603516e-01 -2.089251279830932617e-01 7.738075684756040573e-03
-4.062976241111755371e-01 -9.094162285327911377e-02 2.832948043942451477e-02
-3.776973485946655273e-01 -1.075293496251106262e-01 -1.842581294476985931e-02
-4.642207622528076172e-01 -7.553996890783309937e-02 -4.712609574198722839e-02
-5.905659794807434082e-01 -6.984147429466247559e-02 8.602669462561607361e-03
-4.071842432022094727e-01 -1.441593170166015625e-01 4.526912793517112732e-02
-4.679321348667144775e-01 -1.016999110579490662e-01 4.609974101185798645e-02
-5.709100961685180664e-01 -1.053170934319496155e-01 -3.289873152971267700e-02
-4.323294758796691895e-01 -1.505057811737060547e-01 4.587052017450332642e-02
-5.656164288520812988e-01 -1.187959611415863037e-01 -2.655917778611183167e-02
-3.250976204872131348e-01 -1.876201927661895752e-01 1.872854121029376984e-02
-4.374797940254211426e-01 -1.063674986362457275e-01 4.493145644664764404e-02
-4.448537230491638184e-01 -1.008646488189697266e-01 4.476222395896911621e-02
-4.971928894519805908e-01 -1.831935346126556396e-01 -2.400923334062099457e-02
-3.957161307334899902e-01 -1.569004654884338379e-01 -5.053438991308212280e-02
-4.142458736896514893e-01 -1.511032879352569580e-01 -5.415892228484153748e-02
-5.242947340011596680e-01 -1.348068714141845703e-01 -4.779746755957603455e-02
-4.492869079113006592e-01 -1.208882182836532593e-01 4.717222228646278381e-02
-4.959459900856018066e-01 -9.562049806118011475e-02 4.399098455905914307e-02
-3.872327208518981934e-01 -2.054836750030517578e-01 -4.379384592175483704e-02
-4.584669470787048340e-01 -1.838819682598114014e-01 -4.699346795678138733e-02
-5.031406283378601074e-01 -1.182616278529167175e-01 4.065598919987678528e-02
-3.759905993938446045e-01 -2.410195916891098022e-01 -1.188982091844081879e-02
-3.345903754234313965e-01 -1.577337235212326050e-01 -1.396858319640159607e-02
-3.410726189613342285e-01 -1.749257445335388184e-01 -2.982761338353157043e-02
-4.754081070423126221e-01 -9.981889277696609497e-02 -5.661411583423614502e-02
-4.327752292156219482e-01 -1.356997638940811157e-01 4.698736220598220825e-02
-5.738801956176757812e-01 -2.056175470352172852e-02 1.323590986430644989e-02
-4.397964775562286377e-01 -1.762036085128784180e-01 3.852302953600883484e-02
-5.171167254447937012e-01 -1.158442422747612000e-01 3.704528138041496277e-02
-5.656735301017761230e-01 -8.093443512916564941e-02 2.436749264597892761e-02
-3.929763138294219971e-01 -8.911663293838500977e-02 1.212535984814167023e-02
-5.286253094673156738e-01 -8.884221315383911133e-02 -5.443031713366508484e-02
-4.342152774333953857e-01 -2.027511298656463623e-01 -4.188480600714683533e-02
-5.916073322296142578e-01 -8.557996153831481934e-02 -6.875024642795324326e-03
-4.888614416122436523e-01 -2.625834196805953979e-02 4.585795570164918900e-03
-5.946323871612548828e-01 -1.767864078283309937e-02 -9.556620381772518158e-03
-3.532735705375671387e-01 -2.084823250770568848e-01 -3.628998622298240662e-02
-5.462504625320434570e-01 -1.005969122052192688e-01 2.934476733207702637e-02
-3.304830789566040039e-01 -1.834639608860015869e-01 2.265991270542144775e-02
-5.839613676071166992e-01 -7.295395433902740479e-02 -3.593836352229118347e-02
-4.519174993038177490e-01 -4.644197970628738403e-02 -1.203329116106033325e-02
-4.124808907508850098e-01 -8.447234332561492920e-02 -2.805514261126518250e-02
-4.314425587654113770e-01 -2.160634696483612061e-01 1.322241313755512238e-02
-3.852016627788543701e-01 -2.351390570402145386e-01 -2.276472933590412140e-02
-5.646237134933471680e-01 -1.212518066167831421e-01 -3.855675458908081055e-07
-4.816746115684509277e-01 -1.955487728118896484e-01 -1.843680813908576965e-02
-5.393202900886535645e-01 -9.505145251750946045e-03 -7.487368769943714142e-03
-5.936729907989501953e-01 -7.381408661603927612e-02 2.288413699716329575e-03
-4.835731983184814453e-01 -7.952037453651428223e-02 -5.268254876136779785e-02
-4.781567156314849854e-01 -7.657720148563385010e-02 4.210325703024864197e-02
-4.099795818328857422e-01 -1.790089607238769531e-01 -5.212264880537986755e-02
-4.610016644001007080e-01 -2.083161771297454834e-01 -3.550946246832609177e-03
-5.536947846412658691e-01 -1.300307363271713257e-01 -3.000939637422561646e-02
-4.238296747207641602e-01 -1.530052721500396729e-01 -5.563224479556083679e-02
-5.745614171028137207e-01 -5.624238401651382446e-02 -4.154747352004051208e-02
-5.535168051719665527e-01 -1.101263687014579773e-01 -4.354890435934066772e-02
-3.189252614974975586e-01 -2.240323722362518311e-01 5.350286606699228287e-03
-4.649226367473602295e-01 -3.878053277730941772e-02 -1.147579122334718704e-02
-4.955312609672546387e-01 -4.935313761234283447e-02 -4.152324050664901733e-02
-4.363662004470825195e-01 -1.575209051370620728e-01 -5.641901493072509766e-02
-4.110793173313140869e-01 -1.030826196074485779e-01 -4.058387503027915955e-02
-3.137339949607849121e-01 -2.053069770336151123e-01 -4.637436475604772568e-03
-4.297298192977905273e-01 -1.946385502815246582e-01 -4.719816893339157104e-02
-5.705769062042236328e-01 -8.844822645187377930e-03 -1.288964133709669113e-02
-4.745033681392669678e-01 -1.974952816963195801e-01 -2.547277510166168213e-02
-3.884524405002593994e-01 -1.480115950107574463e-01 -4.709191620349884033e-02
-3.797057271003723145e-01 -2.322257459163665771e-01 -2.742158062756061554e-02
-3.833465278148651123e-01 -1.320775151252746582e-01 -4.023360088467597961e-02
-5.193150639533996582e-01 -6.573875248432159424e-02 -5.154219642281532288e-02
-4.289355278015136719e-01 -2.221385836601257324e-01 4.769959021359682083e-03
-4.286793470382690430e-01 -7.405145466327667236e-02 -3.018053248524665833e-02
-3.931169509887695312e-01 -2.156607508659362793e-01 -3.945916518568992615e-02
-5.022959113121032715e-01 -1.593350917100906372e-01 -4.520319029688835144e-02
-5.149276852607727051e-01 -9.078304469585418701e-02 -5.597839131951332092e-02
-5.595574975013732910e-01 -1.302600502967834473e-01 -1.597422361373901367e-02
-5.739303231239318848e-01 -8.978709578514099121e-02 1.580918580293655396e-02
-4.945638179779052734e-01 -7.142753899097442627e-02 4.127733036875724792e-02
-5.008384585380554199e-01 -1.663250625133514404e-01 -4.129710420966148376e-02
-3.767673075199127197e-01 -2.352944612503051758e-01 1.143503002822399139e-02
-4.537582397460937500e-01 -1.887926459312438965e-01 2.794086933135986328e-02
-4.914693832397460938e-01 -3.243311494588851929e-02 1.921408995985984802e-02
-3.673238754272460938e-01 -1.836013793945312500e-01 3.765299171209335327e-02
-5.217220783233642578e-01 -1.481162756681442261e-01 -4.204760491847991943e-02
-6.994327306747436523e-01 -2.103695720434188843e-01 -6.358714774250984192e-03
-5.490069985389709473e-01 -2.900705635547637939e-01 4.412922635674476624e-02
-5.099875330924987793e-01 -3.732077479362487793e-01 -1.797314919531345367e-02
-4.841254651546478271e-01 -3.809095025062561035e-01 -1.372428261674940586e-03
-3.986926674842834473e-01 -3.118764162063598633e-01 -1.874290406703948975e-02
-5.757457017898559570e-01 -2.200883626937866211e-01 -4.191311821341514587e-02
-6.496852040290832520e-01 -1.464052498340606689e-01 -6.019183201715350151e-04
-4.636344611644744873e-01 -1.587241888046264648e-01 1.170362927950918674e-03
-5.610985755920410156e-01 -3.393358588218688965e-01 -3.331850469112396240e-02
-5.938301086425781250e-01 -3.154433071613311768e-01 3.277037665247917175e-02
-4.173631668090820312e-01 -3.400804996490478516e-01 -1.890509389340877533e-02
-6.162825822830200195e-01 -1.463400125503540039e-01 2.206585370004177094e-02
-5.704877972602844238e-01 -3.698990345001220703e-01 -5.788031267002224922e-04
-5.017396211624145508e-01 -2.082291245460510254e-01 4.447421804070472717e-02
-6.849280595779418945e-01 -2.635090351104736328e-01 -1.865992136299610138e-02
-5.559670925140380859e-01 -1.511057913303375244e-01 -2.139520272612571716e-02
-6.732073426246643066e-01 -2.840745151042938232e-01 1.454515382647514343e-02
-6.321944594383239746e-01 -1.563519090414047241e-01 2.388523519039154053e-02
-3.969667553901672363e-01 -2.299504876136779785e-01 2.174347080290317535e-02
-5.704104900360107422e-01 -1.855951398611068726e-01 -3.537618741393089294e-02
-6.627086997032165527e-01 -3.076227605342864990e-01 8.080115541815757751e-03
-6.680703163146972656e-01 -1.928846836090087891e-01 -2.348768897354602814e-02
-6.373967528343200684e-01 -2.409617006778717041e-01 3.621071204543113708e-02
-5.974633097648620605e-01 -1.405019611120223999e-01 -1.382721588015556335e-02
-6.562663316726684570e-01 -2.866104543209075928e-01 2.295714803040027618e-02
-6.348043680191040039e-01 -1.515231430530548096e-01 -1.535705104470252991e-02
-4.870020747184753418e-01 -3.576995432376861572e-01 2.592230029404163361e-02
-5.811683535575866699e-01 -2.685402929782867432e-01 -4.384433105587959290e-02
-4.609011709690093994e-01 -3.354223668575286865e-01 3.323714062571525574e-02
-6.731203794479370117e-01 -2.919747531414031982e-01 1.028002612292766571e-02
-5.126587748527526855e-01 -2.917730808258056641e-01 4.508191719651222229e-02
-6.783570647239685059e-01 -2.234729677438735962e-01 2.278278581798076630e-02
-4.819434583187103271e-01 -3.631408214569091797e-01 2.251974865794181824e-02
-5.571180582046508789e-01 -2.983260750770568848e-01 -4.278488457202911377e-02
-3.895893990993499756e-01 -2.540590167045593262e-01 -1.284745801240205765e-02
-4.131781160831451416e-01 -1.961971819400787354e-01 2.240732777863740921e-03
-5.882464051246643066e-01 -3.246133327484130859e-01 -3.470925614237785339e-02
-6.333261728286743164e-01 -3.364259600639343262e-01 -1.156848948448896408e-02
-5.134955048561096191e-01 -3.525285124778747559e-01 -3.046232648193836212e-02
-4.955157637596130371e-01 -1.436718106269836426e-01 3.387678414583206177e-03
-6.028053760528564453e-01 -2.789301574230194092e-01 3.948355838656425476e-02
-4.971222281455993652e-01 -1.564016044139862061e-01 -1.498860493302345276e-02
-5.259112715721130371e-01 -1.934855431318283081e-01 4.325991496443748474e-02
-6.565718650817871094e-01 -1.699406653642654419e-01 -1.922440901398658752e-02
-4.718677699565887451e-01 -1.535546183586120605e-01 7.221131119877099991e-03
-3.928650021553039551e-01 -2.203311026096343994e-01 6.682201288640499115e-03
-5.287847518920898438e-01 -2.491642087697982788e-01 -4.411983489990234375e-02
-6.465898752212524414e-01 -3.165733218193054199e-01 -2.027219347655773163e-02
-6.290481090545654297e-01 -2.254946529865264893e-01 -3.781278803944587708e-02
-4.415571093559265137e-01 -2.629095017910003662e-01 -3.383585065603256226e-02
-4.203926324844360352e-01 -3.197624087333679199e-01 3.050242364406585693e-02
-4.933930039405822754e-01 -2.842783331871032715e-01 -4.212949424982070923e-02
-4.644565582275390625e-01 -3.547720015048980713e-01 2.574213594198226929e-02
-5.726926922798156738e-01 -1.354650557041168213e-01 1.903697662055492401e-02
-5.173432826995849609e-01 -3.138254880905151367e-01 -4.080471768975257874e-02
-6.159479618072509766e-01 -3.389007151126861572e-01 1.470255199819803238e-02
-6.891564130783081055e-01 -2.155955880880355835e-01 1.625490374863147736e-02
-4.472272992134094238e-01 -2.274203747510910034e-01 3.991220518946647644e-02
-6.178293228149414062e-01 -3.036100566387176514e-01 3.084625490009784698e-02
-4.651485979557037354e-01 -3.103666901588439941e-01 3.997151553630828857e-02
-5.100663304328918457e-01 -1.971631348133087158e-01 4.315103963017463684e-02
-5.280024409294128418e-01 -3.700510561466217041e-01 -1.987809315323829651e-02
-5.819947123527526855e-01 -2.995748221874237061e-01 3.897833451628684998e-02
-6.989674568176269531e-01 -2.243296653032302856e-01 7.435559760779142380e-03
-4.797903299331665039e-01 -3.366561532020568848e-01 -3.366152942180633545e-02
-6.506348252296447754e-01 -2.935801446437835693e-01 2.306917123496532440e-02
-5.050721764564514160e-01 -3.141778409481048584e-01 4.113817960023880005e-02
-5.495033264160156250e-01 -1.894231438636779785e-01 -3.599587827920913696e-02
-4.817292094230651855e-01 -2.766301929950714111e-01 4.558818414807319641e-02
-6.407806873321533203e-01 -1.748334020376205444e-01 2.873905003070831299e-02
-5.906897783279418945e-01 -2.108248174190521240e-01 -4.001072421669960022e-02
-6.355992555618286133e-01 -1.687328666448593140e-01 2.815854735672473907e-02
-6.677991151809692383e-01 -2.234010100364685059e-01 2.731775864958763123e-02
-4.673616290092468262e-01 -2.794495522975921631e-01 4.418273642659187317e-02
-3.782138228416442871e-01 -3.115804493427276611e-01 -2.348862122744321823e-03
-4.654371738433837891e-01 -3.737733960151672363e-01 1.145491935312747955e-02
-4.211784601211547852e-01 -2.939845919609069824e-01 -2.891987562179565430e-02
-3.767843842506408691e-01 -2.630807459354400635e-01 1.338565163314342499e-02
-4.138131737709045410e-01 -2.317092120647430420e-01 3.113607130944728851e-02
-6.381738185882568359e-01 -1.793595999479293823e-01 -2.767371200025081635e-02
-5.865256786346435547e-01 -1.546775102615356445e-01 -2.372262999415397644e-02
-6.621975302696228027e-01 -1.539016664028167725e-01 -7.095992332324385643e-04
-5.330435633659362793e-01 -3.272143006324768066e-01 -3.835857287049293518e-02
-3.834202587604522705e-01 -2.648786604404449463e-01 -1.049494836479425430e-02
-5.687110424041748047e-01 -2.936339974403381348e-01 4.182406514883041382e-02
-4.199722409248352051e-01 -2.140152007341384888e-01 2.881640009582042694e-02
-4.754600226879119873e-01 -3.037322163581848145e-01 -3.892349079251289368e-02
-5.072573423385620117e-01 -2.400400638580322266e-01 -4.201551154255867004e-02
-4.317433834075927734e-01 -3.447414338588714600e-01 2.469827979803085327e-02
-6.630322933197021484e-01 -1.590185761451721191e-01 1.173544954508543015e-02
-4.067272245883941650e-01 -2.471190243959426880e-01 3.100793994963169098e-02
-5.000968575477600098e-01 -1.445785015821456909e-01 -3.548641223460435867e-03
-3.955324888229370117e-01 -3.380346894264221191e-01 1.148929912596940994e-02
-6.007382273674011230e-01 -2.815114855766296387e-01 -4.120622947812080383e-02
-6.935259103775024414e-01 -1.917480528354644775e-01 4.830478690564632416e-03
-4.231920242309570312e-01 -2.856599688529968262e-01 -2.976655773818492889e-02
-4.129384756088256836e-01 -3.055496513843536377e-01 -2.539522759616374969e-02
-6.119380593299865723e-01 -2.156736701726913452e-01 4.092377051711082458e-02
-5.679985880851745605e-01 -1.370081305503845215e-01 -1.143916882574558258e-02
-5.282281041145324707e-01 -1.663206815719604492e-01 3.587018325924873352e-02
-6.190394759178161621e-01 -3.454755246639251709e-01 -1.219305954873561859e-02
-4.697389900684356689e-01 -2.265182733535766602e-01 -3.519861400127410889e-02
-5.464173555374145508e-01 -3.073407411575317383e-01 -4.189330711960792542e-02
-5.722283720970153809e-01 -3.046860098838806152e-01 3.917314112186431885e-02
-6.821045279502868652e-01 -1.720646023750305176e-01 -1.760229119099676609e-03
-6.453104615211486816e-01 -2.011932432651519775e-01 -3.165062144398689270e-02
-6.437988877296447754e-01 -2.377842366695404053e-01 -3.582482784986495972e-02
-4.454541504383087158e-01 -3.689697682857513428e-01 -1.093844976276159286e-02
-3.897215127944946289e-01 -3.151051998138427734e-01 1.958067901432514191e-02
-3.946323394775390625e-01 -2.237017154693603516e-01 -3.836559597402811050e-03
-6.312038302421569824e-01 -2.334935665130615234e-01 -3.801961615681648254e-02
-5.021585822105407715e-01 -1.930454671382904053e-01 -3.273277357220649719e-02
-6.033134460449218750e-01 -2.932835519313812256e-01 3.674834221601486206e-02
-6.014159917831420898e-01 -3.562477231025695801e-01 3.196806646883487701e-03
-6.045485138893127441e-01 -2.489758431911468506e-01 4.222588241100311279e-02
-4.433800280094146729e-01 -1.762091368436813354e-01 1.942631974816322327e-02
-5.500919818878173828e-01 -1.607176065444946289e-01 -2.600605972111225128e-02
-4.040713310241699219e-01 -2.623419463634490967e-01 3.137655183672904968e-02
-6.312710046768188477e-01 -1.409583389759063721e-01 1.177237927913665771e-02
-4.713778495788574219e-01 -2.092928290367126465e-01 -3.182630985975265503e-02
-4.458201527595520020e-01 -2.846464812755584717e-01 4.107515513896942139e-02
-5.565994977951049805e-01 -2.043450325727462769e-01 -3.955216705799102783e-02
-5.618090033531188965e-01 -3.533002734184265137e-01 -2.701654657721519470e-02
-4.911803007125854492e-01 -3.563701510429382324e-01 -2.787369675934314728e-02
-5.555356740951538086e-01 -1.414938569068908691e-01 -1.471496559679508209e-02
-6.313449740409851074e-01 -1.764421015977859497e-01 3.149623796343803406e-02
-5.572298765182495117e-01 -1.596542894840240479e-01 3.422729671001434326e-02
-4.041450023651123047e-01 -3.508312702178955078e-01 3.586736042052507401e-03
-4.772201776504516602e-01 -1.611123085021972656e-01 -1.158671174198389053e-02
-4.076039791107177734e-01 -3.374293446540832520e-01 -1.558032818138599396e-02
-6.122292280197143555e-01 -3.136745095252990723e-01 -3.349290788173675537e-02
-5.532127022743225098e-01 -3.371938169002532959e-01 -3.475002571940422058e-02
-5.713655948638916016e-01 -3.202589154243469238e-01 -3.797644004225730896e-02
-4.204435050487518311e-01 -2.985082566738128662e-01 3.460867330431938171e-02
-6.692553758621215820e-01 -2.386027127504348755e-01 2.638855390250682831e-02
-4.877994656562805176e-01 -3.378552198410034180e-01 -3.410867601633071899e-02
-5.349929928779602051e-01 -3.294003009796142578e-01 3.622262179851531982e-02
-6.440524458885192871e-01 -3.226542770862579346e-01 1.094556506723165512e-02
-5.068922638893127441e-01 -2.809970974922180176e-01 -4.331066831946372986e-02
-3.755078911781311035e-01 -2.845538258552551270e-01 -4.672805778682231903e-03
-5.853374600410461426e-01 -2.795008718967437744e-01 4.206779599189758301e-02
-4.416021704673767090e-01 -3.462679386138916016e-01 -2.421453781425952911e-02
-5.783434510231018066e-01 -1.987384110689163208e-01 -3.835728392004966736e-02
-5.390874147415161133e-01 -1.817132681608200073e-01 4.102904349565505981e-02
-6.391229033470153809e-01 -3.203515410423278809e-01 -2.205529995262622833e-02
-6.217494010925292969e-01 -2.961208522319793701e-01 -3.570167720317840576e-02
-5.699530243873596191e-01 -3.362587094306945801e-01 2.964580245316028595e-02
-5.367863774299621582e-01 -2.393403500318527222e-01 4.792733490467071533e-02
-3.787284493446350098e-01 -2.490300685167312622e-01 8.952429518103599548e-03
-5.633636116981506348e-01 -1.881274282932281494e-01 4.217180237174034119e-02
-6.773265004158020020e-01 -2.092117369174957275e-01 2.246052399277687073e-02
-4.211933016777038574e-01 -2.103101611137390137e-01 -1.615396887063980103e-02
-5.540041327476501465e-01 -3.284372985363006592e-01 -3.727980703115463257e-02
-4.736770093441009521e-01 -2.863718271255493164e-01 4.415195807814598083e-02
-6.271694302558898926e-01 -2.779130637645721436e-01 3.457660228013992310e-02
-4.347185492515563965e-01 -2.924076914787292480e-01 3.843891620635986328e-02
-6.194411516189575195e-01 -3.159731030464172363e-01 2.609070390462875366e-02
-3.926450610160827637e-01 -2.789086103439331055e-01 2.676672302186489105e-02
-5.117200613021850586e-01 -2.874877750873565674e-01 -4.331922531127929688e-02
-4.545256495475769043e-01 -2.996896207332611084e-01 4.058248177170753479e-02
-4.137621521949768066e-01 -2.957367897033691406e-01 -2.650145255029201508e-02
-4.108794331550598145e-01 -3.486369848251342773e-01 1.440961379557847977e-02
-6.922855973243713379e-01 -2.433714419603347778e-01 1.279040705412626266e-02
-4.811701774597167969e-01 -2.957092225551605225e-01 -4.027525335550308228e-02
-6.284334659576416016e-01 -1.465283483266830444e-01 1.883826218545436859e-02
-4.973233342170715332e-01 -1.768151521682739258e-01 3.648166730999946594e-02
-6.296147108078002930e-01 -2.700861990451812744e-01 -3.776115179061889648e-02
-5.203819870948791504e-01 -2.730658948421478271e-01 -4.425219073891639709e-02
-5.159785747528076172e-01 -1.552379578351974487e-01 2.947739884257316589e-02
-5.543121695518493652e-01 -2.138490825891494751e-01 4.611659422516822815e-02
-4.731313586235046387e-01 -3.388885259628295898e-01 3.319926187396049500e-02
-4.649760127067565918e-01 -3.070845305919647217e-01 -3.716698288917541504e-02
-5.219152569770812988e-01 -2.331890463829040527e-01 -4.243035987019538879e-02
-5.578014850616455078e-01 -3.715237379074096680e-01 -1.158005557954311371e-02
-4.339497089385986328e-01 -3.652247488498687744e-01 -9.472931735217571259e-03
-5.198188424110412598e-01 -2.011235058307647705e-01 4.440218955278396606e-02
-5.032121539115905762e-01 -2.499598860740661621e-01 4.763964191079139709e-02
-5.318733453750610352e-01 -2.288382351398468018e-01 -4.250066354870796204e-02
-4.221213459968566895e-01 -1.877736896276473999e-01 1.148077007383108139e-02
-5.651462078094482422e-01 -1.682721376419067383e-01 -2.979098074138164520e-02
-5.715479850769042969e-01 -3.292003870010375977e-01 -3.554599732160568237e-02
-6.107103824615478516e-01 -2.010463476181030273e-01 3.977714478969573975e-02
-5.212188363075256348e-01 -2.142904698848724365e-01 -3.969028592109680176e-02
-6.813600063323974609e-01 -2.303445190191268921e-01 -2.371275238692760468e-02
-6.383084058761596680e-01 -1.952118128538131714e-01 -3.182793781161308289e-02
-4.889947175979614258e-01 -1.994936913251876831e-01 -3.251062333583831787e-02
-4.591952562332153320e-01 -3.769580423831939697e-01 -2.687636762857437134e-03
-6.564522385597229004e-01 -3.192695677280426025e-01 -7.143344730138778687e-03
-5.270274281501770020e-01 -3.348180353641510010e-01 -3.647883236408233643e-02
-5.079755187034606934e-01 -2.489331364631652832e-01 -4.280840605497360229e-02
-4.666982293128967285e-01 -2.683669030666351318e-01 -3.890817984938621521e-02
-4.524022638797760010e-01 -2.358281612396240234e-01 -3.324075788259506226e-02
-6.339464783668518066e-01 -3.299337625503540039e-01 1.175015699118375778e-02
-5.885238051414489746e-01 -2.163208872079849243e-01 4.397735372185707092e-02
-6.619063615798950195e-01 -1.983495503664016724e-01 2.740995213389396667e-02
-6.206752061843872070e-01 -1.367843598127365112e-01 1.072877179831266403e-02
-5.853333473205566406e-01 -2.882543504238128662e-01 4.069933295249938965e-02
-4.401229918003082275e-01 -2.702750265598297119e-01 4.091350734233856201e-02
-5.047767758369445801e-01 -1.422329097986221313e-01 1.421370543539524078e-02
-5.414513945579528809e-01 -3.769048750400543213e-01 -7.218896411359310150e-03
-5.708209276199340820e-01 -1.501738131046295166e-01 -2.143569663166999817e-02
-5.875811576843261719e-01 -1.841317862272262573e-01 3.981840610504150391e-02
-4.826655387878417969e-01 -3.700469732284545898e-01 1.754026301205158234e-02
-5.765694379806518555e-01 -2.613616883754730225e-01 -4.426354914903640747e-02
-5.806364417076110840e-01 -2.075646966695785522e-01 -3.993200883269309998e-02
-4.899825453758239746e-01 -1.640533953905105591e-01 2.954662591218948364e-02
-6.443669795989990234e-01 -1.846174895763397217e-01 -2.796217799186706543e-02
-6.485516428947448730e-01 -2.819782495498657227e-01 -3.154977411031723022e-02
-4.114241003990173340e-01 -2.024585306644439697e-01 -4.289089702069759369e-03
-5.539096593856811523e-01 -3.253766596317291260e-01 3.580154851078987122e-02
-6.955326795578002930e-01 -2.546531260013580322e-01 -1.067621074616909027e-02
-4.514347910881042480e-01 -3.664674460887908936e-01 1.583587378263473511e-02
-6.254618763923645020e-01 -1.366720795631408691e-01 -1.759065780788660049e-04
-6.482044458389282227e-01 -2.501344680786132812e-01 -3.485385328531265259e-02
-5.445024967193603516e-01 -2.099072784185409546e-01 -4.025737196207046509e-02
-5.774304866790771484e-01 -3.347502648830413818e-01 -3.296471759676933289e-02
-5.881824493408203125e-01 -3.346440196037292480e-01 2.663761377334594727e-02
-6.827443838119506836e-01 -2.381157279014587402e-01 -2.309051342308521271e-02
-5.486332774162292480e-01 -3.677168488502502441e-01 -1.909144036471843719e-02
-4.376652240753173828e-01 -2.129513919353485107e-01 3.479686006903648376e-02
-6.712179183959960938e-01 -2.732061445713043213e-01 1.974666677415370941e-02
-6.162314414978027344e-01 -2.593898773193359375e-01 3.947173804044723511e-02
-4.095379710197448730e-01 -2.827136814594268799e-01 -2.537871710956096649e-02
-4.777095615863800049e-01 -2.988698780536651611e-01 4.291485995054244995e-02
-4.982171356678009033e-01 -3.491923809051513672e-01 3.023216873407363892e-02
-6.367033720016479492e-01 -2.159489393234252930e-01 3.623680025339126587e-02
-4.239624738693237305e-01 -2.878154218196868896e-01 3.664372861385345459e-02
-7.008587718009948730e-01 -2.145020663738250732e-01 1.940588699653744698e-03
-5.352318286895751953e-01 -1.510012447834014893e-01 2.928127348423004150e-02
-6.974194645881652832e-01 -2.505667805671691895e-01 4.578997381031513214e-03
-6.609225869178771973e-01 -2.745882868766784668e-01 2.433595992624759674e-02
-6.280082464218139648e-01 -1.706634014844894409e-01 -2.652624063193798065e-02
-4.469055533409118652e-01 -1.737943589687347412e-01 -6.543775089085102081e-03
-6.690484285354614258e-01 -2.465573102235794067e-01 2.581053227186203003e-02
-5.463533401489257812e-01 -2.532729506492614746e-01 4.755755141377449036e-02
-5.988216996192932129e-01 -2.104482650756835938e-01 -3.943276032805442810e-02
-4.658871889114379883e-01 -3.449366092681884766e-01 3.033153899013996124e-02
-5.984544157981872559e-01 -1.590833067893981934e-01 3.149543702602386475e-02
-4.615289568901062012e-01 -3.229103386402130127e-01 -3.433977067470550537e-02
-4.336780011653900146e-01 -3.341700434684753418e-01 -2.615561895072460175e-02
-4.663735628128051758e-01 -3.675579726696014404e-01 1.784586533904075623e-02
-6.372154951095581055e-01 -3.026410341262817383e-01 -3.012526594102382660e-02
-4.596219658851623535e-01 -3.209082186222076416e-01 3.715839609503746033e-02
-4.147086739540100098e-01 -2.226262986660003662e-01 -1.784638315439224243e-02
-6.697000265121459961e-01 -1.949438303709030151e-01 2.380005829036235809e-02
-5.305622816085815430e-01 -3.755959570407867432e-01 9.174472652375698090e-03
-6.025586128234863281e-01 -1.946406215429306030e-01 -3.627153486013412476e-02
-5.843538641929626465e-01 -1.296747028827667236e-01 7.624609395861625671e-03
-6.219607591629028320e-01 -2.744219303131103516e-01 -3.877700865268707275e-02
-4.972444772720336914e-01 -2.696084678173065186e-01 -4.268087819218635559e-02
-6.344054937362670898e-01 -2.197683155536651611e-01 -3.639671206474304199e-02
-5.741297006607055664e-01 -1.586519181728363037e-01 -2.585485018789768219e-02
-5.466609001159667969e-01 -2.080501914024353027e-01 4.570477083325386047e-02
-5.193339586257934570e-01 -1.475456655025482178e-01 2.492566220462322235e-02
-6.271781921386718750e-01 -2.568249106407165527e-01 -3.896713256835937500e-02
-4.172383248805999756e-01 -3.396309018135070801e-01 2.271034196019172668e-02
-4.708376228809356689e-01 -3.290085792541503906e-01 3.611116856336593628e-02
-6.563796401023864746e-01 -2.219966053962707520e-01 3.123152628540992737e-02
-5.333797335624694824e-01 -1.470237821340560913e-01 -1.627290435135364532e-02
-5.668038129806518555e-01 -3.247280418872833252e-01 3.440487012267112732e-02
-6.106808185577392578e-01 -1.391617506742477417e-01 -1.058745943009853363e-02
-4.842377603054046631e-01 -3.076131939888000488e-01 4.186750575900077820e-02
-4.797901511192321777e-01 -1.521723121404647827e-01 -2.372630406171083450e-03
-3.905782699584960938e-01 -2.472398877143859863e-01 2.271426282823085785e-02
-5.793278217315673828e-01 -3.246632218360900879e-01 -3.594616800546646118e-02
-4.677956700325012207e-01 -3.764601349830627441e-01 -9.257427416741847992e-03
-3.946522474288940430e-01 -2.929725944995880127e-01 2.672015316784381866e-02
-6.025354862213134766e-01 -1.718280911445617676e-01 -2.998842857778072357e-02
-3.747717738151550293e-01 -2.984965145587921143e-01 -1.740899751894176006e-03
-4.927027821540832520e-01 -3.057854771614074707e-01 4.255627468228340149e-02
-5.943048596382141113e-01 -2.206303477287292480e-01 -4.110098630189895630e-02
-6.756241321563720703e-01 -2.129197120666503906e-01 -2.468080818653106689e-02
-6.129507422447204590e-01 -1.393897533416748047e-01 1.717121154069900513e-02
-6.254485249519348145e-01 -1.924607157707214355e-01 -3.331178054213523865e-02
-4.720790088176727295e-01 -3.794736266136169434e-01 5.723159993067383766e-04
-5.353056192398071289e-01 -3.603880405426025391e-01 2.243224531412124634e-02
-6.909831762313842773e-01 -1.950207203626632690e-01 -1.115057989954948425e-02
-4.439222812652587891e-01 -1.874337196350097656e-01 -1.538985408842563629e-02
-5.107809901237487793e-01 -3.596133589744567871e-01 -2.718025073409080505e-02
-4.581876695156097412e-01 -2.418840825557708740e-01 -3.533948957920074463e-02
-6.780890822410583496e-01 -2.894712984561920166e-01 -1.294369623064994812e-02
-4.540356099605560303e-01 -2.959815263748168945e-01 -3.636882826685905457e-02
-6.180511713027954102e-01 -2.058521807193756104e-01 3.913752362132072449e-02
-5.299131274223327637e-01 -2.156128287315368652e-01 4.658011719584465027e-02
-6.455302238464355469e-01 -1.920522749423980713e-01 -2.965608984231948853e-02
-6.579234004020690918e-01 -2.542617917060852051e-01 -3.205911070108413696e-02
-6.402921676635742188e-01 -1.951249241828918457e-01 3.327377885580062866e-02
-5.332285165786743164e-01 -2.484972476959228516e-01 4.801611974835395813e-02
-6.180491447448730469e-01 -1.343366950750350952e-01 1.871609361842274666e-03
-4.047144055366516113e-01 -3.069038093090057373e-01 -2.216355875134468079e-02
-5.193386673927307129e-01 -1.785193085670471191e-01 3.930895030498504639e-02
-5.506561398506164551e-01 -1.992389261722564697e-01 -3.837262839078903198e-02
-5.459895133972167969e-01 -3.728311359882354736e-01 8.928753435611724854e-03
-6.988833546638488770e-01 -2.365763634443283081e-01 6.592993158847093582e-03
-6.510220170021057129e-01 -2.663653492927551270e-01 -3.307894617319107056e-02
-4.428689777851104736e-01 -2.284824401140213013e-01 -2.954074554145336151e-02
-6.841642856597900391e-01 -2.859247326850891113e-01 -3.513942472636699677e-03
-4.306985437870025635e-01 -1.844454109668731689e-01 -4.703355953097343445e-03
-4.277456998825073242e-01 -1.965168118476867676e-01 2.488541603088378906e-02
-4.471558034420013428e-01 -2.761206030845642090e-01 -3.556459397077560425e-02
-5.368185043334960938e-01 -2.243954092264175415e-01 4.731522500514984131e-02
-4.698150157928466797e-01 -2.525944113731384277e-01 -3.853495419025421143e-02
-4.908067286014556885e-01 -2.519436776638031006e-01 -4.134077951312065125e-02
-6.015955805778503418e-01 -1.467749029397964478e-01 -1.818040572106838226e-02
-5.258483290672302246e-01 -2.077415883541107178e-01 4.559153318405151367e-02
-5.655217170715332031e-01 -1.308155059814453125e-01 1.208885759115219116e-02
-4.007544815540313721e-01 -2.149723917245864868e-01 -3.905741497874259949e-03
-5.392138361930847168e-01 -2.630613446235656738e-01 -4.487585648894309998e-02
-6.846414208412170410e-01 -1.983822733163833618e-01 -1.726310700178146362e-02
