-7.172358036041259766e-01 1.201640442013740540e-01 1.856285333633422852e-02
-7.872132658958435059e-01 4.424045979976654053e-02 -1.322354674339294434e-01
-8.757877945899963379e-01 5.953088775277137756e-02 2.463205717504024506e-02
-7.687481641769409180e-01 6.261550635099411011e-02 -1.344682574272155762e-01
-7.024601697921752930e-01 1.115214824676513672e-01 8.701601624488830566e-02
-8.215951323509216309e-01 -1.975595951080322266e-03 -7.726021111011505127e-03
-8.225010037422180176e-01 8.925270289182662964e-02 1.563172787427902222e-03
-7.340556979179382324e-01 1.180415004491806030e-01 2.294874005019664764e-02
-8.649193644523620605e-01 3.116098418831825256e-02 -9.256803244352340698e-02
-7.816424369812011719e-01 2.880064211785793304e-02 -1.106332466006278992e-01
-7.017421722412109375e-01 5.039349198341369629e-02 6.939168088138103485e-03
-7.352141141891479492e-01 3.168746083974838257e-02 3.775452077388763428e-02
-8.385324478149414062e-01 -5.747847259044647217e-03 5.901094526052474976e-03
-7.748406529426574707e-01 1.250580698251724243e-02 1.999538205564022064e-02
-7.294957637786865234e-01 1.183179318904876709e-01 3.828053176403045654e-02
-8.645657896995544434e-01 5.018551275134086609e-02 -6.942359358072280884e-02
-7.833584547042846680e-01 1.034982055425643921e-01 7.017381489276885986e-02
-8.328353166580200195e-01 6.907425820827484131e-02 -7.982539385557174683e-02
-8.838347792625427246e-01 -5.835745483636856079e-03 5.741512775421142578e-02
-8.175579905509948730e-01 7.834126055240631104e-02 -7.723454385995864868e-02
-8.374176025390625000e-01 3.141258656978607178e-02 -1.157609447836875916e-01
-8.722088336944580078e-01 -7.369153201580047607e-03 -1.373010315001010895e-02
-7.534168958663940430e-01 1.052304804325103760e-01 1.062203794717788696e-01
-8.150383830070495605e-01 8.548600971698760986e-02 -5.373157560825347900e-02
-8.970915675163269043e-01 -4.197522997856140137e-03 4.521975666284561157e-02
-7.885227203369140625e-01 6.001799926161766052e-02 -1.323370635509490967e-01
-7.766400575637817383e-01 1.064166426658630371e-01 -9.755408391356468201e-03
-7.922670841217041016e-01 2.183070778846740723e-02 -1.017075926065444946e-01
-7.928112149238586426e-01 8.374346047639846802e-02 1.420843899250030518e-01
-8.535048961639404297e-01 4.910459741950035095e-02 1.449977755546569824e-01
-7.337875366210937500e-01 4.435751214623451233e-02 -9.487956017255783081e-02
-7.545133829116821289e-01 1.104392260313034058e-01 -3.255436569452285767e-02
-7.021064162254333496e-01 5.116612836718559265e-02 -2.851419895887374878e-02
-6.926601529121398926e-01 1.167977005243301392e-01 5.658517777919769287e-02
-8.923820853233337402e-01 8.278742432594299316e-03 9.949444979429244995e-02
-8.940063118934631348e-01 -2.879355102777481079e-03 6.253866106271743774e-02
-7.397251129150390625e-01 2.820811979472637177e-02 -1.872658357024192810e-02
-6.791418194770812988e-01 1.175362765789031982e-01 4.567253403365612030e-03
-8.596915006637573242e-01 2.570506185293197632e-03 1.032338589429855347e-01
-8.533552289009094238e-01 7.190968096256256104e-02 -1.005982048809528351e-02
-7.988940477371215820e-01 9.630797803401947021e-02 -3.052124753594398499e-02
-7.313098907470703125e-01 7.229906320571899414e-02 -1.248087659478187561e-01
-8.427646160125732422e-01 7.148718833923339844e-02 -5.069354176521301270e-02
-8.632021546363830566e-01 6.700531393289566040e-02 6.314418464899063110e-02
-8.563703298568725586e-01 7.202109694480895996e-02 5.134607478976249695e-02
-8.035482168197631836e-01 9.493326395750045776e-02 8.275675028562545776e-02
-6.904846429824829102e-01 7.632488012313842773e-02 8.858811110258102417e-02
-8.189227581024169922e-01 8.567617088556289673e-02 -4.311317950487136841e-02
-8.647071123123168945e-01 6.720861792564392090e-02 2.720061317086219788e-02
-9.006868004798889160e-01 3.503709286451339722e-02 2.903212793171405792e-03
-7.705656290054321289e-01 2.415103837847709656e-02 -8.617695420980453491e-02
-8.654877543449401855e-01 5.850139632821083069e-02 -4.171179607510566711e-02
-7.352663874626159668e-01 1.049824655055999756e-01 -7.930351048707962036e-02
-8.454003930091857910e-01 7.839302718639373779e-02 1.561736129224300385e-02
-8.432101011276245117e-01 6.006468087434768677e-03 -7.923246175050735474e-02
-7.461065053939819336e-01 1.157407909631729126e-01 2.853420935571193695e-02
-6.654530763626098633e-01 9.088598191738128662e-02 2.691547572612762451e-02
-8.039976954460144043e-01 4.113350063562393188e-03 -3.226222470402717590e-02
-8.213659524917602539e-01 7.512788474559783936e-02 1.352012902498245239e-01
-8.756570219993591309e-01 5.699616298079490662e-02 7.524107396602630615e-02
-7.861639857292175293e-01 1.733073964715003967e-02 -8.109828829765319824e-02
-7.282673716545104980e-01 1.179254576563835144e-01 -9.589150547981262207e-03
-8.375096321105957031e-01 5.735129863023757935e-02 -9.883362054824829102e-02
-8.742445111274719238e-01 5.292696878314018250e-02 -3.648157045245170593e-02
-7.899695038795471191e-01 6.798431277275085449e-03 1.523069106042385101e-03
-7.023712992668151855e-01 1.157872900366783142e-01 6.995249539613723755e-02
-8.760660290718078613e-01 5.453777685761451721e-02 -2.216674014925956726e-02
-7.060670256614685059e-01 4.772118106484413147e-02 -1.801138371229171753e-02
-9.073547124862670898e-01 2.242486923933029175e-03 4.741858690977096558e-02
-7.143222093582153320e-01 5.306319519877433777e-02 -8.334301412105560303e-02
-7.304012775421142578e-01 9.202864766120910645e-02 -1.102008149027824402e-01
-7.844853401184082031e-01 3.808031231164932251e-02 1.501535177230834961e-01
-6.694672107696533203e-01 1.053829491138458252e-01 4.768572375178337097e-02
-7.754042744636535645e-01 8.940435200929641724e-02 -9.711771458387374878e-02
-8.134343028068542480e-01 9.411960840225219727e-02 2.131432481110095978e-02
-8.933415412902832031e-01 4.049239680171012878e-02 -1.311261020600795746e-02
-7.710354328155517578e-01 8.242604136466979980e-02 -1.151276901364326477e-01
-8.650360107421875000e-01 -3.584846854209899902e-03 -4.187305644154548645e-02
-8.243857622146606445e-01 -2.562414854764938354e-03 2.907150611281394958e-02
-6.864129900932312012e-01 6.248939409852027893e-02 -1.262752898037433624e-02
-7.611642479896545410e-01 2.095569670200347900e-02 -4.948574304580688477e-02
-8.246243000030517578e-01 2.585578709840774536e-03 -5.721926689147949219e-02
-8.222751021385192871e-01 8.378473669290542603e-02 1.029612123966217041e-01
-6.896391510963439941e-01 6.122921779751777649e-02 -3.220685571432113647e-02
-7.015141844749450684e-01 5.134489387273788452e-02 2.341983467340469360e-02
-8.581340312957763672e-01 4.867529124021530151e-02 -8.399497717618942261e-02
-8.520034551620483398e-01 -6.201297044754028320e-03 4.936698824167251587e-02
-7.770428657531738281e-01 1.672094687819480896e-02 -6.298204511404037476e-02
-8.204886913299560547e-01 2.029575407505035400e-04 5.469181016087532043e-02
-8.550085425376892090e-01 1.089462637901306152e-02 -8.805473893880844116e-02
-8.422498703002929688e-01 -3.218214958906173706e-03 -3.744677454233169556e-02
-7.776073217391967773e-01 1.074444279074668884e-01 2.104970999062061310e-02
-8.252872824668884277e-01 1.434203237295150757e-03 7.373128831386566162e-02
-6.990709304809570312e-01 8.983841538429260254e-02 1.132442057132720947e-01
-7.661466598510742188e-01 1.100356653332710266e-01 5.210636928677558899e-02
-6.700893044471740723e-01 1.043725758790969849e-01 -4.153937101364135742e-02
-8.983939886093139648e-01 2.118616178631782532e-02 -3.932133316993713379e-02
-8.677400946617126465e-01 6.481445580720901489e-02 1.551346667110919952e-02
-8.004813194274902344e-01 3.756970167160034180e-03 -1.104511879384517670e-02
-7.998968958854675293e-01 1.473020389676094055e-02 -8.642858266830444336e-02
-7.526180744171142578e-01 2.348576858639717102e-02 4.355831444263458252e-02
-7.625056505203247070e-01 1.801889389753341675e-02 -2.395631372928619385e-02
-7.597076892852783203e-01 3.369475156068801880e-02 1.142201349139213562e-01
-6.797298789024353027e-01 8.136388659477233887e-02 6.909353286027908325e-02
-8.344582915306091309e-01 8.075559139251708984e-02 8.632231503725051880e-02
-8.719270229339599609e-01 3.804415464401245117e-02 1.336451321840286255e-01
-8.413598537445068359e-01 7.316801697015762329e-02 1.076143160462379456e-01
-8.689739704132080078e-01 -8.864425122737884521e-03 1.547855697572231293e-02
-7.850916981697082520e-01 3.127143532037734985e-02 1.380904912948608398e-01
-8.593452572822570801e-01 -7.087722420692443848e-03 -1.598053798079490662e-02
-8.955402970314025879e-01 3.573971241712570190e-02 8.634272962808609009e-02
-7.504551410675048828e-01 2.723379060626029968e-02 -6.015074253082275391e-02
2.562713027000427246e-01 -1.040908768773078918e-01 -4.647411108016967773e-01
2.195409983396530151e-01 -1.232512593269348145e-01 -1.608744561672210693e-01
9.998032450675964355e-02 -5.881237983703613281e-02 -3.843209147453308105e-01
1.667699217796325684e-01 -4.445750266313552856e-02 -8.071362972259521484e-03
1.874856054782867432e-01 -9.041734039783477783e-03 -1.758186370134353638e-01
4.516504704952239990e-02 -4.748130962252616882e-02 -1.170754283666610718e-01
1.748693287372589111e-01 -1.372568011283874512e-01 -4.367433786392211914e-01
1.322336792945861816e-01 -2.373528853058815002e-02 -9.238596260547637939e-02
5.300793051719665527e-02 -1.610232591629028320e-01 -3.371399044990539551e-01
1.689756959676742554e-01 -1.700925827026367188e-02 -8.597715198993682861e-02
2.467778921127319336e-01 -1.769951730966567993e-02 -4.852777719497680664e-02
1.473015546798706055e-02 -1.519265025854110718e-01 -1.858908534049987793e-01
1.733247339725494385e-01 -1.243773847818374634e-01 -1.192958652973175049e-01
2.617411017417907715e-01 -2.122355997562408447e-02 -3.570918440818786621e-01
4.096589088439941406e-01 -4.614819958806037903e-02 -2.832267582416534424e-01
4.311722517013549805e-02 -4.661916196346282959e-02 -1.394319534301757812e-01
1.365602612495422363e-01 -1.545278131961822510e-01 -3.457061052322387695e-01
8.983603864908218384e-02 -1.045512855052947998e-01 -3.654943406581878662e-02
3.336785435676574707e-01 -2.809464931488037109e-03 -2.521266639232635498e-01
3.691159784793853760e-01 -5.526207387447357178e-03 -2.248128354549407959e-01
2.705420255661010742e-01 -1.032277941703796387e-04 -1.992397904396057129e-01
-3.421813249588012695e-03 -1.305966079235076904e-01 -1.102553755044937134e-01
1.801437884569168091e-01 -1.303743273019790649e-01 -1.515432596206665039e-01
6.834715604782104492e-04 -6.716737896203994751e-02 -2.431285828351974487e-01
5.364332348108291626e-02 -4.254736378788948059e-02 -1.454223096370697021e-01
2.621962726116180420e-01 -1.018233597278594971e-03 -2.091261744499206543e-01
3.191372752189636230e-02 -1.542779952287673950e-01 -1.978165507316589355e-01
2.807153761386871338e-01 -1.451574265956878662e-02 -6.310030817985534668e-02
2.770147919654846191e-01 -1.927200332283973694e-02 -5.109219253063201904e-02
5.205518007278442383e-02 -1.231580078601837158e-01 -7.493868470191955566e-02
2.324926257133483887e-01 -3.432330861687660217e-02 -3.952092230319976807e-01
3.300369679927825928e-01 -1.032254844903945923e-01 -3.331802785396575928e-01
2.322614938020706177e-01 -3.212630748748779297e-03 -1.493008732795715332e-01
1.425618976354598999e-01 -1.099925190210342407e-01 -4.821573495864868164e-01
8.900893479585647583e-02 -1.346894949674606323e-01 -1.130623072385787964e-01
2.933854460716247559e-01 -1.118623614311218262e-01 -2.269588261842727661e-01
2.605835199356079102e-01 -5.104358494281768799e-02 -4.420467317104339600e-01
1.992424726486206055e-01 -7.650031149387359619e-02 -1.943373680114746094e-02
3.149781227111816406e-01 -9.979569911956787109e-02 -1.996113806962966919e-01
2.053963243961334229e-01 -2.952643856406211853e-02 -2.373671531677246094e-02
1.750950813293457031e-01 -2.913200482726097107e-02 -3.399125337600708008e-01
3.684387803077697754e-01 -5.177520215511322021e-03 -2.062754184007644653e-01
6.933660060167312622e-02 -5.467185378074645996e-02 -3.306085467338562012e-01
2.189986854791641235e-01 -9.030680358409881592e-02 -4.838471412658691406e-01
1.511665582656860352e-01 -1.158659309148788452e-01 -7.674668729305267334e-02
6.015212088823318481e-02 -1.534098386764526367e-01 -3.992175459861755371e-01
8.657922595739364624e-02 -1.047940105199813843e-01 -4.602972567081451416e-01
9.494184702634811401e-02 -5.201840400695800781e-02 -3.543312549591064453e-01
8.859574794769287109e-02 -3.113754093647003174e-02 -1.674228608608245850e-01
-4.426591098308563232e-02 -9.011830389499664307e-02 -1.951352655887603760e-01
-2.307236194610595703e-02 -1.485323309898376465e-01 -3.462296724319458008e-01
2.393993735313415527e-01 -2.248148620128631592e-02 -3.538412451744079590e-01
8.951142430305480957e-03 -1.532147675752639771e-01 -1.961476057767868042e-01
2.729944884777069092e-01 -2.866826206445693970e-02 -3.869640827178955078e-01
1.112692579627037048e-01 -1.564804315567016602e-01 -3.632649183273315430e-01
-3.772096335887908936e-02 -9.014235436916351318e-02 -2.555083930492401123e-01
4.653234779834747314e-02 -5.531644076108932495e-02 -2.927284836769104004e-01
2.459619641304016113e-01 -1.998983323574066162e-03 -1.994269341230392456e-01
2.956724762916564941e-01 -2.024036645889282227e-02 -3.588701486587524414e-01
4.165004193782806396e-02 -4.657177627086639404e-02 -1.560666114091873169e-01
1.412137299776077271e-01 -2.336346730589866638e-02 -8.017848432064056396e-02
3.091803789138793945e-01 -8.414365351200103760e-03 -9.450869262218475342e-02
3.774136304855346680e-01 -7.809542119503021240e-03 -2.325128316879272461e-01
2.319584935903549194e-01 -1.274428367614746094e-01 -2.043296396732330322e-01
1.588203758001327515e-01 -1.498390734195709229e-01 -3.714664578437805176e-01
9.681499749422073364e-02 -1.557485163211822510e-01 -3.825445771217346191e-01
1.345357447862625122e-01 -1.327764391899108887e-01 -1.260474622249603271e-01
4.084193408489227295e-01 -4.869280010461807251e-02 -2.566938400268554688e-01
-5.895008146762847900e-02 -1.040307730436325073e-01 -2.098506838083267212e-01
-3.286629915237426758e-03 -6.685065478086471558e-02 -2.187299877405166626e-01
3.886959552764892578e-01 -1.306127756834030151e-02 -1.926760971546173096e-01
3.698830008506774902e-01 -6.902705132961273193e-02 -3.853124976158142090e-01
3.259817957878112793e-01 -3.423193842172622681e-02 -3.972620964050292969e-01
-1.209874451160430908e-02 -1.369369328022003174e-01 -1.338377296924591064e-01
1.714079678058624268e-01 -1.354157179594039917e-02 -2.182973772287368774e-01
3.746533095836639404e-01 -4.298229888081550598e-02 -3.785572052001953125e-01
3.695716261863708496e-01 -7.774036377668380737e-02 -2.255445271730422974e-01
1.426578164100646973e-01 -4.155446588993072510e-02 -3.639223575592041016e-01
2.097171992063522339e-01 -7.469605654478073120e-02 -4.733581542968750000e-01
2.416595816612243652e-01 -1.072833612561225891e-01 -4.689939022064208984e-01
1.468080878257751465e-01 -4.475795105099678040e-02 -3.796862959861755371e-01
1.727805435657501221e-01 -1.424245983362197876e-01 -2.167346030473709106e-01
1.542524397373199463e-01 -5.899227783083915710e-02 -4.270714819431304932e-01
1.638833433389663696e-01 -1.496621668338775635e-01 -2.810613214969635010e-01
-2.815963327884674072e-02 -8.307106792926788330e-02 -1.356713026762008667e-01
3.607895076274871826e-01 -2.244921773672103882e-02 -3.458310961723327637e-01
-1.539398729801177979e-02 -1.398423761129379272e-01 -1.460457146167755127e-01
2.091662287712097168e-01 -1.383379548788070679e-01 -2.501982450485229492e-01
1.119882762432098389e-01 -6.431898474693298340e-02 -4.112232327461242676e-01
2.905855476856231689e-01 -7.219451665878295898e-02 -4.605898261070251465e-01
1.828067749738693237e-01 -1.287483125925064087e-01 -4.584434628486633301e-01
2.545328438282012939e-02 -5.505244433879852295e-02 -2.275899797677993774e-01
-7.713809609413146973e-03 -1.433718651533126831e-01 -1.541924476623535156e-01
3.283379077911376953e-01 -4.859119653701782227e-04 -2.224887162446975708e-01
2.912323176860809326e-02 -5.484053492546081543e-02 -2.409155964851379395e-01
1.658719033002853394e-01 -1.502485424280166626e-01 -3.374876379966735840e-01
3.142409622669219971e-01 -1.096704006195068359e-01 -3.386787474155426025e-01
3.938814699649810791e-01 -4.475308954715728760e-02 -3.492423295974731445e-01
2.954007387161254883e-01 -8.807507157325744629e-02 -1.171928793191909790e-01
1.319181770086288452e-01 -2.503558248281478882e-02 -2.549983859062194824e-01
4.118295013904571533e-02 -1.264325082302093506e-01 -8.430384099483489990e-02
2.735405266284942627e-01 -1.243063658475875854e-01 -3.333999812602996826e-01
1.996346563100814819e-01 -1.055990904569625854e-02 -9.923340380191802979e-02
4.328006505966186523e-02 -1.549931466579437256e-01 -3.861267864704132080e-01
3.596464395523071289e-01 -7.672978192567825317e-02 -3.916029632091522217e-01
3.699153065681457520e-01 -7.692314684391021729e-03 -2.567371726036071777e-01
5.597998201847076416e-02 -4.614117369055747986e-02 -2.508580684661865234e-01
6.720913946628570557e-02 -1.602751910686492920e-01 -3.466435968875885010e-01
2.055267095565795898e-01 -1.061251163482666016e-01 -4.829861819744110107e-01
1.025841832160949707e-01 -2.723660320043563843e-02 -1.618354618549346924e-01
3.293232321739196777e-01 -2.318712696433067322e-02 -3.648819625377655029e-01
1.295837461948394775e-01 -1.526961177587509155e-01 -3.841673433780670166e-01
2.468753755092620850e-01 -1.145674958825111389e-01 -1.547904312610626221e-01
1.953830718994140625e-01 -1.275930106639862061e-01 -4.551355242729187012e-01
3.433989882469177246e-01 -8.886501193046569824e-02 -2.084937095642089844e-01
3.769288659095764160e-01 -4.343058913946151733e-02 -1.376719772815704346e-01
2.677341997623443604e-01 -1.169610843062400818e-01 -2.026325166225433350e-01
5.905622243881225586e-02 -1.449473649263381958e-01 -4.265645146369934082e-01
4.936931282281875610e-02 -9.049843996763229370e-02 -2.982178330421447754e-02
2.077651768922805786e-01 -4.646600782871246338e-02 -4.213213920593261719e-01
2.429061830043792725e-01 -1.283565461635589600e-01 -4.019028842449188232e-01
-4.749687016010284424e-02 -9.855704009532928467e-02 -2.614056169986724854e-01
2.049535959959030151e-01 -1.600674539804458618e-02 -2.950604856014251709e-01
3.037453293800354004e-01 -2.474613487720489502e-02 -5.600059032440185547e-02
2.743826508522033691e-01 7.952004671096801758e-05 -1.575528085231781006e-01
2.295157313346862793e-01 -1.141788810491561890e-01 -4.650647938251495361e-01
3.212627470493316650e-01 -1.185432076454162598e-03 -2.388196438550949097e-01
2.214782238006591797e-01 -1.085770130157470703e-02 -7.953500747680664062e-02
1.429563760757446289e-02 -1.098264306783676147e-01 -6.254614889621734619e-02
1.436501294374465942e-01 -8.291918784379959106e-02 -4.658877253532409668e-01
8.783122897148132324e-02 -9.174083173274993896e-02 -2.021990716457366943e-02
4.596012830734252930e-02 -1.618584990501403809e-01 -2.939904034137725830e-01
-7.628053426742553711e-04 -6.729544699192047119e-02 -1.254027783870697021e-01
3.756616413593292236e-01 -7.753016799688339233e-02 -3.390954732894897461e-01
1.305093914270401001e-01 -1.555259525775909424e-01 -2.987190485000610352e-01
1.240934878587722778e-01 -1.428756862878799438e-01 -1.671240329742431641e-01
1.201311126351356506e-01 -2.276091277599334717e-02 -1.707286536693572998e-01
6.357984989881515503e-02 -3.887133300304412842e-02 -1.745128184556961060e-01
2.498027086257934570e-01 -1.162377819418907166e-01 -1.671706140041351318e-01
1.127192527055740356e-01 -1.480729281902313232e-01 -1.896177530288696289e-01
1.638035625219345093e-01 -4.780012741684913635e-02 -4.023784399032592773e-01
3.560189008712768555e-01 -8.677312731742858887e-02 -2.367353886365890503e-01
2.789812088012695312e-01 -1.187662333250045776e-01 -3.887416720390319824e-01
3.395496308803558350e-02 -7.434449344873428345e-02 -4.373827576637268066e-02
1.637502461671829224e-01 -1.066645532846450806e-01 -5.841746926307678223e-02
1.489918828010559082e-01 -2.028899267315864563e-02 -9.038701653480529785e-02
3.240763843059539795e-01 -1.004694700241088867e-01 -2.289969772100448608e-01
1.677991896867752075e-01 -1.420183479785919189e-01 -2.063506543636322021e-01
4.025734663009643555e-01 -4.723775759339332581e-02 -2.112740278244018555e-01
3.118768930435180664e-01 -7.902929186820983887e-02 -4.482941031455993652e-01
1.081264019012451172e-01 -1.580754369497299194e-01 -2.934553921222686768e-01
3.370894193649291992e-01 -7.764846086502075195e-04 -1.782977581024169922e-01
2.855681777000427246e-01 -1.079591959714889526e-01 -1.837382763624191284e-01
1.675856411457061768e-01 -1.429451704025268555e-01 -4.161301851272583008e-01
1.551603823900222778e-01 -1.518819332122802734e-01 -2.998486459255218506e-01
8.145787566900253296e-02 -4.068003222346305847e-02 -7.398830354213714600e-02
-1.203623414039611816e-02 -1.557770669460296631e-01 -2.342576086521148682e-01
3.358793258666992188e-01 -1.009867712855339050e-01 -3.165014982223510742e-01
3.093857169151306152e-01 -2.311467379331588745e-02 -3.689001798629760742e-01
1.956229358911514282e-01 -9.879566729068756104e-03 -1.117832809686660767e-01
2.148192822933197021e-01 -1.269900798797607422e-01 -1.745379567146301270e-01
3.514705896377563477e-01 -2.282217144966125488e-03 -2.162212729454040527e-01
2.072337567806243896e-01 -6.317012012004852295e-02 -1.014071702957153320e-02
1.670353263616561890e-01 -2.020688727498054504e-02 -6.835974752902984619e-02
1.315604746341705322e-01 -1.508256793022155762e-01 -3.975079059600830078e-01
5.112190544605255127e-02 -1.608650535345077515e-01 -2.672694623470306396e-01
2.758438587188720703e-01 -1.204703003168106079e-01 -2.528185248374938965e-01
1.259026527404785156e-01 -1.487828493118286133e-01 -4.135113060474395752e-01
6.393745541572570801e-03 -6.737267225980758667e-02 -1.018074601888656616e-01
-5.138590931892395020e-03 -6.644316017627716064e-02 -1.903056800365447998e-01
-1.631340384483337402e-02 -8.288718760013580322e-02 -1.014149039983749390e-01
6.881254166364669800e-02 -1.409097760915756226e-01 -1.323340237140655518e-01
2.658526897430419922e-01 -9.117797017097473145e-03 -2.957733273506164551e-01
1.359229087829589844e-01 -1.549464762210845947e-01 -3.336394727230072021e-01
2.935595512390136719e-01 -1.154795885086059570e-01 -2.632484436035156250e-01
1.113529801368713379e-01 -1.503126621246337891e-01 -4.115374088287353516e-01
1.290189772844314575e-01 -4.972498118877410889e-02 -3.816527426242828369e-01
8.312992006540298462e-02 -7.258634269237518311e-02 -4.073553085327148438e-01
-3.605060279369354248e-02 -1.460165381431579590e-01 -1.962206363677978516e-01
2.864691615104675293e-02 -1.355706155300140381e-01 -4.241524934768676758e-01
5.680226534605026245e-02 -7.895272225141525269e-02 -2.463100850582122803e-02
5.878742039203643799e-02 -4.286733642220497131e-02 -1.129427403211593628e-01
2.142900973558425903e-01 -5.514077842235565186e-03 -1.420943886041641235e-01
2.720326781272888184e-01 -5.137781426310539246e-02 -3.274545073509216309e-02
-3.772425651550292969e-02 -9.519735723733901978e-02 -1.249179691076278687e-01
5.358554422855377197e-02 -1.560862064361572266e-01 -2.136782109737396240e-01
2.831667661666870117e-01 -4.722762852907180786e-02 -4.339301586151123047e-01
2.475651353597640991e-01 -4.133239388465881348e-03 -1.142529696226119995e-01
5.859443545341491699e-02 -5.582996457815170288e-02 -3.185974955558776855e-01
3.355555534362792969e-01 -5.859810858964920044e-02 -9.767721593379974365e-02
2.662335336208343506e-02 -1.305168420076370239e-01 -9.791332483291625977e-02
-7.302761077880859375e-04 -1.394610106945037842e-01 -1.354080289602279663e-01
3.779053688049316406e-01 -1.967733353376388550e-02 -3.183764219284057617e-01
3.892451226711273193e-01 -5.776631087064743042e-02 -1.968633830547332764e-01
1.578073203563690186e-01 -1.632497459650039673e-02 -2.203572839498519897e-01
2.469480186700820923e-01 -9.427111595869064331e-02 -4.774754047393798828e-01
-3.174810111522674561e-02 -1.057317107915878296e-01 -3.314282894134521484e-01
6.327766180038452148e-02 -4.941956698894500732e-02 -2.925184667110443115e-01
1.032984852790832520e-01 -8.595623821020126343e-02 -1.361346244812011719e-02
1.359756290912628174e-02 -9.194521605968475342e-02 -3.756328225135803223e-01
1.460085660219192505e-01 -1.494566202163696289e-01 -2.381536811590194702e-01
1.775374859571456909e-01 -3.129778429865837097e-02 -3.519947528839111328e-01
2.936943769454956055e-01 -1.602730154991149902e-02 -3.410099744796752930e-01
2.973022460937500000e-01 -3.345683217048645020e-04 -1.436890065670013428e-01
2.205218970775604248e-01 -9.286435693502426147e-02 -5.866071581840515137e-02
1.823962479829788208e-01 -1.456019282341003418e-01 -2.704850733280181885e-01
2.328837364912033081e-01 -1.181408390402793884e-01 -1.530126631259918213e-01
2.845333814620971680e-01 -1.200128346681594849e-01 -2.869469821453094482e-01
2.358793914318084717e-01 -5.474979802966117859e-02 -1.611356437206268311e-02
3.250223398208618164e-01 -1.043322011828422546e-01 -2.730154693126678467e-01
1.414653509855270386e-01 -3.822002187371253967e-02 -3.487749993801116943e-01
2.666822373867034912e-01 -7.449589669704437256e-02 -5.582091212272644043e-02
8.731245994567871094e-03 -6.114737316966056824e-02 -2.158157080411911011e-01
1.829256117343902588e-01 -4.289307072758674622e-02 -3.990294337272644043e-01
-1.302985846996307373e-02 -1.158897280693054199e-01 -3.795644640922546387e-01
3.758978843688964844e-02 -7.893348485231399536e-02 -3.740026652812957764e-01
1.682093888521194458e-01 -1.053975075483322144e-01 -4.855966567993164062e-01
1.339177191257476807e-01 -1.061086729168891907e-01 -4.594285786151885986e-02
2.064786553382873535e-01 -6.148010492324829102e-03 -1.771278977394104004e-01
-2.313300967216491699e-03 -7.779002189636230469e-02 -3.009436130523681641e-01
2.350770831108093262e-01 -4.495630785822868347e-02 -4.258643984794616699e-01
3.158181011676788330e-01 -4.283078014850616455e-03 -2.721242904663085938e-01
4.856958985328674316e-03 -1.597230136394500732e-01 -2.670988738536834717e-01
-1.254589855670928955e-02 -8.341469615697860718e-02 -3.016294538974761963e-01
-1.187598705291748047e-02 -7.013086974620819092e-02 -2.006761431694030762e-01
2.589252591133117676e-01 -1.925110816955566406e-03 -2.217376828193664551e-01
2.155533879995346069e-01 -5.905038863420486450e-02 -4.514737129211425781e-01
1.973055750131607056e-01 -1.334924697875976562e-01 -4.346391260623931885e-01
2.466419041156768799e-01 -3.336437046527862549e-03 -2.267975956201553345e-01
2.645279169082641602e-01 -9.807191789150238037e-02 -1.118590682744979858e-01
-1.246905326843261719e-02 -1.038333326578140259e-01 -3.626135885715484619e-01
2.426528632640838623e-01 -1.041151583194732666e-01 -1.083643436431884766e-01
6.771493703126907349e-02 -1.566349864006042480e-01 -2.240433394908905029e-01
-4.394082725048065186e-02 -9.077301621437072754e-02 -1.726330667734146118e-01
2.824648916721343994e-01 -1.066284626722335815e-02 -3.116322755813598633e-01
2.327206432819366455e-01 -3.965281322598457336e-02 -4.113256037235260010e-01
-1.946672797203063965e-02 -1.464356780052185059e-01 -3.584027588367462158e-01
2.038332223892211914e-01 -8.958190679550170898e-03 -2.308774590492248535e-01
6.333737075328826904e-02 -1.052811592817306519e-01 -4.460057020187377930e-01
9.203417599201202393e-02 -4.532244428992271423e-02 -4.302020370960235596e-02
1.931980699300765991e-01 -1.399146318435668945e-01 -2.304866909980773926e-01
2.197191417217254639e-01 -3.365060314536094666e-02 -1.798178255558013916e-02
1.603171974420547485e-01 -1.513264477252960205e-01 -3.170600235462188721e-01
2.824039161205291748e-01 -2.634255960583686829e-02 -3.802686631679534912e-01
3.441984057426452637e-01 -2.598031237721443176e-02 -3.675696849822998047e-01
3.514127731323242188e-01 -7.787749171257019043e-03 -2.824332714080810547e-01
3.050298094749450684e-01 -1.068517118692398071e-01 -4.001615941524505615e-01
2.303993552923202515e-01 -3.144226968288421631e-03 -1.615138351917266846e-01
9.160465002059936523e-02 -7.830978929996490479e-02 -4.275766015052795410e-01
3.623957633972167969e-01 -8.072413504123687744e-03 -1.516336798667907715e-01
3.262326121330261230e-01 -6.096437573432922363e-03 -1.162143647670745850e-01
1.892191171646118164e-02 -1.546813398599624634e-01 -2.027122825384140015e-01
2.477413415908813477e-01 -1.197015047073364258e-01 -4.366052448749542236e-01
4.070559144020080566e-02 -6.843442469835281372e-02 -3.437712192535400391e-01
2.326756119728088379e-01 -6.778824329376220703e-02 -4.670367836952209473e-01
-3.029924631118774414e-02 -1.480760425329208374e-01 -3.342431485652923584e-01
2.185606658458709717e-01 -1.053934395313262939e-01 -4.803249537944793701e-01
2.116502821445465088e-02 -5.480810254812240601e-02 -1.944274455308914185e-01
3.685659170150756836e-02 -1.609835475683212280e-01 -3.332862854003906250e-01
1.491754204034805298e-01 -1.204505413770675659e-01 -4.777751564979553223e-01
9.926539659500122070e-02 -1.519003063440322876e-01 -2.059563696384429932e-01
2.341233789920806885e-01 -1.356099247932434082e-01 -3.342088758945465088e-01
3.203706741333007812e-01 -4.819340258836746216e-02 -4.260898232460021973e-01
2.885134816169738770e-01 -7.465533912181854248e-03 -2.932338714599609375e-01
1.205457299947738647e-01 -3.227939829230308533e-02 -2.896894216537475586e-01
5.921556800603866577e-02 -1.455107331275939941e-01 -1.508916765451431274e-01
2.815841138362884521e-02 -5.266386270523071289e-02 -1.367083787918090820e-01
3.494626283645629883e-01 -4.518134891986846924e-02 -4.053182005882263184e-01
2.774873375892639160e-02 -1.599527299404144287e-01 -3.413651287555694580e-01
1.424189358949661255e-01 -1.336810886859893799e-01 -4.591311216354370117e-01
6.247331947088241577e-02 -1.130334585905075073e-01 -5.252590775489807129e-02
-1.177029311656951904e-02 -7.632058113813400269e-02 -1.118048876523971558e-01
1.257106214761734009e-01 -1.275866627693176270e-01 -1.016276329755783081e-01
8.302873373031616211e-02 -1.566710770130157471e-01 -2.345409691333770752e-01
2.994210124015808105e-01 -6.417921930551528931e-02 -4.523479938507080078e-01
-3.336963057518005371e-02 -8.375883102416992188e-02 -2.248786985874176025e-01
1.094687134027481079e-01 -1.435810178518295288e-01 -4.380500316619873047e-01
1.889775395393371582e-01 -1.152131706476211548e-02 -2.334057539701461792e-01
2.125899791717529297e-01 -6.266951560974121094e-03 -1.305650472640991211e-01
3.097879886627197266e-01 -9.137098491191864014e-02 -1.495357453823089600e-01
2.509007453918457031e-01 -2.466788142919540405e-02 -3.674778044223785400e-01
8.865982294082641602e-03 -1.430239975452423096e-01 -1.445097029209136963e-01
1.574594974517822266e-01 -2.639550343155860901e-02 -3.063643872737884521e-01
7.281760871410369873e-02 -1.483635902404785156e-01 -1.689958870410919189e-01
-5.315156280994415283e-02 -1.054760441184043884e-01 -1.534317731857299805e-01
2.736696600914001465e-01 -1.119151934981346130e-01 -4.319863021373748779e-01
7.249817252159118652e-02 -1.457879543304443359e-01 -1.554127037525177002e-01
3.675487637519836426e-02 -1.514486372470855713e-01 -3.978549838066101074e-01
1.230658739805221558e-01 -6.803658604621887207e-02 -4.285668730735778809e-01
4.906474798917770386e-02 -5.112627893686294556e-02 -2.715145945549011230e-01
2.846402525901794434e-01 -1.204452365636825562e-01 -3.422841727733612061e-01
-6.028428673744201660e-03 -8.467365056276321411e-02 -3.214060962200164795e-01
3.621732592582702637e-01 -5.468852445483207703e-02 -4.025353789329528809e-01
2.254076600074768066e-01 -1.377824097871780396e-01 -3.124012649059295654e-01
8.188155293464660645e-02 -3.543625771999359131e-02 -2.242663949728012085e-01
3.955355882644653320e-01 -2.095557376742362976e-02 -1.808592081069946289e-01
5.573712289333343506e-02 -1.617003977298736572e-01 -3.168784379959106445e-01
-1.110258698463439941e-02 -1.528984755277633667e-01 -3.472772240638732910e-01
1.659446507692337036e-01 -1.818538084626197815e-02 -2.593175470829010010e-01
1.937242001295089722e-01 -1.553664356470108032e-02 -2.789422273635864258e-01
4.127638041973114014e-02 -6.373126804828643799e-02 -3.254052102565765381e-01
3.343835771083831787e-01 -4.931990057229995728e-02 -4.206383228302001953e-01
3.464976847171783447e-01 -5.705574899911880493e-02 -1.096131056547164917e-01
2.923116981983184814e-01 -1.077955961227416992e-01 -4.197894036769866943e-01
7.892116904258728027e-02 -3.419503569602966309e-02 -1.821064949035644531e-01
1.192145347595214844e-01 -1.134738922119140625e-01 -5.840782821178436279e-02
2.031611949205398560e-01 -1.425460129976272583e-01 -2.959776818752288818e-01
5.502904206514358521e-02 -1.615459620952606201e-01 -2.867797017097473145e-01
-3.102363646030426025e-02 -9.829172492027282715e-02 -3.128258883953094482e-01
3.407677412033081055e-01 -9.717932343482971191e-02 -2.678913176059722900e-01
-4.461757838726043701e-02 -9.301380068063735962e-02 -1.589642763137817383e-01
1.213291585445404053e-01 -2.302331104874610901e-02 -1.342451572418212891e-01
7.511675357818603516e-02 -1.229434236884117126e-01 -7.423132658004760742e-02
3.558754324913024902e-01 -6.488905102014541626e-02 -4.106369018554687500e-01
-1.357579231262207031e-02 -7.084774225950241089e-02 -1.690659523010253906e-01
3.357545137405395508e-01 -1.001839190721511841e-01 -2.800418436527252197e-01
3.430426418781280518e-01 -5.032124370336532593e-02 -9.509095549583435059e-02
9.777122735977172852e-02 -1.578766107559204102e-01 -3.595753908157348633e-01
2.044471651315689087e-01 -3.220005705952644348e-02 -3.746650516986846924e-01
6.384457647800445557e-02 -4.165735468268394470e-02 -2.318911105394363403e-01
-4.035784304141998291e-02 -1.501959860324859619e-01 -2.424770742654800415e-01
-2.960895001888275146e-02 -1.274459064006805420e-01 -3.619743883609771729e-01
1.037680208683013916e-01 -2.701812982559204102e-02 -1.758242398500442505e-01
1.720980107784271240e-01 -1.117477789521217346e-01 -7.617434859275817871e-02
2.890709638595581055e-01 -1.133019402623176575e-01 -4.005292654037475586e-01
2.166792750358581543e-01 -7.722415030002593994e-02 -2.808091044425964355e-02
2.310884445905685425e-01 -3.610059618949890137e-03 -2.010047286748886108e-01
2.492411434650421143e-01 -1.307923346757888794e-01 -2.885338962078094482e-01
1.084928214550018311e-02 -6.598223745822906494e-02 -2.697357833385467529e-01
1.562826186418533325e-01 -1.447793841361999512e-01 -2.117171585559844971e-01
5.926518142223358154e-02 -1.370413899421691895e-01 -1.159754246473312378e-01
2.806070446968078613e-01 -1.148418039083480835e-01 -2.165749371051788330e-01
1.151398569345474243e-01 -2.673292905092239380e-02 -2.297300547361373901e-01
2.556069195270538330e-01 -1.256646066904067993e-01 -2.430458068847656250e-01
5.382266640663146973e-02 -1.174462586641311646e-01 -4.464774727821350098e-01
3.073811829090118408e-01 -1.117179542779922485e-01 -2.812966108322143555e-01
3.536924719810485840e-01 -6.467369943857192993e-02 -1.368837952613830566e-01
1.325797736644744873e-01 -1.522129029035568237e-01 -2.461400181055068970e-01
3.167520165443420410e-01 -9.218648076057434082e-02 -1.649979650974273682e-01
3.063255548477172852e-01 -8.297535032033920288e-02 -1.160647869110107422e-01
1.538390964269638062e-01 -1.538082212209701538e-02 -1.454458534717559814e-01
2.231967002153396606e-01 -1.511336863040924072e-02 -3.059864044189453125e-01
-1.407708227634429932e-02 -1.326113045215606689e-01 -1.225663051009178162e-01
-3.630526363849639893e-02 -1.354890465736389160e-01 -3.483457565307617188e-01
2.580767273902893066e-01 -1.286164373159408569e-01 -2.967653572559356689e-01
3.883936703205108643e-01 -2.461516112089157104e-02 -3.210366368293762207e-01
3.262198567390441895e-01 -9.173411875963211060e-02 -1.817360222339630127e-01
4.003023505210876465e-01 -2.790100499987602234e-02 -3.060968518257141113e-01
8.861796557903289795e-02 -1.544956862926483154e-01 -2.186253517866134644e-01
1.520106047391891479e-01 -1.519800424575805664e-01 -2.879635393619537354e-01
2.720409631729125977e-02 -1.582930088043212891e-01 -2.313743829727172852e-01
1.046692952513694763e-01 -1.553746163845062256e-01 -2.423994392156600952e-01
1.984174549579620361e-01 -5.826125293970108032e-02 -4.453324377536773682e-01
3.310406804084777832e-01 -8.194252848625183105e-02 -1.502872258424758911e-01
5.288392305374145508e-02 -6.023016571998596191e-02 -3.294776082038879395e-01
4.243737459182739258e-02 -1.153236478567123413e-01 -6.003680825233459473e-02
9.219624847173690796e-02 -1.544252336025238037e-01 -3.938518464565277100e-01
1.839278787374496460e-01 -1.594296097755432129e-02 -7.664743065834045410e-02
3.872035741806030273e-01 -5.486279726028442383e-02 -1.818649321794509888e-01
9.583020955324172974e-02 -3.219549357891082764e-02 -2.336925864219665527e-01
3.288638889789581299e-01 -1.040177419781684875e-01 -3.048818111419677734e-01
4.009687304496765137e-01 -1.901936903595924377e-02 -2.149687111377716064e-01
1.878410577774047852e-03 -1.002464145421981812e-01 -6.355975568294525146e-02
9.747708588838577271e-02 -1.192797869443893433e-01 -6.777158379554748535e-02
1.966576725244522095e-01 -1.328496485948562622e-01 -1.841218322515487671e-01
2.802378833293914795e-01 -7.898231595754623413e-02 -7.650421559810638428e-02
1.452208310365676880e-01 -8.964101970195770264e-02 -2.028913795948028564e-02
8.495739102363586426e-02 -1.602454185485839844e-01 -3.278090059757232666e-01
3.983898758888244629e-01 -6.024340167641639709e-02 -3.135370016098022461e-01
3.350317776203155518e-01 -8.973753452301025391e-02 -1.916274130344390869e-01
-3.289093077182769775e-02 -1.317099034786224365e-01 -1.378752887248992920e-01
-1.779794692993164062e-03 -7.043516635894775391e-02 -1.097744554281234741e-01
1.668762564659118652e-01 -6.545853614807128906e-02 -4.476116597652435303e-01
1.400247365236282349e-01 -1.284216344356536865e-01 -1.121328324079513550e-01
2.496438622474670410e-01 -1.048873960971832275e-01 -1.185408979654312134e-01
2.050939798355102539e-01 -1.423139870166778564e-01 -3.461468815803527832e-01
1.353227794170379639e-01 -1.530715674161911011e-01 -3.730395436286926270e-01
-5.407826602458953857e-02 -1.433448791503906250e-01 -2.783342599868774414e-01
3.793982267379760742e-01 -7.684629410505294800e-02 -2.743209302425384521e-01
2.785085439682006836e-01 -1.018784940242767334e-03 -2.278422713279724121e-01
7.865801453590393066e-03 -6.946700066328048706e-02 -8.986066281795501709e-02
2.384634763002395630e-01 -1.333419829607009888e-01 -3.645492792129516602e-01
3.900788724422454834e-02 -1.614074707031250000e-01 -2.757984399795532227e-01
-2.210170030593872070e-02 -7.608173042535781860e-02 -2.106302231550216675e-01
2.514122724533081055e-01 -1.309586614370346069e-01 -3.318740427494049072e-01
2.310616075992584229e-01 -1.682940870523452759e-02 -5.149851739406585693e-02
1.172848343849182129e-01 -1.025013849139213562e-01 -3.532093763351440430e-02
2.519684433937072754e-01 -1.246222853660583496e-01 -2.242866307497024536e-01
1.253542900085449219e-01 -1.562162637710571289e-01 -3.375364542007446289e-01
2.329264581203460693e-02 -5.388925224542617798e-02 -1.526983827352523804e-01
-4.640683531761169434e-03 -1.505590379238128662e-01 -3.658597767353057861e-01
3.349062204360961914e-01 -1.583918929100036621e-03 -1.592612862586975098e-01
1.887095421552658081e-01 -1.998744532465934753e-02 -3.036825954914093018e-01
1.024996787309646606e-01 -1.253998875617980957e-01 -8.592735230922698975e-02
2.829425036907196045e-01 -1.043338179588317871e-01 -1.609528362751007080e-01
2.983541190624237061e-01 6.727576255798339844e-04 -1.629049032926559448e-01
9.615499526262283325e-02 -1.311039924621582031e-01 -1.024363636970520020e-01
3.131304085254669189e-01 -1.964339986443519592e-02 -3.557331562042236328e-01
1.201957985758781433e-01 -1.309641897678375244e-01 -1.111874282360076904e-01
1.676913201808929443e-01 -1.459199190139770508e-01 -2.398072481155395508e-01
2.653681635856628418e-01 -5.898185074329376221e-03 -2.715800106525421143e-01
3.500997424125671387e-01 -1.640865951776504517e-02 -1.068492531776428223e-01
2.101326584815979004e-01 -1.926219463348388672e-02 -4.780897498130798340e-02
-6.477506458759307861e-02 -1.149321049451828003e-01 -2.406556457281112671e-01
9.484170377254486084e-02 -1.590404808521270752e-01 -2.836053669452667236e-01
1.765731722116470337e-01 -1.086836308240890503e-02 -1.724332273006439209e-01
-1.556229591369628906e-02 -1.333876252174377441e-01 -3.817244768142700195e-01
2.059741169214248657e-01 -1.009542569518089294e-01 -6.827931106090545654e-02
1.804131567478179932e-01 -1.419545114040374756e-01 -2.252492904663085938e-01
3.842575252056121826e-01 -6.860870867967605591e-02 -3.476415276527404785e-01
6.382502615451812744e-02 -4.518747329711914062e-02 -2.647700905799865723e-01
-2.597607672214508057e-02 -9.832574427127838135e-02 -3.244984149932861328e-01
-2.391980588436126709e-02 -8.227935433387756348e-02 -1.238582208752632141e-01
2.951572239398956299e-01 -3.655336797237396240e-03 -1.123134642839431763e-01
1.520673632621765137e-01 -2.205503731966018677e-02 -7.401128113269805908e-02
3.740090131759643555e-02 -5.051054805517196655e-02 -2.280999869108200073e-01
3.504500389099121094e-01 -8.124903589487075806e-02 -3.994101881980895996e-01
-2.120195329189300537e-02 -1.531417071819305420e-01 -2.224015146493911743e-01
2.046522200107574463e-01 -1.833701878786087036e-02 -3.095068037509918213e-01
3.100858330726623535e-01 -3.962002694606781006e-03 -1.167783588171005249e-01
7.795036584138870239e-02 -1.594833135604858398e-01 -2.654412686824798584e-01
3.627036809921264648e-01 -6.235661357641220093e-02 -1.471708416938781738e-01
1.923916637897491455e-01 -1.433848738670349121e-01 -3.760908246040344238e-01
5.990938097238540649e-02 -1.568619459867477417e-01 -3.802273869514465332e-01
1.914113759994506836e-02 -6.362146139144897461e-02 -2.777433395385742188e-01
4.948425292968750000e-02 -1.355372667312622070e-01 -4.375456273555755615e-01
4.746221005916595459e-02 -5.016010254621505737e-02 -2.598698139190673828e-01
3.791548013687133789e-01 -2.624065801501274109e-02 -3.395508527755737305e-01
2.027055472135543823e-01 -5.305088311433792114e-02 -5.663454532623291016e-03
-4.267677664756774902e-03 -1.508275270462036133e-01 -1.885170936584472656e-01
3.261529803276062012e-01 -1.014944463968276978e-01 -2.451354563236236572e-01
3.091309964656829834e-02 -5.417070537805557251e-02 -1.091487109661102295e-01
1.441839337348937988e-01 -1.719279587268829346e-02 -1.677662730216979980e-01
1.202115267515182495e-01 -2.742271125316619873e-02 -2.508489191532135010e-01
-9.421542286872863770e-03 -1.582521498203277588e-01 -2.704096436500549316e-01
2.010401338338851929e-01 -1.400552392005920410e-01 -3.918468356132507324e-01
3.752168118953704834e-01 -7.559648901224136353e-02 -3.527283072471618652e-01
1.461340785026550293e-01 -1.452828198671340942e-01 -2.028203606605529785e-01
2.271011024713516235e-01 -1.366344541311264038e-01 -3.583909273147583008e-01
7.197997719049453735e-02 -4.218812659382820129e-02 -8.328932523727416992e-02
2.954078316688537598e-01 9.156167507171630859e-04 -1.954140663146972656e-01
8.806884288787841797e-03 -8.783084154129028320e-02 -5.773732066154479980e-02
1.244503259658813477e-02 -9.830182790756225586e-02 -3.875266909599304199e-01
3.813731670379638672e-01 -6.827101111412048340e-02 -2.148927450180053711e-01
1.883911937475204468e-01 -7.737053185701370239e-02 -4.729550778865814209e-01
1.496311426162719727e-01 -5.709571391344070435e-02 -2.180203795433044434e-03
2.537280619144439697e-01 -1.232901066541671753e-01 -4.131138622760772705e-01
1.061450913548469543e-01 -4.084949195384979248e-02 -4.264304041862487793e-02
-3.554970026016235352e-02 -9.086834639310836792e-02 -2.688563168048858643e-01
2.990283966064453125e-01 -1.371990144252777100e-02 -3.305484354496002197e-01
1.400801688432693481e-01 -1.921791955828666687e-02 -2.059171050786972046e-01
6.143129616975784302e-02 -1.594780385494232178e-01 -3.582476675510406494e-01
7.562198489904403687e-02 -3.869626671075820923e-02 -2.401698827743530273e-01
9.138286113739013672e-04 -7.629862427711486816e-02 -8.338747918605804443e-02
1.135955005884170532e-01 -4.915685579180717468e-02 -3.644191622734069824e-01
8.554011583328247070e-04 -1.489667296409606934e-01 -1.751220524311065674e-01
1.947611421346664429e-01 -3.950176388025283813e-02 -1.082824170589447021e-02
3.786813020706176758e-01 -6.145668774843215942e-02 -3.770305514335632324e-01
2.568337321281433105e-02 -7.280898839235305786e-02 -3.360368013381958008e-01
3.192595541477203369e-01 -9.289838373661041260e-03 -3.062371611595153809e-01
2.410839647054672241e-01 -2.878725528717041016e-03 -1.373369097709655762e-01
1.663850843906402588e-01 -2.563139051198959351e-02 -4.566146433353424072e-02
2.329902648925781250e-01 -8.045524358749389648e-03 -9.097404778003692627e-02
6.651347875595092773e-02 -3.803725913166999817e-02 -1.511285156011581421e-01
2.566871643066406250e-01 -5.710627883672714233e-02 -4.524229764938354492e-01
1.039936169981956482e-01 -9.098205715417861938e-02 -4.566633999347686768e-01
2.164980769157409668e-01 -1.267816275358200073e-01 -4.429492354393005371e-01
-3.317324817180633545e-02 -8.375111967325210571e-02 -1.572580933570861816e-01
3.268263638019561768e-01 -9.988949447870254517e-02 -3.832208514213562012e-01
1.517157703638076782e-01 -8.865122497081756592e-02 -4.751680791378021240e-01
-5.496510863304138184e-02 -1.293785870075225830e-01 -1.693148910999298096e-01
1.162973195314407349e-01 -3.537764400243759155e-02 -3.023994863033294678e-01
2.540181577205657959e-02 -1.612422168254852295e-01 -2.770267426967620850e-01
1.111742854118347168e-02 -1.053344309329986572e-01 -3.975986838340759277e-01
3.480024933815002441e-01 -8.161716163158416748e-02 -1.830726861953735352e-01
2.786986827850341797e-01 -1.433305442333221436e-03 -1.296474337577819824e-01
3.173464536666870117e-02 -1.449881494045257568e-01 -4.126109182834625244e-01
-3.122867643833160400e-02 -1.534049361944198608e-01 -2.521728575229644775e-01
2.040945142507553101e-01 -6.463892757892608643e-02 -4.586022496223449707e-01
1.348664015531539917e-01 -1.422809064388275146e-01 -1.723601818084716797e-01
3.240090906620025635e-01 -4.287870600819587708e-02 -4.159254431724548340e-01
1.059340909123420715e-01 -5.389658361673355103e-02 -1.670962572097778320e-02
1.176953762769699097e-01 -1.495067179203033447e-01 -2.038590013980865479e-01
2.005271315574645996e-01 -7.734924554824829102e-03 -1.333880722522735596e-01
-5.036458373069763184e-03 -1.057006120681762695e-01 -3.771608769893646240e-01
3.337681889533996582e-01 -7.131122052669525146e-02 -1.221863031387329102e-01
1.057165786623954773e-01 -1.214051842689514160e-01 -4.706942439079284668e-01
-3.547935187816619873e-02 -1.519736945629119873e-01 -2.926827967166900635e-01
2.165068238973617554e-01 -4.742749035358428955e-03 -1.675911843776702881e-01
2.059460580348968506e-01 -1.410764753818511963e-01 -3.681221306324005127e-01
-6.142096221446990967e-02 -1.251624226570129395e-01 -1.802335679531097412e-01
2.534885406494140625e-01 -8.170963078737258911e-02 -5.895991623401641846e-02
1.761413663625717163e-01 -1.170577853918075562e-01 -9.500193595886230469e-02
3.289821743965148926e-01 -5.610324442386627197e-02 -8.590656518936157227e-02
6.719727814197540283e-02 -1.603972315788269043e-01 -2.701694667339324951e-01
3.923966884613037109e-01 -2.462790161371231079e-02 -1.652943789958953857e-01
6.187667697668075562e-02 -1.597765386104583740e-01 -2.557199597358703613e-01
3.597259521484375000e-01 -1.015079021453857422e-02 -2.906969487667083740e-01
1.276374161243438721e-01 -3.433755412697792053e-02 -4.423326253890991211e-02
3.113701343536376953e-01 -1.063127368688583374e-01 -3.876530230045318604e-01
3.009739220142364502e-01 -1.023938879370689392e-01 -4.246973693370819092e-01
4.320392012596130371e-02 -1.491711139678955078e-01 -1.672883331775665283e-01
1.734095662832260132e-01 -2.704465016722679138e-02 -3.278948962688446045e-01
-5.171868205070495605e-02 -9.718208014965057373e-02 -1.821829378604888916e-01
3.663853406906127930e-01 -8.699677884578704834e-03 -2.722973823547363281e-01
1.077701672911643982e-01 -3.039177507162094116e-02 -2.487478107213973999e-01
3.633463382720947266e-02 -9.000522643327713013e-02 -3.996006846427917480e-01
3.391312062740325928e-01 -9.470928460359573364e-02 -3.764824867248535156e-01
1.383437663316726685e-01 -2.521852776408195496e-02 -2.693615257740020752e-01
-4.739552736282348633e-02 -1.027997732162475586e-01 -1.385716199874877930e-01
9.922637045383453369e-02 -1.591769307851791382e-01 -3.267364501953125000e-01
