7.905504107475280762e-01 1.235361024737358093e-01 -2.324241250753402710e-01
3.348248004913330078e-01 5.141865834593772888e-02 -3.510524630546569824e-01
5.355072617530822754e-01 -4.649806767702102661e-02 6.168651208281517029e-02
4.746330976486206055e-01 -3.707706928253173828e-04 1.404003202915191650e-01
5.071996450424194336e-01 -3.054796159267425537e-02 8.554203808307647705e-02
3.367378115653991699e-01 2.606867253780364990e-01 -8.974801003932952881e-02
8.129054307937622070e-01 -1.033004149794578552e-01 8.726400136947631836e-02
4.277285933494567871e-01 -3.027148544788360596e-02 -9.991169720888137817e-02
8.103718161582946777e-01 -5.800164490938186646e-02 2.245692014694213867e-01
4.608244299888610840e-01 2.176561653614044189e-01 -2.461594343185424805e-01
3.240974843502044678e-01 3.361571580171585083e-02 -2.947183251380920410e-01
2.493528723716735840e-01 1.226617470383644104e-01 9.075768291950225830e-02
8.704509735107421875e-01 1.331469565629959106e-01 1.970626562833786011e-01
6.075985431671142578e-01 2.173424363136291504e-01 -1.295764446258544922e-01
3.293869793415069580e-01 2.346904873847961426e-01 1.621549874544143677e-01
9.366151094436645508e-01 6.688252091407775879e-03 -2.558800280094146729e-01
8.923424482345581055e-01 8.555928617715835571e-02 2.825879156589508057e-01
3.292835950851440430e-01 2.639592289924621582e-01 -4.708539694547653198e-02
3.791489005088806152e-01 1.323149502277374268e-01 -3.952853381633758545e-01
2.140796184539794922e-01 9.245857596397399902e-02 -1.783570796251296997e-01
6.215511560440063477e-01 -7.537288218736648560e-02 4.794594272971153259e-02
9.455374479293823242e-01 -1.201295778155326843e-01 -9.991684556007385254e-02
5.388580560684204102e-01 2.110772430896759033e-01 2.586116492748260498e-01
1.067199230194091797e+00 -1.302449405193328857e-02 7.827141880989074707e-02
7.563868761062622070e-01 1.567107737064361572e-01 -1.794012784957885742e-01
6.123895645141601562e-01 2.734340727329254150e-03 -4.244109392166137695e-01
3.827515840530395508e-01 -7.341481745243072510e-03 -6.289530545473098755e-02
6.664335727691650391e-01 2.199157476425170898e-01 4.891188815236091614e-02
9.559824466705322266e-01 3.648626431822776794e-02 -1.930466294288635254e-01
2.545180320739746094e-01 2.104309499263763428e-01 1.280845850706100464e-01
6.477699279785156250e-01 1.908763796091079712e-01 -1.939801722764968872e-01
9.335830211639404297e-01 9.919123351573944092e-02 -5.791313946247100830e-02
7.354080677032470703e-01 -7.415967434644699097e-02 1.547546535730361938e-01
6.509253978729248047e-01 2.201267182826995850e-01 1.393419504165649414e-01
6.354958415031433105e-01 1.993387043476104736e-01 2.539241313934326172e-01
7.997331619262695312e-01 1.731117367744445801e-01 7.544633001089096069e-03
3.139449357986450195e-01 8.967626094818115234e-02 1.365469247102737427e-01
6.131393909454345703e-01 5.350436270236968994e-02 3.236443400382995605e-01
5.023865699768066406e-01 2.542019784450531006e-01 1.038126647472381592e-04
2.704981863498687744e-01 1.713793277740478516e-01 1.595250517129898071e-01
5.783265233039855957e-01 1.379994601011276245e-01 -3.641541302204132080e-01
3.753060102462768555e-01 6.376096606254577637e-02 -3.972986638545989990e-01
8.774321079254150391e-01 -2.767617255449295044e-02 -3.234549760818481445e-01
9.115862250328063965e-01 -2.613697201013565063e-02 2.704904377460479736e-01
1.071206092834472656e+00 -5.738887935876846313e-02 3.228595480322837830e-02
1.064612984657287598e+00 -5.157104134559631348e-02 8.799433708190917969e-02
8.978731632232666016e-01 1.210513859987258911e-01 -4.929190501570701599e-02
8.458641171455383301e-01 -1.239282414317131042e-01 -4.275788366794586182e-02
8.797274827957153320e-01 1.036409139633178711e-01 2.676241695880889893e-01
4.662181138992309570e-01 2.423956394195556641e-01 -1.483449488878250122e-01
7.067236304283142090e-01 2.273975685238838196e-02 3.227029144763946533e-01
6.371521353721618652e-01 -8.941326290369033813e-02 -2.413821667432785034e-01
2.550586163997650146e-01 2.540301382541656494e-01 -7.776319980621337891e-04
9.122244119644165039e-01 -4.881682991981506348e-02 -2.921578884124755859e-01
1.021313786506652832e+00 -9.974142163991928101e-02 -7.363815605640411377e-02
9.052863121032714844e-01 1.272167414426803589e-01 9.817525744438171387e-02
8.415545225143432617e-01 -5.370739847421646118e-02 2.374194860458374023e-01
4.747945070266723633e-01 1.858475059270858765e-01 -3.195226788520812988e-01
3.976796269416809082e-01 2.285800576210021973e-01 -2.333633303642272949e-01
1.670708954334259033e-01 1.533038914203643799e-01 -1.088640689849853516e-01
7.128143906593322754e-01 -6.929276138544082642e-02 -3.460606634616851807e-01
5.888231992721557617e-01 5.185074359178543091e-02 3.126333355903625488e-01
3.545347452163696289e-01 1.490816473960876465e-03 -1.957504451274871826e-01
5.373125076293945312e-01 1.672750115394592285e-01 -3.326164782047271729e-01
1.019603967666625977e+00 3.781117871403694153e-02 -4.668671637773513794e-02
8.415637612342834473e-01 1.524502038955688477e-01 -2.241973951458930969e-02
6.029617786407470703e-01 2.225940823554992676e-01 1.934306919574737549e-01
4.922757148742675781e-01 1.188348755240440369e-01 -4.095625281333923340e-01
7.679127454757690430e-01 1.687274128198623657e-01 -1.125650405883789062e-01
7.863531708717346191e-01 -1.191785708069801331e-01 -1.612234860658645630e-01
9.512532949447631836e-01 -1.107916235923767090e-02 -2.513051033020019531e-01
1.018972158432006836e+00 5.054219812154769897e-02 2.804789319634437561e-02
9.304260611534118652e-01 -1.225027218461036682e-01 -9.441963583230972290e-02
9.411529302597045898e-01 8.199180662631988525e-02 2.265739440917968750e-01
9.157612323760986328e-01 1.030558645725250244e-01 2.162300944328308105e-01
8.540599942207336426e-01 -1.057170405983924866e-01 -2.420970499515533447e-01
9.012831449508666992e-01 -2.703639119863510132e-02 -3.049779236316680908e-01
7.311610579490661621e-01 9.330703318119049072e-02 3.518576622009277344e-01
6.380659937858581543e-01 2.165445685386657715e-01 -8.683632314205169678e-02
6.238380670547485352e-01 -6.334864348173141479e-02 -3.372825086116790771e-01
7.149285078048706055e-01 -2.014601230621337891e-02 2.692407369613647461e-01
6.791533231735229492e-01 9.167410433292388916e-02 -3.760322928428649902e-01
4.459939002990722656e-01 9.147711098194122314e-02 -4.250756800174713135e-01
6.150007843971252441e-01 -3.996479511260986328e-02 1.707785725593566895e-01
5.737913846969604492e-01 1.814285218715667725e-01 -2.832168340682983398e-01
8.821685314178466797e-01 -1.248356774449348450e-01 -4.289004579186439514e-02
1.015827655792236328e+00 -6.301102787256240845e-02 -1.680103242397308350e-01
3.795531988143920898e-01 2.592327892780303955e-01 9.684605896472930908e-02
5.545664429664611816e-01 -2.052751928567886353e-02 1.702403128147125244e-01
9.718607664108276367e-01 -1.172806844115257263e-01 -3.756337985396385193e-02
8.133512139320373535e-01 1.616377532482147217e-01 -4.666778072714805603e-02
5.099055767059326172e-01 -4.706096649169921875e-02 1.553779095411300659e-02
8.183836936950683594e-01 -1.231580749154090881e-01 -6.125389784574508667e-02
1.006619572639465332e+00 -6.496486812829971313e-02 1.648972034454345703e-01
3.837462663650512695e-01 -1.227501779794692993e-02 -1.961917430162429810e-01
1.050844907760620117e+00 -7.060476392507553101e-02 -8.343009650707244873e-02
2.373727858066558838e-01 2.235910296440124512e-01 -2.105954587459564209e-01
8.197065591812133789e-01 1.567096114158630371e-01 -6.134446337819099426e-02
7.791129350662231445e-01 1.789630949497222900e-01 1.542384475469589233e-01
6.049417257308959961e-01 2.001533806324005127e-01 -2.047581821680068970e-01
3.606244921684265137e-01 3.525623679161071777e-02 8.214260637760162354e-02
3.872261047363281250e-01 2.420801520347595215e-01 1.727127432823181152e-01
1.036838054656982422e+00 -9.194051474332809448e-02 3.100397810339927673e-02
6.292048692703247070e-01 2.005795836448669434e-01 -1.781952232122421265e-01
4.953943490982055664e-01 2.486544549465179443e-01 -8.150026202201843262e-02
3.421174883842468262e-01 2.064794301986694336e-01 -2.935325503349304199e-01
9.243108034133911133e-01 1.119296252727508545e-01 1.537417620420455933e-01
6.384966969490051270e-01 1.912470310926437378e-01 2.728175520896911621e-01
5.578221082687377930e-01 -7.045631855726242065e-02 -3.739911690354347229e-02
3.023620247840881348e-01 2.821679785847663879e-02 -1.508644670248031616e-01
1.008559942245483398e+00 -1.071932390332221985e-01 -5.341242626309394836e-02
8.051935434341430664e-01 -8.599463850259780884e-02 -3.059684932231903076e-01
7.034605145454406738e-01 2.091047465801239014e-01 7.534560561180114746e-02
9.769409894943237305e-01 1.792183890938758850e-02 -1.888011097908020020e-01
6.330487132072448730e-01 -6.552175432443618774e-02 1.046448200941085815e-01
3.357576131820678711e-01 8.036187291145324707e-02 1.495733261108398438e-01
9.912251234054565430e-01 -9.440086036920547485e-02 1.005953550338745117e-01
1.067993402481079102e+00 -1.853726059198379517e-02 -1.129664108157157898e-02
6.269115805625915527e-01 -5.075886845588684082e-03 2.554811239242553711e-01
8.909690976142883301e-01 9.995989501476287842e-03 3.051657676696777344e-01
6.367434859275817871e-01 -9.603802114725112915e-02 -1.681790351867675781e-01
6.041786670684814453e-01 -5.855406075716018677e-02 -3.401744067668914795e-01
9.864978790283203125e-01 -3.500536829233169556e-02 2.234859466552734375e-01
9.708870053291320801e-01 -9.235195070505142212e-02 1.230137795209884644e-01
2.447831630706787109e-01 9.477308392524719238e-02 2.377710118889808655e-02
6.103861331939697266e-01 2.259848117828369141e-01 1.664939820766448975e-01
7.238287329673767090e-01 -4.846697300672531128e-02 -3.766676783561706543e-01
4.244856238365173340e-01 2.587228715419769287e-01 -7.294978201389312744e-02
9.446567296981811523e-01 -1.143011227250099182e-01 -1.484087407588958740e-01
5.870671272277832031e-01 -3.279014676809310913e-02 -3.862203061580657959e-01
9.468511343002319336e-01 -1.150761619210243225e-01 3.243834152817726135e-02
1.747581958770751953e-01 1.971443295478820801e-01 -1.701895445585250854e-01
6.853084564208984375e-01 7.720586657524108887e-02 -3.876379430294036865e-01
6.601529121398925781e-01 -8.032242208719253540e-02 -3.038780391216278076e-01
8.257430791854858398e-01 -1.143066361546516418e-01 -2.120290398597717285e-01
4.133645296096801758e-01 2.634367644786834717e-01 -2.151792123913764954e-02
7.743124961853027344e-01 -3.812833875417709351e-02 2.556434571743011475e-01
5.538998246192932129e-01 2.459456622600555420e-01 2.178169414401054382e-02
8.098626136779785156e-01 -1.138033494353294373e-01 -2.141655087471008301e-01
5.058353543281555176e-01 2.538277208805084229e-01 6.239752098917961121e-02
6.052615046501159668e-01 2.330335378646850586e-01 -1.521235704421997070e-02
2.004856169223785400e-01 2.026741206645965576e-01 4.864412918686866760e-02
6.485614776611328125e-01 1.658416390419006348e-01 -2.677249610424041748e-01
3.959724903106689453e-01 2.493225932121276855e-01 -1.518011093139648438e-01
7.196736931800842285e-01 1.750209033489227295e-01 -1.638267934322357178e-01
9.508994221687316895e-01 -8.255023509263992310e-02 -2.298568934202194214e-01
9.203619360923767090e-01 1.048627793788909912e-01 2.004431337118148804e-01
6.671327352523803711e-01 2.080274522304534912e-01 -8.769924938678741455e-02
7.439532876014709473e-01 6.673464179039001465e-02 3.510624468326568604e-01
1.913886070251464844e-01 1.143642663955688477e-01 -1.313800662755966187e-01
6.275894045829772949e-01 4.594665020704269409e-02 3.221707642078399658e-01
2.552510797977447510e-01 6.185783818364143372e-02 -2.116816788911819458e-01
9.098461270332336426e-01 3.846071287989616394e-02 -2.527306377887725830e-01
9.215178489685058594e-01 -8.768849819898605347e-02 -2.472916096448898315e-01
6.592682003974914551e-01 1.435168087482452393e-01 3.360564410686492920e-01
5.615501403808593750e-01 1.602249443531036377e-01 3.250139951705932617e-01
9.511740207672119141e-01 -2.729365229606628418e-02 2.532599866390228271e-01
1.660771667957305908e-01 1.967252790927886963e-01 -1.280894130468368530e-01
4.710310995578765869e-01 2.092378139495849609e-01 -2.659109532833099365e-01
6.017535924911499023e-01 2.353285849094390869e-01 9.065109491348266602e-02
6.934338808059692383e-01 2.034559547901153564e-01 1.795618087053298950e-01
1.061869263648986816e+00 -6.113577634096145630e-02 -5.805300176143646240e-02
7.563597559928894043e-01 -1.165800765156745911e-01 -1.569624245166778564e-01
5.140511989593505859e-01 1.129455938935279846e-01 -4.116537272930145264e-01
3.809350132942199707e-01 4.917858541011810303e-02 -3.890563249588012695e-01
5.206668376922607422e-01 2.479529753327369690e-02 -4.284083247184753418e-01
3.576646745204925537e-01 2.616191804409027100e-01 -8.093013614416122437e-02
7.105345726013183594e-01 -4.867108911275863647e-02 2.106912136077880859e-01
1.025179743766784668e+00 1.850772649049758911e-02 1.797654330730438232e-01
6.422236561775207520e-01 1.717440932989120483e-01 3.075895607471466064e-01
8.751623630523681641e-01 -9.181795269250869751e-02 -2.691293954849243164e-01
6.673901677131652832e-01 1.965549886226654053e-01 2.404453158378601074e-01
3.351320624351501465e-01 6.879465281963348389e-02 -3.725026249885559082e-01
4.783755540847778320e-01 -5.116239190101623535e-02 -1.617258787155151367e-01
8.636350631713867188e-01 1.205598711967468262e-01 -1.335565596818923950e-01
3.723138570785522461e-01 8.102178573608398438e-02 1.933704912662506104e-01
1.038388848304748535e+00 -7.654145359992980957e-03 1.723190099000930786e-01
9.284394979476928711e-01 -6.885755807161331177e-02 2.002744674682617188e-01
8.764135837554931641e-01 1.408060789108276367e-01 2.932440862059593201e-02
7.765608429908752441e-01 9.249161928892135620e-02 3.428859114646911621e-01
4.408196210861206055e-01 -8.738562464714050293e-03 6.697249412536621094e-02
3.612515330314636230e-01 1.275646686553955078e-01 -3.936809599399566650e-01
1.903990507125854492e-01 2.090202867984771729e-01 -1.839759945869445801e-01
5.985782742500305176e-01 1.479671299457550049e-01 3.355486094951629639e-01
1.924766302108764648e-01 1.143851727247238159e-01 -1.081634014844894409e-01
8.528867959976196289e-01 -1.501255482435226440e-02 -3.404400944709777832e-01
5.531350374221801758e-01 2.405201792716979980e-01 -6.045805290341377258e-02
5.956006646156311035e-01 -7.361290603876113892e-02 1.851005107164382935e-02
6.610192656517028809e-01 1.899094879627227783e-01 -1.825308352708816528e-01
5.091859698295593262e-01 -2.670505642890930176e-02 -3.590481877326965332e-01
6.993477344512939453e-01 -1.092062518000602722e-01 -1.346512138843536377e-01
6.779966950416564941e-01 1.708806157112121582e-01 2.965265810489654541e-01
6.227812170982360840e-01 1.653289496898651123e-01 3.197670280933380127e-01
8.399681448936462402e-01 5.572369322180747986e-02 -3.036871254444122314e-01
9.137468338012695312e-01 -1.047039553523063660e-01 -2.143366187810897827e-01
6.889516115188598633e-01 -5.761425942182540894e-02 1.755532622337341309e-01
8.272755146026611328e-01 2.870528027415275574e-02 -3.405948877334594727e-01
2.037462890148162842e-01 1.498799771070480347e-01 3.882627561688423157e-02
1.958821415901184082e-01 1.794175505638122559e-01 4.393542185425758362e-02
7.939870953559875488e-01 -5.963514000177383423e-02 2.172226309776306152e-01
1.063898324966430664e+00 -2.544276416301727295e-03 2.294674143195152283e-02
8.411036133766174316e-01 -3.661235421895980835e-02 2.666410207748413086e-01
4.560099840164184570e-01 9.738171100616455078e-02 2.807242870330810547e-01
1.004154086112976074e+00 3.770785778760910034e-02 1.966628432273864746e-01
1.726447045803070068e-01 1.522357463836669922e-01 -1.815851628780364990e-01
5.560343861579895020e-01 -3.892978280782699585e-02 -3.615222871303558350e-01
3.098485171794891357e-01 4.470235109329223633e-02 1.281829550862312317e-02
9.991006851196289062e-01 5.180447548627853394e-02 -6.353802233934402466e-02
4.631633162498474121e-01 -4.386427998542785645e-02 -2.071781605482101440e-01
7.442190051078796387e-01 -4.575052857398986816e-02 2.317165434360504150e-01
2.993309199810028076e-01 3.459888696670532227e-02 -7.739672064781188965e-02
2.548229098320007324e-01 6.883189082145690918e-02 -4.381997138261795044e-02
8.618728518486022949e-01 5.310947820544242859e-02 3.237693905830383301e-01
1.875409483909606934e-01 1.192556694149971008e-01 -1.491424441337585449e-01
3.161818385124206543e-01 2.156638503074645996e-01 -2.693282067775726318e-01
7.376523613929748535e-01 1.963538825511932373e-01 1.223226487636566162e-01
6.893872618675231934e-01 -1.071989759802818298e-01 -1.470873355865478516e-01
8.431290388107299805e-01 -2.409435808658599854e-02 2.840931117534637451e-01
6.438280344009399414e-01 2.231754660606384277e-01 -1.545419543981552124e-02
6.982195973396301270e-01 9.892389178276062012e-03 -4.128289222717285156e-01
7.728330492973327637e-01 -9.927145391702651978e-02 -2.733822166919708252e-01
6.629639863967895508e-01 2.199169397354125977e-01 1.010698378086090088e-01
8.351444602012634277e-01 -1.020226255059242249e-01 1.015733182430267334e-01
3.636117875576019287e-01 1.864880174398422241e-01 2.395237386226654053e-01
3.694077432155609131e-01 3.213820233941078186e-02 -3.561164140701293945e-01
4.586576819419860840e-01 -3.850611299276351929e-02 -2.447452992200851440e-01
2.987227141857147217e-01 3.340554982423782349e-02 -2.157552838325500488e-01
8.736597299575805664e-01 -1.256951689720153809e-01 -9.288787841796875000e-02
9.883204698562622070e-01 -1.135523393750190735e-01 -5.421414226293563843e-02
6.486114263534545898e-01 7.436736673116683960e-02 -4.060382246971130371e-01
1.693540215492248535e-01 2.046263813972473145e-01 -6.275334209203720093e-02
5.409906506538391113e-01 2.251641750335693359e-01 2.208384871482849121e-01
6.951311826705932617e-01 -3.836937248706817627e-02 -3.902554214000701904e-01
8.727160096168518066e-01 7.584080100059509277e-02 -2.374706417322158813e-01
6.335116028785705566e-01 1.552347838878631592e-01 3.289241194725036621e-01
6.053470969200134277e-01 -3.307829052209854126e-02 -3.906341195106506348e-01
4.829771518707275391e-01 2.294139266014099121e-01 -1.944314837455749512e-01
8.952586054801940918e-01 9.506557881832122803e-02 -1.594636440277099609e-01
2.340671718120574951e-01 7.752265781164169312e-02 -2.039805054664611816e-01
2.538523674011230469e-01 2.549324631690979004e-01 -2.555725350975990295e-02
5.325836539268493652e-01 -6.900716572999954224e-02 -1.599072515964508057e-01
5.816292762756347656e-01 2.117726206779479980e-01 -1.840287744998931885e-01
6.173763871192932129e-01 -4.718083888292312622e-02 1.520221978425979614e-01
7.005722522735595703e-01 1.921097934246063232e-01 -1.177809983491897583e-01
7.670915126800537109e-01 -1.064015850424766541e-01 4.203778877854347229e-02
4.165564179420471191e-01 2.043981850147247314e-01 -2.943691909313201904e-01
6.826293468475341797e-01 1.895221769809722900e-01 2.503535747528076172e-01
7.542327642440795898e-01 4.508169740438461304e-02 -3.769857883453369141e-01
7.120400667190551758e-01 1.941694170236587524e-01 -8.500736951828002930e-02
7.853713035583496094e-01 9.271030873060226440e-02 -3.000508248805999756e-01
5.399467349052429199e-01 2.341544628143310547e-01 -1.235632002353668213e-01
9.122706651687622070e-01 -8.296766132116317749e-02 -2.617197632789611816e-01
4.033274054527282715e-01 2.377779185771942139e-01 1.894727945327758789e-01
3.112679421901702881e-01 8.132019639015197754e-02 -3.622318804264068604e-01
9.329327344894409180e-01 -1.197639629244804382e-01 2.820849418640136719e-03
5.404465198516845703e-01 -2.581669390201568604e-02 1.415664553642272949e-01
6.221201419830322266e-01 2.165568470954895020e-01 2.034608870744705200e-01
7.560350298881530762e-01 1.747452318668365479e-01 2.240216135978698730e-01
6.390162110328674316e-01 -7.823865860700607300e-02 -2.987166345119476318e-01
5.326364636421203613e-01 2.481246590614318848e-01 9.497538208961486816e-02
4.221729636192321777e-01 2.471384108066558838e-01 -1.515233218669891357e-01
2.121459245681762695e-01 1.412442475557327271e-01 -2.782591283321380615e-01
2.608158588409423828e-01 2.423049211502075195e-01 -1.641089916229248047e-01
4.963498115539550781e-01 1.510816216468811035e-01 3.147649765014648438e-01
7.449301481246948242e-01 1.446535289287567139e-01 3.073056340217590332e-01
2.263361513614654541e-01 1.740873754024505615e-01 -2.855632603168487549e-01
4.122627973556518555e-01 1.304046958684921265e-01 2.713854908943176270e-01
7.397550940513610840e-01 -1.115173324942588806e-01 -1.952228099107742310e-01
6.888442635536193848e-01 2.088294327259063721e-01 -3.035665675997734070e-02
9.809688329696655273e-01 -1.142810955643653870e-01 -8.647073060274124146e-03
3.501119017601013184e-01 1.583175659179687500e-01 -3.674368262290954590e-01
7.795623540878295898e-01 7.837906479835510254e-02 -3.262622654438018799e-01
3.828656077384948730e-01 5.276463180780410767e-02 1.565878838300704956e-01
4.290165305137634277e-01 2.584403455257415771e-01 9.978981316089630127e-02
4.127044975757598877e-01 1.909963786602020264e-03 -3.384137153625488281e-01
7.900416851043701172e-01 1.783955991268157959e-01 3.114815428853034973e-02
1.003386259078979492e+00 6.478818506002426147e-02 8.288756012916564941e-02
8.503828048706054688e-01 -5.629917234182357788e-02 -3.287106454372406006e-01
6.575306057929992676e-01 1.261022686958312988e-01 -3.415949642658233643e-01
8.833119869232177734e-01 1.385597586631774902e-01 5.522690340876579285e-02
2.715644240379333496e-01 1.026505231857299805e-01 -3.380289077758789062e-01
5.579830408096313477e-01 8.436609059572219849e-03 2.363413572311401367e-01
2.362319827079772949e-01 7.329216599464416504e-02 -1.180040389299392700e-01
1.004627943038940430e+00 5.087039992213249207e-02 1.655252426862716675e-01
4.508963227272033691e-01 -3.192219883203506470e-02 -2.692975103855133057e-01
6.671297550201416016e-01 1.096918433904647827e-02 2.980268597602844238e-01
6.652427911758422852e-01 -9.825351089239120483e-02 -2.144867777824401855e-01
1.054590821266174316e+00 -6.685353070497512817e-02 8.631168305873870850e-02
7.940731048583984375e-01 1.766182035207748413e-01 1.154035180807113647e-01
4.637702107429504395e-01 1.586194634437561035e-01 -3.686799108982086182e-01
7.818345427513122559e-01 1.821890175342559814e-01 4.853881523013114929e-02
9.859086275100708008e-01 7.811799645423889160e-02 8.401869237422943115e-02
3.898743391036987305e-01 2.652789652347564697e-01 2.371877431869506836e-03
6.988756656646728516e-01 1.351265758275985718e-01 -2.960896492004394531e-01
3.592672646045684814e-01 2.974822744727134705e-02 6.241839751601219177e-02
6.823104023933410645e-01 1.213355436921119690e-01 -3.334818780422210693e-01
8.677816390991210938e-01 1.404814720153808594e-01 -2.029318921267986298e-02
1.032599091529846191e+00 2.297785878181457520e-02 -5.205927789211273193e-02
8.410813212394714355e-01 -1.172873601317405701e-01 -1.941494643688201904e-01
7.289330959320068359e-01 1.187760755419731140e-01 -3.032067120075225830e-01
2.979864478111267090e-01 2.248988151550292969e-01 -2.414765357971191406e-01
6.512668728828430176e-01 -8.454624563455581665e-02 -2.818483412265777588e-01
7.066137194633483887e-01 1.040215641260147095e-01 -3.439050614833831787e-01
4.122417569160461426e-01 1.828838884830474854e-01 2.686191201210021973e-01
4.478905200958251953e-01 2.322316914796829224e-02 1.685550957918167114e-01
3.736497163772583008e-01 8.156658709049224854e-02 -4.044708013534545898e-01
8.707706928253173828e-01 -9.751533716917037964e-02 1.266397088766098022e-01
8.306073546409606934e-01 -1.086929962038993835e-01 6.918095052242279053e-02
3.758664727210998535e-01 -9.625248610973358154e-03 -1.434150785207748413e-01
1.002566099166870117e+00 -8.049526065587997437e-02 1.336822062730789185e-01
3.007284998893737793e-01 2.191367745399475098e-01 -2.571688294410705566e-01
4.332115054130554199e-01 3.554167598485946655e-02 1.790209859609603882e-01
3.587463200092315674e-01 2.642490267753601074e-01 4.364101961255073547e-02
2.636420428752899170e-01 5.319527536630630493e-02 -1.819142550230026245e-01
4.560011029243469238e-01 -2.180919051170349121e-02 3.948846831917762756e-02
7.086883783340454102e-01 1.108722910284996033e-01 3.493405878543853760e-01
3.335293829441070557e-01 2.282799482345581055e-01 -2.388859391212463379e-01
7.413669824600219727e-01 1.887888312339782715e-01 -5.279647931456565857e-02
2.152011990547180176e-01 1.251992136240005493e-01 -2.743059396743774414e-01
8.189498782157897949e-01 1.653013825416564941e-01 8.442178368568420410e-03
2.492157220840454102e-01 1.519064307212829590e-01 1.229807436466217041e-01
9.724309444427490234e-01 8.585613220930099487e-02 2.399263158440589905e-02
2.290017306804656982e-01 2.359904348850250244e-01 -1.578599959611892700e-01
5.759087800979614258e-01 -7.022165507078170776e-02 -2.736662328243255615e-01
8.275125622749328613e-01 1.609453707933425903e-01 1.435703635215759277e-01
4.007854461669921875e-01 3.340721130371093750e-03 -3.272813260555267334e-01
1.058001279830932617e+00 -7.581969350576400757e-02 3.797181323170661926e-02
7.175791263580322266e-01 1.537142395973205566e-01 -2.351761311292648315e-01
6.275487542152404785e-01 2.235494554042816162e-01 -5.596479400992393494e-02
7.322354316711425781e-01 1.886016130447387695e-01 -7.633782923221588135e-02
9.028898477554321289e-01 -1.073953881859779358e-01 8.816233277320861816e-02
9.030441641807556152e-01 8.972305804491043091e-02 2.652497589588165283e-01
2.655608355998992920e-01 2.511572539806365967e-01 -1.202300488948822021e-01
3.740788102149963379e-01 -6.752297282218933105e-03 -2.121367752552032471e-01
5.982409119606018066e-01 7.217938452959060669e-02 3.320817947387695312e-01
7.579268813133239746e-01 1.487363725900650024e-01 2.924292683601379395e-01
7.546856403350830078e-01 1.025931686162948608e-01 3.441801369190216064e-01
7.901283502578735352e-01 -9.922086447477340698e-02 9.384222328662872314e-02
4.478486180305480957e-01 2.288479208946228027e-01 2.202347218990325928e-01
1.034703612327575684e+00 -9.573846310377120972e-02 -3.716056793928146362e-02
3.995495438575744629e-01 1.388319432735443115e-01 -3.934188187122344971e-01
7.347992062568664551e-01 1.940122991800308228e-01 1.570888161659240723e-01
8.343878984451293945e-01 1.233253702521324158e-01 -1.741999536752700806e-01
6.267413496971130371e-01 -9.446745365858078003e-02 -1.279609501361846924e-01
7.083536386489868164e-01 -8.776577562093734741e-02 8.527001738548278809e-02
6.827849745750427246e-01 -1.000713184475898743e-01 -1.827631331980228424e-02
7.425745725631713867e-01 1.666492819786071777e-01 2.645963728427886963e-01
5.236523151397705078e-01 2.135429382324218750e-01 -2.247579991817474365e-01
8.751680850982666016e-01 1.308409571647644043e-01 -6.096762791275978088e-02
9.464201331138610840e-01 -9.939376264810562134e-02 1.107313632965087891e-01
3.461475074291229248e-01 1.100084781646728516e-01 2.021623104810714722e-01
7.416415810585021973e-01 -1.155087575316429138e-01 -1.409046798944473267e-01
9.415025711059570312e-01 -7.915695756673812866e-02 -2.432657629251480103e-01
9.834740161895751953e-01 6.576047837734222412e-02 1.795061528682708740e-01
4.360612332820892334e-01 -3.155335038900375366e-02 -2.307729125022888184e-01
9.813652038574218750e-01 -8.453603833913803101e-02 1.398121416568756104e-01
5.563564300537109375e-01 1.674122214317321777e-01 -3.236456513404846191e-01
2.495681941509246826e-01 6.486251950263977051e-02 -9.821161627769470215e-02
6.891410946846008301e-01 1.545911133289337158e-01 3.174733221530914307e-01
7.567550539970397949e-01 -5.851455777883529663e-02 2.077484875917434692e-01
9.326191544532775879e-01 -6.254523247480392456e-02 -2.674545645713806152e-01
8.105984926223754883e-01 -4.677470028400421143e-02 2.469833493232727051e-01
8.927721381187438965e-01 -8.265241235494613647e-02 -2.753137052059173584e-01
3.461259007453918457e-01 4.852542653679847717e-02 9.569095075130462646e-02
4.796912670135498047e-01 -4.470561444759368896e-02 -2.543708086013793945e-01
6.027947068214416504e-01 2.244704365730285645e-01 -9.576407074928283691e-02
2.898203730583190918e-01 9.246015548706054688e-02 1.058577150106430054e-01
5.426464080810546875e-01 1.712585985660552979e-01 3.146707117557525635e-01
5.162019133567810059e-01 9.540842473506927490e-02 -4.240317940711975098e-01
4.754815697669982910e-01 2.567080855369567871e-01 8.006456494331359863e-02
4.988622069358825684e-01 2.432569265365600586e-01 -1.151065379381179810e-01
9.118305444717407227e-01 -6.382443755865097046e-02 2.142256498336791992e-01
3.282932937145233154e-01 2.648533582687377930e-01 -1.017127931118011475e-02
7.711158394813537598e-01 -5.291046202182769775e-02 2.255404591560363770e-01
5.952648520469665527e-01 1.205530315637588501e-01 3.443831205368041992e-01
2.350320816040039062e-01 2.105304300785064697e-01 -2.406349033117294312e-01
5.191496014595031738e-01 1.746937632560729980e-01 3.085676133632659912e-01
5.610733628273010254e-01 2.044874727725982666e-01 -2.275355458259582520e-01
3.879168629646301270e-01 1.952185928821563721e-01 2.483434081077575684e-01
4.838319718837738037e-01 -5.170508474111557007e-02 -1.992934495210647583e-01
7.997345924377441406e-01 2.060426399111747742e-02 3.288499116897583008e-01
2.757458388805389404e-01 4.602726921439170837e-02 -1.961502283811569214e-01
4.186248779296875000e-01 -1.350563764572143555e-02 2.775628119707107544e-03
4.941155612468719482e-01 9.688796848058700562e-02 3.027200996875762939e-01
4.027898311614990234e-01 1.637073457241058350e-01 -3.669424951076507568e-01
4.836687445640563965e-01 2.169693633913993835e-02 2.012505531311035156e-01
7.486861348152160645e-01 -1.073447540402412415e-01 1.837436109781265259e-02
5.973414778709411621e-01 3.692662715911865234e-02 3.008426129817962646e-01
6.433213353157043457e-01 1.145541444420814514e-01 -3.666363954544067383e-01
8.000617027282714844e-01 1.128771603107452393e-01 3.184465169906616211e-01
4.651971459388732910e-01 2.590155899524688721e-01 -7.462255656719207764e-03
9.640628099441528320e-01 7.836040109395980835e-02 1.892361640930175781e-01
8.900818824768066406e-01 -1.080218777060508728e-01 -2.186881750822067261e-01
2.325455546379089355e-01 7.911683619022369385e-02 -8.647521585226058960e-02
1.064977407455444336e+00 -6.736793369054794312e-02 -2.560691721737384796e-02
7.200237512588500977e-01 7.795589417219161987e-02 3.534635901451110840e-01
6.726476550102233887e-01 2.147597968578338623e-01 -1.902852766215801239e-02
5.947716832160949707e-01 -2.904690802097320557e-03 -4.205476045608520508e-01
9.331090450286865234e-01 1.391589269042015076e-02 2.866513133049011230e-01
6.177721619606018066e-01 -5.212893337011337280e-02 -3.611935377120971680e-01
1.633073985576629639e-01 1.759816408157348633e-01 -7.721816748380661011e-02
2.410385310649871826e-01 2.516963481903076172e-01 -5.391757190227508545e-02
1.051969766616821289e+00 1.664874702692031860e-02 6.551530957221984863e-02
5.457372665405273438e-01 -7.047047466039657593e-02 -7.634711265563964844e-02
5.374861955642700195e-01 -5.165457725524902344e-02 -3.105872869491577148e-01
3.175979852676391602e-01 9.248238056898117065e-02 -3.745081424713134766e-01
1.047552347183227539e+00 2.196090668439865112e-02 3.493724390864372253e-02
4.156501591205596924e-01 2.570751309394836426e-01 1.130123138427734375e-01
8.523257970809936523e-01 -5.979723483324050903e-02 2.260814011096954346e-01
4.033511281013488770e-01 9.132329374551773071e-02 2.358934283256530762e-01
6.377099156379699707e-01 2.245233654975891113e-01 1.276262253522872925e-01
3.006067872047424316e-01 1.892915070056915283e-01 -3.150602877140045166e-01
5.434603691101074219e-01 6.089287996292114258e-02 -4.354074597358703613e-01
7.494931221008300781e-01 -7.182695716619491577e-02 -3.409546315670013428e-01
9.762617349624633789e-01 5.136870965361595154e-02 -1.244740039110183716e-01
1.028836250305175781e+00 5.997925996780395508e-03 -1.054223030805587769e-01
6.943084001541137695e-01 1.414169967174530029e-01 3.311040103435516357e-01
7.317977547645568848e-01 -6.758993119001388550e-02 1.724687665700912476e-01
9.415054321289062500e-01 -1.219454333186149597e-01 -4.673394188284873962e-02
9.963611960411071777e-01 6.885209679603576660e-02 2.570383623242378235e-02
3.477354943752288818e-01 2.653083503246307373e-01 -2.477009594440460205e-02
4.721366167068481445e-01 -4.763475060462951660e-02 -1.036531329154968262e-01
7.785716056823730469e-01 -8.201765269041061401e-02 1.518774479627609253e-01
5.687409639358520508e-01 2.179793715476989746e-01 -1.713729202747344971e-01
8.666090965270996094e-01 1.466341316699981689e-01 9.299188852310180664e-02
5.688760876655578613e-01 1.027683168649673462e-01 3.364409804344177246e-01
9.498631954193115234e-01 1.020753979682922363e-01 8.898258209228515625e-02
5.291786193847656250e-01 2.457766532897949219e-01 1.261407732963562012e-01
7.583459615707397461e-01 7.906396687030792236e-02 3.501940071582794189e-01
3.794341087341308594e-01 5.065746605396270752e-03 5.109980702400207520e-03
2.615722417831420898e-01 2.465105056762695312e-01 -1.442303359508514404e-01
5.234423875808715820e-01 -4.884906113147735596e-02 3.108597919344902039e-02
5.854010581970214844e-01 1.490952670574188232e-01 -3.431668281555175781e-01
2.867092192173004150e-01 2.416013479232788086e-01 -1.829115599393844604e-01
3.529208302497863770e-01 1.107349991798400879e-02 -2.679795622825622559e-01
8.325827717781066895e-01 -7.487220317125320435e-02 -3.167527318000793457e-01
8.267524242401123047e-01 1.645083129405975342e-01 8.594752848148345947e-02
6.164101362228393555e-01 -9.171240776777267456e-02 -1.596917808055877686e-01
1.060903549194335938e+00 3.874868154525756836e-03 4.473378136754035950e-02
3.440559208393096924e-01 2.452086806297302246e-01 1.442946493625640869e-01
6.093423962593078613e-01 -6.728387624025344849e-02 7.069839537143707275e-02
7.476109862327575684e-01 1.245763003826141357e-01 3.306697010993957520e-01
7.413148880004882812e-01 1.746038496494293213e-01 -1.325885206460952759e-01
6.883671283721923828e-01 -7.262911647558212280e-02 -3.357625007629394531e-01
9.564874768257141113e-01 6.665207445621490479e-02 2.324371039867401123e-01
4.325040578842163086e-01 2.401798367500305176e-01 -1.788122802972793579e-01
4.508295357227325439e-01 1.217336952686309814e-02 -3.907258808612823486e-01
6.430855989456176758e-01 2.125145494937896729e-01 2.007588595151901245e-01
2.552237808704376221e-01 1.064340248703956604e-01 -3.211451470851898193e-01
5.295427441596984863e-01 1.778803318738937378e-01 -3.150050044059753418e-01
7.205314040184020996e-01 -1.107961013913154602e-01 -5.801033228635787964e-02
9.368529319763183594e-01 -2.199284732341766357e-02 2.650931179523468018e-01
3.816728591918945312e-01 -1.215582340955734253e-02 -1.759772598743438721e-01
4.286290407180786133e-01 1.260062605142593384e-01 -4.059116542339324951e-01
1.063640713691711426e+00 -4.161489754915237427e-02 -6.058919429779052734e-02
9.846107363700866699e-01 -1.119630262255668640e-01 1.070706918835639954e-02
4.394046962261199951e-01 2.355528175830841064e-01 -1.945324987173080444e-01
6.733117103576660156e-01 -7.317181676626205444e-02 1.137295067310333252e-01
6.869518160820007324e-01 3.388012945652008057e-02 3.285528719425201416e-01
3.134844899177551270e-01 2.303059697151184082e-01 1.593339294195175171e-01
5.686624050140380859e-01 7.203823328018188477e-02 -4.292027652263641357e-01
4.581288099288940430e-01 1.175013780593872070e-01 -4.127685725688934326e-01
9.668976068496704102e-01 -1.183025017380714417e-01 -5.559030175209045410e-02
5.186668634414672852e-01 3.142453730106353760e-03 1.942578107118606567e-01
4.733136892318725586e-01 2.531787753105163574e-01 -7.134677469730377197e-02
5.691076517105102539e-01 1.423128694295883179e-02 2.539100646972656250e-01
3.912636637687683105e-01 -7.051974534988403320e-03 -2.702031731605529785e-01
5.903128981590270996e-01 -8.503002673387527466e-02 -1.678301095962524414e-01
9.079040288925170898e-01 9.305410087108612061e-03 -2.848088443279266357e-01
4.420927762985229492e-01 -3.312417119741439819e-02 -6.517229229211807251e-02
5.655491948127746582e-01 7.219527661800384521e-02 3.198326528072357178e-01
3.260864913463592529e-01 1.594968140125274658e-02 -1.201611459255218506e-01
9.731649160385131836e-01 -9.912634640932083130e-02 9.722490608692169189e-02
5.040718913078308105e-01 2.438514232635498047e-01 1.600409448146820068e-01
1.067515134811401367e+00 -4.309343546628952026e-02 -4.412413761019706726e-02
5.605377554893493652e-01 2.386524677276611328e-01 1.439559012651443481e-01
8.536217808723449707e-01 7.647283375263214111e-02 3.192062079906463623e-01
4.228461980819702148e-01 -2.451226860284805298e-02 -2.455605417490005493e-01
4.830303192138671875e-01 2.523385286331176758e-01 1.183388531208038330e-01
8.130332231521606445e-01 6.979728490114212036e-02 -3.097252845764160156e-01
6.008611917495727539e-01 -5.586408823728561401e-02 1.071265339851379395e-01
5.740798115730285645e-01 2.375410795211791992e-01 -4.635228961706161499e-02
3.787618577480316162e-01 2.282327711582183838e-01 -2.378418147563934326e-01
4.728305935859680176e-01 4.848182946443557739e-02 2.383426129817962646e-01
3.473648726940155029e-01 3.970742225646972656e-03 -1.546520888805389404e-01
4.808108806610107422e-01 -3.632145375013351440e-02 -3.006372749805450439e-01
8.561907410621643066e-01 1.428565979003906250e-01 -4.386272653937339783e-02
9.008622169494628906e-01 -1.216384992003440857e-01 -1.412763446569442749e-01
8.057530522346496582e-01 -1.173046603798866272e-01 -1.412875950336456299e-03
1.037443995475769043e+00 -9.138896316289901733e-02 -6.203345209360122681e-02
6.769364476203918457e-01 2.163134515285491943e-01 2.540123090147972107e-02
1.032065629959106445e+00 3.406591340899467468e-02 -6.245654076337814331e-03
9.520345926284790039e-01 -6.559414416551589966e-02 1.988222450017929077e-01
9.156503677368164062e-01 -1.177167221903800964e-01 -1.582512259483337402e-01
5.262432694435119629e-01 2.325522899627685547e-01 2.004769146442413330e-01
4.057416021823883057e-01 9.058979153633117676e-02 -4.171773195266723633e-01
9.618488550186157227e-01 -6.915926933288574219e-04 2.638339400291442871e-01
4.606244564056396484e-01 1.910275071859359741e-01 2.811485826969146729e-01
9.086451530456542969e-01 1.258161813020706177e-01 8.141118288040161133e-02
1.019386410713195801e+00 -9.705761820077896118e-02 4.934700950980186462e-02
7.466267347335815430e-01 -8.503260463476181030e-02 1.246664524078369141e-01
3.378067016601562500e-01 2.388855218887329102e-01 -2.047067582607269287e-01
3.655558228492736816e-01 2.111318409442901611e-01 -2.842984497547149658e-01
7.851469516754150391e-01 1.311168670654296875e-01 -2.194252312183380127e-01
4.832196235656738281e-01 2.941250801086425781e-03 -3.962002694606781006e-01
3.199173808097839355e-01 1.703408062458038330e-01 -3.464800119400024414e-01
5.711579918861389160e-01 -4.905942082405090332e-02 9.870061278343200684e-02
6.054782867431640625e-01 -8.260462433099746704e-02 -2.543303556740283966e-02
9.509534835815429688e-01 1.553268730640411377e-02 -2.295147776603698730e-01
3.318713009357452393e-01 2.464118301868438721e-01 1.330733746290206909e-01
1.021664857864379883e+00 4.949013888835906982e-02 5.644438788294792175e-02
8.727246522903442383e-01 1.409094035625457764e-01 1.394705027341842651e-01
5.618799924850463867e-01 2.074598670005798340e-01 2.623193264007568359e-01
7.318938374519348145e-01 -1.083263680338859558e-01 -2.140597552061080933e-01
2.213879525661468506e-01 2.368419468402862549e-01 2.568008378148078918e-02
8.102763295173645020e-01 -1.215078160166740417e-01 -4.318114742636680603e-02
5.809398889541625977e-01 -7.205266505479812622e-02 2.046078443527221680e-03
4.334359765052795410e-01 -3.417279571294784546e-02 -1.360047906637191772e-01
4.694977104663848877e-01 -1.006978750228881836e-02 -3.655045926570892334e-01
6.525370478630065918e-01 -6.610219925642013550e-02 1.211526840925216675e-01
6.848194599151611328e-01 5.036187916994094849e-02 -4.072753489017486572e-01
6.081671118736267090e-01 2.323978543281555176e-01 1.150202900171279907e-01
5.433130264282226562e-01 2.076914012432098389e-01 -2.302713543176651001e-01
7.792679071426391602e-01 -1.073585972189903259e-01 -2.421177774667739868e-01
8.140844106674194336e-01 1.515385359525680542e-01 2.276512384414672852e-01
9.109680652618408203e-01 -1.241093650460243225e-01 -9.872508049011230469e-02
9.562692642211914062e-01 7.871299237012863159e-02 2.061064243316650391e-01
1.032753944396972656e+00 -4.417821019887924194e-02 -1.431958079338073730e-01
9.328690767288208008e-01 -7.694122940301895142e-02 1.811322867870330811e-01
3.581012189388275146e-01 8.368197828531265259e-03 -3.516269475221633911e-02
3.173476159572601318e-01 2.450195550918579102e-01 -1.785083860158920288e-01
6.676718592643737793e-01 2.028543949127197266e-01 -1.165749728679656982e-01
5.514409542083740234e-01 1.297582983970642090e-01 -3.853152394294738770e-01
9.262586832046508789e-01 -3.850815445184707642e-02 2.512279152870178223e-01
1.039203763008117676e+00 -1.188634335994720459e-02 -1.076378077268600464e-01
9.370949268341064453e-01 1.009588465094566345e-01 1.727015078067779541e-01
5.496363639831542969e-01 -6.768945604562759399e-02 -2.462825924158096313e-01
1.042075276374816895e+00 2.816611528396606445e-02 7.934159040451049805e-02
4.093587398529052734e-01 2.564119696617126465e-01 -1.029906943440437317e-01
1.817580461502075195e-01 2.219839096069335938e-01 -8.856053650379180908e-02
7.586630582809448242e-01 -4.716869443655014038e-02 -3.715012073516845703e-01
9.951455593109130859e-01 6.711476296186447144e-02 1.304283440113067627e-01
8.753727674484252930e-01 1.173080801963806152e-01 -1.226968914270401001e-01
5.164541006088256836e-01 -5.220489948987960815e-02 -2.810712754726409912e-01
8.746564388275146484e-01 1.076888740062713623e-01 -1.570899188518524170e-01
7.513890862464904785e-01 1.889017522335052490e-01 1.534971147775650024e-01
5.983524322509765625e-01 -7.093007117509841919e-02 3.797593340277671814e-02
3.302976191043853760e-01 2.116386592388153076e-01 -2.809693217277526855e-01
5.832600593566894531e-01 -5.694893747568130493e-02 8.245363831520080566e-02
1.025777697563171387e+00 -1.001910790801048279e-01 -1.657262444496154785e-03
3.796527981758117676e-01 2.225488424301147461e-05 -2.787265479564666748e-01
6.033614277839660645e-01 2.288029193878173828e-01 -6.356199085712432861e-02
1.910997927188873291e-01 2.025981247425079346e-01 2.704660966992378235e-02
6.031371355056762695e-01 2.357900440692901611e-01 6.749187409877777100e-02
5.160034298896789551e-01 2.344764471054077148e-01 -1.467300951480865479e-01
7.416086792945861816e-01 1.569079458713531494e-01 2.877278327941894531e-01
2.102011144161224365e-01 2.246374487876892090e-01 -1.741016060113906860e-01
8.207868337631225586e-01 -1.207127794623374939e-01 -1.661470532417297363e-01
7.990844249725341797e-01 -3.946223109960556030e-02 2.582672238349914551e-01
2.445960342884063721e-01 2.380012273788452148e-01 -1.679313927888870239e-01
2.689103782176971436e-01 9.443005174398422241e-02 7.396507263183593750e-02
6.338887810707092285e-01 4.004307463765144348e-02 -4.268414080142974854e-01
7.972460389137268066e-01 -9.726523607969284058e-02 -2.795665562152862549e-01
6.774021387100219727e-01 -6.181987375020980835e-02 1.553933918476104736e-01
7.528224587440490723e-01 -6.421511620283126831e-02 1.918727755546569824e-01
4.658131301403045654e-01 2.725796028971672058e-02 1.954608559608459473e-01
4.772605895996093750e-01 1.341295242309570312e-01 -3.967663347721099854e-01
5.425308346748352051e-01 3.765078261494636536e-02 2.722955346107482910e-01
5.817815661430358887e-01 2.373316287994384766e-01 -2.997409179806709290e-02
8.276777863502502441e-01 -1.215528920292854309e-01 -2.496313676238059998e-02
1.058339476585388184e+00 -1.512892544269561768e-02 -5.342648178339004517e-02
8.459919691085815430e-01 -1.155965402722358704e-01 3.599296882748603821e-02
7.297956943511962891e-01 1.451688706874847412e-01 3.141207695007324219e-01
9.798134565353393555e-01 3.999096155166625977e-02 2.348317205905914307e-01
6.848208904266357422e-01 1.750265955924987793e-01 -2.071651816368103027e-01
3.223009705543518066e-01 4.229637980461120605e-02 -3.163579702377319336e-01
7.438546419143676758e-01 -9.648887068033218384e-02 7.523158192634582520e-02
3.563789129257202148e-01 1.445061713457107544e-02 -2.909691929817199707e-01
2.058261632919311523e-01 2.335435748100280762e-01 -1.239788979291915894e-01
7.019525170326232910e-01 2.019418478012084961e-01 -5.443144962191581726e-02
3.965383768081665039e-01 1.758400797843933105e-01 2.636510133743286133e-01
2.930811941623687744e-01 2.093150317668914795e-01 -2.768641114234924316e-01
1.017887830734252930e+00 -7.269061356782913208e-02 1.369910389184951782e-01
6.631104946136474609e-01 -8.292562514543533325e-02 6.210787966847419739e-02
6.007733345031738281e-01 -4.811605066061019897e-02 -3.631751835346221924e-01
9.961005449295043945e-01 -5.016467720270156860e-02 -2.031568288803100586e-01
9.388332366943359375e-01 6.328597664833068848e-02 2.611656188964843750e-01
4.920786619186401367e-01 2.097306251525878906e-01 -2.548952102661132812e-01
9.593394398689270020e-01 8.901944756507873535e-02 1.587830781936645508e-01
1.073563218116760254e+00 -3.315147757530212402e-02 5.424711480736732483e-02
4.145949482917785645e-01 -2.425037324428558350e-03 4.578795656561851501e-02
1.619227230548858643e-01 1.824644058942794800e-01 -1.202150881290435791e-01
1.038594007492065430e+00 2.478808164596557617e-03 -8.574295043945312500e-02
2.921993136405944824e-01 5.875794589519500732e-02 -3.053357601165771484e-01
2.243585288524627686e-01 2.163411974906921387e-01 7.899707555770874023e-02
3.062440454959869385e-01 2.914196625351905823e-02 -9.072373807430267334e-02
4.326977133750915527e-01 -1.295230537652969360e-02 3.524811938405036926e-02
8.127595186233520508e-01 1.273159980773925781e-01 2.898877263069152832e-01
8.892245888710021973e-01 -2.923216670751571655e-02 2.724981307983398438e-01
7.111977338790893555e-01 -7.952795177698135376e-02 -3.232620060443878174e-01
9.898446798324584961e-01 7.308151572942733765e-02 1.162308901548385620e-01
7.052751779556274414e-01 -1.102825626730918884e-01 -1.124780923128128052e-01
3.378808200359344482e-01 1.890980005264282227e-01 -3.249964714050292969e-01
8.946785926818847656e-01 1.300118863582611084e-01 7.365867495536804199e-03
9.776521325111389160e-01 -6.012447923421859741e-02 1.956872195005416870e-01
1.011378765106201172e+00 5.133917927742004395e-02 -1.769008301198482513e-02
2.826249003410339355e-01 2.554035782814025879e-01 4.706792160868644714e-02
1.067674040794372559e+00 -1.025164127349853516e-02 6.141926720738410950e-02
3.687992990016937256e-01 -4.707656800746917725e-03 -1.054641902446746826e-01
6.796454191207885742e-01 1.670357584953308105e-01 -2.367204427719116211e-01
4.033696055412292480e-01 1.201454102993011475e-01 2.600459456443786621e-01
4.913525879383087158e-01 -3.931796550750732422e-02 2.122334390878677368e-02
3.065605163574218750e-01 1.403961479663848877e-01 1.866442561149597168e-01
7.267900705337524414e-01 1.984152495861053467e-01 -1.094394735991954803e-02
4.291666746139526367e-01 1.766383498907089233e-01 -3.463505208492279053e-01
9.233075380325317383e-01 7.880601286888122559e-02 2.584940791130065918e-01
6.411296129226684570e-01 7.618300616741180420e-03 2.828530371189117432e-01
1.059556484222412109e+00 2.743281424045562744e-03 8.428089320659637451e-03
6.619258522987365723e-01 1.047581732273101807e-01 3.528986275196075439e-01
1.955543756484985352e-01 2.326155602931976318e-01 -6.612698733806610107e-02
2.460538148880004883e-01 1.274157017469406128e-01 -3.208040893077850342e-01
5.989666581153869629e-01 1.136264652013778687e-01 -3.878579139709472656e-01
6.183241605758666992e-01 1.238363757729530334e-01 -3.664037883281707764e-01
4.913726747035980225e-01 2.197678089141845703e-01 -2.241723090410232544e-01
5.750146508216857910e-01 -7.795543223619461060e-02 -2.168221622705459595e-01
9.372679591178894043e-01 7.062466442584991455e-02 -1.518707871437072754e-01
6.840223670005798340e-01 -3.840529173612594604e-02 2.205450534820556641e-01
1.782978177070617676e-01 1.317851096391677856e-01 -1.407942026853561401e-01
3.248942494392395020e-01 1.510918736457824707e-01 -3.666845858097076416e-01
9.818643331527709961e-01 -1.072631701827049255e-01 5.055924877524375916e-02
6.019545793533325195e-01 9.016670286655426025e-02 -4.099049568176269531e-01
5.851033329963684082e-01 -2.054323256015777588e-02 -4.026224017143249512e-01
