9.582955390214920044e-02 -1.112177520990371704e-01 -1.581085175275802612e-01
2.330797016620635986e-01 -1.057453751564025879e-01 -1.425167024135589600e-01
-5.013059079647064209e-02 -7.896911352872848511e-02 -1.152860298752784729e-01
-1.427453756332397461e-02 -1.064098179340362549e-01 -1.082452833652496338e-01
3.627077341079711914e-01 -2.743365615606307983e-02 -8.355545997619628906e-02
2.712406218051910400e-02 -1.216226667165756226e-01 1.417415216565132141e-03
1.947386562824249268e-01 -1.040308550000190735e-02 -9.394726902246475220e-02
6.586807966232299805e-02 -1.545787602663040161e-02 3.158462420105934143e-02
2.898205518722534180e-01 -1.076564416289329529e-01 5.859693512320518494e-02
5.133673548698425293e-03 -8.861243724822998047e-02 1.782033592462539673e-01
3.518796265125274658e-01 -6.910490244626998901e-02 -1.344332993030548096e-01
2.524570226669311523e-01 -7.562138140201568604e-03 1.227770596742630005e-01
5.677034705877304077e-02 -4.082970321178436279e-02 -1.703718304634094238e-01
2.822178006172180176e-01 -2.854752913117408752e-02 2.100171297788619995e-01
1.432212144136428833e-01 -9.729916602373123169e-02 2.138044536113739014e-01
2.169442623853683472e-01 -1.072779446840286255e-01 1.561634093523025513e-01
9.930507838726043701e-02 -1.256391108036041260e-01 1.005065161734819412e-02
3.408120870590209961e-01 -8.884133398532867432e-02 -9.013962745666503906e-02
4.032658636569976807e-01 -6.872466206550598145e-02 1.649118773639202118e-02
2.970392704010009766e-01 -1.076041311025619507e-01 2.021745406091213226e-02
1.676045507192611694e-01 -5.742326378822326660e-03 -3.122500702738761902e-02
2.204154729843139648e-01 -4.304964095354080200e-03 -3.293141722679138184e-02
1.378013193607330322e-02 -1.060828939080238342e-01 1.362698525190353394e-01
1.586105376482009888e-01 -1.227830275893211365e-01 -6.097646430134773254e-02
1.955723464488983154e-01 -8.358187973499298096e-03 1.300733536481857300e-01
2.757442593574523926e-01 -1.114854812622070312e-01 2.858947589993476868e-02
2.041807174682617188e-01 -4.075738042593002319e-02 2.490099221467971802e-01
5.254099518060684204e-02 -1.130306050181388855e-01 1.310539692640304565e-01
1.729111671447753906e-01 -1.065845042467117310e-01 -1.706238090991973877e-01
7.090371102094650269e-02 -2.406433969736099243e-02 1.468810439109802246e-01
2.343282401561737061e-01 -3.128087893128395081e-02 -1.844671070575714111e-01
3.709927797317504883e-01 -2.232672274112701416e-02 9.842176735401153564e-02
2.231409400701522827e-01 -2.677980437874794006e-02 2.200929969549179077e-01
2.766572833061218262e-01 -1.077280044555664062e-01 8.988304436206817627e-02
3.301405310630798340e-01 -9.832455217838287354e-02 -3.790153563022613525e-02
1.635983288288116455e-01 -5.392003804445266724e-03 7.194059342145919800e-02
1.313838362693786621e-01 -1.513929665088653564e-02 -1.022452637553215027e-01
1.593901515007019043e-01 -1.020624190568923950e-01 -1.898294091224670410e-01
2.939386963844299316e-01 -1.276198029518127441e-02 1.408905237913131714e-01
7.682622224092483521e-02 -9.231814742088317871e-02 2.139770686626434326e-01
5.385181307792663574e-02 -1.215759813785552979e-01 -6.975858658552169800e-02
8.496928960084915161e-02 -1.173294186592102051e-01 -1.229981258511543274e-01
2.300471365451812744e-01 -1.100168675184249878e-01 1.298946738243103027e-01
1.559286564588546753e-01 -1.240860223770141602e-01 -3.663397580385208130e-02
1.485982388257980347e-01 -5.567610263824462891e-03 7.635761052370071411e-03
-4.626914858818054199e-02 -4.717100411653518677e-02 -1.615508645772933960e-02
1.416883319616317749e-01 -3.711079806089401245e-02 -1.988984197378158569e-01
2.950513958930969238e-01 -5.425386130809783936e-03 1.167283952236175537e-02
2.928391098976135254e-01 -8.405482769012451172e-02 -1.695105582475662231e-01
2.383934259414672852e-01 -1.174621209502220154e-01 3.763363696634769440e-03
2.394789457321166992e-01 -1.066374927759170532e-01 1.438959091901779175e-01
1.187433749437332153e-01 -1.227965652942657471e-01 -7.837079465389251709e-02
3.909731507301330566e-01 -2.851363271474838257e-02 8.146340399980545044e-02
3.751588761806488037e-01 -4.578910395503044128e-02 1.573728322982788086e-01
-5.635054409503936768e-02 -5.966413766145706177e-02 8.211340755224227905e-02
-3.780989348888397217e-02 -6.845615059137344360e-02 -1.297156363725662231e-01
2.077024579048156738e-01 -1.209473684430122375e-01 6.972412578761577606e-03
3.484516441822052002e-01 -2.235771343111991882e-02 1.388445794582366943e-01
6.602291017770767212e-02 -1.164360195398330688e-01 -1.223082616925239563e-01
1.566301882266998291e-01 -7.869319617748260498e-02 2.505959272384643555e-01
3.563242554664611816e-01 -1.821649819612503052e-02 -4.098668321967124939e-02
3.702742457389831543e-01 -8.672677725553512573e-02 1.849655248224735260e-02
-6.639073491096496582e-01 5.250775068998336792e-02 5.348908528685569763e-02
-9.075546860694885254e-01 7.894024997949600220e-02 3.256873786449432373e-02
-6.591174006462097168e-01 2.679726779460906982e-01 -1.828042790293693542e-03
-8.086709380149841309e-01 3.522498905658721924e-01 -1.712170429527759552e-02
-9.199165105819702148e-01 1.099134981632232666e-01 7.677111774682998657e-02
-7.410215139389038086e-01 2.796177566051483154e-02 -1.010065004229545593e-01
-8.822498321533203125e-01 3.067712187767028809e-01 -1.613868400454521179e-03
-6.633088588714599609e-01 1.555253118276596069e-01 1.748926639556884766e-01
-6.785995960235595703e-01 2.217816412448883057e-01 -1.881051361560821533e-01
-8.358148932456970215e-01 2.985247075557708740e-01 -1.863465756177902222e-01
-8.069679737091064453e-01 9.101075679063796997e-02 -1.919188648462295532e-01
-7.018393874168395996e-01 2.979353666305541992e-01 -1.596603989601135254e-01
-7.636831402778625488e-01 3.008934259414672852e-01 -2.158282846212387085e-01
-7.331919670104980469e-01 3.165565729141235352e-01 1.032323986291885376e-01
-8.192088603973388672e-01 3.363826274871826172e-01 -1.316787153482437134e-01
-7.014698982238769531e-01 1.916258335113525391e-01 2.314838767051696777e-01
-7.598522901535034180e-01 2.898693382740020752e-01 1.815435141324996948e-01
-9.011425375938415527e-01 1.193335354328155518e-01 -8.423031866550445557e-02
-6.989368200302124023e-01 2.472093254327774048e-01 1.782339513301849365e-01
-8.542177677154541016e-01 8.534818887710571289e-03 6.327796727418899536e-02
-6.572797298431396484e-01 2.114272713661193848e-01 -1.401076167821884155e-01
-8.787550330162048340e-01 1.688097566366195679e-01 -1.701857447624206543e-01
-8.278914093971252441e-01 -2.631843090057373047e-03 1.514566093683242798e-01
-7.246776819229125977e-01 3.363747000694274902e-01 -9.146914631128311157e-02
-8.935179710388183594e-01 1.815081983804702759e-01 2.097662538290023804e-01
-7.412384152412414551e-01 1.603884845972061157e-01 2.839248180389404297e-01
-8.593724966049194336e-01 1.236338913440704346e-02 1.080574020743370056e-01
-7.913125157356262207e-01 3.473309278488159180e-01 -1.167527958750724792e-01
-7.140538096427917480e-01 5.596247315406799316e-02 2.351059019565582275e-01
-6.352603435516357422e-01 1.571810096502304077e-01 -2.563175745308399200e-02
-6.528475284576416016e-01 2.138926088809967041e-01 1.030328050255775452e-01
-7.983543276786804199e-01 3.095653057098388672e-01 -2.019308656454086304e-01
-7.931602001190185547e-01 -4.930064082145690918e-03 -1.568804867565631866e-02
-8.882306814193725586e-01 2.054225802421569824e-01 -1.576985716819763184e-01
-6.464582681655883789e-01 9.239646792411804199e-02 2.450067549943923950e-03
-9.279402494430541992e-01 1.656376421451568604e-01 2.200392447412014008e-02
-8.469850420951843262e-01 2.066454291343688965e-01 2.575843632221221924e-01
-8.011957406997680664e-01 3.482306003570556641e-01 -1.053290590643882751e-01
-8.601973056793212891e-01 2.839903533458709717e-02 1.832659840583801270e-01
-6.358143687248229980e-01 1.424215435981750488e-01 -1.402877084910869598e-02
-9.087125658988952637e-01 2.181529551744461060e-01 -9.682648628950119019e-02
-6.358504295349121094e-01 1.762835979461669922e-01 -3.808760643005371094e-02
-6.472457647323608398e-01 1.215354353189468384e-01 1.149891316890716553e-01
-8.039138913154602051e-01 5.579102784395217896e-02 2.791848778724670410e-01
-7.611464858055114746e-01 3.530371785163879395e-01 -3.800360858440399170e-02
-8.410240411758422852e-01 2.789143025875091553e-01 1.851906031370162964e-01
-9.242979288101196289e-01 1.546304076910018921e-01 1.059396117925643921e-01
-6.448945403099060059e-01 1.390188783407211304e-01 -8.127125352621078491e-02
-7.384858131408691406e-01 2.074504941701889038e-01 2.591780126094818115e-01
-8.912612199783325195e-01 7.228282094001770020e-02 -4.007530957460403442e-02
-9.003515243530273438e-01 2.808084487915039062e-01 -1.538672856986522675e-02
-6.778779029846191406e-01 2.770710289478302002e-01 7.804604619741439819e-02
-6.847823262214660645e-01 4.224357008934020996e-02 -4.669468849897384644e-02
-9.005029797554016113e-01 1.093101501464843750e-01 -7.377354800701141357e-02
-7.312493920326232910e-01 2.763753235340118408e-01 1.806058585643768311e-01
-7.256264686584472656e-01 3.261659145355224609e-01 -1.392527371644973755e-01
-6.966127157211303711e-01 2.602086961269378662e-01 1.565130501985549927e-01
-9.048760533332824707e-01 1.874729990959167480e-01 -1.147475764155387878e-01
-8.740444183349609375e-01 3.144171237945556641e-01 1.431490574032068253e-02
-6.999367475509643555e-01 2.691524326801300049e-01 1.485792398452758789e-01
-9.077292680740356445e-01 2.112936973571777344e-01 1.521665304899215698e-01
-6.836368441581726074e-01 7.060924917459487915e-02 1.941455453634262085e-01
-8.937329649925231934e-01 6.367461383342742920e-02 1.543897092342376709e-01
-9.219749569892883301e-01 1.419179737567901611e-01 1.179485544562339783e-01
-9.040126204490661621e-01 1.688144356012344360e-01 -1.126630976796150208e-01
-9.048469066619873047e-01 9.177740663290023804e-02 -2.695823274552822113e-02
-7.340950965881347656e-01 2.160556912422180176e-01 -2.500042021274566650e-01
-8.990427255630493164e-01 1.123139113187789917e-01 1.977064609527587891e-01
-6.882120966911315918e-01 9.672766923904418945e-02 -1.516298502683639526e-01
-7.420769333839416504e-01 2.385775744915008545e-01 -2.499125897884368896e-01
-8.411460518836975098e-01 7.838010787963867188e-06 1.171611547470092773e-01
-8.080503940582275391e-01 3.342396020889282227e-01 8.699856698513031006e-02
-6.725731492042541504e-01 1.537876129150390625e-01 -1.709329634904861450e-01
-9.110633730888366699e-01 2.593056559562683105e-01 2.204596810042858124e-02
-6.589713096618652344e-01 2.435820996761322021e-01 -1.201201155781745911e-01
-7.461494207382202148e-01 1.219152361154556274e-01 2.920633554458618164e-01
-7.949149608612060547e-01 1.878475695848464966e-01 -2.541048228740692139e-01
-6.826815009117126465e-01 1.510708332061767578e-01 2.181304246187210083e-01
-8.500744104385375977e-01 1.866805404424667358e-01 -2.159700244665145874e-01
-7.689417600631713867e-01 2.265332937240600586e-01 2.603566646575927734e-01
-6.854520440101623535e-01 3.294844925403594971e-02 1.302355080842971802e-01
-9.168025255203247070e-01 1.824447661638259888e-01 -7.017089426517486572e-02
-7.635162472724914551e-01 9.692388772964477539e-02 -2.066737413406372070e-01
-6.696304082870483398e-01 5.767289549112319946e-02 1.297781318426132202e-01
-8.367059826850891113e-01 3.220138549804687500e-01 -1.446390300989151001e-01
-6.604547500610351562e-01 2.633574306964874268e-01 3.551534935832023621e-02
-9.130593538284301758e-01 1.437606513500213623e-01 1.637668162584304810e-01
-9.246615767478942871e-01 1.377942711114883423e-01 8.864325284957885742e-02
-9.062629938125610352e-01 7.298627495765686035e-02 6.107571721076965332e-02
-6.730949878692626953e-01 3.985713422298431396e-02 7.799036800861358643e-02
-7.238345146179199219e-01 7.807155698537826538e-02 -1.701454818248748779e-01
-8.812803626060485840e-01 3.361408412456512451e-02 7.857743650674819946e-02
-8.298348188400268555e-01 1.402208805084228516e-01 2.942589521408081055e-01
-7.628819942474365234e-01 1.634730398654937744e-02 2.302810847759246826e-01
-6.490453481674194336e-01 8.549910783767700195e-02 6.464309245347976685e-02
-9.016853570938110352e-01 2.027006596326828003e-01 1.775951683521270752e-01
-8.711112141609191895e-01 2.457782626152038574e-02 1.215782612562179565e-01
-7.936083078384399414e-01 3.544852733612060547e-01 -6.091602891683578491e-02
-8.230254650115966797e-01 1.839596778154373169e-01 2.849754393100738525e-01
-6.549471616744995117e-01 1.183785200119018555e-01 1.462410390377044678e-01
-8.778647184371948242e-01 2.455337643623352051e-01 -1.669785827398300171e-01
-8.544353842735290527e-01 3.231045007705688477e-01 -1.011400669813156128e-01
-6.445637941360473633e-01 1.537434309720993042e-01 1.099101677536964417e-01
-6.540315151214599609e-01 2.555218935012817383e-01 -6.207857280969619751e-02
-7.733337283134460449e-01 6.490002572536468506e-02 2.858826220035552979e-01
-8.904298543930053711e-01 4.727561026811599731e-02 4.902026057243347168e-02
-8.996626734733581543e-01 2.790362238883972168e-01 3.993216529488563538e-02
-7.731419801712036133e-01 -1.695461571216583252e-02 1.231848374009132385e-01
-9.158357977867126465e-01 9.881733357906341553e-02 9.503756463527679443e-02
-8.969624638557434082e-01 2.324883937835693359e-01 -1.282084733247756958e-01
-6.875432133674621582e-01 2.668634355068206787e-01 -1.751161068677902222e-01
-8.952865004539489746e-01 9.079504758119583130e-02 -6.263420730829238892e-02
-6.979116201400756836e-01 2.414588630199432373e-02 1.496103405952453613e-01
-8.114567995071411133e-01 1.270029991865158081e-01 3.023574352264404297e-01
-8.044887185096740723e-01 2.790053188800811768e-01 -2.302873134613037109e-01
-8.076253533363342285e-01 -1.507845520973205566e-02 8.953533321619033813e-02
-8.186817765235900879e-01 9.925326704978942871e-02 -1.931463778018951416e-01
-7.113271355628967285e-01 1.997405290603637695e-01 2.388926893472671509e-01
-7.115354537963867188e-01 7.797478139400482178e-02 2.485219985246658325e-01
-8.012233972549438477e-01 -1.009167730808258057e-02 1.616498827934265137e-02
-7.692871689796447754e-01 1.490116119384765625e-06 1.981361806392669678e-01
-6.454752683639526367e-01 1.068937182426452637e-01 -3.707049041986465454e-02
-8.471242785453796387e-01 3.199578523635864258e-01 -1.300095766782760620e-01
-7.125607132911682129e-01 3.029192090034484863e-01 -1.705858856439590454e-01
-6.603694558143615723e-01 2.716473340988159180e-01 -1.868695951998233795e-02
-8.712784051895141602e-01 2.482818365097045898e-01 -1.780045032501220703e-01
-6.526365280151367188e-01 1.304724514484405518e-01 1.420461684465408325e-01
-6.844962835311889648e-01 1.082108691334724426e-01 2.193404138088226318e-01
-6.430606842041015625e-01 1.964400410652160645e-01 -8.756356686353683472e-02
-8.150139451026916504e-01 -1.124456524848937988e-02 1.257438212633132935e-01
-9.170341491699218750e-01 1.022191196680068970e-01 3.471559286117553711e-02
-6.655865907669067383e-01 1.446185410022735596e-01 1.824042946100234985e-01
-7.562394738197326660e-01 3.515272140502929688e-01 -6.352332979440689087e-02
-9.253528118133544922e-01 2.073767930269241333e-01 4.922677576541900635e-02
-9.203852415084838867e-01 2.310425937175750732e-01 -2.823989838361740112e-03
-7.427226901054382324e-01 1.226402744650840759e-01 -2.231979072093963623e-01
-7.058274745941162109e-01 7.636711001396179199e-03 1.043819636106491089e-01
-7.448278069496154785e-01 -1.362755894660949707e-02 6.718407571315765381e-02
-6.590674519538879395e-01 1.962073892354965210e-01 -1.492573916912078857e-01
-6.359311342239379883e-01 1.902449429035186768e-01 -2.559272013604640961e-02
-7.051038742065429688e-01 2.846590578556060791e-01 1.302680224180221558e-01
-8.861514925956726074e-01 3.985704481601715088e-02 9.014081209897994995e-02
-7.870581150054931641e-01 3.510473370552062988e-01 -9.861746430397033691e-02
-6.986364722251892090e-01 7.717266678810119629e-02 -1.424316912889480591e-01
-8.582816720008850098e-01 3.292905688285827637e-01 -3.913273662328720093e-02
-7.591696977615356445e-01 1.928569376468658447e-01 2.799363732337951660e-01
-7.708236575126647949e-01 1.960914433002471924e-01 2.821793556213378906e-01
-8.975536227226257324e-01 1.279149800539016724e-01 2.078251540660858154e-01
-6.707659363746643066e-01 2.672393620014190674e-01 -1.291829943656921387e-01
-7.241684198379516602e-01 -5.568042397499084473e-03 7.652220129966735840e-02
-6.992046833038330078e-01 2.066327631473541260e-02 -1.637372560799121857e-02
-7.977193593978881836e-01 -7.198065519332885742e-03 1.739279031753540039e-01
-7.022839784622192383e-01 2.011788785457611084e-01 -2.250603586435317993e-01
-6.368039846420288086e-01 1.921155005693435669e-01 2.871625870466232300e-02
-7.468950748443603516e-01 -9.035587310791015625e-03 1.444056928157806396e-01
-7.127263545989990234e-01 1.333121955394744873e-02 -2.454931475222110748e-02
-8.930402994155883789e-01 9.352822601795196533e-02 -7.411851733922958374e-02
-9.127261638641357422e-01 2.538489401340484619e-01 3.664414212107658386e-02
-8.974140882492065430e-01 1.311356127262115479e-01 -1.070167943835258484e-01
-7.791320085525512695e-01 2.948481142520904541e-01 1.803424954414367676e-01
-8.748337626457214355e-01 2.789667248725891113e-01 1.367185413837432861e-01
-7.622047662734985352e-01 2.503962218761444092e-01 2.352086752653121948e-01
-6.411711573600769043e-01 1.868429780006408691e-01 7.518573850393295288e-02
-6.507340669631958008e-01 8.479122817516326904e-02 -1.291250251233577728e-02
-8.982048630714416504e-01 1.780744045972824097e-01 -1.316071897745132446e-01
-6.701061129570007324e-01 5.685408413410186768e-02 -3.680879622697830200e-02
-7.820841670036315918e-01 1.743908524513244629e-01 -2.536204755306243896e-01
-7.773397564888000488e-01 2.583323121070861816e-01 2.311601787805557251e-01
-6.705812215805053711e-01 1.030070409178733826e-01 -1.252764463424682617e-01
-7.628555297851562500e-01 2.653114497661590576e-02 2.459485530853271484e-01
-8.619924187660217285e-01 3.078070282936096191e-02 -2.251860313117504120e-02
-7.378320693969726562e-01 8.567467331886291504e-03 1.931704878807067871e-01
-8.682079315185546875e-01 3.125253915786743164e-01 -9.094221144914627075e-02
-6.773732304573059082e-01 7.441642880439758301e-02 1.823984086513519287e-01
-9.279298186302185059e-01 1.872621476650238037e-01 4.177127778530120850e-02
-7.127850651741027832e-01 3.257842361927032471e-01 -1.077230051159858704e-01
-9.258448481559753418e-01 1.798174530267715454e-01 -1.237242855131626129e-02
-7.114075422286987305e-01 3.309505879878997803e-01 -3.099220804870128632e-02
-6.768543720245361328e-01 2.618172764778137207e-01 1.085574179887771606e-01
-9.029972553253173828e-01 1.123344302177429199e-01 1.858494430780410767e-01
-7.556025385856628418e-01 3.182585537433624268e-01 1.226662173867225647e-01
-8.239488601684570312e-01 2.532644569873809814e-02 -7.797981798648834229e-02
-6.993373036384582520e-01 8.578665554523468018e-02 -1.546133011579513550e-01
-9.199269413948059082e-01 1.305439323186874390e-01 1.234785914421081543e-01
-7.846613526344299316e-01 2.795645296573638916e-01 2.050055712461471558e-01
-8.929588198661804199e-01 4.987874627113342285e-02 6.111645698547363281e-02
-7.404689192771911621e-01 3.453545570373535156e-01 -7.969719171524047852e-02
-6.531239748001098633e-01 2.048684954643249512e-01 -1.287110447883605957e-01
-7.605893015861511230e-01 1.208074390888214111e-02 -7.299952954053878784e-02
-7.068079710006713867e-01 4.979766905307769775e-02 -1.096817925572395325e-01
-7.828372716903686523e-01 1.440863162279129028e-01 -2.408135235309600830e-01
-7.019975185394287109e-01 2.147445380687713623e-01 2.159735709428787231e-01
-8.110345602035522461e-01 4.313513636589050293e-03 -3.403308987617492676e-02
-7.189361453056335449e-01 2.436735033988952637e-01 2.096335589885711670e-01
-6.847839355468750000e-01 2.406679093837738037e-01 -1.910357028245925903e-01
-7.507547736167907715e-01 2.477881908416748047e-01 2.322008013725280762e-01
-6.563615202903747559e-01 8.620722591876983643e-02 1.221296191215515137e-01
-7.649829387664794922e-01 3.682255744934082031e-02 2.595656514167785645e-01
-9.090558290481567383e-01 9.610965102910995483e-02 -1.471846736967563629e-02
-8.921076655387878418e-01 1.248620748519897461e-01 2.197307944297790527e-01
-6.385776400566101074e-01 1.261489391326904297e-01 -1.809660904109477997e-02
-8.892836570739746094e-01 6.487489491701126099e-02 -2.956776507198810577e-02
-6.920972466468811035e-01 2.026740908622741699e-01 2.104378342628479004e-01
-6.785669326782226562e-01 4.012897610664367676e-02 1.221767961978912354e-01
-7.923602461814880371e-01 5.740796774625778198e-02 2.823338508605957031e-01
-6.508817076683044434e-01 2.173991650342941284e-01 -1.131260618567466736e-01
-8.789919614791870117e-01 2.917467355728149414e-01 -1.103341653943061829e-01
-7.498653531074523926e-01 3.033280372619628906e-01 -2.077723145484924316e-01
-6.956654787063598633e-01 3.182366490364074707e-01 -4.605901986360549927e-02
-8.462502956390380859e-01 6.266226619482040405e-02 -1.214124932885169983e-01
-6.732580065727233887e-01 9.370924532413482666e-02 1.879619210958480835e-01
-7.991441488265991211e-01 1.238449364900588989e-01 3.047212660312652588e-01
-8.059248328208923340e-01 -2.476572990417480469e-05 -2.411226369440555573e-02
-8.722894787788391113e-01 7.855021953582763672e-02 -1.022550836205482483e-01
-8.942110538482666016e-01 2.024016082286834717e-01 -1.441286951303482056e-01
-9.169691205024719238e-01 2.035102844238281250e-01 -6.712799519300460815e-02
-7.497105598449707031e-01 3.263074755668640137e-01 -1.689398586750030518e-01
-8.364477157592773438e-01 1.180604696273803711e-01 -1.954507529735565186e-01
-9.054749608039855957e-01 7.480268180370330811e-02 1.113192960619926453e-01
-6.799031496047973633e-01 1.728004515171051025e-01 -1.910360306501388550e-01
-8.482475280761718750e-01 2.388525009155273438e-02 -3.566750138998031616e-02
-9.082629084587097168e-01 1.709513515233993530e-01 -1.001734808087348938e-01
-7.006461620330810547e-01 3.183391988277435303e-01 1.387520972639322281e-02
-9.193995594978332520e-01 2.171044349670410156e-01 -4.358806461095809937e-02
-8.074998259544372559e-01 2.424449622631072998e-01 2.479061633348464966e-01
-8.845422863960266113e-01 2.629110217094421387e-01 -1.380262225866317749e-01
-7.463151216506958008e-01 -1.391278207302093506e-02 9.883438050746917725e-02
-6.784142255783081055e-01 1.057829111814498901e-01 -1.447916924953460693e-01
-9.199116230010986328e-01 1.751169860363006592e-01 1.306567043066024780e-01
-7.156671881675720215e-01 5.915775895118713379e-03 1.393385082483291626e-01
-7.659192681312561035e-01 3.534120023250579834e-01 -2.308904565870761871e-02
-7.033159136772155762e-01 9.023636579513549805e-03 3.696611523628234863e-02
-7.071141004562377930e-01 3.934575617313385010e-02 -8.883303403854370117e-02
-7.927333116531372070e-01 9.712398052215576172e-03 -6.404000520706176758e-02
-7.155103683471679688e-01 2.244235575199127197e-02 -6.005908548831939697e-02
-7.121376991271972656e-01 2.700424790382385254e-01 -2.106212228536605835e-01
-8.578313589096069336e-01 2.253304421901702881e-01 2.329512089490890503e-01
-8.006699085235595703e-01 1.187226548790931702e-01 -2.194763123989105225e-01
-7.840505242347717285e-01 2.381638288497924805e-01 2.532546520233154297e-01
-8.169836997985839844e-01 6.430179625749588013e-02 2.807068526744842529e-01
-7.284365892410278320e-01 1.026999950408935547e-02 1.835202425718307495e-01
-8.498587012290954590e-01 1.116886734962463379e-02 1.819921471178531647e-02
-8.707026243209838867e-01 2.747638523578643799e-01 1.528632342815399170e-01
-8.792761564254760742e-01 3.049929141998291016e-01 4.431945830583572388e-02
-6.588254570960998535e-01 2.263838350772857666e-01 1.091808229684829712e-01
-7.971459031105041504e-01 2.326184064149856567e-01 -2.537766695022583008e-01
-6.564958095550537109e-01 2.446806132793426514e-01 -1.073739454150199890e-01
-7.824082374572753906e-01 5.019918084144592285e-03 2.133202403783798218e-01
-8.830801248550415039e-01 2.329654991626739502e-01 -1.623315513134002686e-01
-8.954638838768005371e-01 2.641105949878692627e-01 -1.022662147879600525e-01
-7.432152628898620605e-01 -2.620801329612731934e-03 -1.312995888292789459e-02
-6.860270500183105469e-01 2.230247557163238525e-01 -2.006596773862838745e-01
-7.491035461425781250e-01 3.498743176460266113e-01 -3.425408154726028442e-02
-7.224473953247070312e-01 1.863516867160797119e-01 -2.413193285465240479e-01
-7.257186770439147949e-01 1.711204648017883301e-03 1.497242301702499390e-01
-8.168210983276367188e-01 5.572796612977981567e-02 -1.413946896791458130e-01
-6.417336463928222656e-01 2.120992094278335571e-01 4.174491390585899353e-02
-8.587739467620849609e-01 7.797366380691528320e-02 -1.256938874721527100e-01
-7.318462729454040527e-01 3.332913517951965332e-01 -1.268218755722045898e-01
-8.387556672096252441e-01 2.730414271354675293e-01 1.959932595491409302e-01
-8.637512326240539551e-01 2.764472365379333496e-01 -1.696691364049911499e-01
-8.328999280929565430e-01 3.709465265274047852e-03 1.691827327013015747e-01
-8.769567012786865234e-01 2.403774559497833252e-01 1.920328289270401001e-01
-6.754717230796813965e-01 4.276518523693084717e-02 -1.039926894009113312e-02
-7.577626705169677734e-01 1.430910974740982056e-01 2.967249155044555664e-01
-8.898683786392211914e-01 2.332371473312377930e-01 -1.467260420322418213e-01
-7.149487733840942383e-01 3.321379721164703369e-01 -7.538716495037078857e-02
-8.961868286132812500e-01 2.785970866680145264e-01 -6.816629320383071899e-02
-7.670201063156127930e-01 3.498603105545043945e-01 -1.003589779138565063e-01
-8.589667677879333496e-01 1.155043467879295349e-01 -1.674983799457550049e-01
-8.649843335151672363e-01 1.655925810337066650e-02 8.602672070264816284e-02
-7.022700905799865723e-01 2.912267446517944336e-01 -1.719915568828582764e-01
-7.169272899627685547e-01 1.112809479236602783e-01 -1.991241872310638428e-01
-9.080319404602050781e-01 7.646527141332626343e-02 7.423144578933715820e-02
-8.011776208877563477e-01 1.776729971170425415e-01 2.935752272605895996e-01
-8.903672695159912109e-01 4.553849250078201294e-02 7.487110793590545654e-02
-7.483384013175964355e-01 1.848732084035873413e-01 2.787193953990936279e-01
-6.662282943725585938e-01 5.083676427602767944e-02 8.084478229284286499e-02
-9.076068401336669922e-01 1.248552501201629639e-01 -6.857074052095413208e-02
-8.260712027549743652e-01 3.400496840476989746e-01 4.428751394152641296e-02
-8.077622652053833008e-01 4.585780203342437744e-02 2.692811489105224609e-01
-6.664873361587524414e-01 1.001484394073486328e-01 1.737155169248580933e-01
-7.001798152923583984e-01 6.754551082849502563e-02 -1.305523216724395752e-01
-8.660113215446472168e-01 1.821829229593276978e-01 -1.946508884429931641e-01
-8.377518057823181152e-01 3.157377243041992188e-03 1.546091437339782715e-01
-8.310679793357849121e-01 6.657546758651733398e-02 -1.448493599891662598e-01
-7.354988455772399902e-01 2.289979159832000732e-02 -8.541617542505264282e-02
-9.200142621994018555e-01 1.129363328218460083e-01 2.975447662174701691e-02
-8.468192219734191895e-01 1.340909302234649658e-02 1.724592000246047974e-01
-8.482583165168762207e-01 2.396537512540817261e-01 2.286663800477981567e-01
-8.271999955177307129e-01 2.561587393283843994e-01 -2.293659150600433350e-01
-7.481293678283691406e-01 1.177108287811279297e-02 2.116279602050781250e-01
-8.510289788246154785e-01 4.923989623785018921e-02 2.374554425477981567e-01
-8.633415102958679199e-01 3.110058009624481201e-01 8.055038005113601685e-02
-6.792735457420349121e-01 2.719848752021789551e-01 -1.486580222845077515e-01
-6.383937597274780273e-01 2.062388062477111816e-01 -3.433836251497268677e-02
-7.674723267555236816e-01 -1.327449083328247070e-02 2.084928750991821289e-02
-6.949772834777832031e-01 2.658699452877044678e-02 -2.636530436575412750e-02
-6.450912356376647949e-01 2.089190334081649780e-01 7.202026993036270142e-02
-6.510163545608520508e-01 2.501372694969177246e-01 -4.983862489461898804e-02
-8.399205803871154785e-01 1.946961879730224609e-02 2.034400403499603271e-01
-9.139392971992492676e-01 9.843809157609939575e-02 1.365833543241024017e-02
-7.646403312683105469e-01 5.941584706306457520e-02 -1.631628572940826416e-01
-6.869192719459533691e-01 2.919639647006988525e-01 -1.335793137550354004e-01
-8.532973527908325195e-01 1.776633113622665405e-01 2.679681181907653809e-01
-6.787883639335632324e-01 1.348151117563247681e-01 -1.709900051355361938e-01
-8.785102367401123047e-01 2.512203752994537354e-01 1.755485534667968750e-01
-8.727264404296875000e-01 3.152093589305877686e-01 -5.148259550333023071e-02
-8.849403262138366699e-01 8.934466540813446045e-02 2.174863368272781372e-01
-8.335139751434326172e-01 1.362344175577163696e-01 -2.111151218414306641e-01
-6.939121484756469727e-01 3.110179603099822998e-01 -9.818213433027267456e-02
-7.787547707557678223e-01 3.423784077167510986e-01 -1.382346004247665405e-01
-9.265866279602050781e-01 1.510521471500396729e-01 7.885874807834625244e-02
-7.317827939987182617e-01 2.860671281814575195e-01 -2.153384983539581299e-01
-8.702704906463623047e-01 1.448345035314559937e-01 -1.726870387792587280e-01
-9.066281914710998535e-01 2.593202590942382812e-01 -5.620650202035903931e-02
-6.998529434204101562e-01 2.228312939405441284e-01 2.058622390031814575e-01
-8.667223453521728516e-01 2.527695894241333008e-02 1.611569896340370178e-02
-7.410575747489929199e-01 5.826339125633239746e-03 -4.284346103668212891e-02
-7.750447988510131836e-01 3.549851179122924805e-01 -3.711520880460739136e-02
-6.601136326789855957e-01 1.825432628393173218e-01 -1.520784050226211548e-01
-9.111673831939697266e-01 8.632608503103256226e-02 1.000502258539199829e-01
-7.953571677207946777e-01 3.353405296802520752e-01 8.820421248674392700e-02
-7.496104240417480469e-01 2.128026187419891357e-01 2.625684440135955811e-01
-6.696224212646484375e-01 1.798134297132492065e-01 -1.737097352743148804e-01
-8.889260292053222656e-01 1.616484224796295166e-01 -1.473978161811828613e-01
-6.642001867294311523e-01 5.689822137355804443e-02 9.441823512315750122e-02
-7.136352062225341797e-01 3.102469444274902344e-02 -7.957413792610168457e-02
-6.807426810264587402e-01 3.020756244659423828e-01 -5.014289915561676025e-02
-7.850297689437866211e-01 2.166131287813186646e-01 -2.586768567562103271e-01
-6.570175886154174805e-01 1.266002953052520752e-01 1.564165353775024414e-01
-6.609328985214233398e-01 2.054996490478515625e-01 1.402775645256042480e-01
-8.117951154708862305e-01 8.632200956344604492e-02 2.945721149444580078e-01
-8.689073324203491211e-01 2.630559504032135010e-01 -1.723772585391998291e-01
-8.412674069404602051e-01 7.992637902498245239e-02 -1.517821699380874634e-01
-6.531025171279907227e-01 1.419571191072463989e-01 -1.157817468047142029e-01
-8.556018471717834473e-01 2.850714027881622314e-01 -1.744764447212219238e-01
-9.129245877265930176e-01 2.424276620149612427e-01 -5.102176964282989502e-02
-7.821152806282043457e-01 3.202307224273681641e-01 1.300690025091171265e-01
-7.626804709434509277e-01 8.961317688226699829e-02 2.943379878997802734e-01
-8.870040774345397949e-01 2.759763300418853760e-01 -1.135302260518074036e-01
-8.759980797767639160e-01 5.015657842159271240e-02 -3.709246218204498291e-02
-8.198238015174865723e-01 6.927698850631713867e-03 1.996317207813262939e-01
-7.618169188499450684e-01 2.099178880453109741e-01 -2.592776715755462646e-01
-7.241365313529968262e-01 3.142068386077880859e-01 9.558802843093872070e-02
-6.800664067268371582e-01 1.616903394460678101e-01 2.106472253799438477e-01
-6.795354485511779785e-01 2.461711764335632324e-01 1.414202153682708740e-01
-8.946627378463745117e-01 2.573811113834381104e-01 1.276215016841888428e-01
-7.248656749725341797e-01 2.519306540489196777e-02 -8.023152500391006470e-02
-6.468749642372131348e-01 2.384297400712966919e-01 9.942964650690555573e-03
-7.395871877670288086e-01 3.241343498229980469e-01 9.057497233152389526e-02
-8.791185021400451660e-01 2.553186714649200439e-01 -1.578423231840133667e-01
-7.291352748870849609e-01 1.702323555946350098e-02 -6.390351802110671997e-02
-9.138100147247314453e-01 1.975707113742828369e-01 -8.308451622724533081e-02
-9.189776182174682617e-01 2.246249765157699585e-01 7.947348803281784058e-02
-9.052435755729675293e-01 2.721888124942779541e-01 9.283951483666896820e-03
-6.530383825302124023e-01 8.286331593990325928e-02 -2.478128485381603241e-02
-9.120919108390808105e-01 2.222508788108825684e-01 -8.023911714553833008e-02
-8.860200643539428711e-01 2.695615291595458984e-01 -1.260826438665390015e-01
-7.554566264152526855e-01 1.341417282819747925e-01 -2.345598340034484863e-01
-8.796837925910949707e-01 1.384135186672210693e-01 -1.523755639791488647e-01
-7.536326050758361816e-01 3.358676433563232422e-01 -1.474314332008361816e-01
-6.659022569656372070e-01 2.623611688613891602e-01 -1.190500184893608093e-01
-6.845303177833557129e-01 5.159778892993927002e-02 -7.083851844072341919e-02
-6.504244208335876465e-01 1.792225986719131470e-01 1.253683716058731079e-01
-9.090890884399414062e-01 9.358475357294082642e-02 1.392565518617630005e-01
-8.505528569221496582e-01 1.287868022918701172e-01 2.799470722675323486e-01
-7.438390851020812988e-01 3.482448458671569824e-01 -4.699735343456268311e-02
-6.910279393196105957e-01 4.176010191440582275e-02 1.719860136508941650e-01
-6.758415102958679199e-01 2.917952239513397217e-01 -8.319643884897232056e-02
-8.044722080230712891e-01 2.328440696001052856e-01 2.574895620346069336e-01
-8.179037570953369141e-01 -5.712583661079406738e-03 1.570847183465957642e-01
-6.866628527641296387e-01 2.454446256160736084e-02 9.460752457380294800e-02
-8.570886850357055664e-01 8.186934143304824829e-02 2.589666843414306641e-01
-6.562911272048950195e-01 1.003463119268417358e-01 1.390919089317321777e-01
-8.703800439834594727e-01 3.146590888500213623e-01 3.853511437773704529e-02
-6.942579150199890137e-01 1.687449216842651367e-02 3.090267255902290344e-02
-8.435140252113342285e-01 1.903498917818069458e-01 2.700558304786682129e-01
-7.929358482360839844e-01 3.772702813148498535e-02 2.643968462944030762e-01
-6.576346755027770996e-01 1.854912191629409790e-01 1.461118310689926147e-01
-8.685990571975708008e-01 3.039821684360504150e-01 8.934786170721054077e-02
-7.413724660873413086e-01 5.677341669797897339e-02 2.646075487136840820e-01
-7.710519433021545410e-01 3.159283399581909180e-01 1.369254440069198608e-01
-8.215788602828979492e-01 3.485410213470458984e-01 -1.156377606093883514e-02
-6.896610260009765625e-01 2.368378043174743652e-01 -2.012356221675872803e-01
-6.409128904342651367e-01 1.714368313550949097e-01 8.491221070289611816e-02
-8.183896541595458984e-01 1.775769740343093872e-01 -2.409133315086364746e-01
-8.408859968185424805e-01 3.378119766712188721e-01 1.866662502288818359e-02
-6.690033078193664551e-01 1.338647454977035522e-01 1.909900307655334473e-01
-9.251562952995300293e-01 1.586609482765197754e-01 -9.349612519145011902e-03
-7.798723578453063965e-01 -5.824014544486999512e-03 -1.747999154031276703e-02
-7.561830878257751465e-01 3.220934569835662842e-01 -1.817049980163574219e-01
-8.855442404747009277e-01 4.496879875659942627e-02 2.134282886981964111e-02
-7.339941859245300293e-01 3.431518673896789551e-01 -1.564073376357555389e-02
-7.681856751441955566e-01 -6.319507956504821777e-03 -1.511659659445285797e-02
-7.919784784317016602e-01 3.297699093818664551e-01 -1.697948426008224487e-01
-8.913938403129577637e-01 2.891168594360351562e-01 -6.107033044099807739e-02
-6.347386837005615234e-01 1.506254225969314575e-01 2.493055537343025208e-02
-8.683533072471618652e-01 3.106554746627807617e-01 6.643149256706237793e-02
-7.070247530937194824e-01 2.073753178119659424e-01 2.283842712640762329e-01
-6.473296880722045898e-01 2.424152791500091553e-01 -1.954094879329204559e-02
-8.087826371192932129e-01 5.563691258430480957e-03 2.060680985450744629e-01
-8.176769018173217773e-01 3.632734715938568115e-02 -1.075011417269706726e-01
-9.182739853858947754e-01 2.209094315767288208e-01 9.226637333631515503e-02
-9.093431234359741211e-01 8.580382913351058960e-02 1.859697699546813965e-02
-7.985311150550842285e-01 9.032417088747024536e-02 2.990443408489227295e-01
-6.736975908279418945e-01 1.663450598716735840e-01 1.963123977184295654e-01
-7.844653725624084473e-01 1.335754990577697754e-02 -7.659564912319183350e-02
-7.363470792770385742e-01 3.450936973094940186e-01 -3.265314549207687378e-02
-8.335487842559814453e-01 2.677746415138244629e-01 2.072952687740325928e-01
-6.854511499404907227e-01 2.326467335224151611e-01 1.713686734437942505e-01
-9.165267348289489746e-01 1.533449143171310425e-01 1.505644917488098145e-01
-6.782653927803039551e-01 2.857418060302734375e-01 -1.177983060479164124e-01
-6.651840806007385254e-01 5.104596912860870361e-02 2.941418811678886414e-02
-8.809605240821838379e-01 1.514494419097900391e-01 -1.581631451845169067e-01
-8.631346225738525391e-01 3.202657699584960938e-01 -7.979001104831695557e-02
-6.416640281677246094e-01 2.238717973232269287e-01 -2.021704800426959991e-02
-8.716757297515869141e-01 1.024681925773620605e-01 -1.346170008182525635e-01
-6.816814541816711426e-01 1.230589672923088074e-01 2.172222286462783813e-01
-8.856116533279418945e-01 2.963848710060119629e-01 5.196851119399070740e-02
-8.887534737586975098e-01 2.872428297996520996e-01 -8.241588622331619263e-02
-7.092906236648559570e-01 2.964204549789428711e-01 1.132997870445251465e-01
-6.924009919166564941e-01 1.692782342433929443e-02 6.130853295326232910e-02
-8.717358708381652832e-01 6.747303903102874756e-02 -8.517619967460632324e-02
-8.011279106140136719e-01 4.642514139413833618e-02 -1.366122961044311523e-01
-9.144863486289978027e-01 1.801105290651321411e-01 1.522195637226104736e-01
-8.561975955963134766e-01 3.592281043529510498e-02 -5.179271847009658813e-02
-7.236286401748657227e-01 3.122907876968383789e-02 -9.290241450071334839e-02
-8.600669503211975098e-01 9.878187626600265503e-02 2.638885080814361572e-01
-9.168348312377929688e-01 2.042254656553268433e-01 1.237876191735267639e-01
-8.183525204658508301e-01 2.570271193981170654e-01 2.289558351039886475e-01
-9.061055183410644531e-01 2.454253435134887695e-01 -8.436992019414901733e-02
-8.201923370361328125e-01 3.183089792728424072e-01 -1.734483838081359863e-01
-7.429503202438354492e-01 1.446246206760406494e-01 2.886024117469787598e-01
-6.803727149963378906e-01 1.741383671760559082e-01 2.066094428300857544e-01
-8.497847318649291992e-01 9.812848269939422607e-02 -1.626657843589782715e-01
-6.455730199813842773e-01 1.068244278430938721e-01 8.960793912410736084e-02
-6.413274407386779785e-01 1.125778406858444214e-01 -1.356428675353527069e-02
-9.042713642120361328e-01 2.300011217594146729e-01 -1.063001081347465515e-01
-7.848497629165649414e-01 3.457001447677612305e-01 4.864345490932464600e-02
-8.334927558898925781e-01 2.303428202867507935e-01 2.485884726047515869e-01
-8.894039988517761230e-01 2.459507435560226440e-01 -1.402753293514251709e-01
-8.853407502174377441e-01 1.235349923372268677e-01 2.331307381391525269e-01
-9.136773347854614258e-01 9.038597345352172852e-02 7.950343936681747437e-02
-6.707030534744262695e-01 2.050722539424896240e-01 1.667393743991851807e-01
-8.256230354309082031e-01 -3.373399376869201660e-03 2.323251217603683472e-02
-9.227932691574096680e-01 1.292145550251007080e-01 9.698262065649032593e-02
-6.462944746017456055e-01 2.052173912525177002e-01 -1.000809073448181152e-01
-8.840192556381225586e-01 9.880560636520385742e-02 -1.051876321434974670e-01
-6.976952552795410156e-01 1.757244169712066650e-01 -2.164523601531982422e-01
-6.946006417274475098e-01 2.590905129909515381e-01 -1.952399015426635742e-01
-9.003096222877502441e-01 1.558069586753845215e-01 2.025234401226043701e-01
-6.833831667900085449e-01 8.428294956684112549e-02 -1.275592148303985596e-01
-7.263416647911071777e-01 3.184376060962677002e-01 -1.608588099479675293e-01
-7.974797487258911133e-01 -8.723571896553039551e-03 4.757817834615707397e-03
-9.150980114936828613e-01 2.370429039001464844e-01 7.862466573715209961e-02
-9.074550271034240723e-01 2.650617361068725586e-01 3.922019153833389282e-02
-7.168735861778259277e-01 1.801644265651702881e-02 1.817930042743682861e-01
-8.367305397987365723e-01 4.546940326690673828e-04 3.379067778587341309e-02
-8.316107988357543945e-01 2.459736168384552002e-02 -6.659819930791854858e-02
-8.801195025444030762e-01 2.268238216638565063e-01 2.013704031705856323e-01
-7.941619157791137695e-01 2.042858600616455078e-01 2.801262438297271729e-01
-7.833293080329895020e-01 2.365953624248504639e-01 -2.562663555145263672e-01
-6.706293225288391113e-01 2.433751523494720459e-01 -1.584206372499465942e-01
-8.421154022216796875e-01 2.355867922306060791e-01 -2.231628447771072388e-01
-6.812111735343933105e-01 8.727482706308364868e-02 2.025606185197830200e-01
-6.695897579193115234e-01 2.867445945739746094e-01 -1.647496782243251801e-02
-6.400364041328430176e-01 1.417358964681625366e-01 -5.632957071065902710e-02
-6.692093014717102051e-01 8.648266643285751343e-02 -9.881996363401412964e-02
-8.725310564041137695e-01 7.590085268020629883e-02 2.312827706336975098e-01
-8.681266903877258301e-01 4.557676613330841064e-02 2.012540251016616821e-01
-8.841065168380737305e-01 5.524478852748870850e-02 -2.323287166655063629e-02
-9.236760735511779785e-01 2.030121237039566040e-01 -2.281329967081546783e-02
-6.922903656959533691e-01 6.824858486652374268e-02 2.105090171098709106e-01
-7.104436159133911133e-01 3.293250203132629395e-01 -1.434715278446674347e-02
-9.031119346618652344e-01 9.629499167203903198e-02 1.713340431451797485e-01
-6.449407339096069336e-01 2.348719239234924316e-01 -3.012841381132602692e-02
-7.494152784347534180e-01 3.106049299240112305e-01 -1.974203884601593018e-01
-7.751188874244689941e-01 -1.210840046405792236e-02 1.569892466068267822e-01
-8.892590999603271484e-01 4.579084366559982300e-02 1.112988442182540894e-01
-7.467780709266662598e-01 2.820222973823547363e-01 1.856655329465866089e-01
-7.137161493301391602e-01 1.013134196400642395e-01 -1.872559636831283569e-01
-6.481224298477172852e-01 8.587542921304702759e-02 4.885792732238769531e-02
-7.944849133491516113e-01 1.940524578094482422e-02 -8.752549439668655396e-02
-6.432470083236694336e-01 2.093183696269989014e-01 5.942494422197341919e-02
-6.792615652084350586e-01 1.981771737337112427e-01 1.906990110874176025e-01
-8.445793390274047852e-01 7.947295904159545898e-02 2.710863053798675537e-01
-8.645604848861694336e-01 5.335472524166107178e-02 -7.371402531862258911e-02
-7.368895411491394043e-01 1.829771846532821655e-01 -2.489393353462219238e-01
-7.567502856254577637e-01 4.699213057756423950e-02 -1.430995911359786987e-01
-7.808563113212585449e-01 1.849237084388732910e-02 2.389736175537109375e-01
-7.712208032608032227e-01 2.864987254142761230e-01 1.917740404605865479e-01
-7.333750724792480469e-01 3.366598486900329590e-01 3.153905645012855530e-02
-8.912202119827270508e-01 2.734930813312530518e-01 1.041811406612396240e-01
-6.551595926284790039e-01 6.898716837167739868e-02 5.235347896814346313e-02
-9.027212262153625488e-01 1.258016973733901978e-01 1.933477073907852173e-01
-7.509726881980895996e-01 8.694031834602355957e-02 2.879734635353088379e-01
-7.669226527214050293e-01 1.844410598278045654e-01 2.871311008930206299e-01
-7.331477403640747070e-01 2.181260287761688232e-02 2.149287760257720947e-01
-6.388921737670898438e-01 1.536872088909149170e-01 -5.878773331642150879e-02
-8.082300424575805664e-01 7.962410151958465576e-02 -1.787633895874023438e-01
-8.219892382621765137e-01 7.091367989778518677e-02 -1.588039696216583252e-01
-7.143135070800781250e-01 2.794460058212280273e-01 1.548778712749481201e-01
-8.232331871986389160e-01 3.265541791915893555e-02 2.454946488142013550e-01
-7.059920430183410645e-01 3.244008123874664307e-01 1.604493707418441772e-03
-8.659734129905700684e-01 1.848441213369369507e-01 2.515238821506500244e-01
-7.391253113746643066e-01 3.113247752189636230e-01 1.236830055713653564e-01
-8.926012516021728516e-01 2.671185135841369629e-01 1.143715083599090576e-01
-6.732299923896789551e-01 2.579424083232879639e-01 -1.506930738687515259e-01
-8.806031346321105957e-01 5.901432037353515625e-02 1.925242394208908081e-01
-6.674813032150268555e-01 2.805224359035491943e-01 -7.349576801061630249e-02
-6.780010461807250977e-01 2.965278029441833496e-01 1.494599506258964539e-03
-8.250246644020080566e-01 2.712674736976623535e-01 -2.225386053323745728e-01
-7.248855233192443848e-01 3.392662405967712402e-01 -2.740286476910114288e-02
-8.234108686447143555e-01 2.169579267501831055e-03 -8.809288963675498962e-03
-9.083835482597351074e-01 1.246051490306854248e-01 1.746631860733032227e-01
-9.120980501174926758e-01 8.819803595542907715e-02 3.892014175653457642e-02
-8.928213715553283691e-01 2.919387221336364746e-01 1.982315629720687866e-02
-8.066231012344360352e-01 3.509539067745208740e-01 -7.956603169441223145e-02
-7.664591073989868164e-01 3.516318500041961670e-01 -8.667688071727752686e-02
-6.924463510513305664e-01 2.651846408843994141e-02 1.374814212322235107e-01
-8.603137731552124023e-01 1.557086408138275146e-02 1.315980553627014160e-01
-6.395875215530395508e-01 2.057410478591918945e-01 -5.265527218580245972e-02
-7.755572795867919922e-01 1.078387051820755005e-01 -2.166487276554107666e-01
-7.081355452537536621e-01 2.518743872642517090e-01 -2.185574918985366821e-01
-9.036748409271240234e-01 1.696729511022567749e-01 1.907444298267364502e-01
-8.892176151275634766e-01 2.319052517414093018e-01 1.786274611949920654e-01
-8.389520049095153809e-01 5.094613134860992432e-02 -1.115949526429176331e-01
-9.250345826148986816e-01 1.328160464763641357e-01 4.110416769981384277e-02
-8.143289089202880859e-01 -1.259352266788482666e-02 6.893057376146316528e-02
-9.120155572891235352e-01 1.183113977313041687e-01 1.561640650033950806e-01
-8.733915090560913086e-01 3.162783980369567871e-01 -2.914155088365077972e-02
-7.554042935371398926e-01 2.357673048973083496e-01 2.467197328805923462e-01
-6.674099564552307129e-01 1.215599700808525085e-01 -1.377702504396438599e-01
-8.836916089057922363e-01 3.029094338417053223e-01 -4.711984843015670776e-02
-6.698793172836303711e-01 2.740324735641479492e-01 5.359403416514396667e-02
-7.356503605842590332e-01 1.974632441997528076e-01 -2.506016790866851807e-01
-7.441629171371459961e-01 2.994080781936645508e-01 1.537765413522720337e-01
-7.930067777633666992e-01 3.480200171470642090e-01 3.619919717311859131e-02
-8.545830249786376953e-01 3.122016191482543945e-01 9.725775569677352905e-02
-7.040600776672363281e-01 2.616571784019470215e-01 -2.071588784456253052e-01
-9.009344577789306641e-01 6.650657206773757935e-02 3.047467768192291260e-02
-7.862123847007751465e-01 1.238233745098114014e-01 3.050577640533447266e-01
-7.160978913307189941e-01 1.340449154376983643e-01 2.672227025032043457e-01
-9.053825139999389648e-01 2.635803222656250000e-01 6.509985029697418213e-02
-6.652771830558776855e-01 2.804749011993408203e-01 -2.956767566502094269e-02
-7.283443808555603027e-01 1.025854796171188354e-01 -1.995553225278854370e-01
-7.796790003776550293e-01 9.691891074180603027e-02 3.008560240268707275e-01
-6.739290952682495117e-01 2.923547923564910889e-01 -6.020888686180114746e-02
-8.556932210922241211e-01 2.656998336315155029e-01 -1.921561658382415771e-01
-9.276249408721923828e-01 1.622304320335388184e-01 6.951546669006347656e-02
-7.485265135765075684e-01 1.748892962932586670e-01 -2.512913346290588379e-01
-7.072457671165466309e-01 3.402033448219299316e-02 1.955944746732711792e-01
-6.666274070739746094e-01 2.799909710884094238e-01 5.285885185003280640e-03
-8.167604207992553711e-01 2.978998124599456787e-01 1.701307743787765503e-01
-8.482787609100341797e-01 3.813284635543823242e-02 2.259756922721862793e-01
-7.571098804473876953e-01 -2.062335610389709473e-03 -2.755766548216342926e-02
-7.260196805000305176e-01 1.936082243919372559e-01 2.577995657920837402e-01
-7.816978096961975098e-01 2.132901251316070557e-01 2.733990848064422607e-01
-9.253754019737243652e-01 2.095960974693298340e-01 1.888565905392169952e-02
-8.290123343467712402e-01 3.165084719657897949e-01 1.219615191221237183e-01
-6.642690300941467285e-01 1.135889142751693726e-01 1.742868423461914062e-01
-7.628996968269348145e-01 -1.499418914318084717e-02 1.308125406503677368e-01
-6.385414600372314453e-01 1.233897209167480469e-01 4.792989417910575867e-02
-6.365103721618652344e-01 1.596340835094451904e-01 -4.255610704421997070e-02
