5.646592378616333008e-02 -3.388546407222747803e-02 1.708450494334101677e-03
-7.887386716902256012e-03 4.985678941011428833e-02 -5.212728306651115417e-02
6.348896771669387817e-02 7.964148372411727905e-02 2.254477329552173615e-02
1.904442906379699707e-02 -4.985984042286872864e-02 4.382310062646865845e-02
3.021652996540069580e-02 -3.929962590336799622e-02 5.439818277955055237e-02
-1.326996181160211563e-02 1.105135958641767502e-02 -9.594231098890304565e-02
-3.972749784588813782e-02 -7.332061976194381714e-02 -3.737816959619522095e-02
-6.729374080896377563e-02 -7.444921135902404785e-02 -1.880905474536120892e-03
-5.924316495656967163e-02 -5.930577218532562256e-02 -6.273338943719863892e-02
6.986338645219802856e-02 1.356927305459976196e-02 -7.922162115573883057e-02
7.946854084730148315e-02 -6.587525364011526108e-03 2.766234427690505981e-02
-8.839029073715209961e-02 -2.727284841239452362e-02 -3.025709651410579681e-02
8.123818784952163696e-03 7.353641558438539505e-03 1.068841814994812012e-01
-3.959960117936134338e-02 4.020513221621513367e-02 -1.811240613460540771e-02
-5.634202808141708374e-02 2.894221805036067963e-02 3.365016076713800430e-03
2.443823963403701782e-02 -5.550153180956840515e-02 -3.360445844009518623e-04
8.919414877891540527e-02 3.623047471046447754e-02 -5.787768214941024780e-02
-6.351389735937118530e-02 8.739076554775238037e-03 -4.476755857467651367e-02
2.150515466928482056e-02 7.457213103771209717e-02 1.276075001806020737e-02
6.887359917163848877e-02 3.310856595635414124e-02 8.159369230270385742e-02
-5.175137147307395935e-02 -9.949672035872936249e-03 8.890060335397720337e-02
5.057833343744277954e-02 5.862184986472129822e-02 -6.625278294086456299e-02
2.567025646567344666e-02 -5.473539233207702637e-02 -1.969277299940586090e-02
4.787103831768035889e-02 4.668314754962921143e-02 8.970050513744354248e-02
-7.500257343053817749e-02 -2.698592655360698700e-02 6.643078476190567017e-02
5.194773897528648376e-02 1.956010237336158752e-02 9.309683740139007568e-02
-2.054360136389732361e-02 1.978056691586971283e-02 9.745498001575469971e-02
-3.248377144336700439e-02 1.350390445441007614e-02 -8.153884112834930420e-02
9.676415473222732544e-02 4.489267617464065552e-02 -4.173485562205314636e-02
3.853600099682807922e-02 4.344909638166427612e-02 9.399206936359405518e-02
9.237947314977645874e-02 2.341817133128643036e-02 -4.918930307030677795e-02
-6.356891244649887085e-02 -5.996012594550848007e-03 -6.373330950736999512e-02
8.805654942989349365e-02 7.176262140274047852e-02 2.416418306529521942e-02
-9.007971733808517456e-02 -1.867834664881229401e-02 2.003152482211589813e-02
5.357000976800918579e-02 -3.114391863346099854e-02 3.081834129989147186e-02
2.494008839130401611e-02 4.434106871485710144e-02 -8.190669119358062744e-02
7.185922563076019287e-02 -1.411706302314996719e-02 -4.487384110689163208e-02
-5.222681164741516113e-02 -7.681175321340560913e-02 -4.390565678477287292e-03
9.660612046718597412e-02 3.475888445973396301e-02 -4.366003721952438354e-02
-9.468177706003189087e-02 -3.760210424661636353e-02 1.313556544482707977e-02
-7.737986743450164795e-02 3.303738776594400406e-05 3.900150209665298462e-02
-4.861518740653991699e-03 -1.268872618675231934e-02 -1.037639677524566650e-01
1.789490878582000732e-02 -4.844073578715324402e-02 -6.465087831020355225e-02
-3.845734894275665283e-02 -5.351542308926582336e-02 7.084882259368896484e-02
2.449774742126464844e-02 -4.696255177259445190e-02 -5.956726148724555969e-02
5.326510965824127197e-02 -2.357357181608676910e-02 -6.526109576225280762e-02
6.135922390967607498e-03 6.874576210975646973e-02 6.349923787638545036e-04
1.005691364407539368e-01 2.292844280600547791e-02 -1.691287197172641754e-02
7.710372656583786011e-02 -7.214435841888189316e-03 3.385241329669952393e-02
4.588992334902286530e-03 -3.302773460745811462e-02 8.595891296863555908e-02
4.836988076567649841e-02 -3.382933884859085083e-02 3.554836288094520569e-02
-7.825383543968200684e-02 -4.631608352065086365e-02 -5.375393480062484741e-02
6.879456341266632080e-02 -2.216991595923900604e-02 -2.521217614412307739e-02
7.462053000926971436e-02 1.042136643081903458e-02 -7.217068970203399658e-02
9.717942774295806885e-02 2.061863429844379425e-02 2.456327527761459351e-02
5.842249840497970581e-02 -2.339606545865535736e-02 4.169571772217750549e-02
-5.155624821782112122e-02 3.339495137333869934e-02 6.820054259151220322e-03
-8.543948829174041748e-02 -7.292633410543203354e-03 1.689222408458590508e-03
4.586933180689811707e-02 7.806674391031265259e-02 3.242763876914978027e-02
-3.352047502994537354e-02 2.913866937160491943e-02 7.783702760934829712e-02
-3.801545128226280212e-03 -6.615503132343292236e-02 1.882900483906269073e-02
2.097101509571075439e-02 1.715550944209098816e-02 1.053368598222732544e-01
6.714463233947753906e-05 -4.546831920742988586e-02 7.175108790397644043e-02
9.269455075263977051e-02 5.764980334788560867e-03 -9.128210134804248810e-03
9.118504822254180908e-02 6.058948114514350891e-02 4.298037290573120117e-02
-9.204575791954994202e-03 5.500428378582000732e-02 -3.620791062712669373e-02
-1.149272639304399490e-02 -6.954683363437652588e-02 -3.013836778700351715e-02
7.592736184597015381e-02 4.342161491513252258e-02 -7.035186886787414551e-02
8.482645452022552490e-02 8.137029595673084259e-03 4.338643327355384827e-02
7.325494289398193359e-02 5.974125862121582031e-02 -5.712121352553367615e-02
6.454790383577346802e-02 -2.667155116796493530e-02 4.977455362677574158e-03
6.204564496874809265e-02 -1.166819501668214798e-02 5.829964950680732727e-02
7.312070578336715698e-02 -1.721748337149620056e-02 -2.837690152227878571e-02
1.709032803773880005e-02 2.469147555530071259e-02 1.044452339410781860e-01
-4.557850211858749390e-02 -7.191821932792663574e-02 3.100984543561935425e-02
4.760990664362907410e-02 -1.828860305249691010e-02 -8.007057756185531616e-02
2.247870340943336487e-02 -2.259210310876369476e-02 -9.504473209381103516e-02
7.916361093521118164e-02 -4.010295961052179337e-03 -4.736497253179550171e-02
5.256987642496824265e-03 3.527165204286575317e-02 -8.492368459701538086e-02
-4.054874926805496216e-02 9.094687178730964661e-03 -7.805044203996658325e-02
-1.291871909052133560e-02 -2.689889818429946899e-02 -9.981899708509445190e-02
5.636461079120635986e-02 5.232050642371177673e-02 -7.325250655412673950e-02
-4.806380718946456909e-02 3.518345206975936890e-02 -7.802832406014204025e-03
-6.502198427915573120e-02 2.045714855194091797e-02 1.266143936663866043e-02
-8.762649446725845337e-02 -1.150968577712774277e-02 1.245974283665418625e-02
-8.748801797628402710e-02 -5.553753301501274109e-02 -2.714322879910469055e-02
6.057420000433921814e-02 8.357547223567962646e-03 -8.626689761877059937e-02
-2.701312303543090820e-02 4.116627201437950134e-02 6.537637114524841309e-02
2.005314081907272339e-02 -4.186588898301124573e-02 -7.515528053045272827e-02
-2.461970224976539612e-02 3.628033446148037910e-03 1.020888909697532654e-01
-3.716152161359786987e-03 4.161463305354118347e-02 8.761102706193923950e-02
-8.633640594780445099e-03 2.335876226425170898e-02 1.008008494973182678e-01
-3.953194990754127502e-02 -3.666891902685165405e-02 -8.994684368371963501e-02
9.244048595428466797e-02 5.410392209887504578e-02 4.703653603792190552e-02
-3.141225874423980713e-02 -3.372287750244140625e-02 9.147731959819793701e-02
6.750990450382232666e-02 2.436351217329502106e-02 -8.283409476280212402e-02
-4.541867971420288086e-02 3.211279958486557007e-02 5.200636386871337891e-02
-8.687924593687057495e-02 -2.361803129315376282e-02 4.176284372806549072e-02
1.497032027691602707e-02 6.446418911218643188e-02 5.983811989426612854e-02
1.094491127878427505e-02 5.185414478182792664e-02 -6.527008116245269775e-02
-4.080012813210487366e-02 1.980140246450901031e-02 -6.542561948299407959e-02
-1.610106974840164185e-02 -7.646937388926744461e-03 1.044778525829315186e-01
8.048081398010253906e-02 -1.001228485256433487e-02 7.274516392499208450e-03
9.810951352119445801e-02 6.487307697534561157e-02 -4.539191722869873047e-03
-3.385269083082675934e-03 3.599117323756217957e-02 9.374243766069412231e-02
1.009784564375877380e-01 3.900839760899543762e-02 2.932880446314811707e-02
-7.972965389490127563e-02 -3.703989461064338684e-02 -5.353418737649917603e-02
-7.329840213060379028e-02 -3.072388842701911926e-02 -6.291183084249496460e-02
-5.264925770461559296e-03 -6.884045153856277466e-02 -2.126507461071014404e-03
1.034123972058296204e-01 4.984788224101066589e-02 1.745488867163658142e-02
-5.700821429491043091e-02 -1.926466822624206543e-02 -7.921665161848068237e-02
2.784086018800735474e-02 -3.613455593585968018e-02 -7.693729549646377563e-02
-7.578621804714202881e-02 -1.105956919491291046e-02 5.900550261139869690e-02
-1.030156016349792480e-02 3.545980527997016907e-02 -7.512134313583374023e-02
-3.259569033980369568e-02 -5.599278211593627930e-02 6.694360822439193726e-02
-6.580498814582824707e-02 1.909368485212326050e-02 2.117494307458400726e-02
-2.927969023585319519e-02 -4.020082578063011169e-02 -9.119614958763122559e-02
3.423032909631729126e-02 -2.741890959441661835e-02 7.116015255451202393e-02
8.159499615430831909e-02 -9.392743930220603943e-03 -1.400978025048971176e-02
-5.344098061323165894e-02 -5.515792407095432281e-03 -7.626163214445114136e-02
1.494550239294767380e-02 7.050027698278427124e-02 -1.412419509142637253e-02
4.166996106505393982e-03 5.473206192255020142e-02 -5.413524433970451355e-02
-9.075172245502471924e-02 -3.738663718104362488e-02 -2.765980362892150879e-02
1.147131621837615967e-02 -4.015098139643669128e-02 7.234117388725280762e-02
1.001967024058103561e-02 -6.263393163681030273e-02 3.707043942995369434e-04
8.607304841279983521e-02 -2.852401696145534515e-03 -2.100630290806293488e-02
-4.569050855934619904e-03 -3.371925279498100281e-02 -9.583721309900283813e-02
-3.911352902650833130e-02 -1.718760281801223755e-02 -9.258062392473220825e-02
-1.784877106547355652e-02 -1.076066307723522186e-02 -1.012683883309364319e-01
-5.382527783513069153e-02 -6.323185563087463379e-02 5.241933092474937439e-02
-6.978937983512878418e-02 -6.925553083419799805e-02 2.706930786371231079e-02
2.346932515501976013e-02 -5.627414584159851074e-02 -9.083721786737442017e-03
-3.548006340861320496e-02 -6.049013882875442505e-02 5.937275663018226624e-02
-3.189497813582420349e-02 -5.057861655950546265e-02 7.481899857521057129e-02
-4.908593371510505676e-02 -6.055020168423652649e-02 5.861838907003402710e-02
2.289295895025134087e-03 4.815948009490966797e-02 -6.547327339649200439e-02
-1.797705888748168945e-02 3.452023118734359741e-02 -6.973510980606079102e-02
-3.062560781836509705e-02 -1.144007500261068344e-02 -9.626258164644241333e-02
9.676613658666610718e-02 3.984760493040084839e-02 4.198910668492317200e-02
1.019857302308082581e-01 2.588000707328319550e-02 5.754417739808559418e-03
-6.653132289648056030e-02 1.795491017401218414e-02 -4.681874532252550125e-03
-6.503881514072418213e-02 -7.279378175735473633e-02 1.848075352609157562e-02
2.878025174140930176e-02 -5.327110737562179565e-02 -1.282240636646747589e-02
-8.351402729749679565e-02 -4.031174257397651672e-02 -4.641318693757057190e-02
6.717756390571594238e-02 -7.263796869665384293e-03 5.641716718673706055e-02
6.320181488990783691e-02 6.939392536878585815e-02 5.852829664945602417e-02
-8.095409721136093140e-02 -6.562664359807968140e-02 1.853049360215663910e-02
7.109803706407546997e-02 -2.005666121840476990e-02 8.303967304527759552e-03
7.566902786493301392e-02 7.853363454341888428e-02 1.078233309090137482e-02
-7.807606458663940430e-02 -7.274269592016935349e-03 -3.625996783375740051e-02
3.206548839807510376e-02 -4.253224283456802368e-02 -5.924608558416366577e-02
-2.748334780335426331e-02 -6.927400082349777222e-02 3.413285687565803528e-02
-1.915344968438148499e-02 -7.238829880952835083e-02 7.029061671346426010e-03
6.402874365448951721e-03 -6.442707031965255737e-02 -4.722136072814464569e-03
-7.585822790861129761e-02 -5.458344891667366028e-02 -5.142348259687423706e-02
6.311697512865066528e-02 -2.634224668145179749e-02 -3.255746141076087952e-02
-8.446297049522399902e-02 -5.027951300144195557e-02 4.174313694238662720e-02
2.901075780391693115e-02 7.366712391376495361e-02 -2.045436948537826538e-02
9.912066161632537842e-04 6.435420364141464233e-02 -1.763913221657276154e-02
-1.589538156986236572e-02 -7.222694158554077148e-02 -4.885696806013584137e-03
9.380350261926651001e-02 1.686738803982734680e-02 3.112365491688251495e-02
-6.697665899991989136e-02 1.474679540842771530e-02 3.757661581039428711e-02
6.005712971091270447e-02 6.846621632575988770e-02 -4.781199619174003601e-02
-8.345578610897064209e-02 -6.626969575881958008e-02 -2.935154829174280167e-03
1.063580252230167389e-02 1.034077350050210953e-02 -1.026896461844444275e-01
3.312590718269348145e-02 -6.540130125358700752e-04 -1.002215296030044556e-01
5.676684156060218811e-02 4.670131206512451172e-02 8.616921305656433105e-02
-3.388571366667747498e-02 -7.484710216522216797e-02 -2.571915648877620697e-02
5.083873495459556580e-02 5.891139805316925049e-02 7.816305011510848999e-02
-1.492871250957250595e-02 5.621881783008575439e-02 4.110503569245338440e-02
8.976656943559646606e-02 5.985840689390897751e-03 2.293700724840164185e-02
-4.629737697541713715e-03 -5.531308427453041077e-02 -7.002231478691101074e-02
7.558345794677734375e-02 -4.041578620672225952e-03 4.483545571565628052e-02
-4.514987766742706299e-02 3.648853674530982971e-02 -1.478376332670450211e-02
3.054137900471687317e-02 4.722810164093971252e-02 -7.976419478654861450e-02
3.220878913998603821e-02 6.809306889772415161e-02 -4.346419870853424072e-02
-7.955259829759597778e-02 -6.040172651410102844e-02 3.561834618449211121e-02
8.822679519653320312e-02 6.889273971319198608e-02 -2.426315844058990479e-02
1.230311207473278046e-02 5.775323137640953064e-02 -5.464655160903930664e-02
1.019642353057861328e-01 2.493206597864627838e-02 -6.155492272228002548e-03
-8.378480374813079834e-02 -6.382259074598550797e-03 2.552505210041999817e-02
2.833857759833335876e-02 7.480082660913467407e-02 -1.273329928517341614e-02
-1.828866079449653625e-02 -2.313379943370819092e-02 9.889171272516250610e-02
-9.226713329553604126e-02 -4.750901460647583008e-02 -1.903159730136394501e-02
9.856195189058780670e-03 -5.624872446060180664e-02 3.786971420049667358e-02
3.682746365666389465e-02 2.571789920330047607e-02 1.007166951894760132e-01
4.120769724249839783e-02 7.825407385826110840e-02 2.678305655717849731e-02
1.747792400419712067e-02 -2.344558760523796082e-02 8.916744589805603027e-02
2.811029180884361267e-02 6.069933995604515076e-02 -5.850695446133613586e-02
-8.770307525992393494e-03 6.200571358203887939e-02 2.101744152605533600e-02
-1.829003170132637024e-02 -5.734558403491973877e-02 6.050359830260276794e-02
-2.026292961090803146e-03 5.362229794263839722e-02 6.976868212223052979e-02
9.179826080799102783e-02 4.315407481044530869e-03 -2.718166913837194443e-03
4.873641952872276306e-02 7.952352613210678101e-02 -3.767281770706176758e-03
-8.441251702606678009e-04 -2.886770665645599365e-02 -9.835564345121383667e-02
1.356792822480201721e-02 7.186617702245712280e-02 6.087228655815124512e-03
-8.079790510237216949e-03 3.113660588860511780e-02 -8.206151425838470459e-02
-4.056240990757942200e-02 3.161256760358810425e-02 -4.417039453983306885e-02
1.352458912879228592e-02 4.279667884111404419e-02 -7.996888458728790283e-02
4.845305532217025757e-02 1.634947024285793304e-03 -9.304215759038925171e-02
-6.514990329742431641e-02 -7.228923588991165161e-02 -2.950566075742244720e-02
-4.672786965966224670e-02 -7.429520785808563232e-02 -3.322994709014892578e-02
4.012662917375564575e-02 -4.325454309582710266e-02 2.157101966440677643e-02
-1.994724199175834656e-02 3.391376230865716934e-03 -9.671424329280853271e-02
2.128201350569725037e-02 6.499514728784561157e-02 6.339596956968307495e-02
-7.960885763168334961e-02 -1.612146385014057159e-02 5.491174757480621338e-02
7.012822479009628296e-02 3.637678921222686768e-02 -7.821007072925567627e-02
-1.577987335622310638e-03 5.667188763618469238e-02 6.318513303995132446e-02
-5.775987356901168823e-02 1.977850496768951416e-02 5.302337184548377991e-02
-7.236078381538391113e-02 7.289023604243993759e-03 3.948324546217918396e-02
2.739067748188972473e-02 6.503812968730926514e-02 6.669503450393676758e-02
-3.973440825939178467e-02 4.286436736583709717e-02 1.772643253207206726e-02
3.560265526175498962e-02 5.410029366612434387e-02 -7.185756415128707886e-02
4.124063625931739807e-02 -3.620711341500282288e-02 -5.941574275493621826e-02
-3.917533531785011292e-02 -1.470451522618532181e-02 9.683755040168762207e-02
-8.063524030148983002e-03 -6.340382993221282959e-02 3.737407177686691284e-02
7.258128374814987183e-02 -6.660189013928174973e-03 -5.833328515291213989e-02
3.975758701562881470e-02 -1.245551835745573044e-02 8.400411158800125122e-02
7.187733799219131470e-02 -9.571215137839317322e-03 4.253956303000450134e-02
1.474248338490724564e-02 -3.050073236227035522e-02 -9.247745573520660400e-02
-4.755489528179168701e-02 3.684557601809501648e-02 1.227409858256578445e-02
-7.230734825134277344e-02 -4.037724807858467102e-02 6.621609628200531006e-02
-3.035727888345718384e-02 1.504749758169054985e-03 -9.177190065383911133e-02
7.834029942750930786e-02 2.799691166728734970e-03 5.017051100730895996e-02
5.646764114499092102e-02 7.913168519735336304e-02 -1.115379761904478073e-02
6.874831765890121460e-02 4.961762949824333191e-02 -7.085321843624114990e-02
3.518875688314437866e-02 7.055443525314331055e-02 5.664970353245735168e-02
-5.158121138811111450e-02 -7.564855366945266724e-02 1.203988585621118546e-02
9.463100880384445190e-02 9.640469215810298920e-03 -1.536890398710966110e-02
6.436157971620559692e-02 4.481666162610054016e-02 -7.700749486684799194e-02
6.368055008351802826e-03 1.796887023374438286e-03 -1.042591631412506104e-01
4.927856102585792542e-02 7.714673131704330444e-02 -2.050035074353218079e-02
-4.231683164834976196e-02 -3.240294754505157471e-02 8.984043449163436890e-02
1.051803026348352432e-02 5.742115899920463562e-02 7.256259024143218994e-02
5.496752262115478516e-02 6.587445735931396484e-02 -5.379162356257438660e-02
-7.421112060546875000e-02 -1.172009855508804321e-02 -5.097382888197898865e-02
6.799956411123275757e-02 -1.117755076847970486e-03 6.351616233587265015e-02
4.301234334707260132e-02 7.147996872663497925e-02 -3.908116742968559265e-02
4.302858933806419373e-02 7.942342013120651245e-02 1.263749040663242340e-02
6.057231500744819641e-02 -2.537243999540805817e-02 -4.556645825505256653e-02
-1.545260660350322723e-03 -2.888828329741954803e-02 9.245388954877853394e-02
-1.075863186269998550e-02 -5.269147455692291260e-02 6.563170254230499268e-02
4.575308039784431458e-02 -1.402315567247569561e-03 8.821850270032882690e-02
9.001174569129943848e-02 9.397379122674465179e-03 -3.987494111061096191e-02
-2.846750989556312561e-02 -6.289224326610565186e-02 5.276330932974815369e-02
7.293460518121719360e-02 -1.344936434179544449e-02 2.961997501552104950e-02
-1.993792504072189331e-02 -3.543035686016082764e-02 9.036099165678024292e-02
-6.708389520645141602e-02 -4.289221763610839844e-02 6.966397911310195923e-02
-1.118182856589555740e-02 -5.793943628668785095e-02 -6.857082992792129517e-02
4.609405528753995895e-03 -2.266567386686801910e-02 9.560611844062805176e-02
3.260000050067901611e-02 -4.584164917469024658e-02 3.146167844533920288e-02
-5.881413072347640991e-02 4.470482002943754196e-03 -5.990672856569290161e-02
-5.353897064924240112e-02 -7.305043190717697144e-02 -3.646704927086830139e-02
1.229721773415803909e-02 -4.373404756188392639e-02 6.558878719806671143e-02
3.414383530616760254e-02 3.346735611557960510e-02 -9.234508126974105835e-02
3.355825692415237427e-02 -1.744335703551769257e-02 8.417429029941558838e-02
-7.994665950536727905e-02 -5.405360832810401917e-02 -4.569279775023460388e-02
5.666357278823852539e-02 1.199183054268360138e-02 -9.015857428312301636e-02
-3.213188424706459045e-02 4.783434420824050903e-02 2.502317540347576141e-02
-7.371283322572708130e-02 -7.049083709716796875e-02 -2.197386510670185089e-02
9.584542363882064819e-02 5.806156992912292480e-02 3.610840812325477600e-02
7.268328219652175903e-02 -1.678501442074775696e-02 1.805404573678970337e-02
-2.817634120583534241e-02 -7.501049339771270752e-02 -1.173035986721515656e-02
-3.046879544854164124e-02 -6.852827221155166626e-02 -5.175025016069412231e-02
-4.532467573881149292e-03 -6.041627377271652222e-02 4.311603680253028870e-02
5.723851546645164490e-02 2.463237568736076355e-02 -8.961998671293258667e-02
-1.129553187638521194e-02 -3.354034386575222015e-03 1.056754067540168762e-01
-7.162642478942871094e-02 1.286300923675298691e-02 1.467528846114873886e-02
-2.599453553557395935e-02 5.106929689645767212e-02 3.231898695230484009e-02
6.711519509553909302e-02 7.576509565114974976e-02 -2.545620501041412354e-02
-7.056932896375656128e-03 5.389683321118354797e-02 -4.295509308576583862e-02
5.210638046264648438e-02 6.536531448364257812e-02 6.906006485223770142e-02
1.750317215919494629e-02 -5.371582135558128357e-02 -5.066812410950660706e-02
5.785449966788291931e-02 8.056276291608810425e-02 9.272319264709949493e-03
3.541414067149162292e-02 -4.931554943323135376e-02 -8.599771186709403992e-03
8.704937994480133057e-02 7.277011126279830933e-02 -1.183954812586307526e-02
4.972192272543907166e-02 4.127186536788940430e-02 -8.484105765819549561e-02
-2.296163514256477356e-02 1.096964813768863678e-02 1.006512120366096497e-01
3.876493871212005615e-02 -4.661168158054351807e-02 -2.234554849565029144e-02
4.160774126648902893e-02 3.993641212582588196e-02 -8.718154579401016235e-02
-4.808725789189338684e-02 3.325015679001808167e-02 3.992345929145812988e-02
9.847917407751083374e-02 2.676590904593467712e-02 2.869953028857707977e-02
-8.711133152246475220e-02 -5.143819376826286316e-02 3.463926166296005249e-02
3.258423879742622375e-02 3.896990418434143066e-02 -8.821254223585128784e-02
3.322147950530052185e-02 -7.437372114509344101e-03 -9.819146245718002319e-02
9.059201180934906006e-02 3.426149953156709671e-03 7.423979695886373520e-03
-6.990810483694076538e-02 -4.084796458482742310e-02 -6.659676879644393921e-02
2.072819322347640991e-02 -1.742267236113548279e-02 -9.893520176410675049e-02
1.034935638308525085e-01 4.212236776947975159e-02 1.923707686364650726e-02
1.050336733460426331e-01 4.204237833619117737e-02 -8.899803273379802704e-03
8.751017600297927856e-02 7.232563570141792297e-03 3.430520743131637573e-02
-7.733625173568725586e-02 5.143376067280769348e-03 1.829114183783531189e-02
7.046024501323699951e-02 7.058850675821304321e-02 5.187924206256866455e-02
9.827305376529693604e-02 6.449341028928756714e-02 1.193823665380477905e-02
-2.207878604531288147e-02 3.640960901975631714e-02 7.994402945041656494e-02
-8.575569838285446167e-03 -5.102415382862091064e-02 -7.909486442804336548e-02
5.692940950393676758e-02 -3.060567378997802734e-02 2.191068045794963837e-02
9.051894396543502808e-02 4.432393237948417664e-02 5.458008870482444763e-02
-6.129584461450576782e-02 -7.219640910625457764e-02 2.485523745417594910e-02
7.648576050996780396e-02 1.673743128776550293e-02 -7.272443920373916626e-02
8.099803701043128967e-03 -6.092550605535507202e-02 -3.909264132380485535e-02
4.852781537920236588e-03 -5.179671943187713623e-02 -7.022112607955932617e-02
-7.442633807659149170e-02 7.234625983983278275e-03 -1.243289839476346970e-02
-3.005997277796268463e-04 -4.010191187262535095e-02 7.976499199867248535e-02
3.608702495694160461e-02 -4.861861467361450195e-02 9.649829007685184479e-05
2.499512583017349243e-02 3.823559731245040894e-02 -8.808536827564239502e-02
-3.736288473010063171e-02 4.474228620529174805e-02 9.623236022889614105e-03
-2.172611281275749207e-02 4.466136172413825989e-02 -4.532801732420921326e-02
1.421820372343063354e-02 -3.545888885855674744e-02 7.724449783563613892e-02
1.694360002875328064e-02 5.562373995780944824e-02 7.928984612226486206e-02
2.477116510272026062e-02 6.115805357694625854e-02 7.327821105718612671e-02
6.034516915678977966e-02 3.432583063840866089e-02 8.817756175994873047e-02
-2.184360846877098083e-02 1.145429071038961411e-02 -9.108198434114456177e-02
-4.629223421216011047e-02 -7.065662648528814316e-03 -8.416797965764999390e-02
-8.833903819322586060e-02 -3.312469646334648132e-02 -3.404108807444572449e-02
-4.314651340246200562e-02 3.918853402137756348e-02 2.965936437249183655e-02
4.777045920491218567e-02 7.998163253068923950e-02 6.076616700738668442e-03
-1.251369621604681015e-02 -1.402229187078773975e-03 -1.013407930731773376e-01
9.571430087089538574e-02 4.750443994998931885e-02 4.384574294090270996e-02
8.955637365579605103e-02 5.390346515923738480e-03 -3.285698220133781433e-02
-8.708341419696807861e-02 -1.113407500088214874e-02 -4.141709301620721817e-03
2.514319121837615967e-02 -3.140753880143165588e-02 -8.543045818805694580e-02
7.149658631533384323e-03 -3.818247467279434204e-02 7.820195704698562622e-02
7.180225104093551636e-02 2.074335515499114990e-02 -7.890121638774871826e-02
2.191633451730012894e-03 2.734308317303657532e-02 -9.113426506519317627e-02
2.757833572104573250e-03 3.570531308650970459e-02 9.649446606636047363e-02
-6.057995557785034180e-02 -4.099584743380546570e-02 7.582156360149383545e-02
-2.459576725959777832e-02 -7.260373979806900024e-02 1.562811434268951416e-02
7.586259394884109497e-03 -2.770663797855377197e-02 -9.724773466587066650e-02
3.527097031474113464e-02 -3.271485120058059692e-02 -7.445752620697021484e-02
2.698531746864318848e-02 -1.684775762259960175e-02 -9.657660871744155884e-02
-2.600761875510215759e-02 2.251186221837997437e-02 9.201395511627197266e-02
-8.524221926927566528e-02 -7.712536025792360306e-03 1.923934370279312134e-02
-6.414044648408889771e-02 -6.914838403463363647e-02 3.314702585339546204e-02
-5.584632977843284607e-02 1.293031778186559677e-02 -5.283509194850921631e-02
7.202038168907165527e-02 -4.158930853009223938e-03 5.227482691407203674e-02
6.104596331715583801e-02 5.299896746873855591e-02 7.990648597478866577e-02
-4.894800111651420593e-02 -7.645425945520401001e-02 5.059345625340938568e-03
-6.697339564561843872e-02 1.096394658088684082e-02 -3.099534474313259125e-02
3.859702497720718384e-02 7.676477730274200439e-02 3.459428995847702026e-02
4.006359726190567017e-02 3.669128753244876862e-03 -9.815602004528045654e-02
7.781168073415756226e-02 3.956179134547710419e-03 -6.207212060689926147e-02
-4.980398714542388916e-02 -6.791900098323822021e-02 4.295151308178901672e-02
8.697853237390518188e-02 6.561258435249328613e-02 4.273801296949386597e-02
-3.131782636046409607e-02 4.479442164301872253e-02 -2.451197989284992218e-02
-1.853412762284278870e-02 5.656039714813232422e-02 5.410250741988420486e-05
-9.346135705709457397e-02 -4.234068095684051514e-02 2.120411954820156097e-02
8.816441893577575684e-02 3.840016573667526245e-02 5.873979255557060242e-02
9.335106238722801208e-03 -6.311607360839843750e-02 -1.492748875170946121e-02
-7.714540697634220123e-03 -6.582971662282943726e-02 -4.382476583123207092e-02
4.493059590458869934e-02 -4.094386473298072815e-02 1.600607857108116150e-02
8.181135356426239014e-02 -8.360115811228752136e-03 -2.138648182153701782e-02
-9.244380146265029907e-02 -3.529043123126029968e-02 2.736856974661350250e-02
9.332133829593658447e-02 7.017699629068374634e-02 4.640114959329366684e-03
1.000295504927635193e-01 2.266313321888446808e-02 1.340312976390123367e-02
9.727948904037475586e-02 5.755316838622093201e-02 -2.883222512900829315e-02
-8.008587174117565155e-04 6.602007895708084106e-02 6.235281936824321747e-03
1.024700254201889038e-01 4.330613836646080017e-02 -2.552614547312259674e-02
2.690758183598518372e-02 3.106579743325710297e-02 -9.389931708574295044e-02
-5.999688804149627686e-02 -5.160926654934883118e-02 -7.006614655256271362e-02
5.203850194811820984e-02 -2.084294892847537994e-02 5.896082520484924316e-02
4.826824367046356201e-02 7.838373631238937378e-02 -1.294855307787656784e-02
5.505854263901710510e-02 5.294639617204666138e-03 -8.965495228767395020e-02
-1.208933163434267044e-02 -3.215860947966575623e-02 9.216765314340591431e-02
1.464856788516044617e-02 -3.817101567983627319e-02 -8.453534543514251709e-02
-3.930694982409477234e-02 -7.473848015069961548e-02 -2.997219003736972809e-02
-1.833173446357250214e-04 -6.678777933120727539e-02 -1.966419816017150879e-02
8.441785350441932678e-03 6.305849552154541016e-02 5.718579515814781189e-02
-5.362146347761154175e-02 2.866259589791297913e-02 -1.758051477372646332e-02
6.324625760316848755e-02 -1.942107826471328735e-02 -5.440877005457878113e-02
7.286888360977172852e-02 2.933052554726600647e-02 7.736873626708984375e-02
5.858096107840538025e-02 -2.244220674037933350e-02 -5.782359093427658081e-02
-7.189418375492095947e-02 -1.600257121026515961e-02 -5.877802520990371704e-02
9.309780597686767578e-02 3.085467033088207245e-02 -5.075361579656600952e-02
7.131765037775039673e-02 7.582774758338928223e-02 3.674826398491859436e-02
-6.570227444171905518e-02 -1.644400134682655334e-02 7.681494206190109253e-02
-8.288311958312988281e-02 -1.109431032091379166e-02 -2.755110524594783783e-02
-3.917399048805236816e-02 3.391600400209426880e-02 6.093945354223251343e-02
8.153560012578964233e-02 6.824918836355209351e-02 4.571828991174697876e-02
-8.269752562046051025e-02 -1.801063865423202515e-02 4.909770190715789795e-02
5.406200885772705078e-02 3.515413776040077209e-02 -8.738055825233459473e-02
2.757577598094940186e-02 -4.633319377899169922e-02 4.017905518412590027e-02
1.019391566514968872e-01 5.659679323434829712e-02 -1.302293688058853149e-02
9.673098474740982056e-02 1.653444208204746246e-02 1.750456541776657104e-02
-3.315459005534648895e-03 -3.497734433040022850e-04 -1.033973246812820435e-01
-3.008766472339630127e-02 4.715765640139579773e-02 3.958564251661300659e-02
5.156882852315902710e-02 -3.201515972614288330e-02 -4.922616109251976013e-02
-7.727760076522827148e-02 -5.323787778615951538e-02 4.984382167458534241e-02
-3.085635975003242493e-02 2.643477357923984528e-02 8.410502970218658447e-02
5.466859787702560425e-02 7.069705426692962646e-02 -4.322586953639984131e-02
8.085718750953674316e-02 -6.953317206352949142e-03 2.069045044481754303e-02
-7.465898990631103516e-02 -4.114119708538055420e-02 -6.065599620342254639e-02
6.672253459692001343e-02 5.947142466902732849e-02 7.088052481412887573e-02
1.950982958078384399e-02 6.769023835659027100e-02 -3.413473442196846008e-02
9.207590669393539429e-02 6.797408219426870346e-03 1.297048106789588928e-02
-4.356348887085914612e-03 6.066597253084182739e-02 -2.377358637750148773e-02
-8.689836598932743073e-03 4.313092306256294250e-02 -6.471376866102218628e-02
-1.309297047555446625e-03 -5.172776058316230774e-02 6.144703179597854614e-02
4.415043070912361145e-02 6.397474557161331177e-02 -5.707168579101562500e-02
-2.108388766646385193e-02 3.077490627765655518e-02 8.789313584566116333e-02
6.198893487453460693e-02 -3.071206621825695038e-03 -7.854269444942474365e-02
-6.663399934768676758e-02 8.705660700798034668e-03 -3.729872778058052063e-02
-6.411047279834747314e-02 -6.139533966779708862e-02 5.067871883511543274e-02
-1.304125133901834488e-02 5.974337086081504822e-02 1.863771351054310799e-03
-3.503643721342086792e-02 -7.347466051578521729e-02 2.090550027787685394e-02
9.729806333780288696e-02 2.942582033574581146e-02 3.547237440943717957e-02
-4.685088247060775757e-02 -1.890761777758598328e-02 9.245006740093231201e-02
-6.653971225023269653e-02 -3.203884884715080261e-02 -7.143370807170867920e-02
-8.398415893316268921e-02 -4.801787436008453369e-02 -4.289231449365615845e-02
3.707116469740867615e-02 7.439110428094863892e-02 -2.544543892145156860e-02
-6.144874542951583862e-02 -4.086654260754585266e-02 -7.494902610778808594e-02
-7.225108146667480469e-02 1.101514976471662521e-02 -6.830708589404821396e-03
-2.607873082160949707e-02 3.731060028076171875e-02 -5.550907924771308899e-02
1.014391779899597168e-01 3.272493183612823486e-02 -2.743884362280368805e-02
-8.239818364381790161e-02 -3.089601173996925354e-02 5.459260568022727966e-02
1.785369962453842163e-02 7.255858927965164185e-02 -5.763172637671232224e-03
4.430300742387771606e-02 5.614081770181655884e-02 8.249604701995849609e-02
-7.612058520317077637e-02 7.065768819302320480e-03 2.224907046183943748e-03
7.314840704202651978e-02 7.793819904327392578e-02 -9.864387102425098419e-03
-5.397466570138931274e-02 -5.184370651841163635e-02 6.953123211860656738e-02
3.302943706512451172e-02 -2.337058447301387787e-02 7.787840813398361206e-02
7.944945991039276123e-02 -1.214149780571460724e-02 -5.808495450764894485e-03
-4.917616769671440125e-02 -2.745652571320533752e-02 -8.671133220195770264e-02
2.652122173458337784e-03 -1.553891692310571671e-02 -1.034105941653251648e-01
-8.032904565334320068e-02 9.767947485670447350e-04 3.392137587070465088e-04
-5.165658891201019287e-02 -4.710726812481880188e-02 7.549619674682617188e-02
2.415387332439422607e-02 4.895944893360137939e-02 -7.604264467954635620e-02
2.656649425625801086e-02 1.107610017061233521e-02 1.037270128726959229e-01
8.728907257318496704e-02 5.059895291924476624e-02 5.753118917346000671e-02
-1.512947026640176773e-03 6.481662392616271973e-02 -6.332855205982923508e-03
-8.241458982229232788e-02 -6.223782151937484741e-02 -2.840292081236839294e-02
-5.155752226710319519e-02 -1.380151044577360153e-02 -8.248148858547210693e-02
6.696993112564086914e-02 6.531881541013717651e-02 -5.179936066269874573e-02
3.553573042154312134e-03 -6.374524533748626709e-02 -3.389185667037963867e-02
-6.545364111661911011e-02 -6.629522889852523804e-02 -4.651680216193199158e-02
7.081192918121814728e-03 2.404380775988101959e-02 1.042502745985984802e-01
1.045550554990768433e-01 4.471769928932189941e-02 1.233461219817399979e-02
8.533203601837158203e-02 -3.599947318434715271e-03 9.832834824919700623e-03
-3.960620239377021790e-02 2.529928460717201233e-02 -5.852858349680900574e-02
1.373134553432464600e-02 -1.480570714920759201e-02 9.791116416454315186e-02
-7.639041543006896973e-02 -9.726542979478836060e-03 -4.406578466296195984e-02
6.572852283716201782e-02 5.927427858114242554e-02 -6.172411888837814331e-02
-6.487105041742324829e-02 -2.389461733400821686e-02 -7.216803729534149170e-02
-5.565541610121726990e-02 -6.620775163173675537e-02 -5.394232645630836487e-02
5.047934129834175110e-02 -3.853113204240798950e-02 2.251954982057213783e-03
3.849543165415525436e-03 -6.224091351032257080e-02 2.411295846104621887e-02
6.440698355436325073e-02 5.948170088231563568e-03 7.539965212345123291e-02
3.185773640871047974e-02 -4.855323210358619690e-02 -3.918816521763801575e-02
-8.950586616992950439e-02 -2.525277994573116302e-02 -2.410602197051048279e-02
3.811017051339149475e-02 -4.334472492337226868e-02 -4.446477815508842468e-02
5.586550384759902954e-02 7.524831593036651611e-02 -2.973215840756893158e-02
4.287035763263702393e-02 6.917221844196319580e-02 -4.534525796771049500e-02
4.615724459290504456e-02 1.210732199251651764e-02 9.484991431236267090e-02
9.428121894598007202e-02 3.143948316574096680e-02 4.493433982133865356e-02
5.518107861280441284e-02 7.218597829341888428e-02 5.502724274992942810e-02
-6.560454145073890686e-03 2.545478753745555878e-03 1.065563559532165527e-01
1.001746803522109985e-01 4.186854138970375061e-02 -3.395875170826911926e-02
9.168399125337600708e-02 1.126482151448726654e-02 2.813850529491901398e-02
6.221283599734306335e-02 -1.346832793205976486e-02 -6.695067882537841797e-02
7.890919595956802368e-02 6.363080441951751709e-02 5.619728565216064453e-02
3.058087453246116638e-02 5.078028142452239990e-02 8.861634135246276855e-02
2.157139405608177185e-02 6.358809024095535278e-02 -4.813905432820320129e-02
2.806439995765686035e-02 7.598743587732315063e-02 2.262919023633003235e-02
6.453138776123523712e-04 -4.681102186441421509e-02 -8.106771111488342285e-02
6.248926743865013123e-02 8.039671182632446289e-02 4.592489451169967651e-03
1.050739511847496033e-01 4.711011052131652832e-02 4.490510560572147369e-03
9.783777594566345215e-02 5.947132036089897156e-02 2.852610684931278229e-02
-4.478566721081733704e-02 -5.051421746611595154e-02 7.389340549707412720e-02
-9.395143389701843262e-02 -3.307164087891578674e-02 -8.807541802525520325e-03
1.090769283473491669e-02 -5.226350948214530945e-02 -6.365495920181274414e-02
2.099919691681861877e-02 -5.184504762291908264e-02 3.398885950446128845e-02
2.824208512902259827e-02 7.108647376298904419e-02 -3.088563494384288788e-02
9.459667652845382690e-02 5.327851697802543640e-02 -4.011390358209609985e-02
-6.374317407608032227e-02 -5.152891576290130615e-02 6.462121009826660156e-02
-9.454465657472610474e-02 -4.140802100300788879e-02 -8.283771574497222900e-03
8.117853105068206787e-02 7.208057492971420288e-02 -2.579648233950138092e-02
-6.049654446542263031e-03 4.045257344841957092e-02 -7.136024534702301025e-02
-4.157579690217971802e-02 -5.819214880466461182e-02 -7.193340361118316650e-02
9.096111357212066650e-02 2.371061965823173523e-02 4.721342399716377258e-02
2.037166804075241089e-02 -3.506891801953315735e-02 7.295076549053192139e-02
-2.061478048563003540e-02 5.094241350889205933e-02 4.953756183385848999e-02
-1.748365908861160278e-02 5.708349123597145081e-02 2.428338117897510529e-02
-7.666170597076416016e-02 -6.459923088550567627e-02 3.091518022119998932e-02
-1.461719255894422531e-02 -6.992687284946441650e-02 1.699342578649520874e-02
-6.307454407215118408e-02 2.087520994246006012e-02 2.979122288525104523e-02
-2.774123847484588623e-02 -1.993785426020622253e-02 -9.812635183334350586e-02
-9.502555429935455322e-02 -4.298046976327896118e-02 1.579888863489031792e-03
-7.666649669408798218e-02 -2.210680395364761353e-02 -5.451116710901260376e-02
-9.461200982332229614e-02 -4.507352784276008606e-02 8.907323703169822693e-03
-5.417720973491668701e-02 2.010185271501541138e-02 6.048435717821121216e-02
8.453547954559326172e-02 -1.683837850578129292e-03 2.266791649162769318e-02
-4.131786525249481201e-02 2.695555798709392548e-02 7.081166654825210571e-02
-9.142995625734329224e-02 -2.797847613692283630e-02 2.806536108255386353e-02
-3.128273040056228638e-02 -6.163756549358367920e-02 -6.745760887861251831e-02
3.961220756173133850e-02 -4.164972901344299316e-02 3.013684786856174469e-02
-5.527248606085777283e-02 1.778046600520610809e-02 -4.506960511207580566e-02
-2.954255416989326477e-02 9.617095813155174255e-03 -8.717154711484909058e-02
6.956906616687774658e-02 1.171144563704729080e-02 7.346590608358383179e-02
4.997730627655982971e-02 -3.726195544004440308e-02 -3.316647186875343323e-02
-5.705207958817481995e-02 2.745027095079421997e-02 -5.872011650353670120e-03
-8.322158455848693848e-02 -1.184288319200277328e-02 4.070933908224105835e-02
-7.912569493055343628e-02 -8.675393648445606232e-03 4.881123825907707214e-02
6.411202996969223022e-02 7.201170921325683594e-02 5.254485085606575012e-02
4.037942737340927124e-03 -3.284367918968200684e-02 -9.457352012395858765e-02
-1.403996068984270096e-02 4.741072654724121094e-02 6.965848803520202637e-02
4.000626876950263977e-02 -4.661902319639921188e-03 -9.580542147159576416e-02
1.046362519264221191e-01 3.536874428391456604e-02 -4.021782428026199341e-03
1.414299942553043365e-02 4.723906144499778748e-02 -7.438435405492782593e-02
-8.746878057718276978e-02 -1.863102242350578308e-02 -2.305034734308719635e-02
-4.879285767674446106e-02 1.247249078005552292e-02 -6.462682038545608521e-02
6.702209264039993286e-02 -2.066198922693729401e-02 2.562380768358707428e-02
-4.627402126789093018e-02 3.743677213788032532e-02 -4.679078701883554459e-04
-3.378181532025337219e-02 -4.090791568160057068e-02 8.545946329832077026e-02
5.760755762457847595e-02 -3.179168701171875000e-02 1.228383462876081467e-02
9.601277299225330353e-03 -2.689113654196262360e-02 8.994210511445999146e-02
1.009319797158241272e-01 3.126683458685874939e-02 2.392766065895557404e-02
-5.785366892814636230e-02 -2.850202377885580063e-03 -6.892846524715423584e-02
5.121532455086708069e-02 -3.686122968792915344e-02 1.244537159800529480e-02
6.520827114582061768e-02 -2.655795775353908539e-02 -1.599663053639233112e-03
3.949084877967834473e-02 -1.284455787390470505e-02 -9.178438037633895874e-02
-3.249730914831161499e-02 4.707936942577362061e-02 -7.026830222457647324e-03
-5.623002350330352783e-02 -7.644359767436981201e-02 -1.034739054739475250e-02
-3.027023375034332275e-02 1.983628980815410614e-02 -7.708830386400222778e-02
-9.232460521161556244e-03 -6.350768357515335083e-02 -5.371052026748657227e-02
-6.952171772718429565e-02 -2.379225008189678192e-02 7.334824651479721069e-02
3.086508065462112427e-02 -4.961027204990386963e-02 1.901184394955635071e-02
8.658421039581298828e-02 3.129192441701889038e-02 5.986870452761650085e-02
-5.019899457693099976e-03 -3.936541453003883362e-02 -9.144200384616851807e-02
-2.437127009034156799e-02 -5.378419905900955200e-02 6.902708113193511963e-02
3.119864687323570251e-02 6.421376764774322510e-02 -5.254703387618064880e-02
-6.309511512517929077e-02 1.106492802500724792e-02 5.795954167842864990e-02
8.374717086553573608e-02 1.029811799526214600e-02 -5.716185644268989563e-02
8.849308639764785767e-02 7.349714636802673340e-02 7.668997626751661301e-03
8.035746216773986816e-02 3.714812546968460083e-02 -6.895672529935836792e-02
4.560166597366333008e-02 -1.380299497395753860e-02 7.706817984580993652e-02
-2.995182201266288757e-02 3.873371332883834839e-02 -4.641241207718849182e-02
-1.981575414538383484e-02 5.620687454938888550e-02 8.822127245366573334e-03
-2.518846839666366577e-02 -7.087481021881103516e-02 -4.081641510128974915e-02
9.028859436511993408e-02 5.526340380311012268e-02 -4.535025358200073242e-02
1.665677502751350403e-02 -5.922311171889305115e-02 -2.284965105354785919e-02
5.221349000930786133e-02 -2.835851907730102539e-02 -5.746587365865707397e-02
-5.791044235229492188e-02 3.292732406407594681e-03 7.613328099250793457e-02
1.754423230886459351e-02 -1.229035761207342148e-02 -1.020615249872207642e-01
-3.109048679471015930e-02 -6.579195708036422729e-02 4.655556753277778625e-02
5.148906260728836060e-02 2.987103722989559174e-02 9.398784488439559937e-02
-2.482623606920242310e-02 -3.171398490667343140e-02 9.341198951005935669e-02
-3.681474924087524414e-02 -4.941149055957794189e-02 -8.268515765666961670e-02
-7.854089885950088501e-02 -3.934330306947231293e-03 -2.857303060591220856e-02
3.533625230193138123e-02 7.796844840049743652e-02 1.710610464215278625e-02
-3.460329025983810425e-02 2.545627765357494354e-02 -6.503961980342864990e-02
4.409364610910415649e-02 -4.057729989290237427e-02 -3.856498375535011292e-02
4.733888804912567139e-02 -3.084086254239082336e-02 4.617281258106231689e-02
2.321670949459075928e-02 7.498516142368316650e-02 5.082312505692243576e-03
-2.207271754741668701e-02 -3.180421888828277588e-02 -9.682431817054748535e-02
3.670674189925193787e-02 -4.699252173304557800e-02 -3.067736141383647919e-02
-2.432209253311157227e-02 5.306568741798400879e-02 -3.409434575587511063e-04
-3.718204423785209656e-02 3.902027010917663574e-02 -3.049136884510517120e-02
4.710863158106803894e-02 -4.057083278894424438e-02 -2.500290796160697937e-02
2.418598160147666931e-02 -5.487093701958656311e-02 8.943148888647556305e-03
-7.801597937941551208e-03 6.276097893714904785e-02 1.130948215723037720e-02
6.071437522768974304e-02 -2.941068261861801147e-02 -2.714444138109683990e-02
4.904816299676895142e-02 -6.208669859915971756e-03 8.141165971755981445e-02
-3.283364698290824890e-03 6.381125003099441528e-02 3.088331408798694611e-02
3.578997775912284851e-02 7.107473909854888916e-02 -3.679417818784713745e-02
-1.343139912933111191e-03 -6.756827235221862793e-02 -8.293149992823600769e-03
-9.295766055583953857e-02 -2.797984145581722260e-02 1.840577274560928345e-02
9.340323507785797119e-02 6.932473182678222656e-02 -6.829861085861921310e-03
-7.694689184427261353e-02 1.170123461633920670e-03 -2.188969217240810394e-02
3.389984741806983948e-02 2.284756489098072052e-02 -9.786845743656158447e-02
-2.421151846647262573e-02 4.665160179138183594e-02 -3.504207357764244080e-02
3.630416467785835266e-02 3.591046482324600220e-02 9.825492650270462036e-02
-6.460054963827133179e-02 4.400569479912519455e-03 6.461120396852493286e-02
5.940676480531692505e-02 4.780519288033246994e-03 8.008363097906112671e-02
8.012052625417709351e-02 5.381138622760772705e-02 6.458818167448043823e-02
-5.302445590496063232e-02 -5.699784681200981140e-02 -6.919901818037033081e-02
-9.526961483061313629e-03 5.310404673218727112e-02 6.224827840924263000e-02
3.859251365065574646e-02 9.015338495373725891e-03 9.822340309619903564e-02
1.808012649416923523e-02 -5.710622295737266541e-02 -3.431729599833488464e-02
6.241855025291442871e-02 1.963292993605136871e-02 -8.678063750267028809e-02
-6.209106184542179108e-03 -6.468883901834487915e-02 3.018848225474357605e-02
-8.578033000230789185e-02 -2.586067654192447662e-02 -3.700669482350349426e-02
6.471028178930282593e-02 7.599441707134246826e-02 4.090685769915580750e-02
-4.056261852383613586e-02 -6.416229158639907837e-02 -6.265895813703536987e-02
4.627177491784095764e-02 1.751005463302135468e-02 -9.587002545595169067e-02
7.927702367305755615e-02 -1.026432123035192490e-02 -2.823330089449882507e-02
-6.863687187433242798e-02 -1.875907299108803272e-03 -5.058992654085159302e-02
3.928277641534805298e-02 1.863454352132976055e-03 9.482187777757644653e-02
-7.925022393465042114e-02 1.186000416055321693e-03 -9.299528785049915314e-03
-5.063904449343681335e-02 2.509834431111812592e-02 5.761741101741790771e-02
-4.779101163148880005e-02 -7.211069017648696899e-02 -4.187020659446716309e-02
-6.239701062440872192e-02 -2.312579751014709473e-02 8.075538277626037598e-02
4.382774978876113892e-02 -3.518274426460266113e-02 4.166465625166893005e-02
-1.720065250992774963e-02 -3.769744187593460083e-02 -9.401789307594299316e-02
7.902993261814117432e-02 7.761874049901962280e-02 3.919028211385011673e-03
2.540928870439529419e-02 -5.406130477786064148e-02 -2.843241579830646515e-02
2.281907573342323303e-02 -4.515485838055610657e-02 5.093581229448318481e-02
-2.099784091114997864e-02 4.190707579255104065e-02 -5.292933806777000427e-02
1.949003431946039200e-03 -6.158837676048278809e-02 3.052760474383831024e-02
-2.141014859080314636e-02 -7.365845143795013428e-02 -8.733992464840412140e-03
-2.078111283481121063e-03 6.220633909106254578e-02 4.385439679026603699e-02
9.647192433476448059e-03 -4.918258637189865112e-02 5.718519166111946106e-02
5.860116332769393921e-02 2.079393900930881500e-02 8.857356756925582886e-02
-2.092254906892776489e-02 -4.455622285604476929e-02 8.111601322889328003e-02
5.600355565547943115e-02 -3.084485977888107300e-02 -4.052513092756271362e-02
8.186887204647064209e-02 2.041152911260724068e-03 4.061176627874374390e-02
-4.330325871706008911e-02 3.503383696079254150e-02 -2.774741686880588531e-02
8.230632543563842773e-02 7.588306814432144165e-02 -5.268855020403862000e-03
-2.333068847656250000e-02 -6.297075003385543823e-02 -6.330370157957077026e-02
9.275037050247192383e-02 4.001202434301376343e-02 -5.129588395357131958e-02
1.468861475586891174e-03 -5.439228191971778870e-02 5.324590951204299927e-02
-8.747771382331848145e-02 -4.018345847725868225e-02 -3.754697740077972412e-02
-4.000468552112579346e-02 -6.947755813598632812e-02 3.855532407760620117e-02
7.087702304124832153e-02 7.731014490127563477e-02 -1.618660986423492432e-02
-5.430470407009124756e-02 -7.023613899946212769e-02 -4.524977505207061768e-02
1.275350712239742279e-02 -3.193942084908485413e-02 8.277403563261032104e-02
-3.059833496809005737e-02 4.930146783590316772e-02 1.880350150167942047e-02
-2.896492928266525269e-02 -7.493409514427185059e-02 1.248577376827597618e-03
-9.525614790618419647e-03 4.661978408694267273e-02 7.595452666282653809e-02
-2.217637747526168823e-02 -7.180570811033248901e-02 -3.316062688827514648e-02
1.042042598128318787e-01 5.129837617278099060e-02 -8.222178556025028229e-03
2.696318551898002625e-04 3.903995826840400696e-02 -7.780890911817550659e-02
-4.680815711617469788e-02 -2.641941420733928680e-02 9.070315957069396973e-02
9.962794184684753418e-02 1.950227096676826477e-02 4.556676838546991348e-03
-8.470457047224044800e-02 -6.426389515399932861e-02 -1.296758558601140976e-02
7.518237829208374023e-02 4.333827644586563110e-02 7.445303350687026978e-02
-5.069743096828460693e-02 1.832745224237442017e-02 6.969448179006576538e-02
1.751049235463142395e-02 -5.842508375644683838e-02 8.381261490285396576e-03
