-5.879878401756286621e-01 1.060728877782821655e-01 2.038649320602416992e-01
-4.303697049617767334e-01 1.059679090976715088e-01 -4.490158259868621826e-01
-7.064046859741210938e-01 1.676444709300994873e-02 1.516848206520080566e-01
-2.968122065067291260e-01 -7.911632210016250610e-02 4.278783202171325684e-01
-4.565611481666564941e-01 1.231098324060440063e-01 1.377879232168197632e-01
-1.308551132678985596e-01 1.234342530369758606e-02 -2.977679371833801270e-01
-2.060631662607192993e-01 6.198441609740257263e-02 -4.476379454135894775e-01
-5.503598451614379883e-01 1.244849264621734619e-01 -9.308643639087677002e-03
-2.315077334642410278e-01 8.129021525382995605e-02 -3.816260397434234619e-01
-5.626077055931091309e-01 2.777658030390739441e-02 5.407546162605285645e-01
-3.535969853401184082e-01 -1.697522401809692383e-01 -2.379877120256423950e-01
-6.423336267471313477e-01 8.567853271961212158e-02 -8.711186051368713379e-02
-6.492173671722412109e-01 8.632872998714447021e-02 -1.919133588671684265e-02
-2.217088788747787476e-01 -7.005624473094940186e-02 -6.455190777778625488e-01
-2.794682383537292480e-01 6.604309380054473877e-02 2.102369368076324463e-01
-3.502853810787200928e-01 -1.667394489049911499e-01 -2.744390070438385010e-01
-3.444360792636871338e-01 1.120496243238449097e-01 -3.841555118560791016e-01
-3.763749003410339355e-01 -1.137518435716629028e-01 4.552353024482727051e-01
-5.430512428283691406e-01 -1.255425363779067993e-01 3.795813024044036865e-01
-3.361328840255737305e-01 -1.073102355003356934e-01 4.332516491413116455e-01
-6.641517877578735352e-01 7.710371911525726318e-02 1.786414533853530884e-02
-4.211463332176208496e-01 2.367036789655685425e-02 5.270934104919433594e-01
-1.939457803964614868e-01 -2.818693220615386963e-02 2.237879037857055664e-01
-4.588722586631774902e-01 8.664083480834960938e-02 3.766763508319854736e-01
-3.450427055358886719e-01 -9.909680485725402832e-02 -6.148808002471923828e-01
-4.007554054260253906e-01 1.294571012258529663e-01 -4.750331491231918335e-02
-2.751392126083374023e-01 -1.315594166517257690e-01 -5.041576623916625977e-01
-3.290017247200012207e-01 6.164546683430671692e-02 -6.288388967514038086e-01
-5.537797808647155762e-01 -1.122602969408035278e-01 -2.832925319671630859e-01
-4.898794889450073242e-01 -6.253275275230407715e-02 -5.618950128555297852e-01
-3.420571684837341309e-01 4.292396828532218933e-02 -6.727752089500427246e-01
-4.198014140129089355e-01 1.161109507083892822e-01 -3.862020671367645264e-01
-5.946269035339355469e-01 -1.208466142416000366e-01 -5.354228243231773376e-02
-1.937198191881179810e-01 6.584385037422180176e-02 -1.722630709409713745e-01
-5.089991092681884766e-01 -6.825186312198638916e-02 -5.218033790588378906e-01
-5.620926618576049805e-01 1.078515350818634033e-01 2.378039658069610596e-01
-6.672590970993041992e-01 7.262173295021057129e-02 -1.104152947664260864e-02
-6.564638018608093262e-01 -2.869975008070468903e-02 -2.209723889827728271e-01
-4.147304892539978027e-01 1.318118423223495483e-01 -1.130736321210861206e-01
-5.150746107101440430e-01 -1.508595794439315796e-01 -1.073356121778488159e-01
-6.035503745079040527e-01 -7.741068303585052490e-02 4.711033701896667480e-01
-2.818148136138916016e-01 7.725507020950317383e-02 -5.381871461868286133e-01
-4.617380499839782715e-01 -1.296783387660980225e-01 -3.985140621662139893e-01
-6.173909902572631836e-01 -1.146560013294219971e-01 1.627053767442703247e-01
-5.348796248435974121e-01 6.521484255790710449e-02 4.648928046226501465e-01
-1.927963197231292725e-01 6.682924926280975342e-02 -2.509183883666992188e-01
-4.953185021877288818e-01 7.386146485805511475e-02 -5.156558156013488770e-01
-3.308177590370178223e-01 1.024544686079025269e-01 -4.484551250934600830e-01
-1.538530290126800537e-01 1.889609545469284058e-02 -4.394692182540893555e-02
-4.020123779773712158e-01 4.005391895771026611e-02 4.804837703704833984e-01
-3.573814034461975098e-01 4.921461269259452820e-02 -6.603863835334777832e-01
-3.118713498115539551e-01 1.135442703962326050e-01 -8.983284980058670044e-02
-1.370173990726470947e-01 -6.546197086572647095e-02 -4.845545887947082520e-01
-4.579437077045440674e-01 1.321986019611358643e-01 -1.473909988999366760e-02
-6.737487316131591797e-01 -4.058928415179252625e-02 -1.112347692251205444e-01
-3.403874635696411133e-01 7.398936152458190918e-02 -5.941228270530700684e-01
-2.294801622629165649e-01 -1.146593540906906128e-01 -5.401575565338134766e-01
-4.896123111248016357e-01 -3.957935422658920288e-02 5.954350233078002930e-01
-1.802956461906433105e-01 5.539032444357872009e-02 -3.559666275978088379e-01
-4.736217558383941650e-01 -1.621814519166946411e-01 -1.115955263376235962e-01
-4.505373537540435791e-01 -9.119853377342224121e-02 -5.520138740539550781e-01
-1.667984575033187866e-01 -1.308620721101760864e-01 -2.511060833930969238e-01
-5.381648540496826172e-01 7.355606555938720703e-02 -4.534579217433929443e-01
-4.758309721946716309e-01 -1.568527668714523315e-01 -1.765895336866378784e-01
-2.049169242382049561e-01 -1.105814427137374878e-01 -5.237614512443542480e-01
-3.607956767082214355e-01 -1.589256525039672852e-01 2.521384060382843018e-01
-3.046936988830566406e-01 -2.908117324113845825e-02 4.546756148338317871e-01
-4.652430415153503418e-01 1.163555234670639038e-01 -3.580776453018188477e-01
-2.519321739673614502e-01 -2.402330935001373291e-02 3.604474961757659912e-01
-6.675812602043151855e-01 5.893947556614875793e-02 2.835780680179595947e-01
-5.461312532424926758e-01 -1.379156410694122314e-01 2.801154255867004395e-01
-3.309475183486938477e-01 -1.616993099451065063e-01 2.002111077308654785e-01
-2.231107205152511597e-01 -1.182325333356857300e-01 2.075665295124053955e-01
-4.346097111701965332e-01 -1.094870120286941528e-01 -5.170174837112426758e-01
-6.950438022613525391e-01 -4.309001564979553223e-02 1.717763096094131470e-01
-3.351006507873535156e-01 -1.762721836566925049e-01 -1.052610799670219421e-01
-1.397873759269714355e-01 2.214790880680084229e-02 -2.077502161264419556e-01
-6.372644305229187012e-01 5.093654617667198181e-02 4.065850675106048584e-01
-2.607761025428771973e-01 5.812117829918861389e-03 3.431359231472015381e-01
-4.046460986137390137e-01 6.428383290767669678e-02 -6.150519251823425293e-01
-4.102857112884521484e-01 -1.636711508035659790e-01 2.325386404991149902e-01
-3.319832384586334229e-01 -1.726557463407516479e-01 8.008371293544769287e-02
-1.825816780328750610e-01 -5.285122618079185486e-02 1.986189484596252441e-01
-2.658984065055847168e-01 -1.372180432081222534e-01 -4.711252450942993164e-01
-1.231780946254730225e-01 -9.076790511608123779e-02 -2.685319185256958008e-01
-1.834506392478942871e-01 -8.931097388267517090e-02 1.666307449340820312e-01
-1.605397909879684448e-01 -1.103957742452621460e-01 -4.152558743953704834e-01
-5.397644042968750000e-01 -1.108864843845367432e-01 -3.275592029094696045e-01
-4.879397153854370117e-01 -1.499143540859222412e-01 -2.125552594661712646e-01
-1.243066191673278809e-01 -7.577489316463470459e-02 -8.980563282966613770e-02
-6.245704889297485352e-01 9.951396286487579346e-02 -4.391693323850631714e-02
-4.709132909774780273e-01 -1.420846432447433472e-01 3.654269278049468994e-01
-3.571431338787078857e-01 1.120691299438476562e-01 9.907686710357666016e-02
-4.663428664207458496e-01 -1.948432438075542450e-02 -6.378025412559509277e-01
-4.797629117965698242e-01 1.005128026008605957e-01 3.178853094577789307e-01
-4.401581883430480957e-01 1.045188307762145996e-01 2.736754417419433594e-01
-2.720422744750976562e-01 -9.033969044685363770e-02 3.739349842071533203e-01
-2.460676431655883789e-01 -1.174075454473495483e-01 2.651502788066864014e-01
-1.376797556877136230e-01 -9.636609256267547607e-02 -6.459397077560424805e-02
-1.189568638801574707e-01 -5.378900468349456787e-02 -4.077981412410736084e-01
-1.965649276971817017e-01 -1.406919807195663452e-01 -1.087587326765060425e-02
-4.974772036075592041e-01 1.278918087482452393e-01 7.614305615425109863e-02
-3.595863580703735352e-01 -1.701063811779022217e-01 1.492338031530380249e-01
-3.931912779808044434e-01 -5.922826752066612244e-02 5.487262010574340820e-01
-1.382118165493011475e-01 -4.275175929069519043e-02 2.508297562599182129e-02
-1.452603638172149658e-01 -1.157405674457550049e-01 -2.496730536222457886e-01
-3.733895123004913330e-01 -1.285322755575180054e-01 4.093430340290069580e-01
-1.513156890869140625e-01 -1.038737893104553223e-01 -9.887266904115676880e-03
-4.178963899612426758e-01 9.977398812770843506e-02 2.813805043697357178e-01
-4.294257760047912598e-01 8.803947269916534424e-02 -5.310293436050415039e-01
-4.709408283233642578e-01 9.618353843688964844e-02 3.377651572227478027e-01
-3.190934062004089355e-01 -1.529247611761093140e-01 -3.957905471324920654e-01
-6.381031274795532227e-01 -5.761006101965904236e-02 4.473914504051208496e-01
-2.924095094203948975e-01 9.042897820472717285e-02 -4.793245494365692139e-01
-2.785706818103790283e-01 1.050143539905548096e-01 -1.491624265909194946e-01
-3.010028004646301270e-01 -1.700871288776397705e-01 -2.167405784130096436e-01
-6.247540116310119629e-01 9.527263045310974121e-02 1.901504397392272949e-01
-4.388609826564788818e-01 1.227652430534362793e-01 1.276358515024185181e-01
-2.810713946819305420e-01 -1.016768813133239746e-01 3.695266544818878174e-01
-3.726384639739990234e-01 8.591074496507644653e-03 5.069117546081542969e-01
-4.436728656291961670e-01 -1.635074317455291748e-01 2.162275016307830811e-01
-3.510037362575531006e-01 -9.271429479122161865e-02 -6.284844279289245605e-01
-4.773738384246826172e-01 1.200577318668365479e-01 -3.152105212211608887e-01
-3.355737924575805664e-01 -1.940496638417243958e-02 -7.210977077484130859e-01
-5.735002756118774414e-01 -1.016015708446502686e-01 -2.772698402404785156e-01
-3.566230833530426025e-01 1.164581924676895142e-01 -3.541907370090484619e-01
-4.722752571105957031e-01 -8.491168916225433350e-02 -5.397288799285888672e-01
-2.903791666030883789e-01 2.947595715522766113e-02 3.535362184047698975e-01
-5.988070964813232422e-01 2.756144851446151733e-02 -4.116490483283996582e-01
-5.918887257575988770e-01 -1.285878866910934448e-01 9.675236046314239502e-02
-5.568739175796508789e-01 -1.106491237878799438e-01 4.319050610065460205e-01
-6.147468090057373047e-01 9.200294315814971924e-02 -1.813815832138061523e-01
-5.177269577980041504e-01 -1.261914819478988647e-01 4.105839431285858154e-01
-5.308078527450561523e-01 -1.510469019412994385e-01 1.480155587196350098e-01
-3.671427965164184570e-01 9.300863742828369141e-02 -5.240988135337829590e-01
-2.532885372638702393e-01 -1.635772883892059326e-01 -1.874694600701332092e-02
-1.661850363016128540e-01 3.722804412245750427e-02 -4.318019449710845947e-01
-4.379827976226806641e-01 -1.696982681751251221e-01 1.312438845634460449e-01
-6.080664396286010742e-01 1.022637188434600830e-01 1.806512773036956787e-01
-3.538029193878173828e-01 -4.087462648749351501e-02 5.190647244453430176e-01
-1.441423892974853516e-01 -1.026726365089416504e-01 -3.833813369274139404e-01
-3.881013393402099609e-01 1.213707923889160156e-01 6.721763312816619873e-02
-2.922781705856323242e-01 -4.120399802923202515e-02 -7.124019861221313477e-01
-4.779491722583770752e-01 -1.360673606395721436e-01 -3.354679048061370850e-01
-5.498232245445251465e-01 -5.253600701689720154e-02 5.726960301399230957e-01
-5.433201193809509277e-01 -1.360055655241012573e-01 -1.561354994773864746e-01
-4.841344356536865234e-01 1.090449094772338867e-01 -3.867264389991760254e-01
-6.338099241256713867e-01 6.574743986129760742e-02 3.602499067783355713e-01
-3.614113926887512207e-01 1.112235635519027710e-01 -4.096144735813140869e-01
-4.179625213146209717e-01 4.464953020215034485e-02 -6.466653943061828613e-01
-6.031479835510253906e-01 -1.010629683732986450e-01 -1.745723634958267212e-01
-5.387052893638610840e-01 1.021012961864471436e-01 -3.398185968399047852e-01
-5.814889073371887207e-01 9.283336997032165527e-02 3.169628679752349854e-01
-5.377738475799560547e-01 9.731385111808776855e-02 3.304368555545806885e-01
-4.524545669555664062e-01 2.702354639768600464e-02 5.401501655578613281e-01
-3.521454036235809326e-01 -1.500698477029800415e-01 2.995171844959259033e-01
-3.689028322696685791e-01 -1.698652803897857666e-01 -2.269220501184463501e-01
-7.068998217582702637e-01 1.495436951518058777e-02 1.346853375434875488e-01
-3.708410859107971191e-01 -1.684397011995315552e-01 -2.428679317235946655e-01
-5.962105393409729004e-01 8.131848275661468506e-02 3.582502603530883789e-01
-1.638516932725906372e-01 -1.264428496360778809e-01 -8.944286406040191650e-02
-1.352673172950744629e-01 6.700426340103149414e-03 -1.157160103321075439e-01
-5.113450288772583008e-01 -1.534220278263092041e-01 2.048755884170532227e-01
-4.021968245506286621e-01 -1.414289772510528564e-01 3.743488788604736328e-01
-5.474772453308105469e-01 1.250103712081909180e-01 -3.660224005579948425e-02
-1.098959147930145264e-01 -4.579987376928329468e-02 -3.045516908168792725e-01
-5.492725372314453125e-01 2.972029894590377808e-02 -5.117529034614562988e-01
-7.008949518203735352e-01 -3.132411092519760132e-02 1.261790841817855835e-01
-1.094866394996643066e-01 -5.106094479560852051e-02 -2.787035703659057617e-01
-5.272036194801330566e-01 8.419805765151977539e-02 3.978104591369628906e-01
-6.208913922309875488e-01 5.813152715563774109e-02 -3.037062883377075195e-01
-4.410764276981353760e-01 -1.719993650913238525e-01 1.125189661979675293e-02
-6.737279891967773438e-01 6.010587885975837708e-02 2.430443167686462402e-01
-1.514922082424163818e-01 -1.201983690261840820e-01 -1.473923921585083008e-01
-3.037934899330139160e-01 1.101697683334350586e-01 -3.057292103767395020e-01
-5.813950896263122559e-01 1.058050245046615601e-01 -2.035145908594131470e-01
-1.344277858734130859e-01 -8.432297408580780029e-02 -4.216396808624267578e-01
-3.009023368358612061e-01 -1.346113681793212891e-01 3.073091208934783936e-01
-2.568009793758392334e-01 3.671184182167053223e-02 2.640775442123413086e-01
-4.944990277290344238e-01 1.317905634641647339e-01 -7.650347054004669189e-02
-2.863167524337768555e-01 -1.642588973045349121e-01 9.380577504634857178e-02
-2.896959185600280762e-01 -1.675570905208587646e-01 6.088889390230178833e-02
-3.338109850883483887e-01 1.184047311544418335e-01 -6.831029802560806274e-02
-3.736253082752227783e-01 1.153584271669387817e-01 1.035390347242355347e-01
-5.197226405143737793e-01 1.059330627322196960e-02 -5.709347128868103027e-01
-3.100189268589019775e-01 -1.317951232194900513e-01 3.312489986419677734e-01
-6.164315938949584961e-01 4.852707311511039734e-02 -3.379891514778137207e-01
-2.276221364736557007e-01 8.297032117843627930e-02 -3.306671977043151855e-01
-3.688415288925170898e-01 1.266400963068008423e-01 -1.203673332929611206e-01
-5.769243240356445312e-01 6.638056039810180664e-02 4.393107295036315918e-01
-5.276286602020263672e-01 1.266783028841018677e-01 5.115130543708801270e-02
-1.426035761833190918e-01 -4.954025149345397949e-02 -5.244792699813842773e-01
-3.479215502738952637e-01 7.367165386676788330e-02 3.137082159519195557e-01
-1.239008009433746338e-01 -8.550184965133666992e-02 -1.358376592397689819e-01
-1.648666560649871826e-01 -9.907145053148269653e-03 1.019733399152755737e-01
-5.944207906723022461e-01 3.944378718733787537e-02 4.964963197708129883e-01
-6.005008816719055176e-01 1.071703583002090454e-01 1.464845985174179077e-01
-6.161863803863525391e-01 -1.408813428133726120e-02 -3.705427944660186768e-01
-2.487539798021316528e-01 9.343245625495910645e-02 -2.934244573116302490e-01
-6.786111593246459961e-01 3.955299779772758484e-02 3.186236023902893066e-01
-1.847424656152725220e-01 -8.668015897274017334e-02 -5.645071864128112793e-01
-3.494521975517272949e-01 1.228704005479812622e-01 -1.009593307971954346e-01
-5.903907418251037598e-01 7.712610065937042236e-02 -3.320301473140716553e-01
-5.999368429183959961e-01 1.110327541828155518e-01 -1.645375415682792664e-02
-5.132150650024414062e-01 9.076039493083953857e-02 -4.360351562500000000e-01
-4.603083729743957520e-01 -1.690490245819091797e-01 2.561114728450775146e-02
-1.490350067615509033e-01 -7.145751267671585083e-02 6.450723111629486084e-02
-1.540542542934417725e-01 -9.474812448024749756e-02 -4.648194015026092529e-01
-3.272481560707092285e-01 -1.576862782239913940e-01 -3.610393404960632324e-01
-5.302523374557495117e-01 -1.346306353807449341e-01 3.445050418376922607e-01
-3.248090744018554688e-01 1.184095740318298340e-01 -1.892973482608795166e-01
-3.751177787780761719e-01 -1.403747405856847763e-02 5.316236019134521484e-01
-5.302442908287048340e-01 7.306353747844696045e-02 4.400789141654968262e-01
-4.339532256126403809e-01 1.208523809909820557e-01 -3.417644202709197998e-01
-3.610628545284271240e-01 3.340375050902366638e-02 -6.859987378120422363e-01
-5.596840381622314453e-01 -1.395759880542755127e-01 1.978367567062377930e-01
-2.200631946325302124e-01 -7.065930962562561035e-02 2.911453843116760254e-01
-1.414455175399780273e-01 -1.026028543710708618e-01 -3.671783506870269775e-01
-3.885870575904846191e-01 1.240465641021728516e-01 3.130080550909042358e-02
-1.114397346973419189e-01 -2.807796560227870941e-02 -2.480527609586715698e-01
-6.265432238578796387e-01 6.647698581218719482e-03 -3.483150899410247803e-01
-6.971809864044189453e-01 -9.520357474684715271e-03 -2.661785110831260681e-02
-2.050660401582717896e-01 9.765937924385070801e-03 1.977733969688415527e-01
-3.207726478576660156e-01 8.815997838973999023e-02 1.931904852390289307e-01
-5.676544308662414551e-01 1.201293319463729858e-01 4.602618515491485596e-02
-2.975744009017944336e-01 -7.315027713775634766e-02 -6.764882802963256836e-01
-4.430317878723144531e-01 7.296554744243621826e-02 4.202862977981567383e-01
-5.704996585845947266e-01 1.200404465198516846e-01 -1.141232624650001526e-02
-3.815260827541351318e-01 -1.739057749509811401e-01 1.029690057039260864e-01
-5.519123077392578125e-01 -7.968917489051818848e-02 -4.124449193477630615e-01
-2.907537221908569336e-01 1.047610789537429810e-01 -3.405418395996093750e-01
-5.180915594100952148e-01 -1.528069823980331421e-01 -6.007315963506698608e-02
-5.202704668045043945e-01 1.292870640754699707e-01 -3.571917861700057983e-02
-5.425865054130554199e-01 -1.446168720722198486e-01 -5.444091558456420898e-02
-4.235581159591674805e-01 3.532240539789199829e-02 5.077683925628662109e-01
-3.534536659717559814e-01 8.511230349540710449e-02 -5.558841228485107422e-01
-1.984745115041732788e-01 -1.378943324089050293e-01 2.515005320310592651e-02
-4.196601212024688721e-01 -9.177231788635253906e-02 5.271964669227600098e-01
-6.072507500648498535e-01 1.072593778371810913e-01 1.020075827836990356e-01
-6.994605660438537598e-01 -6.549167446792125702e-03 -1.007261872291564941e-02
-4.275337159633636475e-01 -1.641531288623809814e-01 2.218813002109527588e-01
-2.402189373970031738e-01 -9.773750603199005127e-02 3.001670539379119873e-01
-6.746219396591186523e-01 4.501005634665489197e-02 -1.211634203791618347e-01
-4.676444530487060547e-01 -1.542284637689590454e-01 -2.255056351423263550e-01
-3.797386884689331055e-01 -9.582439064979553223e-02 -6.058093309402465820e-01
-2.989692091941833496e-01 5.749871954321861267e-02 2.878717482089996338e-01
-1.321417093276977539e-01 7.526393979787826538e-03 -3.803723454475402832e-01
-1.594139337539672852e-01 -2.930935472249984741e-02 1.090489029884338379e-01
-5.812272429466247559e-01 3.936409950256347656e-02 -4.389985799789428711e-01
-4.556198120117187500e-01 1.041865050792694092e-01 2.862239778041839600e-01
-5.444839000701904297e-01 -1.473701745271682739e-01 3.369034081697463989e-02
-3.751208186149597168e-01 9.882776439189910889e-02 2.321394085884094238e-01
-4.346175193786621094e-01 -5.410182103514671326e-02 5.758415460586547852e-01
-3.981982767581939697e-01 -1.674397140741348267e-01 -2.240483313798904419e-01
-4.928514063358306885e-01 -1.583993881940841675e-01 1.894158720970153809e-01
-5.889618396759033203e-01 -1.173293292522430420e-01 -1.217358931899070740e-01
-2.670170366764068604e-01 -5.285302177071571350e-03 3.716067969799041748e-01
-5.592081546783447266e-01 -1.056369841098785400e-01 4.489994049072265625e-01
-4.437187314033508301e-01 -1.602577865123748779e-01 2.503345012664794922e-01
-7.031842470169067383e-01 2.644718065857887268e-02 1.720049679279327393e-01
-2.395409047603607178e-01 -1.185047067701816559e-02 3.228502571582794189e-01
-1.327661573886871338e-01 -1.658135652542114258e-02 -4.729777872562408447e-01
-2.239698469638824463e-01 2.879847958683967590e-02 -6.245305538177490234e-01
-1.695130318403244019e-01 -5.723693221807479858e-02 1.549915671348571777e-01
-1.316941678524017334e-01 -9.870387613773345947e-02 -3.145634233951568604e-01
-1.326791644096374512e-01 -7.532516121864318848e-02 -4.428548514842987061e-01
-3.948341906070709229e-01 -3.629084676504135132e-02 -6.902350783348083496e-01
-4.496694505214691162e-01 -1.671671569347381592e-01 -1.129268854856491089e-01
-3.099027872085571289e-01 -1.741686761379241943e-01 -1.315967738628387451e-02
-3.295329213142395020e-01 -5.301225930452346802e-02 -7.018455266952514648e-01
-3.087170720100402832e-01 1.137422025203704834e-01 -1.241717934608459473e-01
-4.247625768184661865e-01 1.274054944515228271e-01 5.050294101238250732e-02
-2.142175883054733276e-01 7.781553268432617188e-02 -1.714915931224822998e-01
-4.706144928932189941e-01 -7.803836464881896973e-02 5.618472099304199219e-01
-1.587728857994079590e-01 -2.607934176921844482e-03 6.010229140520095825e-02
-6.259346008300781250e-01 -2.012979611754417419e-02 -3.375674188137054443e-01
-3.896222114562988281e-01 1.012758910655975342e-01 2.386418282985687256e-01
-2.320880144834518433e-01 -1.533923745155334473e-01 -3.023697137832641602e-01
-4.024501144886016846e-01 -1.548740267753601074e-01 -3.334774971008300781e-01
-4.348747134208679199e-01 -1.720732301473617554e-01 7.442997395992279053e-02
-2.717994451522827148e-01 -1.081799119710922241e-01 -5.908065438270568848e-01
-2.961465716361999512e-01 1.108021140098571777e-01 -2.250462621450424194e-01
-4.588519930839538574e-01 1.215806603431701660e-01 1.552728861570358276e-01
-5.092649459838867188e-01 -2.437377721071243286e-02 -5.797647833824157715e-01
-2.196080684661865234e-01 8.164891600608825684e-02 -2.329019457101821899e-01
-3.668944835662841797e-01 -8.081167191267013550e-02 5.080885291099548340e-01
-2.232570648193359375e-01 8.280371129512786865e-02 -2.827495932579040527e-01
-5.301576852798461914e-01 -1.232517957687377930e-01 -2.890437245368957520e-01
-6.615444421768188477e-01 -3.012721613049507141e-02 4.312883019447326660e-01
-2.624290585517883301e-01 -1.632946431636810303e-01 2.972811460494995117e-02
-6.117405891418457031e-01 -1.111322939395904541e-01 2.756192982196807861e-01
-1.144126057624816895e-01 -4.575497284531593323e-02 -3.754287362098693848e-01
-4.892511963844299316e-01 -1.438227593898773193e-01 -2.595752477645874023e-01
-6.177638769149780273e-01 -9.629471600055694580e-02 -1.382959038019180298e-01
-5.762534141540527344e-01 -1.310527920722961426e-01 2.345859408378601074e-01
-1.794799119234085083e-01 -6.918617524206638336e-03 -6.075313091278076172e-01
-5.555426478385925293e-01 -1.147109568119049072e-01 -2.650975584983825684e-01
-1.548766195774078369e-01 -6.876769661903381348e-02 -5.369958877563476562e-01
-4.184946417808532715e-01 -1.743066310882568359e-01 -3.976883739233016968e-02
-1.440474092960357666e-01 1.763143390417098999e-02 -1.084635555744171143e-01
-6.446237564086914062e-01 -7.771329581737518311e-02 3.590010702610015869e-01
-1.639517843723297119e-01 4.232765361666679382e-02 -1.474502980709075928e-01
-6.884022355079650879e-01 -2.947215922176837921e-02 3.216945528984069824e-01
-5.035350918769836426e-01 5.472895130515098572e-02 -5.482469797134399414e-01
-2.681796550750732422e-01 -1.107668131589889526e-01 3.271947503089904785e-01
-1.514677405357360840e-01 8.430015295743942261e-04 1.549965888261795044e-02
-2.626475691795349121e-01 -1.553575694561004639e-01 -3.445148766040802002e-01
-2.528333663940429688e-01 -1.566369235515594482e-01 -3.158527612686157227e-01
-2.587375044822692871e-01 9.767141938209533691e-02 -1.477003395557403564e-01
-6.489152312278747559e-01 8.660387992858886719e-02 1.455374807119369507e-01
-2.001279145479202271e-01 -1.144059747457504272e-01 1.541475951671600342e-01
-3.167716860771179199e-01 -2.539124339818954468e-02 4.702407121658325195e-01
-3.483769893646240234e-01 1.044547557830810547e-01 1.447825580835342407e-01
-3.401632308959960938e-01 -1.330189108848571777e-01 -5.002961158752441406e-01
-6.177051067352294922e-01 -7.253786921501159668e-02 -2.513906359672546387e-01
-6.072530746459960938e-01 -1.085042208433151245e-01 3.203089833259582520e-01
-6.364250183105468750e-01 -1.027695536613464355e-01 1.664095520973205566e-01
-4.801492989063262939e-01 1.129067093133926392e-01 -3.669118285179138184e-01
-3.670722544193267822e-01 6.542675197124481201e-02 3.720269799232482910e-01
-2.216114997863769531e-01 8.055658638477325439e-02 -1.416781246662139893e-01
-1.282961964607238770e-01 -5.887434259057044983e-02 -3.223956003785133362e-02
-5.052522420883178711e-01 -5.452641472220420837e-02 5.867103338241577148e-01
-4.869129657745361328e-01 1.303022950887680054e-01 -1.658412814140319824e-01
-4.020508229732513428e-01 1.234682947397232056e-01 -3.138314187526702881e-01
-4.901907145977020264e-01 1.268741488456726074e-01 -2.218595296144485474e-01
-2.948356270790100098e-01 9.668388962745666504e-02 -4.380773007869720459e-01
-1.935895234346389771e-01 -4.919877275824546814e-03 -6.318536400794982910e-01
-3.172520101070404053e-01 9.801813960075378418e-02 1.191651970148086548e-01
-1.703579276800155640e-01 -1.335656642913818359e-01 -1.403748244047164917e-01
-1.968700438737869263e-01 3.421094268560409546e-03 1.868162900209426880e-01
-5.616868138313293457e-01 -5.367946997284889221e-02 -4.511148035526275635e-01
-3.725021481513977051e-01 7.620142400264739990e-02 -5.900177955627441406e-01
-4.659400582313537598e-01 -5.294797196984291077e-02 5.864847302436828613e-01
-2.592104673385620117e-01 9.061637520790100098e-02 -2.238036319613456726e-02
-5.890293121337890625e-01 -1.083212047815322876e-01 3.799081444740295410e-01
-2.224812358617782593e-01 -1.572954356670379639e-01 -1.323290765285491943e-01
-6.102331280708312988e-01 -3.485203534364700317e-02 5.305209159851074219e-01
-2.860447466373443604e-01 -1.518523544073104858e-01 -3.941285610198974609e-01
-5.426754951477050781e-01 1.181008964776992798e-01 1.640225350856781006e-01
-1.842412352561950684e-01 -3.729117289185523987e-02 -6.281723380088806152e-01
-5.170427560806274414e-01 1.295191794633865356e-01 -7.320881634950637817e-02
-3.940457999706268311e-01 -1.082890778779983521e-01 -5.604757070541381836e-01
-2.784272432327270508e-01 -1.696905195713043213e-01 -2.649638429284095764e-02
-2.732637524604797363e-01 1.037635356187820435e-01 -1.855474114418029785e-01
-4.578367471694946289e-01 -1.657432764768600464e-01 1.626529097557067871e-01
-6.034985184669494629e-01 1.806754618883132935e-03 5.385708808898925781e-01
-5.803142786026000977e-01 -1.310149133205413818e-01 2.083289921283721924e-01
-4.221411347389221191e-01 1.248726397752761841e-01 -3.014937043190002441e-01
-2.167781293392181396e-01 -1.427825689315795898e-01 6.573636829853057861e-02
-6.267069578170776367e-01 -9.547360241413116455e-02 -9.701983630657196045e-02
-3.445182442665100098e-01 1.099946647882461548e-01 -4.035693109035491943e-01
-3.833882212638854980e-01 4.860211163759231567e-03 -7.033202648162841797e-01
-1.481174826622009277e-01 9.849641472101211548e-03 -4.772201180458068848e-01
-1.256821751594543457e-01 -5.972348153591156006e-03 -1.374535560607910156e-01
-3.626840710639953613e-01 1.070784032344818115e-01 -4.421131312847137451e-01
-1.944378763437271118e-01 6.405368447303771973e-02 -1.300023496150970459e-01
-6.354354619979858398e-01 -9.417489171028137207e-02 2.990037202835083008e-01
-3.873492479324340820e-01 -1.102375537157058716e-01 4.716017246246337891e-01
-4.131819903850555420e-01 1.000772416591644287e-01 -4.868518114089965820e-01
-5.475260615348815918e-01 1.243798136711120605e-01 3.356768935918807983e-02
-5.644661188125610352e-01 1.214245259761810303e-01 -2.704790607094764709e-02
-3.211601674556732178e-01 -3.233222663402557373e-02 -7.187235951423645020e-01
-6.514493227005004883e-01 8.650194108486175537e-02 1.830456405878067017e-02
-6.495625972747802734e-01 7.703772187232971191e-02 2.478547990322113037e-01
-2.166304439306259155e-01 -1.190844178199768066e-01 1.870376616716384888e-01
-6.018772721290588379e-01 -1.054836213588714600e-01 3.599617779254913330e-01
-5.934318900108337402e-01 -1.257955878973007202e-01 1.968536674976348877e-01
-5.003998875617980957e-01 7.161454856395721436e-02 4.466542601585388184e-01
-5.738074183464050293e-01 -9.964412450790405273e-02 4.498914480209350586e-01
-4.584838449954986572e-01 5.551270022988319397e-02 -5.970057845115661621e-01
-5.229661464691162109e-01 1.059972792863845825e-01 -3.473083674907684326e-01
-4.241552352905273438e-01 8.561863005161285400e-02 3.569796681404113770e-01
-3.468772768974304199e-01 -5.859427154064178467e-03 -7.186861634254455566e-01
-3.042558133602142334e-01 -1.691353470087051392e-01 -2.361018061637878418e-01
-5.659198164939880371e-01 -4.553946852684020996e-02 5.681359767913818359e-01
-1.191139817237854004e-01 -6.262872368097305298e-02 -3.930716514587402344e-01
-2.009727656841278076e-01 6.970335543155670166e-02 -1.576878130435943604e-01
-5.087178349494934082e-01 1.153091788291931152e-01 2.190563380718231201e-01
-5.199632048606872559e-01 9.640932083129882812e-02 -4.017823636531829834e-01
-1.552371084690093994e-01 -1.242615729570388794e-01 -2.114231288433074951e-01
-1.998520493507385254e-01 3.579978272318840027e-02 -5.599434375762939453e-01
-5.822312235832214355e-01 1.043283939361572266e-01 2.336823344230651855e-01
-2.799499034881591797e-01 -1.703878194093704224e-01 -1.508046835660934448e-01
-6.306788921356201172e-01 4.848162457346916199e-02 -2.953011691570281982e-01
-4.790057539939880371e-01 -1.387051790952682495e-01 -3.174296617507934570e-01
-1.519849002361297607e-01 -1.178542077541351318e-01 -3.068541884422302246e-01
-5.388000011444091797e-01 -1.382910609245300293e-01 2.973764240741729736e-01
-5.100144147872924805e-01 -7.858198881149291992e-02 -4.971050322055816650e-01
-4.289977848529815674e-01 1.238767355680465698e-01 1.043152660131454468e-01
-1.219049990177154541e-01 -8.925358951091766357e-02 -2.204568535089492798e-01
-5.187422633171081543e-01 -1.555247455835342407e-01 1.059137731790542603e-01
-4.644997417926788330e-01 1.234168559312820435e-01 -2.967908084392547607e-01
-3.153178989887237549e-01 -4.378372430801391602e-02 4.726709723472595215e-01
-1.251416802406311035e-01 -8.484974503517150879e-02 -3.558005690574645996e-01
-4.561220109462738037e-01 1.329829692840576172e-01 -1.249188780784606934e-01
-2.814559042453765869e-01 -1.117449104785919189e-01 3.479271531105041504e-01
-6.848212480545043945e-01 4.303672537207603455e-02 -6.118031218647956848e-02
-6.247733235359191895e-01 3.060608357191085815e-02 -3.404266834259033203e-01
-3.423807919025421143e-01 5.676813051104545593e-02 -6.439088582992553711e-01
-3.514097332954406738e-01 1.238405853509902954e-01 -1.765968650579452515e-01
-5.662406086921691895e-01 -1.388362944126129150e-01 1.566878408193588257e-01
-3.076937794685363770e-01 -1.077640056610107422e-01 3.969893455505371094e-01
-6.079626679420471191e-01 5.472611263394355774e-02 4.433848261833190918e-01
-6.980268955230712891e-01 -3.389742970466613770e-02 2.147597670555114746e-01
-3.839010000228881836e-01 -5.063621699810028076e-02 -6.837409734725952148e-01
-5.620245337486267090e-01 -7.986427843570709229e-02 5.216922163963317871e-01
-5.602594614028930664e-01 1.221228092908859253e-01 -4.990372806787490845e-02
-1.630444675683975220e-01 4.065634682774543762e-02 -3.796725273132324219e-01
-2.113920152187347412e-01 -1.266236752271652222e-01 -4.627550840377807617e-01
-2.716271877288818359e-01 -1.437728554010391235e-01 -4.380538761615753174e-01
-4.146117269992828369e-01 -6.756763160228729248e-02 -6.385548710823059082e-01
-1.165240406990051270e-01 -6.084603443741798401e-02 -3.748427331447601318e-01
-3.795428574085235596e-01 -1.738394200801849365e-01 -1.544117629528045654e-01
-2.849376499652862549e-01 8.734874427318572998e-02 1.053266376256942749e-01
-2.538391947746276855e-01 9.267120063304901123e-02 -3.473108708858489990e-01
-3.590873181819915771e-01 -1.027575433254241943e-01 -5.990760326385498047e-01
-5.202997326850891113e-01 -5.878116190433502197e-02 5.795986056327819824e-01
-4.990921020507812500e-01 5.217917263507843018e-03 -6.012474894523620605e-01
-4.789263904094696045e-01 -3.361136838793754578e-02 -6.138563156127929688e-01
-2.941982746124267578e-01 8.596561849117279053e-02 1.413761228322982788e-01
-3.781268000602722168e-01 -1.237961053848266602e-01 -5.186101198196411133e-01
-1.442830860614776611e-01 -9.443260729312896729e-02 -4.276396930217742920e-01
-6.601741313934326172e-01 7.163910567760467529e-02 -8.223957568407058716e-02
-3.318619728088378906e-01 -1.764600276947021484e-01 -3.044729679822921753e-02
-2.273010462522506714e-01 6.424380466341972351e-03 2.659658789634704590e-01
-2.749105393886566162e-01 1.398669928312301636e-02 -6.965571641921997070e-01
-5.600230097770690918e-01 -1.383836567401885986e-01 2.166711091995239258e-01
-3.575733006000518799e-01 -1.409673392772674561e-01 -4.548741579055786133e-01
-1.675400286912918091e-01 -1.267255097627639771e-01 -6.041677296161651611e-02
-5.265900492668151855e-01 -2.438022568821907043e-02 -5.529394149780273438e-01
-2.562681436538696289e-01 2.290440350770950317e-02 2.994907200336456299e-01
-5.062505006790161133e-01 -4.640091210603713989e-02 -5.624544620513916016e-01
-1.803325861692428589e-01 -5.405667796730995178e-02 -6.114644408226013184e-01
-4.253583550453186035e-01 1.324530392885208130e-01 -1.021141037344932556e-01
-3.804771304130554199e-01 -1.242446005344390869e-01 4.283498227596282959e-01
-6.262950301170349121e-01 -3.991211950778961182e-02 -3.086939454078674316e-01
-4.635336995124816895e-01 -1.444723010063171387e-01 -3.109922409057617188e-01
-2.725133895874023438e-01 -1.516361385583877563e-01 -3.860078454017639160e-01
-6.782646179199218750e-01 -3.262860327959060669e-02 3.675912916660308838e-01
-2.039714902639389038e-01 -1.609524711966514587e-03 -6.449624300003051758e-01
-5.052213668823242188e-01 -9.885841608047485352e-02 -4.478196203708648682e-01
-5.066604018211364746e-01 -5.905279144644737244e-02 -5.427497625350952148e-01
-3.783434927463531494e-01 1.110483407974243164e-01 -4.209151864051818848e-01
-6.685457229614257812e-01 6.217218562960624695e-02 2.595070004463195801e-01
-6.584267616271972656e-01 -3.512906655669212341e-02 -2.005026042461395264e-01
-1.675139665603637695e-01 -9.622114896774291992e-02 -4.997506439685821533e-01
-1.300652623176574707e-01 -1.007916927337646484e-01 -2.378895133733749390e-01
-6.372966170310974121e-01 -1.756514795124530792e-02 4.954710602760314941e-01
-3.699663579463958740e-01 9.784397482872009277e-02 -5.006940364837646484e-01
-1.147158741950988770e-01 -7.411742210388183594e-02 -2.790486812591552734e-01
-4.645863175392150879e-01 -1.670536249876022339e-01 -4.746027290821075439e-02
-1.639533340930938721e-01 1.539804413914680481e-02 2.722981572151184082e-02
-4.765892922878265381e-01 -1.267016232013702393e-01 -3.876967132091522217e-01
-2.329681366682052612e-01 -7.002916932106018066e-02 3.209694027900695801e-01
-3.340011835098266602e-01 -1.497401744127273560e-01 -4.146856665611267090e-01
-1.425544619560241699e-01 5.294587463140487671e-03 -5.239753052592277527e-02
-6.758897304534912109e-01 3.543878346681594849e-02 -1.387830972671508789e-01
-3.892572522163391113e-01 9.837098419666290283e-02 2.554123997688293457e-01
-5.682373046875000000e-01 2.941176295280456543e-03 -4.881791174411773682e-01
-2.457128912210464478e-01 6.607343256473541260e-02 1.140782982110977173e-01
-3.879345357418060303e-01 1.065359264612197876e-01 2.017648518085479736e-01
-5.143386125564575195e-01 7.614818215370178223e-02 4.311776161193847656e-01
-3.458952903747558594e-01 9.670302271842956543e-02 -4.974166452884674072e-01
-5.546578764915466309e-01 -1.027899980545043945e-01 4.654951095581054688e-01
-3.407127261161804199e-01 -1.754171997308731079e-01 -1.408625990152359009e-01
-6.607204079627990723e-01 -7.899411022663116455e-02 2.559120357036590576e-01
-6.886044740676879883e-01 8.338157087564468384e-03 3.406326174736022949e-01
-3.104416429996490479e-01 1.148968786001205444e-01 -1.686586141586303711e-01
-5.525748729705810547e-01 7.909135520458221436e-02 -4.104247391223907471e-01
-1.249325573444366455e-01 -7.147961109876632690e-02 -4.106829166412353516e-01
-4.023422300815582275e-01 -1.755664646625518799e-01 -5.601638555526733398e-02
-4.716089367866516113e-01 1.265837848186492920e-01 -2.525364160537719727e-01
-2.519474029541015625e-01 -1.619113087654113770e-01 5.432218313217163086e-03
-1.128738522529602051e-01 -6.781073659658432007e-02 -2.120655179023742676e-01
-4.014505743980407715e-01 -1.723397821187973022e-01 1.267756372690200806e-01
-1.535858809947967529e-01 3.703149408102035522e-02 -2.213061600923538208e-01
-3.697388470172882080e-01 -1.392547637224197388e-01 3.659245371818542480e-01
-2.499907314777374268e-01 -1.647359430789947510e-01 -8.260597288608551025e-02
-4.175391197204589844e-01 4.603005945682525635e-03 5.503181815147399902e-01
-2.034230530261993408e-01 7.304191589355468750e-02 -2.305062115192413330e-01
-3.959731161594390869e-01 -1.761805117130279541e-01 2.207024395465850830e-02
-5.022984147071838379e-01 -1.552891135215759277e-01 -1.004496961832046509e-01
-2.485621869564056396e-01 3.690138831734657288e-02 -6.374403834342956543e-01
-5.839892625808715820e-01 -1.314498335123062134e-01 4.308954626321792603e-02
-2.626311182975769043e-01 8.841906487941741943e-02 1.638697832822799683e-02
-5.138151049613952637e-01 -1.464028209447860718e-01 -1.652874350547790527e-01
-3.880885839462280273e-01 1.219015568494796753e-01 -3.242436647415161133e-01
-3.584063351154327393e-01 1.177684962749481201e-01 3.913296759128570557e-02
-5.642639994621276855e-01 -1.166704148054122925e-01 3.901748955249786377e-01
-6.260596513748168945e-01 1.006590425968170166e-01 7.341058552265167236e-02
-3.198772668838500977e-01 -9.644959867000579834e-02 4.352118670940399170e-01
-2.130623012781143188e-01 -1.011417955160140991e-01 -5.670128464698791504e-01
-3.445166647434234619e-01 1.225330382585525513e-01 -1.417661607265472412e-01
-6.896700859069824219e-01 4.083812609314918518e-02 2.494589388370513916e-01
-1.724648177623748779e-01 -9.323188662528991699e-02 -5.216137766838073730e-01
-5.963103771209716797e-01 -9.753355383872985840e-02 4.154263436794281006e-01
-2.812321782112121582e-01 -1.711303740739822388e-01 -7.182778418064117432e-02
-3.482766747474670410e-01 -1.637937873601913452e-01 2.029520273208618164e-01
-6.995367407798767090e-01 -2.546700462698936462e-02 2.406489253044128418e-01
-2.326393872499465942e-01 2.703837305307388306e-02 -6.401442289352416992e-01
-4.927592873573303223e-01 4.552124068140983582e-02 5.176938772201538086e-01
-3.512087762355804443e-01 1.235772520303726196e-01 -1.199398115277290344e-01
-7.078835964202880859e-01 -1.493649557232856750e-03 1.343052685260772705e-01
-6.501448154449462891e-01 5.395550653338432312e-02 3.662885427474975586e-01
-5.327702164649963379e-01 1.061074286699295044e-01 2.787143886089324951e-01
-2.915648221969604492e-01 6.439252197742462158e-02 2.455978989601135254e-01
-5.457360744476318359e-01 3.337426111102104187e-02 5.383668541908264160e-01
-5.429834127426147461e-01 1.109416186809539795e-01 -2.735048234462738037e-01
-6.677163839340209961e-01 5.429041758179664612e-02 3.064046502113342285e-01
-1.955044269561767578e-01 6.717930734157562256e-02 -3.136616349220275879e-01
-3.132082819938659668e-01 9.964853525161743164e-02 9.494096040725708008e-02
-3.620504140853881836e-01 -1.442699134349822998e-01 -4.348515570163726807e-01
-5.027831196784973145e-01 -1.515144854784011841e-01 2.539147436618804932e-01
-1.706046015024185181e-01 -1.318054199218750000e-01 -2.763780951499938965e-01
-4.447557330131530762e-01 1.245791316032409668e-01 1.122477948665618896e-01
-4.020746350288391113e-01 -1.615666598081588745e-01 -2.794716358184814453e-01
-5.202183723449707031e-01 1.285802125930786133e-01 1.633885502815246582e-02
-4.263845086097717285e-01 -1.580148637294769287e-01 2.781633138656616211e-01
-6.807112693786621094e-01 4.131968691945075989e-02 -9.568971395492553711e-02
-4.225827157497406006e-01 1.312302649021148682e-01 -3.711140155792236328e-02
-3.551902174949645996e-01 -1.648115217685699463e-01 -2.918590307235717773e-01
-4.790945649147033691e-01 1.184013485908508301e-01 1.933417618274688721e-01
-2.581071853637695312e-01 -1.478597372770309448e-01 -3.993787765502929688e-01
-6.699600815773010254e-01 -5.124848335981369019e-02 3.572607934474945068e-01
-6.703491210937500000e-01 -6.295212358236312866e-02 -3.260163217782974243e-02
-3.181808888912200928e-01 -1.210934072732925415e-01 3.770068287849426270e-01
-1.906088739633560181e-01 4.011348634958267212e-02 4.084903001785278320e-02
-5.224919319152832031e-01 -6.382961571216583252e-02 -5.077953338623046875e-01
-3.792790174484252930e-01 -1.078604012727737427e-01 -5.726015567779541016e-01
-3.130233883857727051e-01 7.780064642429351807e-02 -5.667264461517333984e-01
-1.968577504158020020e-01 2.353394776582717896e-02 -5.892599225044250488e-01
-1.649032980203628540e-01 -1.288780719041824341e-01 -1.150758937001228333e-01
-3.811463415622711182e-01 -1.714830547571182251e-01 -1.925829350948333740e-01
-1.130670905113220215e-01 -7.047595083713531494e-02 -2.465186119079589844e-01
-6.246678829193115234e-01 3.151595965027809143e-02 4.754257202148437500e-01
-6.737449169158935547e-01 2.016556262969970703e-02 -1.716108620166778564e-01
-2.669068574905395508e-01 9.902042150497436523e-02 -3.158408701419830322e-01
-6.613450050354003906e-01 -8.255894482135772705e-02 7.627026736736297607e-02
-5.162944793701171875e-01 -1.551692634820938110e-01 1.446054130792617798e-01
-1.534071266651153564e-01 -8.985038101673126221e-02 -4.801762998104095459e-01
-5.464513301849365234e-01 5.201124027371406555e-02 4.983234405517578125e-01
-6.418671607971191406e-01 7.084220647811889648e-02 3.151406943798065186e-01
-3.708677887916564941e-01 -1.630158275365829468e-01 2.279210388660430908e-01
-1.229352056980133057e-01 -3.428979590535163879e-02 -4.397394061088562012e-01
-1.907138526439666748e-01 -1.295564025640487671e-01 4.950342327356338501e-02
-5.521185994148254395e-01 9.504836797714233398e-02 3.342439532279968262e-01
-3.957571387290954590e-01 -1.716041862964630127e-01 1.410828679800033569e-01
-6.281598806381225586e-01 -3.545522317290306091e-02 5.021706819534301758e-01
-5.855183601379394531e-01 9.017187356948852539e-02 -2.906387150287628174e-01
-1.248853504657745361e-01 -1.869155094027519226e-02 -4.309003651142120361e-01
-6.739589571952819824e-01 -5.183673650026321411e-02 3.351037800312042236e-01
-1.987399905920028687e-01 -6.005125120282173157e-03 2.103459537029266357e-01
-5.247954726219177246e-01 1.092445701360702515e-01 2.606390416622161865e-01
-4.662722349166870117e-01 -1.674153506755828857e-01 -2.122425660490989685e-02
-2.949796617031097412e-01 -4.232352599501609802e-03 4.199163615703582764e-01
-6.431798934936523438e-01 -9.828412532806396484e-02 1.054862588644027710e-01
-1.704088300466537476e-01 -2.215547859668731689e-02 1.421421617269515991e-01
-2.255076169967651367e-01 -3.060208447277545929e-02 -6.822345852851867676e-01
-2.028319239616394043e-01 -9.637954831123352051e-02 2.111214995384216309e-01
-4.075337648391723633e-01 -1.318424940109252930e-01 4.164116978645324707e-01
-1.656311154365539551e-01 2.197961881756782532e-02 8.233040571212768555e-03
-4.369150996208190918e-01 1.317075639963150024e-01 -2.214773744344711304e-02
-3.871770501136779785e-01 1.281083673238754272e-01 -2.103532254695892334e-01
-2.451965510845184326e-01 8.427897095680236816e-02 -4.103473722934722900e-01
-2.281559854745864868e-01 -1.098747700452804565e-01 2.452490031719207764e-01
-3.066215813159942627e-01 -1.509866416454315186e-01 2.379605472087860107e-01
-3.066205978393554688e-01 5.784430727362632751e-02 3.016254007816314697e-01
-2.881945669651031494e-01 -9.998379647731781006e-02 3.842247128486633301e-01
-3.841260671615600586e-01 -1.006813198328018188e-01 4.903502464294433594e-01
-2.664150595664978027e-01 -1.341809183359146118e-01 2.482980489730834961e-01
-6.572540998458862305e-01 -7.972064614295959473e-02 -1.201365143060684204e-02
-2.952031195163726807e-01 1.016925573348999023e-01 1.468737423419952393e-02
-1.866089701652526855e-01 -8.135374635457992554e-02 1.896337568759918213e-01
-5.960078239440917969e-01 -1.091779619455337524e-01 -1.524124145507812500e-01
-5.978865027427673340e-01 8.651493489742279053e-02 3.287482559680938721e-01
-2.322569191455841064e-01 -1.593483388423919678e-01 -1.973987519741058350e-01
-2.151925265789031982e-01 -9.675423800945281982e-02 -5.822622179985046387e-01
-3.755986690521240234e-01 1.149747967720031738e-01 -3.873999118804931641e-01
-5.245099067687988281e-01 -7.890468090772628784e-02 5.502952933311462402e-01
-1.817130148410797119e-01 -1.395659297704696655e-01 -1.198631525039672852e-01
-6.075660586357116699e-01 3.112509101629257202e-02 4.987334609031677246e-01
-3.606831133365631104e-01 -9.656608104705810547e-02 -6.147291660308837891e-01
-5.106384754180908203e-01 -1.356573998928070068e-01 -2.635421752929687500e-01
-1.674568504095077515e-01 -2.479511126875877380e-02 -5.949568152427673340e-01
-2.495464682579040527e-01 -1.314026713371276855e-01 -4.878601729869842529e-01
-2.259441465139389038e-01 -6.097633764147758484e-02 3.108293414115905762e-01
-5.968930125236511230e-01 -4.446722567081451416e-02 5.394726395606994629e-01
-6.535429358482360840e-01 6.867036223411560059e-02 2.876991033554077148e-01
-4.059823751449584961e-01 1.168922930955886841e-01 1.459904164075851440e-01
-6.144612431526184082e-01 8.835935592651367188e-02 -2.061398178339004517e-01
-1.148562431335449219e-01 -6.929507106542587280e-02 -3.238505423069000244e-01
-2.044580280780792236e-01 -1.460740715265274048e-01 -2.899139523506164551e-01
-5.610620379447937012e-01 -8.899210393428802490e-02 -3.619041144847869873e-01
-1.612917780876159668e-01 3.786110132932662964e-02 -1.235883384943008423e-01
-6.082260608673095703e-01 -1.137704551219940186e-01 -4.391470551490783691e-02
-6.636717319488525391e-01 7.351595163345336914e-02 -3.827799111604690552e-02
-5.984890460968017578e-01 -1.252539157867431641e-01 1.315174400806427002e-01
-7.028304338455200195e-01 -8.307327516376972198e-03 2.947947382926940918e-02
-4.657038450241088867e-01 -1.679002791643142700e-01 6.480410695075988770e-02
-1.111435592174530029e-01 -3.665163367986679077e-02 -2.054657489061355591e-01
-5.374671220779418945e-01 -9.108226001262664795e-02 -4.095289409160614014e-01
-2.316050529479980469e-01 5.582569167017936707e-02 1.208057403564453125e-01
-6.574953794479370117e-01 -2.709610015153884888e-02 4.456864595413208008e-01
-1.226332485675811768e-01 -9.247048757970333099e-03 -3.807643949985504150e-01
-6.703999638557434082e-01 1.350193098187446594e-02 4.046338796615600586e-01
-4.733031690120697021e-01 -6.727396696805953979e-02 -5.760890841484069824e-01
-6.082718968391418457e-01 9.714768826961517334e-02 2.329288721084594727e-01
-2.685171961784362793e-01 -1.013689190149307251e-01 -6.093348860740661621e-01
-5.342056751251220703e-01 9.767192602157592773e-02 -3.713005483150482178e-01
-6.508958935737609863e-01 6.258909404277801514e-02 3.286345899105072021e-01
-1.972967237234115601e-01 -4.649312049150466919e-02 2.416093051433563232e-01
-4.405228197574615479e-01 -1.453365236520767212e-01 3.587498068809509277e-01
-5.837402343750000000e-01 -7.191318273544311523e-02 5.143281221389770508e-01
-1.811374276876449585e-01 -1.098058819770812988e-01 1.045683622360229492e-01
-4.147781431674957275e-01 -1.403047144412994385e-01 3.832651972770690918e-01
-4.890393018722534180e-01 -5.362204834818840027e-02 -5.774111151695251465e-01
-2.061157077550888062e-01 5.842238292098045349e-02 2.816133201122283936e-03
-4.287508428096771240e-01 -1.588293015956878662e-01 -2.639391124248504639e-01
-6.109092831611633301e-01 1.070777624845504761e-01 6.158111244440078735e-02
-2.648270130157470703e-01 9.951613843441009521e-02 -2.877515256404876709e-01
-5.850034356117248535e-01 1.161171495914459229e-01 1.557907462120056152e-02
-1.631259769201278687e-01 4.199478402733802795e-02 -3.646581768989562988e-01
