-1.149489358067512512e-01 1.628229618072509766e-01 3.649253249168395996e-01
3.950766474008560181e-02 3.254596590995788574e-01 4.273511767387390137e-01
9.335745126008987427e-02 2.445285320281982422e-01 4.274345040321350098e-01
2.438718378543853760e-01 3.488069474697113037e-01 3.946596384048461914e-01
-1.745393276214599609e-01 2.684444785118103027e-01 3.955810964107513428e-01
-7.343145459890365601e-02 1.849438101053237915e-01 4.055526852607727051e-01
1.471238285303115845e-01 3.275218009948730469e-01 3.777638673782348633e-01
2.926216125488281250e-01 2.657191455364227295e-01 3.894450366497039795e-01
1.683498024940490723e-01 2.418861240148544312e-01 3.704103827476501465e-01
-4.517425596714019775e-02 1.410719603300094604e-01 3.621437251567840576e-01
2.382861971855163574e-01 2.834373712539672852e-01 4.312299191951751709e-01
-1.294389367103576660e-04 1.386184692382812500e-01 3.615753352642059326e-01
-1.381242871284484863e-01 1.892760694026947021e-01 3.940829038619995117e-01
1.880975514650344849e-01 2.510557770729064941e-01 3.730145990848541260e-01
1.252715587615966797e-01 1.554736495018005371e-01 4.178276658058166504e-01
1.492803245782852173e-01 2.813202738761901855e-01 4.314954876899719238e-01
-1.901957690715789795e-01 3.044181466102600098e-01 3.828410208225250244e-01
1.505992412567138672e-01 4.198516905307769775e-01 4.065075516700744629e-01
1.716538369655609131e-01 3.518550992012023926e-01 3.846819698810577393e-01
7.229779660701751709e-02 8.998596668243408203e-02 3.977176249027252197e-01
5.074913054704666138e-02 8.162130415439605713e-02 3.735740780830383301e-01
-3.246247768402099609e-03 9.601883590221405029e-02 3.695891201496124268e-01
2.189272344112396240e-01 2.945377528667449951e-01 3.809804916381835938e-01
3.966205939650535583e-02 3.654599189758300781e-01 4.259735941886901855e-01
-6.709768623113632202e-02 1.304607540369033813e-01 3.936510086059570312e-01
-9.749092906713485718e-02 1.777710914611816406e-01 4.003229439258575439e-01
1.914051771163940430e-01 3.217975497245788574e-01 3.815038502216339111e-01
2.658666968345642090e-01 2.824775278568267822e-01 3.864336013793945312e-01
-1.060550287365913391e-01 3.871762752532958984e-01 3.868612945079803467e-01
2.406613826751708984e-01 1.718296408653259277e-01 4.210007786750793457e-01
-1.122749224305152893e-01 2.963491678237915039e-01 4.104112088680267334e-01
1.637950241565704346e-01 1.994054019451141357e-01 3.682129085063934326e-01
1.546594500541687012e-01 2.163846045732498169e-01 4.271074235439300537e-01
-1.044268980622291565e-01 2.336755245923995972e-01 3.615921437740325928e-01
2.180289626121520996e-01 1.951498687267303467e-01 3.739210963249206543e-01
1.292998790740966797e-01 2.559934854507446289e-01 3.680660426616668701e-01
1.161306351423263550e-02 3.728600144386291504e-01 4.232793748378753662e-01
6.925389170646667480e-04 3.824828267097473145e-01 4.213448762893676758e-01
-1.614106446504592896e-02 2.737925350666046143e-01 3.628213405609130859e-01
-2.190992981195449829e-02 1.011455357074737549e-01 3.904952704906463623e-01
-7.091423124074935913e-02 3.292207717895507812e-01 4.165835976600646973e-01
-1.133994683623313904e-01 3.662427365779876709e-01 4.068253636360168457e-01
2.804227471351623535e-01 1.511580199003219604e-01 4.139093756675720215e-01
2.419656217098236084e-01 3.670509159564971924e-01 4.258082807064056396e-01
-6.530380994081497192e-02 4.102718830108642578e-01 4.047673046588897705e-01
6.681762635707855225e-03 2.402671724557876587e-01 4.212958812713623047e-01
2.249197959899902344e-01 1.751336157321929932e-01 4.220110774040222168e-01
1.385903358459472656e-01 2.648781538009643555e-01 4.304881989955902100e-01
1.049445122480392456e-01 9.448906779289245605e-02 4.015738368034362793e-01
-2.592336386442184448e-02 2.510559558868408203e-01 3.610130548477172852e-01
-5.691946297883987427e-02 2.004708796739578247e-01 3.594730496406555176e-01
1.480362713336944580e-01 3.085416853427886963e-01 3.750829100608825684e-01
-9.469606727361679077e-02 1.712921559810638428e-01 3.620080351829528809e-01
1.108244806528091431e-01 3.450106084346771240e-01 3.776220977306365967e-01
3.149765729904174805e-01 2.522723972797393799e-01 3.931472599506378174e-01
1.919566988945007324e-01 2.762673497200012207e-01 3.756568729877471924e-01
1.521377265453338623e-01 2.982650101184844971e-01 4.320114850997924805e-01
2.179751172661781311e-02 3.770607113838195801e-01 3.792229890823364258e-01
-5.981560796499252319e-02 2.996014654636383057e-01 3.653400838375091553e-01
3.373896703124046326e-02 1.423913389444351196e-01 3.616753220558166504e-01
-2.818783372640609741e-02 3.687953054904937744e-01 4.197688996791839600e-01
-3.998405486345291138e-02 2.548108100891113281e-01 4.179250299930572510e-01
3.058008551597595215e-01 1.405338644981384277e-01 3.988095521926879883e-01
-1.347582787275314331e-02 3.271541595458984375e-01 4.230540990829467773e-01
-9.945042431354522705e-03 4.276531338691711426e-01 4.046207964420318604e-01
3.404605090618133545e-01 2.762253284454345703e-01 4.179453253746032715e-01
-3.324682265520095825e-02 3.916298747062683105e-01 3.826092183589935303e-01
2.767013013362884521e-01 2.306457757949829102e-01 4.266588389873504639e-01
2.474959790706634521e-01 1.561292260885238647e-01 4.177680909633636475e-01
-1.390670239925384521e-02 1.134731769561767578e-01 3.969261348247528076e-01
-1.736587285995483398e-02 3.866537213325500488e-01 3.810175955295562744e-01
2.318218648433685303e-01 3.007482886314392090e-01 4.316152334213256836e-01
7.089249044656753540e-02 1.344458162784576416e-01 3.635070621967315674e-01
6.664708256721496582e-03 1.101172268390655518e-01 3.654434680938720703e-01
3.386371731758117676e-01 2.192181348800659180e-01 4.168007373809814453e-01
9.301786124706268311e-02 1.147137880325317383e-01 4.074038863182067871e-01
7.083898782730102539e-02 1.618059873580932617e-01 4.162129461765289307e-01
-1.731481552124023438e-01 3.087258338928222656e-01 3.964036405086517334e-01
1.837896704673767090e-01 1.312887221574783325e-01 3.722971677780151367e-01
2.279799580574035645e-01 3.756115436553955078e-01 3.996962308883666992e-01
1.209299266338348389e-02 2.067579329013824463e-01 4.183140099048614502e-01
1.404295712709426880e-01 1.045986115932464600e-01 3.715319335460662842e-01
-4.387717694044113159e-02 3.153222501277923584e-01 3.672041893005371094e-01
1.371883600950241089e-02 4.251779913902282715e-01 3.965691030025482178e-01
-2.490100264549255371e-02 4.041370153427124023e-01 4.149036407470703125e-01
8.356489986181259155e-02 8.190667629241943359e-02 3.946101963520050049e-01
1.248112022876739502e-01 4.177733361721038818e-01 3.998937010765075684e-01
1.598435491323471069e-01 3.394319415092468262e-01 4.317339658737182617e-01
-5.192264914512634277e-03 1.789162158966064453e-01 4.128514230251312256e-01
1.401485502719879150e-01 3.538116812705993652e-01 3.817850351333618164e-01
1.337130814790725708e-01 3.827238678932189941e-01 4.280918240547180176e-01
1.254356205463409424e-01 3.294266462326049805e-01 3.761713206768035889e-01
2.261115312576293945e-01 1.934477686882019043e-01 4.246452152729034424e-01
2.268775999546051025e-01 2.644004225730895996e-01 4.308944940567016602e-01
1.246907562017440796e-01 3.142900764942169189e-01 4.315163493156433105e-01
2.666127085685729980e-01 3.471055030822753906e-01 3.991397917270660400e-01
-1.745805144309997559e-01 3.098639249801635742e-01 3.763438761234283447e-01
3.181712031364440918e-01 2.347772419452667236e-01 4.227707684040069580e-01
6.454744935035705566e-02 2.535806298255920410e-01 3.638181984424591064e-01
3.180092573165893555e-01 1.887924820184707642e-01 4.167546629905700684e-01
-9.757923334836959839e-02 1.360398083925247192e-01 3.678103685379028320e-01
2.559818327426910400e-01 1.831287741661071777e-01 4.221613109111785889e-01
-7.355367392301559448e-02 3.385848402976989746e-01 3.712005317211151123e-01
1.775835081934928894e-02 3.604722321033477783e-01 3.755070269107818604e-01
-1.165960207581520081e-01 2.499259710311889648e-01 4.071236550807952881e-01
5.131357163190841675e-02 3.405045270919799805e-01 3.731777071952819824e-01
2.489221096038818359e-01 2.804004848003387451e-01 3.834538757801055908e-01
5.061222985386848450e-02 2.684603035449981689e-01 3.643195629119873047e-01
1.916366815567016602e-01 9.021463990211486816e-02 3.819206655025482178e-01
2.459625899791717529e-01 2.597703039646148682e-01 3.808789849281311035e-01
7.537614554166793823e-02 1.358911395072937012e-01 4.114979207515716553e-01
2.062015533447265625e-01 2.483631670475006104e-01 3.748105466365814209e-01
2.324139177799224854e-01 1.051002591848373413e-01 3.846855759620666504e-01
1.916542649269104004e-02 8.997194468975067139e-02 3.918146789073944092e-01
1.428763568401336670e-01 3.410506546497344971e-01 4.314827322959899902e-01
5.024362355470657349e-02 1.257333159446716309e-01 3.635801672935485840e-01
-7.376828044652938843e-02 1.514152139425277710e-01 3.624308705329895020e-01
-4.950616508722305298e-02 2.184848189353942871e-01 3.595885336399078369e-01
2.561362683773040771e-01 1.086800992488861084e-01 4.002442657947540283e-01
-7.023247331380844116e-02 3.818861246109008789e-01 3.809685111045837402e-01
-1.938651800155639648e-01 2.910404503345489502e-01 3.856323659420013428e-01
2.506102249026298523e-02 1.616646349430084229e-01 3.604305088520050049e-01
1.612148433923721313e-01 1.594827622175216675e-01 3.682394325733184814e-01
-1.139664277434349060e-01 3.327895998954772949e-01 4.098364114761352539e-01
2.388798892498016357e-01 2.983189821243286133e-01 3.842567205429077148e-01
7.413864880800247192e-02 2.657542228698730469e-01 3.652440011501312256e-01
1.110183000564575195e-01 1.259198039770126343e-01 4.111537635326385498e-01
5.641230940818786621e-02 1.708019971847534180e-01 4.167477190494537354e-01
3.017945289611816406e-01 2.469927817583084106e-01 3.895906805992126465e-01
-1.471409201622009277e-01 1.723335385322570801e-01 3.696479797363281250e-01
-2.519266307353973389e-02 2.679689228534698486e-01 4.203457534313201904e-01
2.362665235996246338e-01 2.066720426082611084e-01 4.260420203208923340e-01
2.712824642658233643e-01 1.429159641265869141e-01 3.846980333328247070e-01
6.546562165021896362e-02 3.948622643947601318e-01 3.857857286930084229e-01
1.548324525356292725e-01 1.771575510501861572e-01 3.672948181629180908e-01
3.401782512664794922e-01 2.900117635726928711e-01 4.112465083599090576e-01
-1.661223769187927246e-01 2.529502809047698975e-01 3.682669699192047119e-01
-1.374249160289764404e-01 3.031669855117797852e-01 4.058944880962371826e-01
2.946756482124328613e-01 2.758594155311584473e-01 4.274892807006835938e-01
6.590776145458221436e-02 4.288963377475738525e-01 4.141996204853057861e-01
4.003375396132469177e-02 3.896034955978393555e-01 3.830460608005523682e-01
2.584229111671447754e-01 3.356737494468688965e-01 4.286769330501556396e-01
-1.430258154869079590e-01 2.881626188755035400e-01 4.044748842716217041e-01
-1.386412382125854492e-01 1.877255439758300781e-01 3.653981387615203857e-01
3.984839841723442078e-02 1.164058148860931396e-01 3.644866347312927246e-01
2.810136973857879639e-01 3.001087009906768799e-01 3.917980194091796875e-01
8.491903543472290039e-02 4.223484396934509277e-01 4.182845950126647949e-01
1.959891617298126221e-01 1.868008971214294434e-01 3.713031411170959473e-01
2.789989709854125977e-01 3.491292297840118408e-01 4.237551987171173096e-01
1.928041428327560425e-01 1.811319291591644287e-01 4.232511520385742188e-01
4.127807915210723877e-03 2.524578571319580078e-01 3.615607023239135742e-01
1.681335568428039551e-01 3.780234456062316895e-01 4.285397529602050781e-01
-7.877644151449203491e-02 2.324197888374328613e-01 4.112158417701721191e-01
2.521323561668395996e-01 1.176941096782684326e-01 3.854105472564697266e-01
1.665262281894683838e-01 3.547673821449279785e-01 4.309107363224029541e-01
1.923824548721313477e-01 2.298724353313446045e-01 4.288633465766906738e-01
-5.129883438348770142e-02 3.219287097454071045e-01 4.191072285175323486e-01
1.183462366461753845e-01 2.931114435195922852e-01 4.310035109519958496e-01
-1.615014076232910156e-01 2.985944747924804688e-01 4.002641439437866211e-01
5.979833006858825684e-02 2.405778616666793823e-01 4.252603054046630859e-01
2.085568755865097046e-02 3.483764529228210449e-01 4.255127608776092529e-01
2.438520267605781555e-02 3.308539688587188721e-01 3.705525100231170654e-01
2.320154011249542236e-01 2.510526180267333984e-01 3.782112002372741699e-01
1.885112673044204712e-01 1.963501870632171631e-01 4.252961874008178711e-01
2.336179092526435852e-02 1.166216433048248291e-01 3.642545938491821289e-01
-1.467370390892028809e-01 2.524374127388000488e-01 4.015526771545410156e-01
-1.160292550921440125e-01 2.629065215587615967e-01 3.637264966964721680e-01
2.770669758319854736e-02 4.147584438323974609e-01 3.910626173019409180e-01
1.083103194832801819e-01 4.011345505714416504e-01 3.909386992454528809e-01
8.567515015602111816e-02 1.712105572223663330e-01 4.186349213123321533e-01
2.439934015274047852e-01 2.285639345645904541e-01 4.280411601066589355e-01
1.952121257781982422e-01 2.873424291610717773e-01 4.320988357067108154e-01
1.139718517661094666e-01 1.084699481725692749e-01 3.688214719295501709e-01
-2.019591629505157471e-03 9.193514287471771240e-02 3.892717957496643066e-01
5.844895169138908386e-02 2.960688471794128418e-01 3.673927485942840576e-01
2.733679413795471191e-01 1.928757131099700928e-01 4.225936532020568848e-01
5.943030118942260742e-04 2.885655164718627930e-01 3.645247519016265869e-01
9.566805511713027954e-02 1.388614177703857422e-01 3.644114136695861816e-01
2.207516133785247803e-01 2.296053171157836914e-01 3.753678202629089355e-01
3.387614339590072632e-02 3.879627287387847900e-01 4.234253764152526855e-01
3.331596255302429199e-01 2.418431490659713745e-01 3.975864052772521973e-01
-9.098429232835769653e-02 3.675291836261749268e-01 3.781838715076446533e-01
-1.241701096296310425e-02 1.510069370269775391e-01 4.070195853710174561e-01
-8.855821937322616577e-02 2.119415700435638428e-01 3.604391813278198242e-01
2.488781139254570007e-02 9.955684840679168701e-02 3.675639331340789795e-01
7.231808453798294067e-02 2.996983826160430908e-01 3.685258626937866211e-01
-1.180177703499794006e-01 3.747589588165283203e-01 3.834804296493530273e-01
2.426460087299346924e-01 1.159036904573440552e-01 4.068814218044281006e-01
1.634509563446044922e-01 3.177098631858825684e-01 3.778366446495056152e-01
7.342677563428878784e-02 8.017452061176300049e-02 3.743427395820617676e-01
9.057202190160751343e-02 3.539444804191589355e-01 3.778045177459716797e-01
-6.154317408800125122e-02 2.502178847789764404e-01 4.150797128677368164e-01
1.493512690067291260e-01 2.848667502403259277e-01 3.723560571670532227e-01
1.859769523143768311e-01 2.117726802825927734e-01 3.706806600093841553e-01
4.968638718128204346e-02 4.134483039379119873e-01 4.197658002376556396e-01
1.221254616975784302e-01 3.918833136558532715e-01 3.893070220947265625e-01
4.200516268610954285e-02 1.203379184007644653e-01 4.052726030349731445e-01
2.325003743171691895e-01 2.510126531124114990e-01 4.300406277179718018e-01
2.080204188823699951e-01 1.260922402143478394e-01 4.122947454452514648e-01
2.647226154804229736e-01 2.499124705791473389e-01 4.287599921226501465e-01
-1.279128491878509521e-01 3.197353184223175049e-01 3.709656000137329102e-01
3.107076883316040039e-01 3.296875953674316406e-01 4.084339439868927002e-01
-1.533548533916473389e-01 3.217809498310089111e-01 4.017939269542694092e-01
2.122186720371246338e-01 1.878012269735336304e-01 4.240994453430175781e-01
1.164157688617706299e-01 3.135913014411926270e-01 3.731442987918853760e-01
-2.834890037775039673e-02 2.000679075717926025e-01 3.592171669006347656e-01
3.051396310329437256e-01 1.710031032562255859e-01 4.152733385562896729e-01
2.976421713829040527e-01 3.031697273254394531e-01 4.266244769096374512e-01
-8.639916032552719116e-02 2.489396482706069946e-01 4.117107987403869629e-01
-9.496272355318069458e-02 3.530211448669433594e-01 4.119183719158172607e-01
2.135614752769470215e-01 2.573296725749969482e-01 4.307498037815093994e-01
-1.908495724201202393e-01 2.553538978099822998e-01 3.876354098320007324e-01
6.277094781398773193e-02 2.245966494083404541e-01 3.621013462543487549e-01
-1.198798790574073792e-01 1.536691188812255859e-01 3.888461291790008545e-01
-3.537681698799133301e-02 3.549931645393371582e-01 4.199483692646026611e-01
8.220019191503524780e-02 2.673347294330596924e-01 4.283776879310607910e-01
2.560680210590362549e-01 3.577706217765808105e-01 3.999358713626861572e-01
2.183863818645477295e-01 3.770138621330261230e-01 4.262038767337799072e-01
6.266514956951141357e-02 2.805444896221160889e-01 4.279400706291198730e-01
-2.778436988592147827e-02 2.323815226554870605e-01 3.600128889083862305e-01
-4.102647304534912109e-02 4.196257591247558594e-01 4.049355983734130859e-01
-2.907342463731765747e-02 3.245954811573028564e-01 3.685346841812133789e-01
2.344524264335632324e-01 3.909987211227416992e-01 4.169026613235473633e-01
6.711394339799880981e-02 1.982361823320388794e-01 4.213447570800781250e-01
1.674720942974090576e-01 3.853611350059509277e-01 3.925668597221374512e-01
2.634532153606414795e-01 3.712562322616577148e-01 4.087386727333068848e-01
1.845792084932327271e-01 3.622157275676727295e-01 4.300652742385864258e-01
-1.007627770304679871e-01 3.211842179298400879e-01 3.693805038928985596e-01
-9.782458096742630005e-02 3.316130340099334717e-01 4.126205742359161377e-01
7.929657399654388428e-02 3.286351859569549561e-01 4.296594858169555664e-01
1.634735614061355591e-01 4.013846814632415771e-01 3.977348208427429199e-01
3.485368490219116211e-01 2.108783423900604248e-01 4.060964286327362061e-01
2.071540653705596924e-01 3.726702034473419189e-01 3.946935832500457764e-01
2.387190982699394226e-02 1.428530812263488770e-01 4.090023934841156006e-01
-8.282151073217391968e-02 1.797845065593719482e-01 3.607702553272247314e-01
1.016640663146972656e-02 1.655521094799041748e-01 3.600067198276519775e-01
2.725474908947944641e-02 2.144454419612884521e-01 4.204538166522979736e-01
2.900291979312896729e-01 2.280002832412719727e-01 3.859453797340393066e-01
-1.351132392883300781e-01 2.169254869222640991e-01 3.998341858386993408e-01
-1.405526101589202881e-01 1.683757305145263672e-01 3.873495459556579590e-01
-1.660226881504058838e-01 2.764186561107635498e-01 3.698634803295135498e-01
-7.550979405641555786e-02 1.713733673095703125e-01 4.027388393878936768e-01
1.970559358596801758e-01 3.137862384319305420e-01 4.322865009307861328e-01
-4.135315120220184326e-02 3.770810961723327637e-01 3.786660730838775635e-01
1.804793626070022583e-01 9.159024059772491455e-02 4.009519219398498535e-01
4.587241262197494507e-02 3.046513795852661133e-01 4.276376664638519287e-01
1.279812306165695190e-02 3.165521025657653809e-01 3.681439161300659180e-01
-7.360113412141799927e-02 2.637346386909484863e-01 4.145503938198089600e-01
-9.171869605779647827e-02 1.232809424400329590e-01 3.717821836471557617e-01
2.593013644218444824e-01 2.951607406139373779e-01 4.303783476352691650e-01
-5.130579322576522827e-02 1.073542386293411255e-01 3.702870607376098633e-01
3.983291238546371460e-02 4.078475832939147949e-01 3.887296319007873535e-01
2.799687981605529785e-01 1.657251715660095215e-01 4.173689186573028564e-01
-5.045402795076370239e-02 1.963124573230743408e-01 4.104326665401458740e-01
2.206213772296905518e-01 2.631857097148895264e-01 3.777620196342468262e-01
7.745470851659774780e-02 1.056219488382339478e-01 4.037944674491882324e-01
8.948224782943725586e-02 3.548808395862579346e-01 4.293203949928283691e-01
1.984342932701110840e-02 3.286779522895812988e-01 4.258981943130493164e-01
2.906440794467926025e-01 1.481952816247940063e-01 3.887326121330261230e-01
1.741332933306694031e-02 2.790323793888092041e-01 4.247410595417022705e-01
8.996815979480743408e-02 2.660245001316070557e-01 3.661708235740661621e-01
2.571658492088317871e-01 2.479516267776489258e-01 3.815677165985107422e-01
2.337482571601867676e-01 9.951415657997131348e-02 3.993922472000122070e-01
2.690396904945373535e-01 3.101567924022674561e-01 4.294022917747497559e-01
1.097949296236038208e-01 3.445770740509033203e-01 4.305394291877746582e-01
9.009242057800292969e-05 1.426879167556762695e-01 4.066056311130523682e-01
-1.591428220272064209e-01 1.740772575139999390e-01 3.790666460990905762e-01
1.238040253520011902e-01 3.927753865718841553e-01 4.265260696411132812e-01
1.296800673007965088e-01 1.259033828973770142e-01 4.118645787239074707e-01
2.593099176883697510e-01 3.630748689174652100e-01 4.241143167018890381e-01
1.097497120499610901e-01 2.815338671207427979e-01 4.303039014339447021e-01
3.811904415488243103e-02 3.697372078895568848e-01 3.781484663486480713e-01
2.247353792190551758e-01 2.796047627925872803e-01 4.315142929553985596e-01
-1.603750586509704590e-01 2.162475883960723877e-01 3.934585750102996826e-01
-4.567774385213851929e-02 2.533808052539825439e-01 3.611163496971130371e-01
1.741167157888412476e-01 1.796602159738540649e-01 3.690554797649383545e-01
3.215138316154479980e-01 3.215771615505218506e-01 4.153267741203308105e-01
4.645026475191116333e-02 1.857841014862060547e-01 4.182978868484497070e-01
5.716145411133766174e-02 8.405636250972747803e-02 3.934523761272430420e-01
1.765461713075637817e-01 2.043031007051467896e-01 4.261598289012908936e-01
2.085190117359161377e-01 8.756469190120697021e-02 3.889565765857696533e-01
2.061955928802490234e-01 1.004728972911834717e-01 3.807405829429626465e-01
2.917250692844390869e-01 1.714319735765457153e-01 3.863719105720520020e-01
2.142023146152496338e-01 3.408303856849670410e-01 3.879135549068450928e-01
-6.123097985982894897e-02 3.467141091823577881e-01 3.723799884319305420e-01
2.792946100234985352e-01 1.594149470329284668e-01 3.845552206039428711e-01
2.933344244956970215e-01 2.866476178169250488e-01 3.922784328460693359e-01
1.169858872890472412e-01 2.134335637092590332e-01 3.648303747177124023e-01
1.543942093849182129e-01 1.380682438611984253e-01 4.152503311634063721e-01
1.072399169206619263e-01 2.092532515525817871e-01 4.247705936431884766e-01
1.534258425235748291e-01 1.234662830829620361e-01 3.700070977210998535e-01
-8.042905479669570923e-02 3.000408113002777100e-01 3.657774925231933594e-01
1.970267593860626221e-01 3.894895315170288086e-01 4.250998198986053467e-01
7.702399790287017822e-02 1.555604338645935059e-01 3.625200986862182617e-01
1.491500139236450195e-01 7.847884297370910645e-02 3.940266668796539307e-01
-1.361857354640960693e-01 1.543834507465362549e-01 3.823919892311096191e-01
-8.770329505205154419e-02 3.262739479541778564e-01 3.696078062057495117e-01
-7.852915674448013306e-02 4.085624217987060547e-01 3.965227603912353516e-01
1.138073056936264038e-01 2.256597429513931274e-01 4.267322123050689697e-01
1.022998914122581482e-01 1.574559360742568970e-01 3.638305366039276123e-01
2.240400016307830811e-02 3.013420701026916504e-01 3.665288984775543213e-01
-1.802729964256286621e-01 2.092237323522567749e-01 3.744629323482513428e-01
-1.110455319285392761e-01 2.673838138580322266e-01 4.093567430973052979e-01
-7.012137025594711304e-02 3.139163553714752197e-01 3.672991991043090820e-01
1.234239712357521057e-01 1.672436892986297607e-01 3.649501800537109375e-01
3.951140493154525757e-02 1.707937866449356079e-01 4.155063629150390625e-01
1.197923719882965088e-01 2.715015709400177002e-01 4.302367866039276123e-01
2.509279251098632812e-01 3.329936265945434570e-01 3.922530710697174072e-01
-9.195022284984588623e-03 2.719883620738983154e-01 4.221108257770538330e-01
2.279378175735473633e-01 3.082565367221832275e-01 3.841217756271362305e-01
-4.277206957340240479e-03 3.036207556724548340e-01 3.660920262336730957e-01
1.243177652359008789e-01 1.789427995681762695e-01 4.215870797634124756e-01
-1.058454141020774841e-01 2.723474800586700439e-01 3.639093637466430664e-01
-4.923602193593978882e-02 4.067957401275634766e-01 3.890399634838104248e-01
2.356939017772674561e-01 1.266451627016067505e-01 3.801072537899017334e-01
2.552162408828735352e-01 1.962873339653015137e-01 3.790611922740936279e-01
-5.677699297666549683e-02 1.838926076889038086e-01 3.596808016300201416e-01
-1.323223710060119629e-01 2.839437127113342285e-01 3.666502535343170166e-01
1.936811208724975586e-01 3.039182126522064209e-01 3.791292309761047363e-01
2.277145907282829285e-02 4.195229411125183105e-01 4.157937765121459961e-01
2.273105382919311523e-01 3.486529290676116943e-01 3.916601538658142090e-01
6.642453372478485107e-02 3.175336122512817383e-01 3.704684972763061523e-01
2.313965857028961182e-01 2.074469476938247681e-01 3.758522868156433105e-01
-1.342819035053253174e-01 2.750924825668334961e-01 4.056970775127410889e-01
3.196870982646942139e-01 1.848019957542419434e-01 3.929801881313323975e-01
2.601602375507354736e-01 2.322987020015716553e-01 4.277245402336120605e-01
9.214513748884201050e-02 3.019900023937225342e-01 4.301581084728240967e-01
-1.433566212654113770e-02 2.000409066677093506e-01 3.592749238014221191e-01
-1.219315901398658752e-01 3.508315682411193848e-01 4.069809913635253906e-01
2.109728455543518066e-01 2.823966741561889648e-01 3.785149753093719482e-01
-3.909641504287719727e-02 4.044061899185180664e-01 4.127901792526245117e-01
1.086977124214172363e-02 1.036122739315032959e-01 3.967629075050354004e-01
-7.781951874494552612e-02 1.319582462310791016e-01 3.659376502037048340e-01
7.721930742263793945e-02 2.447015792131423950e-01 4.266138672828674316e-01
2.436697483062744141e-01 2.417171448469161987e-01 3.791279792785644531e-01
2.987359762191772461e-01 3.421939015388488770e-01 4.084499180316925049e-01
1.055441796779632568e-02 2.256925702095031738e-01 3.602959513664245605e-01
-3.671206533908843994e-02 1.705322116613388062e-01 3.597509860992431641e-01
1.331234127283096313e-01 4.256454706192016602e-01 4.092374145984649658e-01
-7.558085769414901733e-02 2.137841582298278809e-01 4.095099866390228271e-01
-2.474942058324813843e-02 3.870601058006286621e-01 4.181135892868041992e-01
6.735191494226455688e-02 2.062354534864425659e-01 3.617173135280609131e-01
1.929178684949874878e-01 3.569467365741729736e-01 3.884360790252685547e-01
3.234093785285949707e-01 2.609853744506835938e-01 4.232409596443176270e-01
-1.248418167233467102e-01 1.791767179965972900e-01 3.950254321098327637e-01
1.940121203660964966e-01 1.058954000473022461e-01 4.064705371856689453e-01
1.493692696094512939e-01 1.970548033714294434e-01 3.669072091579437256e-01
2.322756648063659668e-01 2.764706611633300781e-01 3.806135058403015137e-01
1.502108573913574219e-02 3.964916169643402100e-01 4.207026064395904541e-01
1.310449242591857910e-01 3.100591301918029785e-01 3.738215267658233643e-01
2.802141308784484863e-01 3.587065935134887695e-01 4.086195826530456543e-01
1.816638857126235962e-01 1.474872529506683350e-01 3.708103597164154053e-01
8.305461704730987549e-02 2.111915051937103271e-01 3.626520037651062012e-01
2.829141020774841309e-01 1.962472200393676758e-01 3.837952613830566406e-01
2.125777602195739746e-01 1.452507376670837402e-01 4.167613387107849121e-01
-1.101836189627647400e-01 1.307434886693954468e-01 3.769710659980773926e-01
4.485347494482994080e-02 3.240614235401153564e-01 3.703409433364868164e-01
2.410584986209869385e-01 3.271554410457611084e-01 4.305419325828552246e-01
-1.979713886976242065e-02 1.047799736261367798e-01 3.677418529987335205e-01
-1.192119643092155457e-01 2.253732681274414062e-01 3.622877895832061768e-01
1.116058975458145142e-02 2.937900424003601074e-01 4.248113036155700684e-01
3.800273314118385315e-02 2.281493693590164185e-01 3.612240552902221680e-01
-6.850451231002807617e-03 3.657890260219573975e-01 4.221909046173095703e-01
-1.310152113437652588e-01 2.681439220905303955e-01 3.651405572891235352e-01
3.461124598979949951e-01 2.531892359256744385e-01 4.164125919342041016e-01
-1.369164288043975830e-01 3.210071921348571777e-01 4.057569503784179688e-01
-3.555040061473846436e-02 2.999844551086425781e-01 4.206293225288391113e-01
1.799027323722839355e-01 4.095200002193450928e-01 4.191806912422180176e-01
3.358112871646881104e-01 2.338574081659317017e-01 4.191823005676269531e-01
3.264457285404205322e-01 2.959423959255218506e-01 4.211985766887664795e-01
1.410140246152877808e-01 2.485231161117553711e-01 3.684503734111785889e-01
9.757373481988906860e-02 1.810138821601867676e-01 4.207310080528259277e-01
3.505968302488327026e-02 4.127729237079620361e-01 4.189391732215881348e-01
-1.077178195118904114e-01 2.921703457832336426e-01 3.659158945083618164e-01
-1.606617271900177002e-01 3.544505834579467773e-01 3.902987837791442871e-01
1.751901805400848389e-01 3.277670741081237793e-01 4.321568012237548828e-01
2.681577801704406738e-01 1.159835308790206909e-01 3.914577960968017578e-01
-6.150940805673599243e-02 2.403494864702224731e-01 3.605221509933471680e-01
1.718838214874267578e-01 1.408913284540176392e-01 4.160863161087036133e-01
-1.422636210918426514e-02 1.254770606756210327e-01 3.632348775863647461e-01
-1.048787757754325867e-01 3.626411557197570801e-01 3.779740035533905029e-01
2.499762773513793945e-01 3.706684410572052002e-01 4.032898843288421631e-01
5.375357717275619507e-02 3.870264887809753418e-01 4.248442649841308594e-01
-1.019936427474021912e-01 1.934341490268707275e-01 3.613499402999877930e-01
5.784872919321060181e-02 2.210927605628967285e-01 4.233470559120178223e-01
-9.739885479211807251e-02 1.964114904403686523e-01 4.037132561206817627e-01
2.516395226120948792e-02 2.400092929601669312e-01 3.613759577274322510e-01
3.333207964897155762e-01 1.757037937641143799e-01 4.074043929576873779e-01
-1.232501640915870667e-01 1.945246160030364990e-01 3.630314767360687256e-01
2.814223170280456543e-01 2.846441566944122314e-01 4.288034737110137939e-01
1.329171359539031982e-01 2.360982149839401245e-01 4.283456802368164062e-01
3.116424381732940674e-01 2.793249189853668213e-01 3.955705761909484863e-01
8.902877569198608398e-03 2.682527899742126465e-01 3.628470599651336670e-01
1.355960518121719360e-01 1.014111787080764771e-01 4.051209986209869385e-01
1.841413676738739014e-01 3.411315679550170898e-01 3.840195536613464355e-01
5.196139216423034668e-02 2.899938821792602539e-01 4.276457130908966064e-01
-2.252799272537231445e-02 1.732155382633209229e-01 4.100832939147949219e-01
-1.070389375090599060e-01 2.252490371465682983e-01 4.061699211597442627e-01
2.112794518470764160e-01 2.381618469953536987e-01 4.294890761375427246e-01
1.548504233360290527e-01 3.632197380065917969e-01 3.852607309818267822e-01
4.391945898532867432e-02 2.191275954246520996e-01 4.222019314765930176e-01
-3.320515155792236328e-03 3.153412938117980957e-01 4.239939451217651367e-01
9.405279159545898438e-02 2.229148447513580322e-01 3.637018203735351562e-01
1.327567994594573975e-01 1.216884255409240723e-01 3.684367239475250244e-01
2.520053386688232422e-01 2.587285935878753662e-01 4.298409223556518555e-01
-5.990432947874069214e-02 1.579529047012329102e-01 3.610893189907073975e-01
2.017208337783813477e-01 3.470357060432434082e-01 4.309277832508087158e-01
5.856104195117950439e-03 4.076395630836486816e-01 3.878387212753295898e-01
-8.746863156557083130e-02 2.683379948139190674e-01 3.628647327423095703e-01
1.353419125080108643e-01 3.611998856067657471e-01 4.302606284618377686e-01
-1.151907816529273987e-01 1.779666692018508911e-01 3.632773160934448242e-01
1.154792606830596924e-01 3.737306296825408936e-01 3.838824629783630371e-01
1.682181358337402344e-01 2.775711715221405029e-01 4.316721558570861816e-01
-9.694143384695053101e-02 2.915914058685302734e-01 4.126878082752227783e-01
3.316006660461425781e-01 1.940948665142059326e-01 4.145481586456298828e-01
-2.257136255502700806e-02 9.020668268203735352e-02 3.768495619297027588e-01
1.420434415340423584e-01 1.628894358873367310e-01 3.664782345294952393e-01
-6.119688600301742554e-02 1.236254274845123291e-01 3.661018311977386475e-01
1.307524442672729492e-01 1.869535297155380249e-01 3.653223216533660889e-01
2.253363132476806641e-01 3.335402011871337891e-01 4.309631884098052979e-01
1.597394943237304688e-01 2.433567643165588379e-01 4.295965433120727539e-01
-1.634466946125030518e-01 1.965583711862564087e-01 3.696334064006805420e-01
-7.728113979101181030e-02 3.631543517112731934e-01 4.138735234737396240e-01
8.236895501613616943e-02 2.335893362760543823e-01 3.635276854038238525e-01
-3.909084200859069824e-02 2.808622121810913086e-01 3.632819354534149170e-01
-1.982228457927703857e-02 2.344850152730941772e-01 4.183197915554046631e-01
1.030210256576538086e-01 3.272953927516937256e-01 4.307174086570739746e-01
-6.852368265390396118e-02 2.525258362293243408e-01 3.613005578517913818e-01
1.327785551548004150e-01 4.038166999816894531e-01 4.243114590644836426e-01
1.461408436298370361e-01 1.635171175003051758e-01 4.198696017265319824e-01
-1.628535687923431396e-01 3.402310907840728760e-01 3.964461386203765869e-01
2.673694193363189697e-01 1.218919157981872559e-01 4.056910574436187744e-01
2.942557036876678467e-01 2.345889210700988770e-01 4.256103634834289551e-01
1.531698107719421387e-01 1.862095594406127930e-01 4.234783053398132324e-01
1.154219359159469604e-01 2.281594574451446533e-01 3.653211295604705811e-01
2.410253137350082397e-02 1.280503720045089722e-01 4.056121706962585449e-01
-1.110681965947151184e-01 1.803366094827651978e-01 3.982691466808319092e-01
-8.489135652780532837e-02 2.276922017335891724e-01 3.605841398239135742e-01
6.770329177379608154e-02 9.277689456939697266e-02 3.697050511837005615e-01
1.372429728507995605e-01 1.370632052421569824e-01 3.673761487007141113e-01
1.232745647430419922e-01 9.520868957042694092e-02 4.025717377662658691e-01
2.076789736747741699e-03 3.694726228713989258e-01 3.770045340061187744e-01
2.566663920879364014e-01 2.266837060451507568e-01 3.801544010639190674e-01
6.284122169017791748e-02 2.596266269683837891e-01 4.268349707126617432e-01
3.108512461185455322e-01 2.008947432041168213e-01 3.898555040359497070e-01
2.098394036293029785e-01 1.017311662435531616e-01 4.039638042449951172e-01
-5.501695722341537476e-02 1.114345937967300415e-01 3.883367478847503662e-01
-4.462759196758270264e-02 2.144439667463302612e-01 4.135197699069976807e-01
-4.887891560792922974e-02 1.349507868289947510e-01 3.983034789562225342e-01
1.567524299025535583e-02 2.806976437568664551e-01 3.641348481178283691e-01
3.007289767265319824e-01 2.098763734102249146e-01 4.224802851676940918e-01
-1.689232289791107178e-01 1.917680203914642334e-01 3.832698464393615723e-01
5.305229127407073975e-02 3.681476414203643799e-01 3.784739375114440918e-01
9.697815775871276855e-02 3.748195171356201172e-01 3.826605081558227539e-01
-1.210201308131217957e-01 3.037407398223876953e-01 3.680947721004486084e-01
2.085939049720764160e-01 1.369244456291198730e-01 3.747724592685699463e-01
1.793352663516998291e-01 1.148084402084350586e-01 3.738270998001098633e-01
-1.439686119556427002e-01 3.232270181179046631e-01 3.732669055461883545e-01
7.504183799028396606e-02 4.125833213329315186e-01 4.212777018547058105e-01
1.959513574838638306e-01 2.289433330297470093e-01 3.724556863307952881e-01
6.926590949296951294e-02 3.917298913002014160e-01 4.250621497631072998e-01
-4.931100457906723022e-02 3.549041152000427246e-01 4.183259606361389160e-01
-6.727696210145950317e-02 2.228738367557525635e-01 3.599699139595031738e-01
5.356888473033905029e-02 1.120041459798812866e-01 3.654417395591735840e-01
2.816935777664184570e-01 2.504805028438568115e-01 3.858775794506072998e-01
1.160099506378173828e-01 1.309896707534790039e-01 3.662907779216766357e-01
-4.078318178653717041e-02 1.071250289678573608e-01 3.895365893840789795e-01
1.021305620670318604e-01 1.935660392045974731e-01 3.634077906608581543e-01
9.785692393779754639e-02 3.721455037593841553e-01 4.284489452838897705e-01
1.044316664338111877e-01 2.549676299095153809e-01 4.286842048168182373e-01
9.659886360168457031e-03 1.803933680057525635e-01 4.144998490810394287e-01
1.417294144630432129e-01 2.491577714681625366e-01 4.296007752418518066e-01
-2.847190201282501221e-02 1.277622580528259277e-01 3.993349373340606689e-01
1.916289329528808594e-01 3.902658820152282715e-01 3.980013430118560791e-01
8.091589063405990601e-02 4.159899950027465820e-01 3.943303227424621582e-01
1.615393161773681641e-01 8.926659822463989258e-02 4.004168808460235596e-01
1.720616221427917480e-01 7.824595272541046143e-02 3.873169422149658203e-01
8.252323418855667114e-02 3.142347931861877441e-01 3.709337413311004639e-01
-9.102762490510940552e-02 3.922271430492401123e-01 4.060512483119964600e-01
-5.714660137891769409e-02 3.082528114318847656e-01 4.183604419231414795e-01
-1.224150881171226501e-01 1.464191526174545288e-01 3.703547716140747070e-01
7.365047186613082886e-02 2.204022854566574097e-01 4.242442846298217773e-01
1.184816956520080566e-01 3.593474030494689941e-01 4.300450086593627930e-01
-1.857587993144989014e-01 2.693956196308135986e-01 3.737935423851013184e-01
1.723672747611999512e-01 2.548857331275939941e-01 4.305793941020965576e-01
8.003260195255279541e-02 2.485528141260147095e-01 3.642835617065429688e-01
2.612545192241668701e-01 1.853086948394775391e-01 -4.222417473793029785e-01
1.511718034744262695e-01 2.523549199104309082e-01 -4.260991513729095459e-01
1.852732449769973755e-01 3.125313818454742432e-01 -4.261723458766937256e-01
2.747395932674407959e-01 1.790893375873565674e-01 -4.202496707439422607e-01
2.506678402423858643e-01 2.280664145946502686e-01 -4.304830729961395264e-01
1.185345649719238281e-01 1.463858038187026978e-01 -3.779993653297424316e-01
3.417069315910339355e-01 2.021427154541015625e-01 -3.957598209381103516e-01
8.860514312982559204e-02 2.275452315807342529e-01 -3.681225478649139404e-01
1.392241716384887695e-01 1.727705597877502441e-01 -4.068365991115570068e-01
2.968346178531646729e-01 1.414498090744018555e-01 -4.003484249114990234e-01
4.878464341163635254e-02 2.205732315778732300e-01 -3.813653886318206787e-01
3.402922153472900391e-01 2.375099211931228638e-01 -4.179001450538635254e-01
2.077611982822418213e-01 2.069586813449859619e-01 -3.658083379268646240e-01
2.690223753452301025e-01 2.314875721931457520e-01 -4.306319057941436768e-01
1.065733805298805237e-01 1.789146214723587036e-01 -4.010342657566070557e-01
1.997124105691909790e-01 2.667773962020874023e-01 -4.316962361335754395e-01
3.035980463027954102e-01 2.382543683052062988e-01 -4.285472929477691650e-01
2.439565509557723999e-01 1.474908888339996338e-01 -3.703117966651916504e-01
9.207320213317871094e-02 1.981064826250076294e-01 -3.662840723991394043e-01
7.634668797254562378e-02 1.993137001991271973e-01 -3.695220351219177246e-01
1.429347097873687744e-01 1.719068437814712524e-01 -3.629226982593536377e-01
2.396126836538314819e-01 2.065695822238922119e-01 -3.692629933357238770e-01
7.725614309310913086e-02 1.910252869129180908e-01 -3.952076435089111328e-01
2.643212676048278809e-01 2.581655383110046387e-01 -3.833236098289489746e-01
2.393885701894760132e-01 1.990316063165664673e-01 -4.252809882164001465e-01
2.550772428512573242e-01 2.786434590816497803e-01 -3.883753120899200439e-01
1.375571042299270630e-01 2.402193397283554077e-01 -3.672801852226257324e-01
3.245879411697387695e-01 2.411175668239593506e-01 -3.956661224365234375e-01
2.214223742485046387e-01 2.593520283699035645e-01 -3.767331540584564209e-01
1.246334686875343323e-01 2.620031833648681641e-01 -3.720751404762268066e-01
2.615455090999603271e-01 2.340605556964874268e-01 -3.768735527992248535e-01
1.663483977317810059e-01 2.578900158405303955e-01 -3.716413676738739014e-01
2.130594700574874878e-01 2.259862720966339111e-01 -3.687748312950134277e-01
2.707934975624084473e-01 2.167146354913711548e-01 -4.286480545997619629e-01
1.774711757898330688e-01 3.050862550735473633e-01 -3.886867463588714600e-01
1.705863326787948608e-01 3.034234046936035156e-01 -4.271557033061981201e-01
4.595026373863220215e-02 2.367130219936370850e-01 -3.832488954067230225e-01
3.103297054767608643e-01 2.152329981327056885e-01 -4.254179894924163818e-01
1.390317529439926147e-01 2.213559150695800781e-01 -3.644706606864929199e-01
3.284773230552673340e-01 1.614595055580139160e-01 -4.032779335975646973e-01
1.669357419013977051e-01 3.226120471954345703e-01 -4.203369021415710449e-01
7.822819054126739502e-02 2.992258071899414062e-01 -3.933610022068023682e-01
2.071646451950073242e-01 1.244490966200828552e-01 -3.891412317752838135e-01
2.611355781555175781e-01 3.054670393466949463e-01 -4.246540665626525879e-01
2.124501466751098633e-01 3.245416879653930664e-01 -4.093151688575744629e-01
2.547310292720794678e-01 3.036171793937683105e-01 -4.011315107345581055e-01
2.561801373958587646e-01 2.186404019594192505e-01 -3.732536733150482178e-01
2.376018315553665161e-01 1.518570184707641602e-01 -4.103947877883911133e-01
1.616838276386260986e-01 1.981622278690338135e-01 -4.185403287410736084e-01
2.797047197818756104e-01 3.010838329792022705e-01 -4.207757413387298584e-01
2.097781747579574585e-01 2.471578717231750488e-01 -3.724410235881805420e-01
2.881519198417663574e-01 2.936172783374786377e-01 -4.072289764881134033e-01
2.809956073760986328e-01 2.409645915031433105e-01 -3.822751641273498535e-01
1.075881496071815491e-01 2.582488059997558594e-01 -3.718543946743011475e-01
7.553245872259140015e-02 2.725163698196411133e-01 -3.797117173671722412e-01
3.019378483295440674e-01 2.167886644601821899e-01 -3.824821710586547852e-01
1.989812552928924561e-01 2.874780893325805664e-01 -4.311620295047760010e-01
2.585853338241577148e-01 1.547364443540573120e-01 -3.714560866355895996e-01
1.836552023887634277e-01 1.337198317050933838e-01 -3.947101533412933350e-01
3.227321505546569824e-01 2.001467347145080566e-01 -3.867063820362091064e-01
2.359645962715148926e-01 2.850735187530517578e-01 -4.321164190769195557e-01
1.619126498699188232e-01 1.832988411188125610e-01 -3.622107803821563721e-01
1.073902547359466553e-01 3.124700188636779785e-01 -3.949070870876312256e-01
1.669394373893737793e-01 1.651277542114257812e-01 -3.630366623401641846e-01
1.654141694307327271e-01 2.174415439367294312e-01 -4.232190251350402832e-01
2.646686434745788574e-01 1.522871702909469604e-01 -4.107407629489898682e-01
3.097591400146484375e-01 1.965331882238388062e-01 -3.821911513805389404e-01
1.807605028152465820e-01 1.817261278629302979e-01 -3.626785278320312500e-01
3.091342449188232422e-01 1.980396211147308350e-01 -4.224641621112823486e-01
1.542595177888870239e-01 2.665689289569854736e-01 -4.273509085178375244e-01
1.001712679862976074e-01 2.686364650726318359e-01 -4.176600873470306396e-01
6.561161577701568604e-02 2.856470942497253418e-01 -3.890833854675292969e-01
1.892208904027938843e-01 2.965349555015563965e-01 -3.857316970825195312e-01
1.631761938333511353e-01 3.118758201599121094e-01 -3.914805054664611816e-01
1.109067052602767944e-01 2.853063941001892090e-01 -3.797642886638641357e-01
1.010822057723999023e-01 1.864325255155563354e-01 -3.655346632003784180e-01
1.314872950315475464e-01 3.234021663665771484e-01 -4.120848476886749268e-01
3.469795286655426025e-01 1.983677744865417480e-01 -4.107567071914672852e-01
2.652062773704528809e-01 2.907811999320983887e-01 -3.962978124618530273e-01
2.722801864147186279e-01 2.197452783584594727e-01 -3.762643337249755859e-01
2.445314377546310425e-01 1.232299581170082092e-01 -3.874116241931915283e-01
3.009490668773651123e-01 2.894165515899658203e-01 -4.172684252262115479e-01
3.216073215007781982e-01 1.734423488378524780e-01 -4.130093753337860107e-01
1.612472534179687500e-01 1.799789369106292725e-01 -4.133167564868927002e-01
2.105339765548706055e-01 2.891507446765899658e-01 -3.850638568401336670e-01
9.999754279851913452e-02 3.000333607196807861e-01 -4.147524535655975342e-01
1.652151048183441162e-01 2.717032432556152344e-01 -3.752629756927490234e-01
2.629842162132263184e-01 1.313390433788299561e-01 -3.976546227931976318e-01
1.634287685155868530e-01 2.414124608039855957e-01 -3.679801225662231445e-01
3.101942241191864014e-01 1.725071370601654053e-01 -3.820107877254486084e-01
1.475130617618560791e-01 2.384860813617706299e-01 -4.241094887256622314e-01
2.103603780269622803e-01 2.987195849418640137e-01 -4.302815496921539307e-01
3.219017386436462402e-01 2.713377773761749268e-01 -4.130754172801971436e-01
2.954545319080352783e-01 1.778090745210647583e-01 -4.186118245124816895e-01
2.767462730407714844e-01 2.498508095741271973e-01 -4.315762519836425781e-01
3.329225778579711914e-01 1.976697146892547607e-01 -4.176100194454193115e-01
9.449640661478042603e-02 1.678237617015838623e-01 -3.900202810764312744e-01
2.993058264255523682e-01 1.639949977397918701e-01 -4.132605791091918945e-01
1.437968015670776367e-01 3.035188317298889160e-01 -4.237767457962036133e-01
1.745951175689697266e-01 1.681626737117767334e-01 -4.112081527709960938e-01
8.622418344020843506e-02 2.790660262107849121e-01 -4.136081635951995850e-01
3.081929981708526611e-01 2.700297832489013672e-01 -4.256702065467834473e-01
7.745929807424545288e-02 2.378984540700912476e-01 -3.711104393005371094e-01
2.166644483804702759e-01 1.546247005462646484e-01 -3.662463426589965820e-01
5.162279307842254639e-02 2.647657394409179688e-01 -3.859980702400207520e-01
1.572244465351104736e-01 1.600703448057174683e-01 -4.051209092140197754e-01
1.826134771108627319e-01 2.656165063381195068e-01 -4.303865134716033936e-01
3.371113538742065430e-01 1.824624985456466675e-01 -3.930482864379882812e-01
1.195848211646080017e-01 2.836176156997680664e-01 -4.217128455638885498e-01
1.953125745058059692e-01 3.278594315052032471e-01 -4.146069288253784180e-01
6.234450638294219971e-02 2.412496656179428101e-01 -3.749977350234985352e-01
2.959266901016235352e-01 2.177751958370208740e-01 -4.273891746997833252e-01
6.979274749755859375e-02 2.920424342155456543e-01 -4.033539593219757080e-01
5.599960684776306152e-02 2.027786076068878174e-01 -3.856056630611419678e-01
2.552042901515960693e-01 1.362798810005187988e-01 -3.751022815704345703e-01
8.144306391477584839e-02 1.759066879749298096e-01 -3.735259175300598145e-01
2.678768932819366455e-01 1.693642586469650269e-01 -3.719429671764373779e-01
3.134860694408416748e-01 1.582945287227630615e-01 -4.078528583049774170e-01
1.436398923397064209e-01 2.073253691196441650e-01 -4.179823398590087891e-01
3.161234855651855469e-01 1.485779285430908203e-01 -3.933483958244323730e-01
2.453716248273849487e-01 2.486042976379394531e-01 -3.773915171623229980e-01
2.326694577932357788e-01 2.746736407279968262e-01 -3.829021453857421875e-01
2.764847278594970703e-01 2.651489675045013428e-01 -3.882452845573425293e-01
1.873395591974258423e-01 1.532525718212127686e-01 -3.647621273994445801e-01
1.155610829591751099e-01 2.354747056961059570e-01 -3.669869303703308105e-01
1.965061724185943604e-01 1.945609599351882935e-01 -3.639417588710784912e-01
2.226108312606811523e-01 1.718652546405792236e-01 -3.656406104564666748e-01
2.669397592544555664e-01 2.716925144195556641e-01 -4.319195747375488281e-01
2.557001411914825439e-01 2.096862792968750000e-01 -4.276658296585083008e-01
2.855685949325561523e-01 1.560152769088745117e-01 -3.768036067485809326e-01
8.155006170272827148e-02 2.567515671253204346e-01 -4.120649099349975586e-01
3.481559455394744873e-01 2.245263606309890747e-01 -4.117873907089233398e-01
1.879949718713760376e-01 2.077654600143432617e-01 -3.644141554832458496e-01
2.240939736366271973e-01 1.221072375774383545e-01 -3.819099366664886475e-01
2.223623096942901611e-01 1.475952267646789551e-01 -4.076568782329559326e-01
2.304857075214385986e-01 2.946906089782714844e-01 -3.904602527618408203e-01
2.309588640928268433e-01 1.940174102783203125e-01 -3.670896887779235840e-01
2.968834042549133301e-01 2.576866745948791504e-01 -4.295608103275299072e-01
2.439822554588317871e-01 2.892308533191680908e-01 -3.905203640460968018e-01
2.046969681978225708e-01 2.010475248098373413e-01 -4.238662719726562500e-01
2.014923244714736938e-01 2.212750166654586792e-01 -4.275076091289520264e-01
1.902539730072021484e-01 2.488828897476196289e-01 -3.710546791553497314e-01
3.107042908668518066e-01 2.557825744152069092e-01 -3.952062427997589111e-01
1.856224536895751953e-01 2.285512536764144897e-01 -3.669076561927795410e-01
1.981421709060668945e-01 1.357008516788482666e-01 -3.694192469120025635e-01
1.275182813405990601e-01 2.340391129255294800e-01 -4.202401340007781982e-01
1.013619676232337952e-01 2.038653194904327393e-01 -4.082295894622802734e-01
2.216228693723678589e-01 2.321659922599792480e-01 -4.302871823310852051e-01
1.686955988407135010e-01 1.359830349683761597e-01 -3.932643532752990723e-01
