-3.480989336967468262e-01 4.346755146980285645e-02 4.256739094853401184e-02
-3.472849428653717041e-01 4.825490713119506836e-02 2.812548354268074036e-02
-2.026794552803039551e-01 -3.952767699956893921e-03 -2.984725311398506165e-02
-2.843485772609710693e-01 5.764400586485862732e-02 -2.285072952508926392e-02
-1.905977427959442139e-01 2.993286401033401489e-02 9.752944111824035645e-03
-3.976117372512817383e-01 1.477414555847644806e-02 -7.382377982139587402e-02
-2.954189181327819824e-01 1.784817501902580261e-02 9.036127477884292603e-02
-2.919899225234985352e-01 -4.023993760347366333e-02 1.533013302832841873e-02
-2.689296007156372070e-01 3.944941982626914978e-02 -7.861936837434768677e-02
-3.596416413784027100e-01 5.236298590898513794e-02 -3.758823126554489136e-02
-3.421186506748199463e-01 5.534122139215469360e-02 -9.509937837719917297e-03
-2.572855353355407715e-01 2.684928104281425476e-02 7.542449980974197388e-02
-3.301466703414916992e-01 -4.180115088820457458e-02 2.188634499907493591e-02
-4.258254170417785645e-01 -1.888958737254142761e-02 -4.940774757415056229e-03
-2.872566282749176025e-01 5.282472446560859680e-02 2.279063686728477478e-02
-2.667515277862548828e-01 -3.717711195349693298e-02 1.732532680034637451e-02
-3.164113163948059082e-01 2.162025682628154755e-02 8.624803274869918823e-02
-4.098144769668579102e-01 3.608368337154388428e-02 8.338522166013717651e-03
-4.214174151420593262e-01 4.027840215712785721e-03 5.150283128023147583e-02
-2.567104399204254150e-01 -4.904700443148612976e-03 -6.887284666299819946e-02
-4.040760993957519531e-01 -2.761059254407882690e-02 -9.575569070875644684e-03
-2.307624667882919312e-01 4.965203627943992615e-02 -9.204892441630363464e-03
-2.790045142173767090e-01 2.464786916971206665e-02 8.239658176898956299e-02
-3.739663958549499512e-01 -3.771827369928359985e-02 2.227595821022987366e-02
-3.673225939273834229e-01 -1.537929661571979523e-02 -6.311481446027755737e-02
-3.587528765201568604e-01 -2.221214585006237030e-03 -8.062420040369033813e-02
-4.544677138328552246e-01 9.887538850307464600e-02 -9.612751193344593048e-03
-5.341818928718566895e-01 8.411376178264617920e-02 1.721667498350143433e-02
-4.370404183864593506e-01 8.509164303541183472e-02 -4.437648132443428040e-02
-4.227983057498931885e-01 8.338601887226104736e-02 -3.807001747190952301e-03
-4.103407859802246094e-01 7.126828283071517944e-02 -2.641524374485015869e-02
-5.435216426849365234e-01 8.745404332876205444e-02 8.559194393455982208e-03
-4.886412918567657471e-01 8.858273923397064209e-02 -5.192669481039047241e-02
-4.533011913299560547e-01 2.998439408838748932e-02 -2.517853677272796631e-02
-4.460109770298004150e-01 8.446630835533142090e-02 1.176008116453886032e-02
-4.279607534408569336e-01 8.261381834745407104e-02 2.445532009005546570e-03
-4.819457828998565674e-01 2.394573017954826355e-02 -2.584188245236873627e-02
-4.393112063407897949e-01 6.409524381160736084e-02 -5.124203488230705261e-02
-5.365334749221801758e-01 2.639974653720855713e-02 1.459530089050531387e-02
-4.691245257854461670e-01 3.633243218064308167e-02 -4.375163465738296509e-02
-5.327469110488891602e-01 9.594263881444931030e-02 -5.362927448004484177e-03
-5.233792066574096680e-01 7.711693644523620605e-02 -5.368347838521003723e-02
-5.106258988380432129e-01 2.457665279507637024e-02 -3.075002878904342651e-02
-4.144985973834991455e-01 7.325332611799240112e-02 -3.341113030910491943e-02
-5.373531579971313477e-01 4.894008114933967590e-02 -4.980657622218132019e-02
-4.466530382633209229e-01 3.098258376121520996e-02 -3.147569485008716583e-03
-5.253302454948425293e-01 8.163607120513916016e-02 2.198516577482223511e-02
-4.879022240638732910e-01 2.613386511802673340e-02 1.448156218975782394e-02
-4.558782577514648438e-01 4.241699725389480591e-02 2.069239318370819092e-02
-4.982581138610839844e-01 3.759919106960296631e-02 2.823763340711593628e-02
-5.841144323348999023e-01 6.478497385978698730e-02 -2.693804912269115448e-03
-4.390349388122558594e-01 9.291972219944000244e-02 -4.831211641430854797e-03
-4.892025887966156006e-01 6.363849341869354248e-02 -5.985138565301895142e-02
-5.805683732032775879e-01 4.515481367707252502e-02 5.873353220522403717e-03
-4.395577311515808105e-01 3.754620999097824097e-02 5.109441466629505157e-03
-5.013964176177978516e-01 1.983519271016120911e-02 -1.547831483185291290e-02
-5.254065990447998047e-01 6.353960186243057251e-02 3.172597289085388184e-02
-4.322840571403503418e-01 5.931327491998672485e-02 -4.678533226251602173e-02
-4.989235699176788330e-01 1.022771075367927551e-01 -1.321838703006505966e-02
-4.760613739490509033e-01 9.289382398128509521e-02 1.118960883468389511e-02
-5.263671875000000000e-01 2.832972630858421326e-02 1.971295103430747986e-02
-5.687049627304077148e-01 8.051669597625732422e-02 -2.161389216780662537e-02
-4.123460948467254639e-01 5.581678450107574463e-02 -9.670187719166278839e-03
-4.697710573673248291e-01 7.681984454393386841e-02 2.467203140258789062e-02
-5.249233841896057129e-01 6.855019181966781616e-02 -5.567464977502822876e-02
-4.373067021369934082e-01 9.262178838253021240e-02 -3.414925187826156616e-02
-4.571816921234130859e-01 3.517603874206542969e-02 -3.820674493908882141e-02
-5.383108258247375488e-01 9.557196497917175293e-02 -1.521072071045637131e-02
-5.070263147354125977e-01 4.032818228006362915e-02 3.026933595538139343e-02
-4.397589564323425293e-01 8.702852576971054077e-02 5.710861645638942719e-03
-5.390452146530151367e-01 3.326795250177383423e-02 2.250204980373382568e-02
-5.765398144721984863e-01 5.617905408143997192e-02 -3.073604032397270203e-02
-4.291303157806396484e-01 9.190650284290313721e-02 -2.067524939775466919e-02
-4.245254993438720703e-01 5.982680991291999817e-02 9.322698228061199188e-03
-5.185803174972534180e-01 8.695334196090698242e-02 -4.870770126581192017e-02
-5.203071236610412598e-01 9.778892248868942261e-02 -2.490557730197906494e-03
-5.154593586921691895e-01 2.091571316123008728e-02 -2.037743292748928070e-02
-4.967035651206970215e-01 7.820199429988861084e-02 -5.751972272992134094e-02
-4.849455952644348145e-01 8.603587746620178223e-02 2.017655223608016968e-02
-5.149616003036499023e-01 1.007554084062576294e-01 -1.806243695318698883e-02
-4.732207953929901123e-01 1.022831052541732788e-01 -2.439357712864875793e-02
-4.845021963119506836e-01 3.766826167702674866e-02 -4.776498675346374512e-02
-4.902525842189788818e-01 2.506104111671447754e-02 -3.083829954266548157e-02
-5.259281992912292480e-01 5.610348284244537354e-02 -5.494285374879837036e-02
-4.645650982856750488e-01 6.127855554223060608e-02 -5.761858448386192322e-02
-4.271535873413085938e-01 4.495200142264366150e-02 2.487592399120330811e-03
-5.619139671325683594e-01 8.573582768440246582e-02 -1.779056526720523834e-02
-4.741054177284240723e-01 6.834104657173156738e-02 2.904347330331802368e-02
-5.392674207687377930e-01 2.203132957220077515e-02 -1.264743600040674210e-02
-4.903771579265594482e-01 4.157625883817672729e-02 2.954085171222686768e-02
-5.754916667938232422e-01 6.601298600435256958e-02 -3.023134917020797729e-02
-4.765789806842803955e-01 3.665456175804138184e-02 -4.568576440215110779e-02
-5.301563739776611328e-01 9.338207542896270752e-02 4.296452738344669342e-03
-4.837224185466766357e-01 2.095158770680427551e-02 -1.214656047523021698e-02
-4.964496493339538574e-01 9.634473919868469238e-02 6.924238987267017365e-03
-5.302861332893371582e-01 2.305249124765396118e-02 -2.285850048065185547e-02
-4.917016029357910156e-01 9.945491701364517212e-02 -3.665394708514213562e-02
-5.007519721984863281e-01 5.555386468768119812e-02 -5.814914777874946594e-02
-4.953962266445159912e-01 2.553927525877952576e-02 1.520417537540197372e-02
-4.777472317218780518e-01 2.934865280985832214e-02 1.633710041642189026e-02
-5.121772289276123047e-01 3.344358503818511963e-02 2.588355168700218201e-02
-5.564951300621032715e-01 2.605447545647621155e-02 -8.718973957002162933e-03
-5.785609483718872070e-01 4.124917834997177124e-02 -1.810322701930999756e-02
-5.015645027160644531e-01 9.707288444042205811e-02 -4.002165421843528748e-02
-5.733262300491333008e-01 6.480721384286880493e-02 1.300591882318258286e-02
-4.942944347858428955e-01 1.027257442474365234e-01 -2.104134857654571533e-02
-4.582566022872924805e-01 2.622931078076362610e-02 -8.782813325524330139e-03
-5.152215957641601562e-01 2.708920091390609741e-02 1.904733106493949890e-02
-5.605538487434387207e-01 7.367952913045883179e-02 1.567399501800537109e-02
-4.549888074398040771e-01 1.001645326614379883e-01 -1.880594342947006226e-02
-5.502457618713378906e-01 4.446588456630706787e-02 -4.297426342964172363e-02
-5.361452102661132812e-01 7.767438888549804688e-02 2.270084619522094727e-02
-4.985954761505126953e-01 1.018114462494850159e-01 -2.692136168479919434e-02
-4.779101610183715820e-01 2.278767898678779602e-02 1.169977709650993347e-03
-5.322647094726562500e-01 6.356897950172424316e-02 -5.418872460722923279e-02
-5.687465071678161621e-01 7.228098809719085693e-02 -3.331863135099411011e-02
-4.623152315616607666e-01 5.755847319960594177e-02 2.771415561437606812e-02
-4.567382037639617920e-01 5.296226590871810913e-02 -5.338264256715774536e-02
-4.185783565044403076e-01 4.712505638599395752e-02 -1.943189091980457306e-02
-5.014975070953369141e-01 3.933137655258178711e-02 -4.975968226790428162e-02
-5.397691726684570312e-01 3.802742809057235718e-02 -4.219761490821838379e-02
-5.607516169548034668e-01 6.651401519775390625e-02 2.042397856712341309e-02
-5.234177112579345703e-01 4.436021298170089722e-02 -5.082389712333679199e-02
-5.169538855552673340e-01 9.972757101058959961e-02 -8.637582883238792419e-03
-4.236814677715301514e-01 4.244304448366165161e-02 -1.291893422603607178e-02
-4.589947164058685303e-01 8.634269237518310547e-02 1.485722977668046951e-02
-5.231540799140930176e-01 3.639581799507141113e-02 2.754376828670501709e-02
-5.630265474319458008e-01 7.084690034389495850e-02 -3.891212493181228638e-02
-4.486007988452911377e-01 3.354568779468536377e-02 -3.026574105024337769e-02
-5.831446647644042969e-01 4.432561993598937988e-02 -1.022425480186939240e-03
-4.213096499443054199e-01 4.930189996957778931e-02 -3.057192638516426086e-02
-4.819908142089843750e-01 1.020011156797409058e-01 -9.412484243512153625e-03
-5.328230261802673340e-01 6.115130335092544556e-02 3.112492337822914124e-02
-5.692209005355834961e-01 5.956983566284179688e-02 1.821817830204963684e-02
-4.358365535736083984e-01 5.816767737269401550e-02 1.686928048729896545e-02
-5.426363348960876465e-01 7.960905134677886963e-02 -4.555877670645713806e-02
-5.714604854583740234e-01 7.792115211486816406e-02 -8.438620716333389282e-04
-5.609533190727233887e-01 2.928464859724044800e-02 4.929111339151859283e-03
-4.610247910022735596e-01 1.006629019975662231e-01 -1.276601012796163559e-02
-5.639563798904418945e-01 2.886741608381271362e-02 -5.905267316848039627e-03
-5.014733672142028809e-01 9.884427487850189209e-02 8.451081812381744385e-04
-5.464221835136413574e-01 6.012304499745368958e-02 2.817007526755332947e-02
-4.641344249248504639e-01 9.685222059488296509e-02 1.452935859560966492e-03
-5.074089169502258301e-01 5.791892483830451965e-02 3.374718874692916870e-02
-4.147647023200988770e-01 8.137245476245880127e-02 -1.686155982315540314e-02
-4.905087053775787354e-01 3.011103719472885132e-02 -3.965267911553382874e-02
-5.228549838066101074e-01 3.367374837398529053e-02 -4.235440120100975037e-02
-4.854500293731689453e-01 9.366048872470855713e-02 -4.686579480767250061e-02
-5.463525056838989258e-01 3.668395429849624634e-02 2.319151535630226135e-02
-4.204019308090209961e-01 7.754880934953689575e-02 -3.798507153987884521e-02
-4.799137115478515625e-01 3.429931774735450745e-02 2.262590453028678894e-02
-5.599660277366638184e-01 4.393934085965156555e-02 -3.785363584756851196e-02
-4.604027271270751953e-01 9.522716701030731201e-02 -4.175642505288124084e-02
-5.178892612457275391e-01 5.167191103100776672e-02 3.330654650926589966e-02
-5.106053352355957031e-01 3.405525535345077515e-02 -4.441571235656738281e-02
-4.482665657997131348e-01 3.430560231208801270e-02 7.579344324767589569e-03
-5.519756078720092773e-01 3.206834942102432251e-02 -3.024045005440711975e-02
-4.282881617546081543e-01 8.697977662086486816e-02 -3.601693361997604370e-02
-4.664417803287506104e-01 1.012033671140670776e-01 -2.789387479424476624e-02
-5.171584486961364746e-01 6.979817152023315430e-02 3.056019544601440430e-02
-4.376296401023864746e-01 4.043703153729438782e-02 -3.421750292181968689e-02
-4.186153411865234375e-01 4.980447143316268921e-02 -3.687946125864982605e-03
-5.856549739837646484e-01 6.181157007813453674e-02 -1.438135281205177307e-02
-4.088710844516754150e-01 6.330498307943344116e-02 -1.477061770856380463e-02
-4.840538799762725830e-01 3.249177336692810059e-02 -4.207008332014083862e-02
-5.602592229843139648e-01 3.407287970185279846e-02 -2.770121768116950989e-02
-5.157765150070190430e-01 7.729351520538330078e-02 -5.532349273562431335e-02
-4.745423197746276855e-01 1.006074622273445129e-01 -5.270873662084341049e-03
-5.110144019126892090e-01 4.921068251132965088e-02 3.321325778961181641e-02
-4.619159698486328125e-01 8.130293339490890503e-02 1.997996494174003601e-02
-4.764316678047180176e-01 7.645916938781738281e-02 -5.818502977490425110e-02
-5.788989067077636719e-01 7.352304458618164062e-02 -1.168552506715059280e-02
-5.484556555747985840e-01 3.017375431954860687e-02 1.581972837448120117e-02
-5.478222370147705078e-01 2.553902566432952881e-02 -1.949235796928405762e-02
-4.713859856128692627e-01 1.018378511071205139e-01 -1.221687160432338715e-02
-4.419167339801788330e-01 9.634270519018173218e-02 -2.717746235430240631e-02
-5.494270920753479004e-01 6.930024921894073486e-02 2.392553538084030151e-02
-4.423565268516540527e-01 7.146258652210235596e-02 1.843675225973129272e-02
-4.573029875755310059e-01 9.011696279048919678e-02 -4.748038202524185181e-02
-5.614970326423645020e-01 8.368428051471710205e-02 4.082499071955680847e-04
-4.308896064758300781e-01 6.356067955493927002e-02 1.406965870410203934e-02
-4.538215398788452148e-01 6.105966866016387939e-02 -5.536015331745147705e-02
-4.675027132034301758e-01 2.741868048906326294e-02 8.107210509479045868e-03
-4.718924760818481445e-01 2.330129221081733704e-02 -1.623404026031494141e-02
-4.499548673629760742e-01 2.890228107571601868e-02 -1.245734468102455139e-02
-4.407226145267486572e-01 4.372856020927429199e-02 -4.059524834156036377e-02
-5.483114123344421387e-01 9.217486530542373657e-02 -1.602086424827575684e-02
-4.663949310779571533e-01 8.808526396751403809e-02 1.511132065206766129e-02
-4.774928987026214600e-01 4.931538552045822144e-02 3.018238022923469543e-02
-5.536952018737792969e-01 8.805307000875473022e-02 -2.623390778899192810e-02
-4.794299304485321045e-01 8.689063787460327148e-02 -5.323615297675132751e-02
-5.258238315582275391e-01 2.526492625474929810e-02 -2.957457676529884338e-02
-5.054336190223693848e-01 2.654149383306503296e-02 1.807866990566253662e-02
-4.323323369026184082e-01 4.817389696836471558e-02 -3.979552909731864929e-02
-4.361853003501892090e-01 8.009918034076690674e-02 1.049797888845205307e-02
-4.126711785793304443e-01 5.909452587366104126e-02 -2.842755243182182312e-02
-4.577643871307373047e-01 7.784940302371978760e-02 -5.531485006213188171e-02
-5.724065899848937988e-01 3.501989692449569702e-02 -1.570735685527324677e-02
-4.598243832588195801e-01 9.968316555023193359e-02 -3.088941797614097595e-02
-5.058390498161315918e-01 9.261138737201690674e-02 -4.587541148066520691e-02
-4.441367983818054199e-01 9.758386015892028809e-02 -1.879980415105819702e-02
-4.500166475772857666e-01 8.551002293825149536e-02 -4.940121993422508240e-02
-4.484741091728210449e-01 7.712046056985855103e-02 1.831600442528724670e-02
-4.828401505947113037e-01 4.649322852492332458e-02 -5.421457067131996155e-02
-5.376971364021301270e-01 7.030462473630905151e-02 2.697284147143363953e-02
-5.138518810272216797e-01 1.931007578969001770e-02 -1.165030524134635925e-02
-4.509268701076507568e-01 4.796490818262100220e-02 -4.880931600928306580e-02
-5.298546552658081055e-01 2.038351818919181824e-02 -1.081079430878162384e-02
-4.810336828231811523e-01 2.709260582923889160e-02 -3.304032981395721436e-02
-4.563986957073211670e-01 2.858119457960128784e-02 1.872276887297630310e-03
-5.045064091682434082e-01 6.230058148503303528e-02 -5.906360223889350891e-02
-5.529563426971435547e-01 7.781891524791717529e-02 1.607943698763847351e-02
-5.739633440971374512e-01 3.476706147193908691e-02 -1.745695248246192932e-03
-5.586009621620178223e-01 8.059947192668914795e-02 -3.453546389937400818e-02
-5.608338713645935059e-01 3.796240687370300293e-02 1.793062314391136169e-02
-4.830120801925659180e-01 9.988930821418762207e-02 -1.432124525308609009e-03
-4.917190968990325928e-01 1.022108867764472961e-01 -1.034485641866922379e-02
-4.252561926841735840e-01 6.933082640171051025e-02 9.136107750236988068e-03
-5.540466308593750000e-01 5.354547500610351562e-02 2.631606534123420715e-02
-4.610964059829711914e-01 7.143852114677429199e-02 -5.737936869263648987e-02
-4.117466807365417480e-01 6.694174557924270630e-02 -5.429551936686038971e-03
-4.893561303615570068e-01 1.023753732442855835e-01 -2.632864005863666534e-02
-5.349395275115966797e-01 9.498195350170135498e-02 -2.760482206940650940e-02
-5.270813107490539551e-01 8.737331628799438477e-02 1.545942295342683792e-02
-5.319297909736633301e-01 3.348271548748016357e-02 -4.008584842085838318e-02
-4.994331002235412598e-01 7.689408957958221436e-02 2.773039042949676514e-02
-5.475323200225830078e-01 8.357151597738265991e-02 -3.940520808100700378e-02
-5.165855288505554199e-01 9.361018985509872437e-02 8.890704251825809479e-03
-5.413937568664550781e-01 7.251046597957611084e-02 -4.969827458262443542e-02
-5.491925477981567383e-01 2.406105026602745056e-02 -1.102942042052745819e-02
-4.727425873279571533e-01 3.027068078517913818e-02 -3.643423691391944885e-02
-4.974010288715362549e-01 6.814934313297271729e-02 3.163221850991249084e-02
-4.515267908573150635e-01 9.646616131067276001e-02 -3.573045879602432251e-02
-5.142949223518371582e-01 9.617950022220611572e-02 -3.793229535222053528e-02
-4.334362745285034180e-01 4.211861640214920044e-02 5.796222947537899017e-03
-4.373582303524017334e-01 7.219012826681137085e-02 -5.046024546027183533e-02
-5.605334639549255371e-01 3.016484342515468597e-02 -2.001416310667991638e-02
-5.785913467407226562e-01 6.013952940702438354e-02 1.025566738098859787e-02
-5.153093934059143066e-01 6.613532453775405884e-02 -5.778711661696434021e-02
-5.137382745742797852e-01 5.235283076763153076e-02 -5.598057806491851807e-02
-4.835438728332519531e-01 5.436129868030548096e-02 3.204150125384330750e-02
-5.598027706146240234e-01 8.058865368366241455e-02 8.210857398808002472e-03
-4.454576373100280762e-01 9.625535458326339722e-02 -8.196735754609107971e-03
-5.033310055732727051e-01 3.400415182113647461e-02 -4.478855431079864502e-02
-4.628521203994750977e-01 2.949943020939826965e-02 -3.090410307049751282e-02
-4.326963722705841064e-01 8.900982886552810669e-02 -2.533335238695144653e-03
-5.727611184120178223e-01 3.742775321006774902e-02 7.542195729911327362e-03
-4.483000040054321289e-01 5.536048486828804016e-02 -5.199910327792167664e-02
-4.547428190708160400e-01 9.012618660926818848e-02 9.105964563786983490e-03
-5.180805325508117676e-01 4.242071509361267090e-02 3.104637935757637024e-02
-5.363416671752929688e-01 4.835050553083419800e-02 3.059318661689758301e-02
-5.744953751564025879e-01 7.302111387252807617e-02 -2.579827047884464264e-02
-4.771504998207092285e-01 8.468133211135864258e-02 2.046382799744606018e-02
-4.175972938537597656e-01 5.706895142793655396e-02 1.454294659197330475e-03
-4.734395146369934082e-01 4.772738367319107056e-02 -5.392001569271087646e-02
-4.706210792064666748e-01 6.139025837182998657e-02 2.968145161867141724e-02
-4.291267395019531250e-01 3.904373198747634888e-02 -8.756877854466438293e-03
-4.181736707687377930e-01 8.284182101488113403e-02 -1.017189025878906250e-02
-4.684491753578186035e-01 3.806916624307632446e-02 2.240058034658432007e-02
-4.351790547370910645e-01 6.935697793960571289e-02 1.555670332163572311e-02
-5.343687534332275391e-01 2.937989309430122375e-02 -3.411401435732841492e-02
-5.412548780441284180e-01 2.634999901056289673e-02 -2.592051774263381958e-02
-4.657614529132843018e-01 3.206918388605117798e-02 1.519893016666173935e-02
-5.778805017471313477e-01 7.236807793378829956e-02 -9.198933839797973633e-04
-5.335818529129028320e-01 8.565536141395568848e-02 -4.463236033916473389e-02
-5.054872632026672363e-01 1.011739969253540039e-01 -8.839810267090797424e-03
-5.430009961128234863e-01 7.946070283651351929e-02 1.893001422286033630e-02
-4.518364965915679932e-01 6.473131477832794189e-02 2.397346496582031250e-02
-5.161960124969482422e-01 3.958696871995925903e-02 -4.876711219549179077e-02
-5.041298866271972656e-01 1.000544726848602295e-01 -3.208886831998825073e-02
-5.523665547370910645e-01 2.631190046668052673e-02 5.508880130946636200e-03
-4.256783127784729004e-01 6.059036031365394592e-02 -4.322486370801925659e-02
-5.195329785346984863e-01 9.867831319570541382e-02 -2.826632559299468994e-02
-4.540762305259704590e-01 5.550611764192581177e-02 2.488608658313751221e-02
-5.798816680908203125e-01 7.030915468931198120e-02 -1.946543902158737183e-02
-5.524221658706665039e-01 8.429190516471862793e-02 8.072019554674625397e-03
-5.615062117576599121e-01 6.363011896610260010e-02 -4.207875952124595642e-02
-4.973130822181701660e-01 2.703803777694702148e-02 -3.541412949562072754e-02
-4.607404768466949463e-01 9.901582449674606323e-02 -5.688656587153673172e-03
-4.983645081520080566e-01 1.967149600386619568e-02 -2.413474023342132568e-03
-5.268595218658447266e-01 9.848124533891677856e-02 -1.411561574786901474e-02
-4.497586786746978760e-01 3.942997753620147705e-02 1.524138357490301132e-02
-4.466567933559417725e-01 9.386384487152099609e-02 -9.561218321323394775e-04
-5.296887755393981934e-01 7.919773459434509277e-02 -5.087101832032203674e-02
-4.661944806575775146e-01 2.540513128042221069e-02 1.120553351938724518e-03
-4.941855967044830322e-01 3.430572897195816040e-02 -4.506967589259147644e-02
-5.693518519401550293e-01 5.949606746435165405e-02 -3.711347654461860657e-02
-4.890011847019195557e-01 2.186355739831924438e-02 -2.149637229740619659e-02
-4.661110043525695801e-01 2.414298802614212036e-02 -8.240099996328353882e-03
-4.564612209796905518e-01 9.590721130371093750e-02 2.716686576604843140e-04
-5.179334282875061035e-01 1.944191008806228638e-02 -2.209169790148735046e-03
-5.794149637222290039e-01 4.663268849253654480e-02 -2.331166341900825500e-02
-4.511079192161560059e-01 3.951907530426979065e-02 -4.117275401949882507e-02
-5.689026713371276855e-01 4.000919312238693237e-02 -2.825684659183025360e-02
-5.241496562957763672e-01 9.234797209501266479e-02 -4.053012654185295105e-02
-4.727510511875152588e-01 9.673492610454559326e-02 4.177874885499477386e-03
-5.573273301124572754e-01 8.738859742879867554e-02 -5.039231851696968079e-03
-4.946344196796417236e-01 1.003007590770721436e-01 -2.517774701118469238e-03
-4.425904750823974609e-01 8.969824016094207764e-02 -4.249767586588859558e-02
9.384597539901733398e-01 2.221849188208580017e-02 9.423622861504554749e-03
6.499250531196594238e-01 6.185783073306083679e-03 3.421199694275856018e-02
4.959095716476440430e-01 3.399428725242614746e-02 -7.158194668591022491e-03
9.667313098907470703e-01 -5.793627817183732986e-03 -4.156050272285938263e-03
5.843661427497863770e-01 4.935435950756072998e-02 -1.378500647842884064e-02
8.334244489669799805e-01 -1.942542940378189087e-02 -3.770431876182556152e-02
4.765767455101013184e-01 8.236239664256572723e-03 -2.369856461882591248e-02
5.335316061973571777e-01 -2.522872295230627060e-03 2.019405364990234375e-02
8.603687286376953125e-01 -3.141162171959877014e-02 6.515431217849254608e-03
8.763120174407958984e-01 -3.154472634196281433e-02 -1.243973523378372192e-02
8.271818161010742188e-01 -2.714125998318195343e-02 -3.195631876587867737e-02
8.943952322006225586e-01 3.860143572092056274e-02 -1.544873323291540146e-02
7.913177609443664551e-01 -1.382901519536972046e-02 3.031846880912780762e-02
6.848595738410949707e-01 -3.279561176896095276e-02 1.554042100906372070e-02
5.084249973297119141e-01 -1.540947705507278442e-02 3.573111258447170258e-03
5.861535668373107910e-01 -8.947230875492095947e-03 -4.181109741330146790e-02
6.065955162048339844e-01 3.793531656265258789e-02 -3.636222332715988159e-02
7.317897081375122070e-01 -6.108967121690511703e-03 -4.874385148286819458e-02
5.401530861854553223e-01 -2.505795471370220184e-02 -1.552405394613742828e-02
9.241345524787902832e-01 -2.289661392569541931e-02 -9.955714456737041473e-03
5.887300968170166016e-01 -3.270636126399040222e-02 -1.435780897736549377e-02
7.016453146934509277e-01 -5.181564483791589737e-03 -4.906533285975456238e-02
5.649483203887939453e-01 -2.336768619716167450e-02 -2.787566184997558594e-02
7.372143268585205078e-01 -3.995719924569129944e-02 1.883446238934993744e-03
8.779032826423645020e-01 4.236478358507156372e-02 6.838776171207427979e-04
5.453734397888183594e-01 4.204030334949493408e-02 4.597249440848827362e-03
7.341805696487426758e-01 1.789410971105098724e-02 -4.912253469228744507e-02
7.754515409469604492e-01 -2.423701807856559753e-04 3.479580953717231750e-02
6.950202584266662598e-01 8.430858142673969269e-04 -5.007847398519515991e-02
6.249552965164184570e-01 2.086171321570873260e-02 3.116944059729576111e-02
6.346387863159179688e-01 -9.930428117513656616e-03 2.997241541743278503e-02
9.569660425186157227e-01 -7.194630336016416550e-03 -1.650221645832061768e-02
4.890621900558471680e-01 -4.553845617920160294e-03 6.900279782712459564e-03
9.001681804656982422e-01 3.270481526851654053e-02 1.169855892658233643e-02
5.930015444755554199e-01 5.060793831944465637e-02 -1.088565960526466370e-02
6.877415776252746582e-01 -3.932709619402885437e-02 1.503932289779186249e-03
5.035563707351684570e-01 -3.826142754405736923e-03 -2.941096201539039612e-02
5.726252794265747070e-01 -1.508957520127296448e-02 -3.689176589250564575e-02
8.976989984512329102e-01 -2.639001421630382538e-02 4.874055273830890656e-03
7.337577342987060547e-01 5.206495150923728943e-02 -2.221723645925521851e-02
8.805642724037170410e-01 3.999388217926025391e-02 -1.855855807662010193e-02
7.370976209640502930e-01 5.513337627053260803e-02 -6.940383464097976685e-03
6.610834002494812012e-01 -1.566546596586704254e-02 2.903039753437042236e-02
6.114877462387084961e-01 5.129912123084068298e-02 -1.596339792013168335e-02
6.232572793960571289e-01 -2.843098901212215424e-02 1.547689363360404968e-02
6.991890668869018555e-01 -4.173223860561847687e-04 3.529824316501617432e-02
7.173008918762207031e-01 -1.230634190142154694e-02 -4.687853530049324036e-02
6.527149677276611328e-01 5.339001491665840149e-02 2.239800058305263519e-03
8.175396323204040527e-01 5.026784166693687439e-02 -1.644573174417018890e-03
5.357404351234436035e-01 2.977233380079269409e-02 -3.250960260629653931e-02
7.255963087081909180e-01 -4.099769890308380127e-02 -9.810675866901874542e-03
8.827961683273315430e-01 2.812781371176242828e-03 2.661686390638351440e-02
9.109343886375427246e-01 2.608732134103775024e-02 -2.720554918050765991e-02
7.338681817054748535e-01 -2.865328826010227203e-02 2.168399281799793243e-02
5.679713487625122070e-01 2.477138489484786987e-02 -4.014445841312408447e-02
6.445941925048828125e-01 -3.773204609751701355e-02 -1.454646140336990356e-02
6.066127419471740723e-01 -2.791709266602993011e-02 1.369411312043666840e-02
7.152077555656433105e-01 -1.240209303796291351e-02 3.224394097924232483e-02
9.395660161972045898e-01 -8.745983242988586426e-03 1.148304156959056854e-02
7.964530587196350098e-01 -1.045181602239608765e-02 -4.509029537439346313e-02
8.435080647468566895e-01 -3.551718592643737793e-02 -1.154989469796419144e-03
8.186284303665161133e-01 -3.676097374409437180e-03 3.205588087439537048e-02
7.702831625938415527e-01 -3.121213428676128387e-02 -3.229996562004089355e-02
6.665604710578918457e-01 -4.350156988948583603e-03 -4.858646541833877563e-02
5.063186287879943848e-01 3.474972397089004517e-02 -1.795203611254692078e-02
8.622385859489440918e-01 3.880107030272483826e-02 1.360375434160232544e-02
7.060963511466979980e-01 3.107206895947456360e-03 3.582811728119850159e-02
5.991914868354797363e-01 5.067130923271179199e-02 -9.475699625909328461e-04
7.109152674674987793e-01 -3.875607997179031372e-02 5.418275482952594757e-03
5.819425582885742188e-01 -1.463158801198005676e-02 -3.844195976853370667e-02
4.959767460823059082e-01 8.732076734304428101e-03 1.362389139831066132e-02
6.766349077224731445e-01 5.439208075404167175e-02 1.178253442049026489e-03
9.168153405189514160e-01 -8.764868602156639099e-03 1.783707365393638611e-02
6.272014975547790527e-01 -3.485636785626411438e-02 -2.047922462224960327e-02
7.570912837982177734e-01 5.165849998593330383e-02 -2.121991664171218872e-02
5.768666267395019531e-01 -2.688985131680965424e-02 9.179776534438133240e-03
5.926104784011840820e-01 -1.888370700180530548e-02 -3.688190877437591553e-02
7.699804902076721191e-01 5.358804017305374146e-02 -1.150137186050415039e-02
6.499239802360534668e-01 3.371514845639467239e-03 -4.919293522834777832e-02
8.231800198554992676e-01 3.896928578615188599e-02 -3.258537128567695618e-02
7.690554857254028320e-01 4.471329972147941589e-02 -3.186456859111785889e-02
4.806060194969177246e-01 2.830016426742076874e-02 -1.073324214667081833e-02
7.318398356437683105e-01 -3.439866006374359131e-02 -2.928779460489749908e-02
7.373207807540893555e-01 2.625812403857707977e-02 -4.652951657772064209e-02
5.476639270782470703e-01 3.803241625428199768e-02 1.150652393698692322e-02
8.461552262306213379e-01 4.753582552075386047e-02 -7.979390211403369904e-03
5.185351967811584473e-01 -5.196002777665853500e-03 1.587881334125995636e-02
8.861482143402099609e-01 4.117340222001075745e-02 -3.284839913249015808e-04
6.667150259017944336e-01 4.101720452308654785e-02 2.291848324239253998e-02
7.097516059875488281e-01 -3.123653866350650787e-02 1.858873851597309113e-02
4.789669513702392578e-01 2.185040898621082306e-02 3.557060845196247101e-03
5.549327731132507324e-01 -2.002528309822082520e-02 1.312752999365329742e-02
5.142212510108947754e-01 2.198204956948757172e-02 -3.226349502801895142e-02
5.020853877067565918e-01 1.614653132855892181e-02 1.458007283508777618e-02
6.605887413024902344e-01 -2.738687582314014435e-02 -3.575773537158966064e-02
5.507206916809082031e-01 2.725986018776893616e-02 -3.663145005702972412e-02
6.289988756179809570e-01 2.861863374710083008e-02 -4.386607557535171509e-02
5.602211356163024902e-01 1.988033950328826904e-02 -4.084423184394836426e-02
5.293862819671630859e-01 1.776534877717494965e-02 -3.673420473933219910e-02
8.415005207061767578e-01 -2.918790094554424286e-02 1.416797563433647156e-02
7.741011381149291992e-01 -1.994544081389904022e-02 -4.180483520030975342e-02
5.628308057785034180e-01 -2.293067984282970428e-02 1.152968220412731171e-02
5.620213150978088379e-01 -1.147140376269817352e-02 -3.752166032791137695e-02
8.036969900131225586e-01 -2.375069633126258850e-02 2.361280843615531921e-02
8.295350074768066406e-01 4.697317630052566528e-02 -1.923701912164688110e-02
7.590370178222656250e-01 -3.158568963408470154e-02 -3.238229453563690186e-02
8.397120237350463867e-01 4.823267087340354919e-02 -3.672047983855009079e-03
5.996467471122741699e-01 -9.095538407564163208e-03 -4.311130195856094360e-02
8.500464558601379395e-01 -3.206979855895042419e-02 -2.103264629840850830e-02
9.466581344604492188e-01 5.375636741518974304e-03 -2.504189871251583099e-02
7.369543313980102539e-01 3.981061745434999466e-03 -5.016707628965377808e-02
7.819620370864868164e-01 -2.289248257875442505e-02 -3.944177553057670593e-02
6.149128079414367676e-01 5.542043130844831467e-03 3.190258890390396118e-02
7.350081205368041992e-01 -1.295700855553150177e-02 3.208754956722259521e-02
7.332739830017089844e-01 -2.252499572932720184e-02 -4.133468121290206909e-02
8.538822531700134277e-01 -3.406145051121711731e-02 7.764315232634544373e-04
7.465546131134033203e-01 2.572921570390462875e-03 -4.986933618783950806e-02
6.318258643150329590e-01 4.878233000636100769e-02 -2.579504251480102539e-02
7.676706910133361816e-01 1.084789913147687912e-02 -4.915309697389602661e-02
8.130247592926025391e-01 4.342108219861984253e-02 -2.877805195748806000e-02
9.168670177459716797e-01 9.642362594604492188e-03 2.071749791502952576e-02
9.378880858421325684e-01 2.684499882161617279e-02 -1.560079399496316910e-02
5.100556612014770508e-01 3.760202974081039429e-02 -1.195212360471487045e-02
7.796401977539062500e-01 -1.487606391310691833e-02 -4.423594474792480469e-02
6.812461614608764648e-01 -3.989309072494506836e-02 -2.846448216587305069e-03
8.941623568534851074e-01 -2.666637860238552094e-02 -1.845042780041694641e-02
7.908899188041687012e-01 5.243528634309768677e-02 -2.284062094986438751e-03
4.660188257694244385e-01 4.643641412258148193e-03 -1.653205417096614838e-02
6.766641139984130859e-01 2.152988128364086151e-02 3.358033671975135803e-02
5.908157825469970703e-01 4.658602923154830933e-02 -2.368690818548202515e-02
4.614566564559936523e-01 5.078529473394155502e-03 -8.556043729186058044e-03
6.177889108657836914e-01 5.010482668876647949e-02 -2.110901102423667908e-02
7.534445524215698242e-01 4.660871624946594238e-02 1.699396781623363495e-02
6.380326747894287109e-01 4.802857339382171631e-02 1.285361126065254211e-02
7.853511571884155273e-01 1.876128651201725006e-02 -4.698988050222396851e-02
6.372765302658081055e-01 -2.959422580897808075e-02 -3.138169646263122559e-02
7.203126549720764160e-01 4.564455896615982056e-02 1.920504681766033173e-02
9.615829586982727051e-01 9.433632716536521912e-03 -1.791612803936004639e-02
5.724934339523315430e-01 4.451472312211990356e-02 7.989205420017242432e-03
7.573066949844360352e-01 1.502590626478195190e-02 -4.903134703636169434e-02
5.387459397315979004e-01 1.033332012593746185e-02 -3.933589905500411987e-02
6.954233646392822266e-01 4.427979514002799988e-02 2.064291201531887054e-02
7.790694236755371094e-01 -6.983757484704256058e-03 -4.709849134087562561e-02
7.887099981307983398e-01 7.532350253313779831e-03 -4.832473769783973694e-02
9.199215173721313477e-01 -8.968830108642578125e-03 -2.926784381270408630e-02
5.483196377754211426e-01 1.522514782845973969e-02 -4.026711359620094299e-02
6.592517495155334473e-01 -3.771829605102539062e-02 2.787305042147636414e-03
5.621024966239929199e-01 1.548760198056697845e-02 2.601476013660430908e-02
8.685181736946105957e-01 -3.202668577432632446e-02 -1.495252177119255066e-02
6.469082236289978027e-01 3.327465802431106567e-02 2.748259902000427246e-02
6.898148059844970703e-01 2.426081523299217224e-02 3.310812637209892273e-02
9.010015726089477539e-01 6.692786235362291336e-03 -3.622668981552124023e-02
7.019416689872741699e-01 -3.691434860229492188e-02 -2.448145300149917603e-02
8.115227818489074707e-01 -3.653812780976295471e-02 5.018928088247776031e-03
5.119553208351135254e-01 -8.156599476933479309e-03 1.242580264806747437e-02
7.200554609298706055e-01 -3.787120431661605835e-02 -2.284597046673297882e-02
6.727556586265563965e-01 4.738435149192810059e-02 -3.068792447447776794e-02
9.485806822776794434e-01 1.170007139444351196e-02 1.158006116747856140e-02
7.046438455581665039e-01 4.229224473237991333e-02 -3.687082603573799133e-02
5.537275671958923340e-01 4.511312022805213928e-02 -1.572760939598083496e-02
6.105496287345886230e-01 -3.303368389606475830e-02 5.317843519151210785e-03
9.465506672859191895e-01 2.611264400184154510e-02 -8.299266919493675232e-03
6.257533431053161621e-01 1.187497749924659729e-02 3.267744928598403931e-02
7.097361683845520020e-01 5.547925829887390137e-02 -9.241398423910140991e-03
8.765689134597778320e-01 3.524325788021087646e-02 1.482728123664855957e-02
8.485810756683349609e-01 2.545534260571002960e-02 -3.907179087400436401e-02
6.860479712486267090e-01 -3.655329346656799316e-02 -2.438383549451828003e-02
6.647191047668457031e-01 4.568824544548988342e-02 -3.257008641958236694e-02
5.881012082099914551e-01 3.707349998876452446e-03 2.928532287478446960e-02
7.296705245971679688e-01 3.466406837105751038e-02 2.851187437772750854e-02
8.789458870887756348e-01 2.708890661597251892e-02 -3.359143435955047607e-02
5.926488637924194336e-01 4.097426310181617737e-02 -3.193093463778495789e-02
6.571769714355468750e-01 -1.952128671109676361e-02 -4.188733547925949097e-02
8.957315683364868164e-01 -2.252153865993022919e-02 1.186487264931201935e-02
7.022482752799987793e-01 3.554422035813331604e-02 -4.219523072242736816e-02
5.147874951362609863e-01 1.136122271418571472e-02 1.833620853722095490e-02
7.398026585578918457e-01 -3.552545979619026184e-02 -2.735769748687744141e-02
5.782697200775146484e-01 -1.201694458723068237e-02 2.332145161926746368e-02
5.501258969306945801e-01 6.299778819084167480e-03 -4.097400978207588196e-02
8.633269071578979492e-01 -5.268761422485113144e-03 2.768462523818016052e-02
7.887939214706420898e-01 -4.455014597624540329e-03 3.352681919932365417e-02
5.373555421829223633e-01 2.176290377974510193e-02 -3.689802810549736023e-02
5.248633027076721191e-01 -2.281057462096214294e-02 -9.914585389196872711e-03
5.884224772453308105e-01 4.282585345208644867e-03 -4.522849246859550476e-02
7.574819326400756836e-01 5.446227267384529114e-02 -6.181165110319852829e-03
6.429849267005920410e-01 3.813211247324943542e-02 -3.887370601296424866e-02
9.715057611465454102e-01 9.753913618624210358e-03 -7.231114432215690613e-03
6.570603251457214355e-01 5.461964383721351624e-02 -3.852462861686944962e-03
4.985470175743103027e-01 -6.845817435532808304e-03 8.972123265266418457e-03
7.397211790084838867e-01 -3.302126750349998474e-02 1.659107021987438202e-02
9.159233570098876953e-01 3.488578647375106812e-02 -1.178824808448553085e-02
8.603174686431884766e-01 -2.992164902389049530e-02 -2.268364094197750092e-02
8.003010749816894531e-01 -3.152791410684585571e-02 -2.966610901057720184e-02
6.165236830711364746e-01 3.451488912105560303e-02 -3.975504636764526367e-02
8.388308882713317871e-01 2.675163559615612030e-02 2.681481465697288513e-02
7.252438664436340332e-01 4.056490212678909302e-02 2.424817159771919250e-02
5.109598636627197266e-01 1.750262454152107239e-02 1.650162041187286377e-02
5.319219827651977539e-01 -1.850925572216510773e-02 -2.533174864947795868e-02
5.712625980377197266e-01 4.701088368892669678e-02 -1.732520386576652527e-02
5.117393136024475098e-01 3.558336943387985229e-02 2.849052660167217255e-03
5.200862884521484375e-01 4.015678167343139648e-02 -6.433157250285148621e-03
4.923626184463500977e-01 -1.102628186345100403e-02 1.509101130068302155e-03
5.824040770530700684e-01 4.799700528383255005e-02 2.808845601975917816e-03
6.918488740921020508e-01 -3.408223763108253479e-02 1.403028890490531921e-02
4.626646935939788818e-01 1.420954801142215729e-02 -1.305335387587547302e-02
8.790055513381958008e-01 3.535781428217887878e-02 -2.637899294495582581e-02
5.616167187690734863e-01 -1.740041375160217285e-02 1.703828014433383942e-02
7.898923754692077637e-01 4.793594777584075928e-02 -2.498096413910388947e-02
9.083584547042846680e-01 -2.361564524471759796e-02 -1.866238750517368317e-02
7.258673310279846191e-01 4.955259710550308228e-02 1.369557529687881470e-02
6.521974802017211914e-01 -2.898196224123239517e-03 3.317268565297126770e-02
6.270980834960937500e-01 -3.699292615056037903e-02 -5.564069841057062149e-03
6.605761647224426270e-01 2.816214971244335175e-02 3.070984780788421631e-02
7.805469632148742676e-01 4.940892755985260010e-02 1.020712964236736298e-02
7.512196898460388184e-01 -2.393207885324954987e-02 -3.995763137936592102e-02
8.176649212837219238e-01 4.145796969532966614e-02 1.773524843156337738e-02
5.177814960479736328e-01 -1.626497693359851837e-02 6.503645330667495728e-03
7.124342918395996094e-01 2.661369182169437408e-02 -4.677431285381317139e-02
9.660690426826477051e-01 1.242743618786334991e-02 1.556409522891044617e-03
6.915481686592102051e-01 -7.691838312894105911e-03 -4.828901216387748718e-02
5.466996431350708008e-01 4.478267580270767212e-02 -3.720446256920695305e-03
5.324342846870422363e-01 2.256857231259346008e-02 1.944878511130809784e-02
7.616795897483825684e-01 -3.198179975152015686e-02 1.749137602746486664e-02
5.539340972900390625e-01 4.407542571425437927e-02 3.171736374497413635e-03
4.743040502071380615e-01 -3.663685638457536697e-03 -1.074192114174365997e-03
8.119556903839111328e-01 -8.625315502285957336e-03 -4.464349895715713501e-02
5.278160572052001953e-01 4.164277389645576477e-02 -1.087588723748922348e-02
5.417566895484924316e-01 4.146844893693923950e-02 -2.040750160813331604e-02
8.217853307723999023e-01 4.763076826930046082e-02 -1.965031959116458893e-02
7.725915908813476562e-01 -3.893210366368293762e-02 3.401537425816059113e-03
7.640123963356018066e-01 1.974075660109519958e-02 -4.778375104069709778e-02
7.544108629226684570e-01 4.395774751901626587e-02 -3.372173756361007690e-02
6.672474145889282227e-01 -9.639556519687175751e-04 3.425651416182518005e-02
6.861446499824523926e-01 5.540819093585014343e-02 -5.122110247611999512e-03
5.202771425247192383e-01 4.716743249446153641e-03 1.924444362521171570e-02
5.845936536788940430e-01 -3.039311058819293976e-02 4.315308295190334320e-03
8.915547132492065430e-01 2.832684852182865143e-02 -3.021688573062419891e-02
5.930548310279846191e-01 -2.870052494108676910e-02 -2.612150646746158600e-02
6.514395475387573242e-01 1.823559589684009552e-02 -4.833198711276054382e-02
5.908784866333007812e-01 4.769418016076087952e-02 6.015648134052753448e-03
5.115385055541992188e-01 4.718295298516750336e-03 -3.401510417461395264e-02
9.385408163070678711e-01 -1.918083243072032928e-02 -6.608766969293355942e-03
8.954369425773620605e-01 -7.801834959536790848e-03 -3.493823111057281494e-02
5.809090137481689453e-01 4.257474467158317566e-02 -2.827258780598640442e-02
8.485118150711059570e-01 -5.152653437107801437e-03 -4.229608550667762756e-02
6.879296302795410156e-01 4.562113434076309204e-02 -3.327841311693191528e-02
7.639749050140380859e-01 4.543350264430046082e-02 1.791971921920776367e-02
5.645079016685485840e-01 2.410496585071086884e-02 2.407370135188102722e-02
7.871999740600585938e-01 -3.947144374251365662e-02 -1.243188418447971344e-02
6.169054508209228516e-01 -5.823518615216016769e-03 3.002073243260383606e-02
8.932526707649230957e-01 -2.926749177277088165e-02 -1.021791156381368637e-02
6.006465554237365723e-01 2.569469250738620758e-02 2.762407809495925903e-02
5.886906981468200684e-01 4.981596767902374268e-02 -1.708858646452426910e-03
6.168552041053771973e-01 -2.353712916374206543e-02 -3.579550236463546753e-02
6.299471855163574219e-01 2.877509593963623047e-02 2.872950583696365356e-02
6.461332440376281738e-01 -2.962931059300899506e-02 1.662710122764110565e-02
6.246236562728881836e-01 4.692649096250534058e-02 -2.808113396167755127e-02
6.060001254081726074e-01 4.658242315053939819e-02 1.108895614743232727e-02
7.561018466949462891e-01 3.479097038507461548e-02 -4.148010164499282837e-02
8.933543562889099121e-01 1.038255915045738220e-02 -3.724070638418197632e-02
8.351407051086425781e-01 4.790702462196350098e-02 -1.426521688699722290e-02
7.501499056816101074e-01 -3.962119296193122864e-02 2.749541774392127991e-03
5.857421755790710449e-01 2.435860782861709595e-02 2.659689635038375854e-02
8.921386003494262695e-01 2.045926079154014587e-02 -3.469151258468627930e-02
6.347604990005493164e-01 5.336143076419830322e-02 -1.771399751305580139e-03
7.936409711837768555e-01 -2.345979213714599609e-02 -3.830014914274215698e-02
7.908424735069274902e-01 3.086060099303722382e-02 -4.185270890593528748e-02
9.552654027938842773e-01 1.739763841032981873e-02 5.366483703255653381e-03
4.992966651916503906e-01 3.322249650955200195e-02 2.294806763529777527e-04
6.504224538803100586e-01 -3.487158194184303284e-02 -2.440004795789718628e-02
6.547048687934875488e-01 4.179307073354721069e-02 -3.630971163511276245e-02
5.223369002342224121e-01 -2.100227586925029755e-02 -1.641297154128551483e-02
6.661716699600219727e-01 -2.321819402277469635e-02 -3.972741588950157166e-02
8.999298810958862305e-01 1.695248298346996307e-02 -3.455414995551109314e-02
8.017166852951049805e-01 -6.187432911247014999e-03 3.248166665434837341e-02
8.907350301742553711e-01 -1.803793199360370636e-02 1.743669435381889343e-02
8.310998678207397461e-01 -3.604454919695854187e-02 -1.526947319507598877e-02
9.303107261657714844e-01 2.573082037270069122e-02 9.284593164920806885e-03
7.996023893356323242e-01 5.001856014132499695e-02 -1.860999874770641327e-02
6.028966307640075684e-01 -3.476760536432266235e-02 -5.573161877691745758e-03
8.644726276397705078e-01 2.378330007195472717e-02 2.519944682717323303e-02
7.594894170761108398e-01 4.016995429992675781e-02 -3.720476850867271423e-02
5.717378258705139160e-01 2.716697938740253448e-02 2.375282160937786102e-02
7.757438421249389648e-01 3.195127472281455994e-02 2.877036854624748230e-02
8.652354478836059570e-01 -2.152833342552185059e-02 1.892663910984992981e-02
8.949145078659057617e-01 3.916715737432241440e-03 2.489732205867767334e-02
7.108116149902343750e-01 -1.771439053118228912e-02 2.966182678937911987e-02
6.996527910232543945e-01 -2.239282242953777313e-02 2.649031579494476318e-02
5.083995461463928223e-01 1.579070463776588440e-02 -3.290932625532150269e-02
6.002494096755981445e-01 -2.191325090825557709e-02 1.934856735169887543e-02
8.573037385940551758e-01 2.732942625880241394e-02 -3.691878914833068848e-02
6.241944432258605957e-01 -2.224998921155929565e-02 2.189718373119831085e-02
5.452563762664794922e-01 -2.674336545169353485e-02 -5.141020752489566803e-03
8.234106302261352539e-01 4.973577335476875305e-02 -1.095021050423383713e-02
4.887202978134155273e-01 -5.091144237667322159e-03 -2.341026999056339264e-02
5.539205670356750488e-01 3.301296010613441467e-02 -3.348118439316749573e-02
6.042708158493041992e-01 -3.381119295954704285e-02 -1.707795634865760803e-02
7.031699419021606445e-01 -2.704635076224803925e-02 -3.770402818918228149e-02
8.018509149551391602e-01 2.608251012861728668e-02 -4.342117905616760254e-02
6.354675292968750000e-01 5.452462472021579742e-03 -4.866017028689384460e-02
5.802769660949707031e-01 -3.151703625917434692e-02 -1.505715679377317429e-02
6.357133388519287109e-01 -3.763774782419204712e-02 -1.046465244144201279e-02
5.031649470329284668e-01 2.537582069635391235e-02 1.093830354511737823e-02
5.040646195411682129e-01 -1.755753904581069946e-02 -9.833790361881256104e-03
8.970510959625244141e-01 1.209354959428310394e-02 2.404183708131313324e-02
7.925938367843627930e-01 1.414601504802703857e-02 -4.750279709696769714e-02
7.279558181762695312e-01 -1.341695152223110199e-02 -4.636705294251441956e-02
8.559532761573791504e-01 -1.571927219629287720e-02 2.425819262862205505e-02
6.159614920616149902e-01 -3.124888800084590912e-02 -2.609951421618461609e-02
8.193078637123107910e-01 -3.134854137897491455e-02 1.413438841700553894e-02
7.111285924911499023e-01 5.421907827258110046e-02 -1.702019758522510529e-02
7.151192426681518555e-01 2.554348856210708618e-02 3.297250717878341675e-02
7.640912532806396484e-01 1.796892099082469940e-02 3.448603674769401550e-02
9.266004562377929688e-01 1.402132678776979446e-03 1.860347948968410492e-02
7.963323593139648438e-01 -3.451792523264884949e-02 1.156657375395298004e-02
7.875127196311950684e-01 -2.916070260107517242e-02 1.959349587559700012e-02
6.575938463211059570e-01 8.130844682455062866e-03 3.462123498320579529e-02
8.600032925605773926e-01 4.265213757753372192e-02 7.775943726301193237e-03
6.616344451904296875e-01 5.340795591473579407e-02 3.396314568817615509e-03
7.057943940162658691e-01 -4.085182398557662964e-02 -8.256060071289539337e-03
8.362989425659179688e-01 1.065796427428722382e-02 3.157906606793403625e-02
4.870294928550720215e-01 -1.126866415143013000e-02 -1.329805422574281693e-02
8.558271527290344238e-01 1.021039672195911407e-03 2.967547997832298279e-02
7.258685827255249023e-01 3.173909708857536316e-02 -4.422622919082641602e-02
5.259007215499877930e-01 -1.087177172303199768e-02 -3.103316947817802429e-02
8.050284981727600098e-01 2.556878328323364258e-02 3.021689131855964661e-02
6.420851349830627441e-01 -1.659875921905040741e-02 2.732822671532630920e-02
4.832091331481933594e-01 2.268074266612529755e-02 -2.195870317518711090e-02
5.822573900222778320e-01 -2.874923311173915863e-02 -2.352380380034446716e-02
