-2.865360677242279053e-02 -6.963488459587097168e-01 9.598970413208007812e-03
-4.885835647583007812e-01 -6.798634529113769531e-01 8.626439422369003296e-02
-3.638202846050262451e-01 -5.181710720062255859e-01 6.000260263681411743e-02
-1.733046323060989380e-01 -7.370932698249816895e-01 4.836761206388473511e-02
-3.089384734630584717e-02 -4.599331319332122803e-01 7.445342838764190674e-02
-2.611627876758575439e-01 -5.527395009994506836e-01 -1.862377822399139404e-01
-4.549869298934936523e-01 -7.646503448486328125e-01 3.163735270500183105e-01
-6.017579138278961182e-02 -4.606594443321228027e-01 8.224103599786758423e-02
-3.569381237030029297e-01 -7.724431753158569336e-01 1.750197559595108032e-01
1.744517683982849121e-02 -6.429013013839721680e-01 4.376507699489593506e-01
1.212574690580368042e-01 -5.489077568054199219e-01 2.489468157291412354e-01
8.470816910266876221e-02 -4.942410588264465332e-01 1.493837684392929077e-01
-4.849029779434204102e-01 -7.313303947448730469e-01 3.415525853633880615e-01
-5.729694664478302002e-02 -4.659641683101654053e-01 -1.612782478332519531e-01
9.044723212718963623e-02 -6.515730023384094238e-01 3.742144703865051270e-01
-3.565022945404052734e-01 -7.766141891479492188e-01 4.579804241657257080e-01
2.534237504005432129e-02 -5.804388523101806641e-01 3.726827502250671387e-01
1.307293772697448730e-02 -7.014067173004150391e-01 4.418121278285980225e-01
-3.804857134819030762e-01 -6.443979740142822266e-01 4.166347086429595947e-01
-2.664095759391784668e-01 -4.804186224937438965e-01 1.547735929489135742e-02
-3.314446210861206055e-01 -7.963758707046508789e-01 2.940148413181304932e-01
-1.326150596141815186e-01 -5.838040113449096680e-01 -1.962308287620544434e-01
-1.353676468133926392e-01 -7.547018527984619141e-01 4.968730807304382324e-01
-3.269678950309753418e-01 -7.891945838928222656e-01 2.378121018409729004e-01
-4.354254007339477539e-01 -6.471361517906188965e-01 3.682805299758911133e-01
8.596439659595489502e-02 -4.816746711730957031e-01 9.661947190761566162e-02
1.342085003852844238e-02 -5.134043097496032715e-01 2.515918612480163574e-01
-3.325729370117187500e-01 -5.634856224060058594e-01 -1.445388495922088623e-01
-3.135318756103515625e-01 -6.190272569656372070e-01 4.222559630870819092e-01
-2.777327001094818115e-01 -5.356743335723876953e-01 -1.730871200561523438e-01
-9.639116376638412476e-02 -5.204817056655883789e-01 2.888848781585693359e-01
-1.246421188116073608e-01 -7.693121433258056641e-01 1.857534199953079224e-01
-1.439824551343917847e-01 -7.870666980743408203e-01 4.091747105121612549e-01
1.188071817159652710e-01 -6.269392967224121094e-01 3.335971236228942871e-01
-1.718479245901107788e-01 -4.579364061355590820e-01 -3.379668295383453369e-02
-3.574286699295043945e-01 -7.634032368659973145e-01 1.421283930540084839e-01
-1.580798327922821045e-01 -4.586850702762603760e-01 1.989004015922546387e-02
-3.118233084678649902e-01 -4.947010278701782227e-01 -1.417279243469238281e-03
1.021387726068496704e-01 -6.468523740768432617e-01 2.205836772918701172e-02
-8.998960256576538086e-03 -6.478070020675659180e-01 4.555101096630096436e-01
-4.474087357521057129e-01 -6.098527312278747559e-01 2.788068056106567383e-01
-8.620221167802810669e-02 -4.503970146179199219e-01 -6.323456764221191406e-03
-4.522039294242858887e-01 -5.802385807037353516e-01 2.145777642726898193e-02
-3.213084042072296143e-01 -5.719783902168273926e-01 -1.531057655811309814e-01
-2.439568340778350830e-01 -6.385983228683471680e-01 -1.372581422328948975e-01
-3.656545877456665039e-01 -7.921820878982543945e-01 2.963765263557434082e-01
-4.281308054924011230e-01 -7.489706277847290039e-01 1.521327197551727295e-01
7.889820635318756104e-02 -4.709088504314422607e-01 4.349368065595626831e-02
-3.995893150568008423e-02 -5.187109708786010742e-01 2.800266146659851074e-01
-4.229362607002258301e-01 -7.089282870292663574e-01 4.749184101819992065e-02
-2.013133466243743896e-01 -7.938250899314880371e-01 2.753307819366455078e-01
-1.797181367874145508e-01 -6.047850251197814941e-01 4.419998526573181152e-01
-1.533062458038330078e-01 -6.885948777198791504e-01 -5.959963798522949219e-02
-4.145436286926269531e-01 -6.219776272773742676e-01 3.497098684310913086e-01
-4.803608059883117676e-01 -6.044898033142089844e-01 1.704385727643966675e-01
-2.162992805242538452e-01 -4.760887920856475830e-01 -1.234731972217559814e-01
-2.889190316200256348e-01 -4.866078197956085205e-01 -1.115137338638305664e-02
-4.556092023849487305e-01 -6.980843544006347656e-01 3.981025516986846924e-01
-2.813853919506072998e-01 -5.226353406906127930e-01 2.252370119094848633e-01
4.496844112873077393e-02 -5.768980979919433594e-01 -1.429176926612854004e-01
-2.236805260181427002e-01 -7.122902274131774902e-01 -1.842190325260162354e-02
-3.884142041206359863e-01 -7.463667988777160645e-01 4.688955843448638916e-01
9.774297475814819336e-03 -7.451956272125244141e-01 2.933652400970458984e-01
-3.473911881446838379e-01 -5.578751564025878906e-01 2.716802060604095459e-01
1.419595032930374146e-01 -4.963589906692504883e-01 1.356056332588195801e-02
1.218011528253555298e-01 -4.851270318031311035e-01 2.906876802444458008e-02
-1.453309655189514160e-01 -7.714623212814331055e-01 1.804363429546356201e-01
-3.284668922424316406e-01 -6.946836113929748535e-01 4.958358705043792725e-01
-4.511489272117614746e-01 -5.716351866722106934e-01 7.033856213092803955e-02
-2.151457965373992920e-02 -4.553031921386718750e-01 4.040026664733886719e-02
-4.311065077781677246e-01 -6.677606701850891113e-01 -8.955746889114379883e-03
-2.666243016719818115e-01 -7.757203578948974609e-01 1.618130505084991455e-01
-1.731311380863189697e-01 -4.715359210968017578e-01 9.922399371862411499e-02
1.127854138612747192e-01 -4.799963235855102539e-01 -1.867876946926116943e-02
-3.343338370323181152e-01 -5.130323767662048340e-01 1.157918572425842285e-01
1.016037166118621826e-02 -4.984820783138275146e-01 2.126434743404388428e-01
-1.539398878812789917e-01 -7.552158832550048828e-01 1.108853667974472046e-01
-4.557783603668212891e-01 -7.025097012519836426e-01 7.024406641721725464e-02
-5.122308135032653809e-01 -6.666991114616394043e-01 2.328000068664550781e-01
2.424159646034240723e-02 -4.948944449424743652e-01 1.956741511821746826e-01
-3.277164399623870850e-01 -7.578920125961303711e-01 1.113560497760772705e-01
-1.141268834471702576e-01 -5.487459897994995117e-01 -2.142051160335540771e-01
-3.372957110404968262e-01 -7.867224216461181641e-01 4.454828500747680664e-01
-1.190663054585456848e-01 -4.843838810920715332e-01 -1.923945546150207520e-01
-1.169567033648490906e-01 -5.000457763671875000e-01 -2.081010639667510986e-01
1.492278724908828735e-01 -5.071600675582885742e-01 -2.248357236385345459e-02
1.598029285669326782e-01 -5.764158368110656738e-01 -9.875327348709106445e-03
5.598741769790649414e-02 -4.640678465366363525e-01 3.220945596694946289e-02
-4.651245474815368652e-01 -7.555463314056396484e-01 2.528950870037078857e-01
5.332970619201660156e-02 -6.353628039360046387e-01 4.079732596874237061e-01
-9.632440656423568726e-02 -7.804670333862304688e-01 3.390881717205047607e-01
-2.507197856903076172e-01 -7.948402166366577148e-01 2.603927850723266602e-01
-1.695001870393753052e-01 -4.604643583297729492e-01 -9.438478946685791016e-02
-4.692571610212326050e-02 -4.608957767486572266e-01 -1.453317999839782715e-01
-2.883887588977813721e-01 -7.982705235481262207e-01 4.175793528556823730e-01
-1.130376756191253662e-02 -7.075049281120300293e-01 4.600046873092651367e-01
-2.378210127353668213e-01 -6.901785135269165039e-01 5.189827680587768555e-01
1.834202855825424194e-01 -5.705783963203430176e-01 1.473585367202758789e-01
-4.375054836273193359e-01 -5.625679492950439453e-01 3.614614903926849365e-02
6.050454080104827881e-02 -4.737333357334136963e-01 -1.140953898429870605e-01
-1.133100539445877075e-01 -7.766512632369995117e-01 2.398737370967864990e-01
-1.907692253589630127e-01 -7.937505245208740234e-01 4.176468551158905029e-01
-3.650727868080139160e-01 -6.160194277763366699e-01 3.846856355667114258e-01
1.176189631223678589e-01 -6.828501820564270020e-01 2.341276705265045166e-01
-1.319825649261474609e-01 -7.661815881729125977e-01 4.762064218521118164e-01
-2.513540089130401611e-01 -7.649013996124267578e-01 1.219743043184280396e-01
1.279649138450622559e-02 -7.408936023712158203e-01 2.413604110479354858e-01
-3.761487603187561035e-01 -6.661449074745178223e-01 4.459253251552581787e-01
-2.461929619312286377e-02 -7.587669491767883301e-01 3.121837973594665527e-01
-1.624304205179214478e-01 -6.051068902015686035e-01 4.439820945262908936e-01
-7.747177779674530029e-02 -4.577371776103973389e-01 6.328127533197402954e-02
1.068519502878189087e-01 -5.461807250976562500e-01 -1.128083467483520508e-01
-4.769882559776306152e-01 -6.315270066261291504e-01 2.733282446861267090e-01
-1.949134469032287598e-02 -5.001015067100524902e-01 2.269486784934997559e-01
-3.745836615562438965e-01 -7.125286459922790527e-01 1.991480588912963867e-02
-3.190015256404876709e-02 -5.474790930747985840e-01 3.399676680564880371e-01
-9.806708246469497681e-02 -7.801029682159423828e-01 3.082040548324584961e-01
8.770261704921722412e-02 -7.039451599121093750e-01 2.740783691406250000e-01
1.862160712480545044e-01 -5.635207891464233398e-01 1.022952198982238770e-01
2.317704260349273682e-02 -4.625365138053894043e-01 6.209983676671981812e-02
8.073341846466064453e-02 -5.936080217361450195e-01 3.520745635032653809e-01
-4.992546439170837402e-01 -7.076262831687927246e-01 1.630226820707321167e-01
-1.774248927831649780e-01 -7.557814717292785645e-01 1.040114313364028931e-01
-4.147813320159912109e-01 -7.768465876579284668e-01 2.584589123725891113e-01
-2.681181132793426514e-01 -5.154261589050292969e-01 -1.632829904556274414e-01
-2.323919534683227539e-02 -5.060966610908508301e-01 2.444625794887542725e-01
-3.224460184574127197e-01 -5.285503864288330078e-01 2.049245238304138184e-01
1.383949369192123413e-01 -6.098046898841857910e-01 2.969214916229248047e-01
-2.837260067462921143e-01 -6.928454041481018066e-01 -5.052731931209564209e-02
-4.410807490348815918e-01 -7.242255210876464844e-01 4.236987829208374023e-01
-8.536369353532791138e-02 -6.675386428833007812e-01 -8.079126477241516113e-02
8.587688207626342773e-03 -5.265021324157714844e-01 2.843666076660156250e-01
-2.365054339170455933e-01 -4.825052022933959961e-01 9.838105738162994385e-02
2.707855403423309326e-02 -7.265697121620178223e-01 1.788991689682006836e-01
9.063690900802612305e-03 -6.077238321304321289e-01 4.138528406620025635e-01
-1.465983390808105469e-01 -6.116706132888793945e-01 -1.721040606498718262e-01
-5.024893879890441895e-01 -6.692747473716735840e-01 2.803127169609069824e-01
-5.713608115911483765e-02 -4.508910775184631348e-01 8.213534951210021973e-03
2.696694433689117432e-02 -5.579300522804260254e-01 3.374653458595275879e-01
-3.850552737712860107e-01 -7.354454398155212402e-01 7.721756398677825928e-02
2.542988955974578857e-02 -7.143608331680297852e-01 1.195046603679656982e-01
-1.709461212158203125e-02 -7.489476203918457031e-01 2.194481194019317627e-01
-4.942364096641540527e-01 -6.555430889129638672e-01 7.679405063390731812e-02
-4.260920286178588867e-01 -7.771916389465332031e-01 2.976305484771728516e-01
6.382516026496887207e-02 -6.771819591522216797e-01 4.861710220575332642e-02
-1.215913966298103333e-01 -7.566267848014831543e-01 4.871110618114471436e-01
7.577660679817199707e-02 -4.823938608169555664e-01 1.128989011049270630e-01
-1.638464927673339844e-01 -5.824707746505737305e-01 4.095158576965332031e-01
-7.512705028057098389e-02 -5.538015961647033691e-01 3.594308495521545410e-01
-4.161391854286193848e-01 -7.520490884780883789e-01 4.395300149917602539e-01
-1.781766712665557861e-01 -5.740737915039062500e-01 -2.016653716564178467e-01
-2.559569478034973145e-01 -4.888807535171508789e-01 1.097886115312576294e-01
-3.462420105934143066e-01 -7.952523231506347656e-01 2.994395792484283447e-01
-1.666083484888076782e-01 -4.962565898895263672e-01 -1.954768002033233643e-01
-3.360332548618316650e-01 -7.738127708435058594e-01 1.697230190038681030e-01
-3.306980729103088379e-01 -7.601243853569030762e-01 4.940868616104125977e-01
1.575930416584014893e-02 -6.473315954208374023e-01 -6.518296897411346436e-02
-9.343631565570831299e-02 -4.657509326934814453e-01 1.059080809354782104e-01
1.226779669523239136e-01 -6.683031320571899414e-01 1.347540318965911865e-01
-3.341805338859558105e-01 -5.490081310272216797e-01 2.593795061111450195e-01
-1.134825199842453003e-01 -4.599391222000122070e-01 6.666887551546096802e-02
-2.406505644321441650e-01 -5.251032710075378418e-01 2.612562477588653564e-01
-1.292450726032257080e-01 -5.611521005630493164e-01 3.747833371162414551e-01
-3.361116647720336914e-01 -5.140334367752075195e-01 -7.756847143173217773e-02
-3.051764369010925293e-01 -4.935842752456665039e-01 -4.007941484451293945e-02
4.030652344226837158e-02 -6.038978099822998047e-01 -1.159713864326477051e-01
-2.262874990701675415e-01 -7.970027923583984375e-01 4.198661148548126221e-01
-4.276678562164306641e-01 -5.537031292915344238e-01 7.016575336456298828e-02
-4.032967686653137207e-01 -7.854439020156860352e-01 3.470240235328674316e-01
-3.226347863674163818e-01 -6.300898790359497070e-01 4.337238371372222900e-01
-2.613503336906433105e-01 -4.994898438453674316e-01 1.559869050979614258e-01
-4.729354381561279297e-02 -5.679407119750976562e-01 3.797160387039184570e-01
-1.062805056571960449e-01 -7.809711098670959473e-01 2.925267517566680908e-01
8.706890046596527100e-02 -4.977596402168273926e-01 -1.260884106159210205e-01
-1.801823079586029053e-02 -6.011678576469421387e-01 4.181225597858428955e-01
-1.177557259798049927e-01 -7.240981459617614746e-01 3.170281648635864258e-02
-3.496752679347991943e-02 -6.717842817306518555e-01 -4.987405240535736084e-02
3.875954449176788330e-02 -6.947901248931884766e-01 4.188961684703826904e-01
-2.095101773738861084e-02 -5.307677388191223145e-01 -2.013401985168457031e-01
-2.851231098175048828e-01 -6.457738876342773438e-01 -1.194540560245513916e-01
-2.931693196296691895e-01 -7.861335277557373047e-01 4.664027392864227295e-01
-4.855447411537170410e-01 -6.109256744384765625e-01 7.787523418664932251e-02
-2.610667347908020020e-01 -4.909670948982238770e-01 -1.224380135536193848e-01
-1.883799284696578979e-01 -4.778985381126403809e-01 -1.541269719600677490e-01
-2.581527531147003174e-01 -4.785161018371582031e-01 -5.812321603298187256e-02
-6.716609001159667969e-02 -5.318517088890075684e-01 3.140653073787689209e-01
-2.088286131620407104e-01 -6.604447960853576660e-01 5.019730329513549805e-01
7.496906816959381104e-02 -6.515492796897888184e-01 -2.766430377960205078e-03
-2.246266007423400879e-01 -4.938463568687438965e-01 1.651694476604461670e-01
-2.337598204612731934e-01 -4.888241291046142578e-01 1.349509805440902710e-01
-1.643368303775787354e-01 -4.572995305061340332e-01 -6.537057459354400635e-02
-4.673169255256652832e-01 -7.446174025535583496e-01 2.001999169588088989e-01
1.296229511499404907e-01 -4.898436069488525391e-01 -2.111122012138366699e-02
-6.281489133834838867e-02 -7.322973608970642090e-01 8.812877535820007324e-02
-1.347248405218124390e-01 -7.526766657829284668e-01 1.111269146203994751e-01
-1.990008354187011719e-02 -4.915309548377990723e-01 2.014294862747192383e-01
1.456117480993270874e-01 -5.351438522338867188e-01 -6.160576641559600830e-02
3.327614068984985352e-02 -7.306531071662902832e-01 3.469431698322296143e-01
-1.820393800735473633e-01 -7.709695100784301758e-01 4.907322824001312256e-01
1.042163372039794922e-02 -7.116767764091491699e-01 8.973993360996246338e-02
-4.077808856964111328e-01 -5.408887267112731934e-01 6.186871230602264404e-02
-4.988977313041687012e-01 -6.268119215965270996e-01 1.758902519941329956e-01
1.573667973279953003e-01 -5.294793844223022461e-01 1.461504399776458740e-01
-2.706824541091918945e-01 -7.153623700141906738e-01 5.226823091506958008e-01
-1.321344971656799316e-01 -5.483345985412597656e-01 -2.147125899791717529e-01
9.979249536991119385e-02 -5.077741742134094238e-01 1.767661720514297485e-01
-1.476343721151351929e-01 -7.912626266479492188e-01 3.418928086757659912e-01
-1.106206849217414856e-01 -5.079084038734436035e-01 2.552224993705749512e-01
1.579298079013824463e-02 -4.587777853012084961e-01 -1.053482294082641602e-01
-1.752903163433074951e-01 -7.919034957885742188e-01 2.835289835929870605e-01
-1.055077835917472839e-01 -7.822829484939575195e-01 3.619777560234069824e-01
-2.401623427867889404e-01 -5.164002180099487305e-01 2.352696955204010010e-01
1.220968514680862427e-01 -5.798295736312866211e-01 -6.812341511249542236e-02
-1.693580299615859985e-01 -6.456443667411804199e-01 -1.323480606079101562e-01
-2.462027966976165771e-01 -6.244022250175476074e-01 -1.523615121841430664e-01
1.706172078847885132e-01 -6.247921586036682129e-01 1.694641709327697754e-01
-2.599437236785888672e-01 -8.021852970123291016e-01 3.704937696456909180e-01
7.053340971469879150e-02 -7.147995233535766602e-01 2.775584161281585693e-01
-3.208633065223693848e-01 -5.382807254791259766e-01 -1.418193280696868896e-01
-4.466936737298965454e-02 -4.816158413887023926e-01 1.730034798383712769e-01
-8.924480527639389038e-02 -4.701175093650817871e-01 1.273483633995056152e-01
3.360730409622192383e-02 -6.359846591949462891e-01 4.230623543262481689e-01
-9.908330440521240234e-02 -6.237025260925292969e-01 4.642052352428436279e-01
4.116229712963104248e-02 -7.307641506195068359e-01 2.858079969882965088e-01
-1.320860534906387329e-01 -7.128999233245849609e-01 -1.958340406417846680e-03
-1.764893531799316406e-03 -6.301032304763793945e-01 4.398041665554046631e-01
1.703683882951736450e-01 -5.427708029747009277e-01 1.458835303783416748e-01
-6.223508715629577637e-02 -6.263313889503479004e-01 -1.379010975360870361e-01
-2.420746386051177979e-01 -5.682665705680847168e-01 -1.912169456481933594e-01
-6.914853304624557495e-02 -6.152528524398803711e-01 4.494145512580871582e-01
-3.795788884162902832e-01 -6.996440291404724121e-01 4.706659913063049316e-01
-1.176192015409469604e-01 -6.977856755256652832e-01 -3.168262541294097900e-02
-3.940554857254028320e-01 -5.928167104721069336e-01 -9.197908639907836914e-02
-3.096094131469726562e-01 -5.280824303627014160e-01 2.173303067684173584e-01
1.630287915468215942e-01 -6.150141358375549316e-01 6.943467259407043457e-02
-1.663845777511596680e-02 -4.503287076950073242e-01 -6.320357322692871094e-02
-2.209840714931488037e-01 -4.922749102115631104e-01 -1.634298264980316162e-01
1.652194112539291382e-01 -5.202444791793823242e-01 8.058041334152221680e-02
-1.178495362401008606e-01 -4.824084043502807617e-01 1.723058670759201050e-01
-4.281929135322570801e-01 -7.416871786117553711e-01 1.298701465129852295e-01
-1.794053465127944946e-01 -6.804795861244201660e-01 -7.824876904487609863e-02
-2.764422297477722168e-01 -6.068677306175231934e-01 -1.596765220165252686e-01
-2.860598862171173096e-01 -4.991467595100402832e-01 1.236380934715270996e-01
-9.035388380289077759e-02 -7.017666101455688477e-01 -1.229465007781982422e-02
1.097575873136520386e-01 -5.918523073196411133e-01 3.221014440059661865e-01
-3.008887171745300293e-01 -6.261575818061828613e-01 -1.349290609359741211e-01
-1.697877347469329834e-01 -7.879374027252197266e-01 2.558324038982391357e-01
-4.628224968910217285e-01 -6.293346881866455078e-01 2.969221174716949463e-01
1.095828264951705933e-01 -5.588561892509460449e-01 2.789983749389648438e-01
-1.894797533750534058e-01 -5.403918027877807617e-01 -2.096936404705047607e-01
-2.366164475679397583e-01 -8.012640476226806641e-01 3.746243119239807129e-01
-3.080267906188964844e-01 -7.607256174087524414e-01 1.144662201404571533e-01
-1.149998456239700317e-01 -6.600529551506042480e-01 -1.025340855121612549e-01
-3.045778870582580566e-01 -4.926269650459289551e-01 2.145887911319732666e-02
1.648260504007339478e-01 -5.357136726379394531e-01 -1.713129878044128418e-02
-1.318185329437255859e-01 -4.685835838317871094e-01 1.080056875944137573e-01
-2.097925841808319092e-01 -7.284979820251464844e-01 1.965971291065216064e-02
-4.668202400207519531e-01 -7.088125944137573242e-01 9.767404943704605103e-02
1.138390749692916870e-01 -6.587197184562683105e-01 7.523009926080703735e-02
-3.601894378662109375e-01 -5.458993315696716309e-01 -1.067114770412445068e-01
1.033970564603805542e-01 -6.900118589401245117e-01 1.889024525880813599e-01
-2.656191587448120117e-03 -5.755700469017028809e-01 3.782305717468261719e-01
9.217351675033569336e-03 -5.474790334701538086e-01 3.268046975135803223e-01
-4.911969304084777832e-01 -7.159947752952575684e-01 3.375461101531982422e-01
1.448592692613601685e-01 -5.258947014808654785e-01 1.633338332176208496e-01
-3.741834461688995361e-01 -5.874441862106323242e-01 3.200324475765228271e-01
-4.075616002082824707e-01 -7.840808033943176270e-01 3.160065412521362305e-01
1.511169224977493286e-01 -5.557311177253723145e-01 2.178122103214263916e-01
-7.823407649993896484e-03 -4.973441660404205322e-01 2.156871110200881958e-01
-3.891015052795410156e-02 -4.526672959327697754e-01 -1.051546335220336914e-01
8.495953679084777832e-02 -5.071489810943603516e-01 1.900001913309097290e-01
-1.112063080072402954e-01 -6.327141523361206055e-01 4.751722216606140137e-01
-3.367933034896850586e-01 -6.059909462928771973e-01 3.872513771057128906e-01
-1.044173091650009155e-01 -7.591863274574279785e-01 1.560861468315124512e-01
5.400742590427398682e-02 -5.120691657066345215e-01 2.272154688835144043e-01
4.059860110282897949e-02 -5.131675601005554199e-01 2.380133271217346191e-01
-3.078956604003906250e-01 -5.070381760597229004e-01 1.316038370132446289e-01
-4.767667651176452637e-01 -6.179642677307128906e-01 3.443206101655960083e-02
-2.203654497861862183e-01 -6.521395444869995117e-01 -1.229288578033447266e-01
-1.459480971097946167e-01 -7.229858636856079102e-01 5.217514038085937500e-01
-1.473930180072784424e-01 -7.897060513496398926e-01 3.903487920761108398e-01
-7.871379703283309937e-02 -4.524699747562408447e-01 2.181276679039001465e-02
5.682523548603057861e-02 -7.150065302848815918e-01 3.499611020088195801e-01
-1.783960312604904175e-01 -5.682998895645141602e-01 3.825570940971374512e-01
1.249200254678726196e-01 -6.713768243789672852e-01 1.606089919805526733e-01
1.349043697118759155e-01 -5.818800330162048340e-01 -4.792650043964385986e-02
-2.729757428169250488e-01 -7.963433861732482910e-01 4.322966635227203369e-01
-4.524272084236145020e-01 -6.186395883560180664e-01 -1.579999923706054688e-02
-1.968780457973480225e-01 -4.747575521469116211e-01 -1.381472051143646240e-01
-3.461383581161499023e-01 -7.245959639549255371e-01 3.133290261030197144e-02
1.583269685506820679e-01 -6.110016703605651855e-01 2.560012936592102051e-01
-3.952509760856628418e-01 -6.589981913566589355e-01 -5.005122721195220947e-02
-1.953296661376953125e-01 -7.383924126625061035e-01 4.726664721965789795e-02
-3.375685811042785645e-01 -5.319614410400390625e-01 1.989304721355438232e-01
-4.678604602813720703e-01 -5.942769646644592285e-01 1.757205426692962646e-01
-1.745948642492294312e-01 -7.495686411857604980e-01 5.153601765632629395e-01
-2.426972091197967529e-01 -4.939322173595428467e-01 -1.496112346649169922e-01
-4.962591528892517090e-01 -6.219123005867004395e-01 1.134700477123260498e-01
-2.352880537509918213e-01 -7.619702816009521484e-01 1.129368841648101807e-01
-1.889560967683792114e-01 -7.628213167190551758e-01 1.248372942209243774e-01
3.129751980304718018e-02 -6.807456612586975098e-01 4.340608417987823486e-01
-1.726264059543609619e-01 -4.663652479648590088e-01 6.796927005052566528e-02
-3.898192942142486572e-02 -5.957100391387939453e-01 4.182575047016143799e-01
-3.260710239410400391e-01 -5.818645358085632324e-01 3.477286994457244873e-01
-7.793013006448745728e-02 -6.498742699623107910e-01 4.834226965904235840e-01
-2.211103737354278564e-01 -7.993679046630859375e-01 3.927936851978302002e-01
-3.802952170372009277e-01 -7.283273935317993164e-01 4.787946343421936035e-01
-2.357890903949737549e-01 -7.930356860160827637e-01 2.515391707420349121e-01
-8.241771161556243896e-02 -5.176858305931091309e-01 2.819088101387023926e-01
-1.247319132089614868e-01 -7.855564951896667480e-01 3.039382696151733398e-01
-4.790173470973968506e-02 -4.863945245742797852e-01 1.899426579475402832e-01
-2.746179401874542236e-01 -7.141680717468261719e-01 -1.100784540176391602e-02
1.373496651649475098e-02 -5.960965156555175781e-01 3.985327482223510742e-01
-2.237790822982788086e-01 -5.456632375717163086e-01 -2.004914283752441406e-01
-2.992956340312957764e-02 -6.041616201400756836e-01 -1.537520587444305420e-01
2.082185447216033936e-02 -5.545756816864013672e-01 -1.742788255214691162e-01
-4.462097287178039551e-01 -5.843453407287597656e-01 -6.117850542068481445e-03
-8.717536926269531250e-03 -7.361202239990234375e-01 1.618991345167160034e-01
-1.342531293630599976e-01 -7.755349874496459961e-01 4.536280333995819092e-01
-3.248535394668579102e-01 -6.706717014312744141e-01 -7.375295460224151611e-02
-2.557524442672729492e-01 -7.428584098815917969e-01 5.533736199140548706e-02
6.889995932579040527e-02 -6.404983997344970703e-01 3.965204954147338867e-01
-5.039604008197784424e-02 -7.601585388183593750e-01 2.277295291423797607e-01
3.493855893611907959e-02 -4.730008244514465332e-01 -1.373320519924163818e-01
1.143162697553634644e-01 -4.807944297790527344e-01 1.468631625175476074e-02
-2.886619865894317627e-01 -7.990669012069702148e-01 2.956457734107971191e-01
-4.445569515228271484e-01 -5.748842358589172363e-01 1.642524152994155884e-01
-4.366305470466613770e-01 -6.167136430740356445e-01 3.115829825401306152e-01
-2.389115840196609497e-01 -7.500146031379699707e-01 7.537981122732162476e-02
7.034800946712493896e-02 -5.144836902618408203e-01 2.220324575901031494e-01
-3.595018982887268066e-01 -7.827053666114807129e-01 4.410348832607269287e-01
-4.105849266052246094e-01 -7.794804573059082031e-01 3.833870887756347656e-01
-4.354878664016723633e-01 -5.992492437362670898e-01 2.715352475643157959e-01
-3.834508061408996582e-01 -7.729219198226928711e-01 1.963326930999755859e-01
-1.385044008493423462e-01 -7.030060291290283203e-01 5.208566784858703613e-01
-2.066419720649719238e-01 -4.970537722110748291e-01 1.899671703577041626e-01
1.710734218358993530e-01 -5.253644585609436035e-01 3.448090702295303345e-02
7.009238004684448242e-02 -5.463088750839233398e-01 2.914156317710876465e-01
-2.661544084548950195e-01 -6.134245395660400391e-01 4.344225525856018066e-01
-3.982293605804443359e-01 -6.546700596809387207e-01 4.158313572406768799e-01
-3.479060232639312744e-01 -5.635083317756652832e-01 2.865384817123413086e-01
-3.063165545463562012e-01 -7.664983868598937988e-01 1.331574171781539917e-01
-5.101692080497741699e-01 -6.586764454841613770e-01 1.374474763870239258e-01
-7.654133439064025879e-02 -5.856462717056274414e-01 4.126102030277252197e-01
-2.035971283912658691e-01 -6.749823689460754395e-01 -8.890292048454284668e-02
-3.186253309249877930e-01 -7.779315114021301270e-01 1.797106117010116577e-01
-4.382342100143432617e-01 -7.105090022087097168e-01 6.542235612869262695e-02
-1.926377713680267334e-01 -7.973650693893432617e-01 3.315821290016174316e-01
-2.865921854972839355e-01 -7.286991477012634277e-01 2.314826846122741699e-02
3.787289559841156006e-02 -6.794142127037048340e-01 2.396762371063232422e-02
7.524590194225311279e-02 -5.266858339309692383e-01 -1.482546925544738770e-01
-6.066863983869552612e-02 -7.363650202751159668e-01 1.038174331188201904e-01
6.779029965400695801e-03 -6.926950812339782715e-01 2.863022685050964355e-02
-3.067887723445892334e-01 -7.978837490081787109e-01 4.122318923473358154e-01
-2.114293277263641357e-01 -7.842644453048706055e-01 2.084236294031143188e-01
8.924503624439239502e-02 -5.974467992782592773e-01 -8.348691463470458984e-02
-1.829999238252639771e-01 -7.735461592674255371e-01 1.691741496324539185e-01
1.490768641233444214e-01 -5.984679460525512695e-01 2.717009782791137695e-01
-1.857279688119888306e-01 -6.626326441764831543e-01 5.052965879440307617e-01
-3.075119256973266602e-01 -8.011949062347412109e-01 3.434465527534484863e-01
-2.800174355506896973e-01 -5.344117283821105957e-01 2.628032565116882324e-01
-1.375657320022583008e-02 -4.901635646820068359e-01 -1.874940097332000732e-01
1.176629513502120972e-01 -4.858000874519348145e-01 -4.724352061748504639e-02
5.596412718296051025e-02 -4.948613941669464111e-01 1.765757501125335693e-01
-2.615586519241333008e-01 -7.472600340843200684e-01 5.208117961883544922e-01
1.047551780939102173e-01 -5.159437656402587891e-01 -1.178636550903320312e-01
9.732790291309356689e-02 -5.917066335678100586e-01 3.348948955535888672e-01
-2.631920874118804932e-01 -5.223425626754760742e-01 2.385044395923614502e-01
-2.927684783935546875e-01 -6.523082256317138672e-01 4.745625555515289307e-01
3.227289021015167236e-02 -7.315964102745056152e-01 2.286852747201919556e-01
1.329423338174819946e-01 -6.474269032478332520e-01 8.208131790161132812e-02
-1.612918674945831299e-01 -5.933691263198852539e-01 -1.894557774066925049e-01
-2.750483751296997070e-01 -4.821892976760864258e-01 -2.238872647285461426e-02
4.070311784744262695e-02 -6.674479842185974121e-01 -2.786979079246520996e-03
-3.971072435379028320e-01 -6.395148634910583496e-01 3.960459232330322266e-01
-3.854733705520629883e-01 -7.621874809265136719e-01 4.582751691341400146e-01
-4.703091382980346680e-01 -6.462925076484680176e-01 2.193869650363922119e-02
1.181220561265945435e-01 -6.026605367660522461e-01 -4.276956617832183838e-02
-3.038120269775390625e-01 -6.383084058761596680e-01 -1.217810213565826416e-01
-4.578830003738403320e-01 -5.814636945724487305e-01 1.464921981096267700e-01
-3.387824892997741699e-01 -6.842547655105590820e-01 4.840871393680572510e-01
-2.502463459968566895e-01 -5.762038230895996094e-01 3.770656585693359375e-01
-3.623740077018737793e-01 -6.390852928161621094e-01 -9.285804629325866699e-02
-1.640907078981399536e-01 -4.761604666709899902e-01 1.286517381668090820e-01
-2.047869712114334106e-01 -6.746495962142944336e-01 5.130723714828491211e-01
-2.794466018676757812e-01 -6.949278116226196289e-01 5.131152272224426270e-01
-1.166895106434822083e-01 -5.935378670692443848e-01 4.280489683151245117e-01
-3.310201764106750488e-01 -5.022245645523071289e-01 4.426464438438415527e-03
-1.319648325443267822e-02 -6.003574132919311523e-01 -1.508914828300476074e-01
-1.500919610261917114e-01 -7.855052947998046875e-01 2.582544088363647461e-01
-1.728907227516174316e-01 -7.153632640838623047e-01 5.271613597869873047e-01
-2.689066231250762939e-01 -8.014678955078125000e-01 3.246628642082214355e-01
-2.750968337059020996e-01 -5.747193098068237305e-01 -1.770949959754943848e-01
-1.275328397750854492e-01 -6.555387377738952637e-01 -1.125321686267852783e-01
-1.366583108901977539e-01 -7.884231209754943848e-01 3.785486817359924316e-01
-4.784820079803466797e-01 -7.488640546798706055e-01 2.743885517120361328e-01
-3.228526711463928223e-01 -7.109739184379577637e-01 -6.034538149833679199e-03
-4.751493334770202637e-01 -7.035135030746459961e-01 3.712019324302673340e-01
7.420724630355834961e-02 -4.654193520545959473e-01 -1.378993690013885498e-02
1.428101211786270142e-01 -6.601724624633789062e-01 2.122646123170852661e-01
-2.647472918033599854e-01 -6.582777500152587891e-01 4.896410405635833740e-01
-1.093821376562118530e-01 -5.492344498634338379e-01 3.523536324501037598e-01
-1.491624116897583008e-01 -4.549292922019958496e-01 -6.191824376583099365e-02
1.729986220598220825e-01 -6.174153685569763184e-01 1.904614567756652832e-01
-2.171044498682022095e-01 -7.755011916160583496e-01 1.661653369665145874e-01
-2.864429652690887451e-01 -7.912646532058715820e-01 4.522361457347869873e-01
-1.913199871778488159e-01 -7.959820628166198730e-01 3.978991508483886719e-01
-9.286215901374816895e-02 -7.492225766181945801e-01 4.801446497440338135e-01
-1.990019828081130981e-01 -4.768018722534179688e-01 1.065836250782012939e-01
-2.038759589195251465e-01 -4.722855091094970703e-01 7.428421080112457275e-02
-2.189574539661407471e-01 -4.680311679840087891e-01 3.981113433837890625e-03
1.338786929845809937e-01 -6.522680521011352539e-01 2.942048907279968262e-01
5.044333636760711670e-02 -7.030856013298034668e-01 3.931387662887573242e-01
-2.915784716606140137e-03 -5.303199887275695801e-01 2.968746721744537354e-01
-3.817545175552368164e-01 -6.207298040390014648e-01 3.792917430400848389e-01
1.287768036127090454e-01 -6.732254028320312500e-01 2.090164422988891602e-01
-1.891195774078369141e-01 -7.958823442459106445e-01 3.110960125923156738e-01
1.371225565671920776e-01 -6.097232699394226074e-01 -2.025038003921508789e-03
-3.563307523727416992e-01 -7.955303788185119629e-01 3.694102764129638672e-01
6.529098749160766602e-02 -6.410869359970092773e-01 -3.528335690498352051e-02
-2.256977260112762451e-01 -5.896278023719787598e-01 4.095441401004791260e-01
-4.265866875648498535e-01 -7.657018899917602539e-01 2.152368724346160889e-01
7.120876014232635498e-02 -5.981735587120056152e-01 -9.931477904319763184e-02
-5.014520287513732910e-01 -7.230762243270874023e-01 2.827968299388885498e-01
-1.999452412128448486e-01 -4.641280174255371094e-01 -6.897272169589996338e-02
-4.026924818754196167e-02 -7.427370548248291016e-01 1.490660607814788818e-01
-1.397028714418411255e-01 -4.709399938583374023e-01 -1.620326340198516846e-01
-2.759673595428466797e-01 -7.933140993118286133e-01 2.484618723392486572e-01
-3.802141547203063965e-02 -4.552889466285705566e-01 -1.205372512340545654e-01
-1.065786182880401611e-02 -4.681452214717864990e-01 1.109655126929283142e-01
-2.581694722175598145e-01 -7.921907901763916016e-01 2.417288720607757568e-01
-1.670024693012237549e-01 -4.616276621818542480e-01 3.717946261167526245e-02
-1.780411601066589355e-02 -6.660860180854797363e-01 -5.129623413085937500e-02
1.654485315084457397e-01 -6.085705757141113281e-01 2.358501851558685303e-01
-4.406082034111022949e-01 -7.716985344886779785e-01 3.021779060363769531e-01
-6.467004120349884033e-02 -6.950856447219848633e-01 -1.542733609676361084e-02
-3.993216156959533691e-01 -6.853858828544616699e-01 -1.193232834339141846e-02
-3.326067328453063965e-01 -7.322519421577453613e-01 4.367353022098541260e-02
-8.299235999584197998e-02 -6.233497858047485352e-01 4.610638320446014404e-01
-3.781356215476989746e-01 -6.253587007522583008e-01 -9.355984628200531006e-02
-2.441570162773132324e-03 -6.073790788650512695e-01 -1.372923254966735840e-01
-2.010064125061035156e-01 -7.856770753860473633e-01 2.203552424907684326e-01
-3.829650580883026123e-01 -6.465585827827453613e-01 -7.216757535934448242e-02
-3.683840334415435791e-01 -6.986254453659057617e-01 -9.573087096214294434e-03
-3.772126138210296631e-01 -5.238524079322814941e-01 1.224721968173980713e-02
1.397361904382705688e-01 -5.113713741302490234e-01 1.275036931037902832e-01
-1.615456789731979370e-01 -5.523261427879333496e-01 -2.121684551239013672e-01
-1.903742551803588867e-01 -7.138324975967407227e-01 5.285544991493225098e-01
4.585342109203338623e-02 -4.712833166122436523e-01 -1.232535541057586670e-01
-3.372784256935119629e-01 -5.754841566085815430e-01 3.253178000450134277e-01
-4.544222354888916016e-01 -6.920533180236816406e-01 5.047199875116348267e-02
7.962048053741455078e-02 -6.867083311080932617e-01 3.675091564655303955e-01
1.502643972635269165e-01 -5.056631565093994141e-01 6.704823672771453857e-02
-1.132401823997497559e-02 -5.807635784149169922e-01 -1.700452864170074463e-01
9.338892996311187744e-02 -4.746426045894622803e-01 3.818608820438385010e-02
-4.561221599578857422e-01 -6.006101369857788086e-01 -2.332448959350585938e-03
-2.465242445468902588e-01 -4.746312499046325684e-01 6.491139531135559082e-03
-1.815294772386550903e-01 -5.262281894683837891e-01 2.896995246410369873e-01
-2.080629020929336548e-01 -5.282299518585205078e-01 2.855590283870697021e-01
1.021083742380142212e-01 -6.857723593711853027e-01 1.557137668132781982e-01
2.784100174903869629e-02 -5.032640695571899414e-01 2.183847725391387939e-01
-1.930226981639862061e-01 -7.806637287139892578e-01 1.976920068264007568e-01
-2.813794612884521484e-01 -8.023206591606140137e-01 3.610973358154296875e-01
-2.722465395927429199e-01 -7.989859580993652344e-01 2.926521003246307373e-01
-5.329444259405136108e-02 -5.900951027870178223e-01 4.144850671291351318e-01
-4.969131350517272949e-01 -7.005143165588378906e-01 1.397114843130111694e-01
-2.856746912002563477e-01 -7.873893380165100098e-01 2.154962569475173950e-01
-4.071101546287536621e-02 -4.489068984985351562e-01 -5.860330164432525635e-02
-3.324987292289733887e-01 -6.218900680541992188e-01 4.161826372146606445e-01
8.175241947174072266e-02 -6.663696169853210449e-01 3.818887472152709961e-01
-2.361469864845275879e-01 -5.351362228393554688e-01 2.911380529403686523e-01
-2.410627901554107666e-02 -4.525318145751953125e-01 1.700180768966674805e-02
-2.893480062484741211e-01 -7.104153633117675781e-01 -1.610659062862396240e-02
1.172676682472229004e-03 -4.537597894668579102e-01 1.044122874736785889e-02
-3.988658785820007324e-01 -6.262307763099670410e-01 -7.628661394119262695e-02
-2.978452444076538086e-01 -5.217757821083068848e-01 2.070585787296295166e-01
-7.391571998596191406e-04 -5.638908743858337402e-01 3.593149185180664062e-01
-1.164811477065086365e-01 -4.691921472549438477e-01 1.168294250965118408e-01
-1.446941941976547241e-01 -7.664172649383544922e-01 1.583876013755798340e-01
-1.565019786357879639e-02 -7.120373249053955078e-01 6.359273940324783325e-02
1.246883124113082886e-01 -5.414158105850219727e-01 2.303629815578460693e-01
2.317059040069580078e-02 -4.543009996414184570e-01 -3.184096515178680420e-02
-2.535583078861236572e-02 -5.117028355598449707e-01 -2.023760378360748291e-01
-6.004740297794342041e-02 -7.071682810783386230e-01 1.667487621307373047e-02
-2.874186038970947266e-01 -6.828611493110656738e-01 -6.669513881206512451e-02
-2.813934385776519775e-01 -6.800448894500732422e-01 5.033053159713745117e-01
-9.947951883077621460e-02 -6.857643127441406250e-01 -5.076280236244201660e-02
-9.413954615592956543e-02 -6.443919539451599121e-01 -1.218419075012207031e-01
-1.955727487802505493e-01 -5.031316280364990234e-01 2.171538174152374268e-01
-3.307987451553344727e-01 -6.489876508712768555e-01 -9.909164905548095703e-02
-2.431412339210510254e-01 -4.758469462394714355e-01 3.581274300813674927e-02
8.112652599811553955e-02 -5.429525375366210938e-01 2.768054008483886719e-01
-1.297497153282165527e-01 -6.926564574241638184e-01 -4.613113403320312500e-02
-2.775772213935852051e-01 -5.393187999725341797e-01 2.783347964286804199e-01
-2.694933116436004639e-02 -7.589032649993896484e-01 2.885325849056243896e-01
-2.107326686382293701e-02 -6.749527454376220703e-01 -3.498889505863189697e-02
-4.737099409103393555e-01 -6.502997279167175293e-01 3.174649775028228760e-01
-4.718187451362609863e-01 -6.148914694786071777e-01 2.416936755180358887e-01
-3.647420108318328857e-01 -5.206472873687744141e-01 8.351267129182815552e-02
-2.727109193801879883e-02 -5.146711468696594238e-01 2.675459384918212891e-01
-3.235611319541931152e-01 -5.909256935119628906e-01 -1.475669741630554199e-01
1.721919924020767212e-01 -6.153705120086669922e-01 1.107664704322814941e-01
-2.079253494739532471e-01 -7.276695370674133301e-01 5.289713740348815918e-01
-2.684599161148071289e-02 -5.536690354347229004e-01 -1.953453421592712402e-01
-2.084952592849731445e-02 -7.565037012100219727e-01 3.446254134178161621e-01
7.664932310581207275e-02 -5.716532468795776367e-01 3.279167413711547852e-01
-2.181600332260131836e-01 -7.688137888908386230e-01 1.394944936037063599e-01
1.170410960912704468e-01 -6.735662221908569336e-01 3.025278747081756592e-01
-6.990121304988861084e-02 -4.920128285884857178e-01 2.097788006067276001e-01
-4.155068993568420410e-01 -6.577538251876831055e-01 -3.494338691234588623e-02
-3.128234148025512695e-01 -7.394093275070190430e-01 5.509232729673385620e-02
-6.248712539672851562e-03 -7.472004294395446777e-01 2.343147695064544678e-01
-1.559995412826538086e-01 -7.431780099868774414e-01 7.114769518375396729e-02
1.034413725137710571e-01 -4.993862509727478027e-01 1.454591006040573120e-01
-4.122352004051208496e-01 -5.839933753013610840e-01 2.659658193588256836e-01
-5.171162635087966919e-02 -5.877864956855773926e-01 -1.784768402576446533e-01
-1.251140236854553223e-01 -5.245831012725830078e-01 -2.170350551605224609e-01
9.539799392223358154e-02 -6.063770651817321777e-01 3.506264090538024902e-01
-4.935244917869567871e-01 -6.377479434013366699e-01 2.440454661846160889e-01
3.416340053081512451e-02 -7.163242101669311523e-01 1.419651061296463013e-01
-3.025658428668975830e-02 -7.323154807090759277e-01 1.180867552757263184e-01
-1.304085701704025269e-01 -6.152207255363464355e-01 4.574799835681915283e-01
-3.498162031173706055e-01 -5.142425894737243652e-01 -4.219160974025726318e-02
-1.676509529352188110e-01 -5.058580636978149414e-01 2.371467947959899902e-01
-2.410499602556228638e-01 -8.011148571968078613e-01 3.313544988632202148e-01
2.914166450500488281e-02 -4.797810912132263184e-01 1.411876976490020752e-01
-3.079143762588500977e-01 -6.781992316246032715e-01 4.929719567298889160e-01
1.500240117311477661e-01 -6.366851925849914551e-01 9.457102417945861816e-02
-3.737115859985351562e-01 -7.924710512161254883e-01 3.629352748394012451e-01
-1.047703623771667480e-01 -6.776549220085144043e-01 -6.848740577697753906e-02
-2.173483967781066895e-01 -5.210013985633850098e-01 2.616402506828308105e-01
-8.829147368669509888e-02 -6.338607072830200195e-01 4.725238680839538574e-01
-4.376277923583984375e-01 -5.652714967727661133e-01 1.939964294433593750e-02
-4.677556157112121582e-01 -6.617246866226196289e-01 3.451666235923767090e-01
5.590929090976715088e-02 -4.758673906326293945e-01 1.043752357363700867e-01
-1.898763626813888550e-01 -4.685842990875244141e-01 -1.200081408023834229e-01
-2.297140806913375854e-01 -6.847732067108154297e-01 -7.167160511016845703e-02
-2.047375142574310303e-01 -7.968101501464843750e-01 3.023843765258789062e-01
-6.746705621480941772e-02 -7.708656787872314453e-01 3.740039467811584473e-01
-3.779576420783996582e-01 -7.501268982887268066e-01 1.123046576976776123e-01
-3.739826679229736328e-01 -7.833157777786254883e-01 4.250617921352386475e-01
-2.595201134681701660e-01 -7.034088969230651855e-01 -3.479842841625213623e-02
-2.624335885047912598e-01 -8.016068339347839355e-01 3.864485621452331543e-01
-2.862245142459869385e-01 -5.863320827484130859e-01 3.803430795669555664e-01
-4.329134821891784668e-01 -5.664165616035461426e-01 -3.302380442619323730e-03
-4.011735916137695312e-01 -7.844045758247375488e-01 2.925431728363037109e-01
-4.480295181274414062e-01 -7.101263403892517090e-01 4.132238328456878662e-01
-4.649320989847183228e-02 -4.486048519611358643e-01 -4.315914213657379150e-02
-2.117006778717041016e-01 -5.395357012748718262e-01 3.126442432403564453e-01
-2.099979221820831299e-01 -6.462470293045043945e-01 4.886765778064727783e-01
9.099666774272918701e-02 -6.787266135215759277e-01 9.722202271223068237e-02
1.081858426332473755e-01 -6.286679506301879883e-01 -9.769275784492492676e-03
-5.006361007690429688e-01 -7.240438461303710938e-01 2.318120896816253662e-01
4.841637611389160156e-02 -5.259066820144653320e-01 2.638686895370483398e-01
-4.968467354774475098e-01 -7.310930490493774414e-01 2.609468400478363037e-01
-3.127841353416442871e-01 -4.979581236839294434e-01 5.746874213218688965e-02
-4.256262183189392090e-01 -7.573668360710144043e-01 4.217970073223114014e-01
6.436894834041595459e-02 -6.897651553153991699e-01 3.891810774803161621e-01
-1.166321039199829102e-01 -4.526226520538330078e-01 -8.597847819328308105e-02
-2.194271981716156006e-02 -6.828817129135131836e-01 -1.805898547172546387e-02
1.291158795356750488e-02 -6.556132435798645020e-01 -5.149909853935241699e-02
4.317224025726318359e-02 -7.226474881172180176e-01 1.958064138889312744e-01
2.084474265575408936e-02 -7.359603047370910645e-01 3.570961654186248779e-01
-3.395426869392395020e-01 -7.152888774871826172e-01 8.749321103096008301e-03
-1.285130381584167480e-01 -5.817039608955383301e-01 4.103041291236877441e-01
-9.063795208930969238e-03 -6.260392665863037109e-01 -1.154325008392333984e-01
-3.634673357009887695e-02 -6.860073804855346680e-01 4.822726547718048096e-01
-4.140610694885253906e-01 -6.920875906944274902e-01 9.985759854316711426e-03
3.050841391086578369e-02 -4.652545750141143799e-01 -1.192589700222015381e-01
-4.332147240638732910e-01 -6.071696877479553223e-01 2.949685752391815186e-01
-3.029717803001403809e-01 -5.015891194343566895e-01 1.094567626714706421e-01
-6.545990705490112305e-03 -5.081015825271606445e-01 2.451783120632171631e-01
-4.056077301502227783e-01 -5.670018196105957031e-01 -6.504082679748535156e-02
-2.870330214500427246e-01 -6.259699463844299316e-01 4.444535672664642334e-01
1.788844168186187744e-02 -7.217590212821960449e-01 4.107631444931030273e-01
-2.327657192945480347e-01 -7.389411926269531250e-01 4.483799636363983154e-02
8.365124464035034180e-02 -4.751867353916168213e-01 6.453402340412139893e-02
1.355244368314743042e-01 -6.601985096931457520e-01 2.716943323612213135e-01
-2.781412899494171143e-01 -6.078675389289855957e-01 4.213014245033264160e-01
-1.987598389387130737e-01 -4.641950726509094238e-01 7.718026638031005859e-03
5.057118833065032959e-02 -5.126821994781494141e-01 -1.659756004810333252e-01
-1.814234703779220581e-01 -4.764052629470825195e-01 1.187141090631484985e-01
-3.345946073532104492e-01 -7.677748203277587891e-01 1.465882509946823120e-01
-2.000645697116851807e-01 -5.518457889556884766e-01 -2.063695788383483887e-01
-3.213695883750915527e-01 -6.015357971191406250e-01 3.890048265457153320e-01
1.856629699468612671e-01 -5.610804557800292969e-01 8.047963678836822510e-02
-4.431771636009216309e-01 -5.703872442245483398e-01 1.430361270904541016e-01
-3.649820685386657715e-01 -5.981602072715759277e-01 3.514151573181152344e-01
1.200767904520034790e-01 -5.676977634429931641e-01 -8.291973173618316650e-02
-3.040086925029754639e-01 -6.093438863754272461e-01 -1.473317444324493408e-01
-2.280444204807281494e-01 -7.372086644172668457e-01 5.270437002182006836e-01
-2.573357820510864258e-01 -5.318259596824645996e-01 2.705528140068054199e-01
-3.408657610416412354e-01 -7.746605873107910156e-01 4.713010191917419434e-01
1.525978595018386841e-01 -5.990116596221923828e-01 8.030220866203308105e-03
-3.803102672100067139e-01 -5.382745265960693359e-01 1.542139351367950439e-01
6.412675976753234863e-02 -6.757689714431762695e-01 4.004783034324645996e-01
-7.408738136291503906e-02 -7.741786837577819824e-01 3.105672597885131836e-01
-1.352373510599136353e-01 -5.690820217132568359e-01 -2.059662640094757080e-01
-9.750131517648696899e-02 -5.763789415359497070e-01 -1.981148719787597656e-01
-2.307888716459274292e-01 -4.706494510173797607e-01 -5.638186633586883545e-02
-5.014207959175109863e-01 -6.805912852287292480e-01 1.185132563114166260e-01
-2.512632012367248535e-01 -7.664738297462463379e-01 5.065485239028930664e-01
1.014013737440109253e-01 -6.943693161010742188e-01 2.685076594352722168e-01
-2.285164594650268555e-02 -4.495394229888916016e-01 -3.893823921680450439e-02
7.302762567996978760e-02 -6.164430975914001465e-01 3.795024156570434570e-01
8.529941737651824951e-02 -5.174338817596435547e-01 -1.388265788555145264e-01
-4.510436207056045532e-02 -5.566704869270324707e-01 3.599203824996948242e-01
-4.103488326072692871e-01 -7.395447492599487305e-01 1.066814363002777100e-01
-5.099828839302062988e-01 -7.094916701316833496e-01 2.395060062408447266e-01
2.833439409732818604e-02 -4.894733428955078125e-01 1.763111352920532227e-01
-4.801572561264038086e-01 -6.628578305244445801e-01 3.251059055328369141e-01
-5.444957315921783447e-02 -6.868998408317565918e-01 4.914026260375976562e-01
-4.529581069946289062e-01 -6.065454483032226562e-01 2.598857879638671875e-01
1.266663521528244019e-01 -5.828740000724792480e-01 2.922870814800262451e-01
-4.967387318611145020e-01 -6.282176375389099121e-01 9.585449099540710449e-02
-2.583643794059753418e-01 -5.373690128326416016e-01 2.851177453994750977e-01
-3.611052632331848145e-01 -7.374177575111389160e-01 6.847151368856430054e-02
-5.065992474555969238e-01 -6.923332810401916504e-01 1.543544381856918335e-01
-2.364905476570129395e-01 -6.615988016128540039e-01 -1.081004142761230469e-01
-4.201403856277465820e-01 -5.573603510856628418e-01 -1.485191285610198975e-02
-2.073154747486114502e-01 -6.932829618453979492e-01 5.232219099998474121e-01
-3.042398095130920410e-01 -7.954296469688415527e-01 2.687990665435791016e-01
-1.903252303600311279e-02 -4.621619582176208496e-01 -1.412496268749237061e-01
