-1.190526559948921204e-01 -2.627911567687988281e-01 -2.472653985023498535e-01
-7.670415192842483521e-02 -1.460231691598892212e-01 9.757648408412933350e-02
-2.499056458473205566e-01 -2.012241482734680176e-01 1.904923766851425171e-01
-2.694414556026458740e-01 -9.568324685096740723e-02 -3.310537338256835938e-02
-3.070179373025894165e-02 -1.443006694316864014e-01 -8.290559053421020508e-03
-4.673848301172256470e-02 -5.121557414531707764e-02 -3.460047245025634766e-01
-2.594522237777709961e-01 -1.292032748460769653e-01 -4.164965748786926270e-01
-1.904608458280563354e-01 -4.035180062055587769e-02 -3.800703287124633789e-01
-2.441424876451492310e-01 -2.705958783626556396e-01 1.459561288356781006e-02
-1.335658878087997437e-01 -2.734148502349853516e-01 -1.836951225996017456e-01
-2.612513601779937744e-01 -2.454608678817749023e-01 -1.911071240901947021e-01
-3.065048456192016602e-01 -2.052030563354492188e-01 2.771613001823425293e-02
-2.057458460330963135e-01 -1.367519199848175049e-01 1.640696674585342407e-01
-2.891242504119873047e-03 -1.218912228941917419e-01 -1.625743657350540161e-01
-1.206078678369522095e-01 -1.860227137804031372e-01 -5.045707225799560547e-01
-2.691061794757843018e-02 -2.137565016746520996e-01 -2.824371457099914551e-01
-1.623450666666030884e-01 -1.362479925155639648e-01 1.644938439130783081e-01
-1.261255443096160889e-01 -1.932432353496551514e-01 1.906301528215408325e-01
-2.420888245105743408e-01 -2.416927665472030640e-01 -2.609695792198181152e-01
-5.124203860759735107e-02 -6.736251711845397949e-02 -1.519072949886322021e-01
-1.949836313724517822e-02 -7.944002002477645874e-02 -2.338318377733230591e-01
-4.423766583204269409e-02 -1.446443796157836914e-01 2.960489690303802490e-02
-2.638067007064819336e-01 -1.580854505300521851e-01 -3.952368795871734619e-01
-2.600126564502716064e-01 -8.660271018743515015e-02 -4.617914557456970215e-02
-1.364331096410751343e-01 -6.072875857353210449e-02 -4.451170563697814941e-02
-1.520188897848129272e-01 -3.046369552612304688e-02 -3.660736680030822754e-01
-1.786498427391052246e-01 -1.363940089941024780e-01 1.675774008035659790e-01
-2.289280891418457031e-01 -1.590224653482437134e-01 -4.648090600967407227e-01
-3.011391758918762207e-01 -1.750326156616210938e-01 -2.490749210119247437e-01
-2.507365345954895020e-01 -1.341130435466766357e-01 1.224574297666549683e-01
-1.681945323944091797e-01 -1.732460409402847290e-01 -5.134055614471435547e-01
-2.188476324081420898e-01 -1.870806813240051270e-01 -4.429038166999816895e-01
-2.787253558635711670e-01 -1.185974106192588806e-01 -3.496583104133605957e-01
-2.352837026119232178e-01 -2.735237181186676025e-01 -5.920133739709854126e-02
-1.949832737445831299e-01 -4.445683956146240234e-02 -1.569672524929046631e-01
-1.277127265930175781e-01 -2.962341904640197754e-02 -3.713542819023132324e-01
-1.000188440084457397e-01 -2.487080246210098267e-01 9.818895161151885986e-02
-9.889705479145050049e-02 -3.745716810226440430e-02 -4.325983524322509766e-01
-6.555868685245513916e-02 -2.341113686561584473e-01 -3.148093819618225098e-01
5.106702446937561035e-03 -1.466579884290695190e-01 -1.889263838529586792e-01
-7.489819079637527466e-02 -2.405540347099304199e-01 -3.032261729240417480e-01
-3.840951621532440186e-02 -1.714415550231933594e-01 -4.572449922561645508e-01
-1.503504067659378052e-01 -2.521990835666656494e-01 -3.158612251281738281e-01
-4.323063790798187256e-02 -9.180030971765518188e-02 -5.107512474060058594e-01
-2.070895284414291382e-01 -1.125292629003524780e-01 -5.153264999389648438e-01
-2.615532577037811279e-01 -2.544418573379516602e-01 8.457870781421661377e-02
-1.586717963218688965e-01 -1.556706279516220093e-01 -5.401968955993652344e-01
-9.679195284843444824e-02 -4.555049538612365723e-02 -4.774507880210876465e-01
-4.319015890359878540e-02 -2.033824026584625244e-01 -3.859888911247253418e-01
-1.725490391254425049e-02 -7.572627812623977661e-02 -3.424833416938781738e-01
-1.771632432937622070e-01 -1.061019152402877808e-01 1.080632060766220093e-01
-2.076268643140792847e-01 -2.632030844688415527e-01 1.445411592721939087e-01
-5.600210279226303101e-02 -7.839456945657730103e-02 -5.162140727043151855e-01
-2.223831564188003540e-01 -1.022450178861618042e-01 -4.863564968109130859e-01
-2.738167345523834229e-01 -1.470908820629119873e-01 1.074689477682113647e-01
-6.738495081663131714e-02 -1.473932266235351562e-01 8.271177113056182861e-02
-1.434472352266311646e-01 -2.822064161300659180e-01 -7.259625196456909180e-02
-1.710442006587982178e-01 -3.727740794420242310e-02 -4.047718942165374756e-01
-8.666516095399856567e-02 -1.942270994186401367e-01 1.396963447332382202e-01
-2.096388339996337891e-01 -4.446376115083694458e-02 -3.416248559951782227e-01
-2.735423743724822998e-01 -1.961498856544494629e-01 -3.162083625793457031e-01
-1.575810909271240234e-01 -1.141745150089263916e-01 1.231799870729446411e-01
-3.121858239173889160e-01 -1.891202330589294434e-01 2.560973167419433594e-03
-2.403202056884765625e-01 -2.666749060153961182e-01 -1.229422688484191895e-01
-4.873991757631301880e-02 -1.979646086692810059e-01 5.520004034042358398e-02
-1.395512968301773071e-01 -2.336027771234512329e-01 -3.865329623222351074e-01
-1.088005602359771729e-01 -2.402074933052062988e-01 -3.510242104530334473e-01
-4.407168179750442505e-02 -7.869813591241836548e-02 -1.236588582396507263e-01
-1.573592573404312134e-01 -5.828192085027694702e-02 -4.907783865928649902e-02
-7.207828760147094727e-02 -2.557937502861022949e-01 -1.787060201168060303e-01
-2.873091101646423340e-01 -2.301931679248809814e-01 -1.555571705102920532e-01
-2.547554671764373779e-02 -2.135387808084487915e-01 -7.221042364835739136e-02
-2.544526457786560059e-01 -2.223566174507141113e-01 -2.999357283115386963e-01
-1.869098246097564697e-01 -3.762535750865936279e-02 -2.132854163646697998e-01
-9.593434631824493408e-02 -9.364666789770126343e-02 2.808268368244171143e-02
-5.506935715675354004e-02 -9.408158063888549805e-02 -5.324960947036743164e-01
-1.943394392728805542e-01 -2.774232625961303711e-01 -1.412464082241058350e-01
-2.622139453887939453e-02 -1.623841673135757446e-01 -9.211421012878417969e-03
-2.441812753677368164e-01 -9.237194806337356567e-02 1.751463115215301514e-02
-2.542843520641326904e-01 -1.659796386957168579e-01 1.660031229257583618e-01
-5.283916741609573364e-02 -2.397965937852859497e-01 -2.359888404607772827e-01
-3.130160570144653320e-01 -1.947385966777801514e-01 -1.728573441505432129e-02
-3.932012617588043213e-02 -5.998271703720092773e-02 -4.071354269981384277e-01
-6.501851230859756470e-02 -2.206718325614929199e-01 7.447193562984466553e-02
-2.268885672092437744e-01 -5.644927173852920532e-02 -1.367139071226119995e-01
-6.652017682790756226e-02 -1.892443597316741943e-01 -4.646027088165283203e-01
-3.922387957572937012e-02 -2.208773791790008545e-01 -3.010286092758178711e-01
-3.317171335220336914e-02 -2.064184993505477905e-01 -3.460497558116912842e-01
-1.907411515712738037e-01 -1.911857575178146362e-01 -4.676316976547241211e-01
-2.918313145637512207e-01 -2.129534631967544556e-01 -2.058673948049545288e-01
-2.064361870288848877e-01 -1.590560823678970337e-01 -4.962958097457885742e-01
-2.866210341453552246e-01 -2.389359027147293091e-01 4.059725999832153320e-02
-2.501816153526306152e-01 -6.952687352895736694e-02 -3.337314426898956299e-01
-2.000254690647125244e-01 -7.050997018814086914e-02 -1.180434226989746094e-02
-2.567875385284423828e-01 -7.277802377939224243e-02 -3.151140213012695312e-01
-1.541046947240829468e-01 -2.825337648391723633e-01 8.142262697219848633e-03
-2.874029874801635742e-01 -2.417384237051010132e-01 -5.408862233161926270e-02
-8.442583680152893066e-02 -9.029473364353179932e-02 2.745091915130615234e-03
-1.373949199914932251e-01 -2.733869850635528564e-01 6.789612770080566406e-02
-1.232337579131126404e-01 -2.764818966388702393e-01 -1.277338713407516479e-01
-9.395739436149597168e-02 -1.355098038911819458e-01 -5.615723133087158203e-01
-1.892205625772476196e-01 -7.519986480474472046e-02 1.354974508285522461e-02
-3.093966543674468994e-01 -1.329026222229003906e-01 -1.578660309314727783e-01
-8.645486831665039062e-02 -7.005324959754943848e-02 -6.029473990201950073e-02
-1.766472905874252319e-01 -2.799159586429595947e-01 6.297969818115234375e-02
-1.131484806537628174e-01 -7.119094580411911011e-02 -2.155677974224090576e-02
-2.940083146095275879e-01 -1.704948991537094116e-01 -2.872878313064575195e-01
-2.015151977539062500e-01 -5.873332917690277100e-02 -6.944264471530914307e-02
-9.553966671228408813e-02 -2.200889289379119873e-01 -4.117535352706909180e-01
-1.035861670970916748e-02 -1.004579812288284302e-01 -1.837027519941329956e-01
-1.320149004459381104e-01 -1.331301033496856689e-01 -5.674924254417419434e-01
-1.850515902042388916e-01 -2.647504210472106934e-01 1.448258608579635620e-01
-2.146941423416137695e-01 -7.686722278594970703e-02 2.474933862686157227e-04
-1.569091081619262695e-01 -2.660810947418212891e-01 -2.457726895809173584e-01
-3.114019334316253662e-01 -1.873661726713180542e-01 -1.587532162666320801e-01
-2.307630777359008789e-01 -6.327430903911590576e-02 -9.648667275905609131e-02
-4.165624082088470459e-02 -2.071288824081420898e-01 2.271778881549835205e-02
-1.148234307765960693e-02 -1.697786152362823486e-01 -3.827628493309020996e-01
-2.794900834560394287e-01 -1.325859427452087402e-01 6.379622220993041992e-02
-1.894120573997497559e-01 -9.201502799987792969e-02 6.891611218452453613e-02
-2.922353744506835938e-01 -1.623930931091308594e-01 -3.021501004695892334e-01
-2.827648520469665527e-01 -1.993329226970672607e-01 -2.801787853240966797e-01
-2.074982225894927979e-02 -9.372279047966003418e-02 -4.523899555206298828e-01
-1.894699037075042725e-02 -1.777895689010620117e-01 -3.769636154174804688e-02
-5.902982503175735474e-02 -2.476253956556320190e-01 -5.049315094947814941e-02
-1.080693677067756653e-01 -1.659488677978515625e-01 1.599013954401016235e-01
-1.146420985460281372e-01 -2.170848399400711060e-01 1.717814654111862183e-01
-1.128353923559188843e-01 -1.647203117609024048e-01 -5.373068451881408691e-01
-2.028182148933410645e-01 -4.297015815973281860e-02 -1.931109726428985596e-01
-2.363799661397933960e-01 -2.461596429347991943e-01 1.652472168207168579e-01
-1.317085176706314087e-01 -4.225269705057144165e-02 -4.729008078575134277e-01
-2.914792895317077637e-01 -1.313818991184234619e-01 2.201278507709503174e-02
-2.142288684844970703e-01 -2.272563874721527100e-01 -3.579948246479034424e-01
-2.707499265670776367e-01 -2.559633255004882812e-01 -4.507525265216827393e-02
-2.965990900993347168e-01 -2.200453579425811768e-01 5.841913819313049316e-02
2.291649580001831055e-03 -1.595214605331420898e-01 -1.599721163511276245e-01
-2.381148338317871094e-01 -6.263784319162368774e-02 -3.532592654228210449e-01
-6.966249644756317139e-02 -4.544524103403091431e-02 -2.357488572597503662e-01
-2.735476195812225342e-01 -8.111062645912170410e-02 -1.834933459758758545e-01
-2.904937863349914551e-01 -1.170577406883239746e-01 -2.914053797721862793e-01
-2.201789915561676025e-01 -2.784251868724822998e-01 -5.374442785978317261e-02
-2.838813066482543945e-01 -1.404847502708435059e-01 -3.420121073722839355e-01
-5.946459621191024780e-02 -1.918387562036514282e-01 8.608718216419219971e-02
-1.412683874368667603e-01 -3.185648471117019653e-02 -2.315046489238739014e-01
-5.236763507127761841e-02 -2.414463162422180176e-01 -2.181041389703750610e-01
-7.868559658527374268e-02 -2.231208235025405884e-01 1.044470816850662231e-01
-1.236877739429473877e-01 -2.772477865219116211e-01 -8.533477783203125000e-03
-3.364484012126922607e-02 -2.195749282836914062e-01 -4.384233057498931885e-02
-2.027093619108200073e-01 -2.684752345085144043e-01 -1.990003436803817749e-01
-1.053508669137954712e-01 -2.630561590194702148e-01 -2.251091748476028442e-01
-2.825266122817993164e-01 -1.125410720705986023e-01 -8.072152733802795410e-03
-1.236250996589660645e-01 -7.560238242149353027e-02 3.076821565628051758e-03
-4.828400164842605591e-02 -1.714088171720504761e-01 -4.751897454261779785e-01
-2.009601294994354248e-01 -5.654504150152206421e-02 -4.433832764625549316e-01
-7.004287838935852051e-02 -2.479680776596069336e-01 1.030732691287994385e-02
-2.037982642650604248e-02 -1.957185566425323486e-01 -5.087293684482574463e-02
-3.004740476608276367e-01 -1.141376495361328125e-01 -1.731485277414321899e-01
-1.645883023738861084e-01 -4.837467521429061890e-02 -1.007252112030982971e-01
-2.111992835998535156e-01 -1.692447513341903687e-01 -4.789575934410095215e-01
-1.437818408012390137e-01 -4.139357060194015503e-02 -1.443659216165542603e-01
-2.235448360443115234e-02 -2.145371437072753906e-01 -1.052740886807441711e-01
-2.498736232519149780e-01 -6.898115575313568115e-02 -1.223511844873428345e-01
-1.037261039018630981e-01 -6.546589732170104980e-02 -5.363467335700988770e-02
-1.332987844944000244e-01 -1.031346023082733154e-01 8.725105226039886475e-02
-2.009463906288146973e-01 -2.808943986892700195e-01 -8.598522841930389404e-02
-9.030058979988098145e-02 -1.565979868173599243e-01 1.293786615133285522e-01
-2.677640616893768311e-01 -1.109337061643600464e-01 3.205543756484985352e-02
-8.995568007230758667e-02 -6.368194520473480225e-02 -8.031412214040756226e-02
-2.112184166908264160e-01 -2.754047811031341553e-01 7.957430183887481689e-02
-2.563096284866333008e-01 -8.009246736764907837e-02 -6.983314454555511475e-02
-1.486947536468505859e-01 -2.135268151760101318e-01 -4.436376094818115234e-01
-1.714719533920288086e-01 -2.474996149539947510e-01 -3.291462659835815430e-01
-8.696155995130538940e-02 -2.626560032367706299e-01 -1.415652036666870117e-02
-2.257957458496093750e-01 -8.911100775003433228e-02 -4.663804769515991211e-01
-2.965224385261535645e-01 -1.441794186830520630e-01 3.590394556522369385e-02
-1.790557503700256348e-01 -2.287203669548034668e-01 2.108121365308761597e-01
-1.690065115690231323e-01 -2.734483778476715088e-01 1.035099476575851440e-01
-1.275351494550704956e-01 -3.318897634744644165e-02 -2.226221412420272827e-01
-8.229503780603408813e-02 -2.619309425354003906e-01 -1.570109128952026367e-01
-1.099402010440826416e-01 -2.010327279567718506e-01 1.726151257753372192e-01
-4.781818389892578125e-02 -2.237367928028106689e-01 -3.170761764049530029e-01
-2.013608813285827637e-03 -1.780290752649307251e-01 -1.460559368133544922e-01
-1.362192630767822266e-01 -2.767475545406341553e-01 -1.534533500671386719e-01
-1.399071812629699707e-01 -2.218112349510192871e-01 1.952183693647384644e-01
-7.595271617174148560e-02 -5.596806108951568604e-02 -4.934748411178588867e-01
-1.209187284111976624e-01 -2.318902164697647095e-01 1.655471473932266235e-01
-4.364325106143951416e-02 -2.393445074558258057e-01 -1.470273584127426147e-01
-5.184742063283920288e-02 -4.862147569656372070e-02 -3.618144989013671875e-01
-2.131844460964202881e-01 -1.137216538190841675e-01 1.147532016038894653e-01
-2.137083411216735840e-01 -6.634557247161865234e-02 -4.466121792793273926e-01
-1.924769580364227295e-01 -2.829750180244445801e-01 -6.710720807313919067e-02
-1.809835433959960938e-03 -1.041820347309112549e-01 -2.378474473953247070e-01
-1.586690992116928101e-01 -1.951331496238708496e-01 -4.814351201057434082e-01
-1.563814431428909302e-01 -3.920387476682662964e-02 -4.405822157859802246e-01
-1.987582445144653320e-02 -1.315703243017196655e-01 -4.649177193641662598e-01
-1.915088742971420288e-01 -2.818030714988708496e-01 3.857748210430145264e-02
-3.982789069414138794e-02 -1.318538337945938110e-01 1.483082771301269531e-03
-2.483213543891906738e-01 -9.786073863506317139e-02 -4.240681231021881104e-01
-1.440327167510986328e-01 -1.230161637067794800e-01 1.347776204347610474e-01
-1.459582895040512085e-01 -8.888541907072067261e-02 -5.620646476745605469e-01
-2.229335904121398926e-02 -7.093331217765808105e-02 -3.592429459095001221e-01
-1.375753581523895264e-01 -1.641005277633666992e-01 -5.378584265708923340e-01
-3.073245882987976074e-01 -1.658048927783966064e-01 -2.231352031230926514e-01
-1.037477105855941772e-01 -2.174335420131683350e-01 -4.255437850952148438e-01
-2.874686717987060547e-01 -1.005976796150207520e-01 -2.536533474922180176e-01
-6.973497569561004639e-02 -8.750804513692855835e-02 -5.451164245605468750e-01
-1.109357178211212158e-01 -1.100521907210350037e-01 8.410458266735076904e-02
-2.094487994909286499e-01 -2.716132104396820068e-01 -1.660125702619552612e-01
-2.417052090167999268e-01 -1.064145714044570923e-01 -4.497733712196350098e-01
-2.153850495815277100e-01 -7.129324227571487427e-02 -2.440321445465087891e-02
-2.422261238098144531e-02 -1.368077695369720459e-01 -3.840017318725585938e-02
-1.259829998016357422e-01 -1.571754664182662964e-01 -5.475491881370544434e-01
-4.138863831758499146e-02 -9.120287001132965088e-02 -8.674088865518569946e-02
-1.485197693109512329e-01 -1.069797575473785400e-01 1.042594760656356812e-01
-3.125576376914978027e-01 -1.955915838479995728e-01 -1.163366809487342834e-01
-2.349347770214080811e-01 -7.353425770998001099e-02 -4.654684662818908691e-02
-3.020875453948974609e-01 -2.138913571834564209e-01 -1.391886621713638306e-01
-9.579754620790481567e-02 -7.837569713592529297e-02 -5.547599792480468750e-01
6.743177771568298340e-03 -1.295176446437835693e-01 -2.426896542310714722e-01
-1.492759138345718384e-01 -7.466524094343185425e-02 1.407396793365478516e-02
-1.894639432430267334e-01 -2.731948494911193848e-01 1.088912039995193481e-01
-1.042521223425865173e-01 -2.445938140153884888e-01 -3.283816576004028320e-01
-2.292697131633758545e-02 -1.543686687946319580e-01 -2.509289979934692383e-02
-3.055264353752136230e-01 -2.128221839666366577e-01 1.239089667797088623e-02
-2.960675954818725586e-01 -2.065525799989700317e-01 8.536250889301300049e-02
-2.673127651214599609e-01 -9.768296778202056885e-02 -1.680672168731689453e-02
-1.857131719589233398e-04 -1.186652109026908875e-01 -3.797112107276916504e-01
-1.706956773996353149e-01 -9.160671383142471313e-02 -5.473454594612121582e-01
-1.295096725225448608e-01 -5.512517690658569336e-02 -5.175013542175292969e-01
-1.492981165647506714e-01 -3.755850344896316528e-02 -1.728957146406173706e-01
-1.661384105682373047e-02 -1.960223913192749023e-01 -7.362575829029083252e-02
-9.643545001745223999e-02 -1.861931830644607544e-01 -4.964979887008666992e-01
-1.582782119512557983e-01 -2.837661504745483398e-01 -1.180574297904968262e-02
-1.822463423013687134e-01 -1.815242618322372437e-01 2.158430665731430054e-01
-9.828643500804901123e-02 -1.891517937183380127e-01 1.575104743242263794e-01
-2.247403562068939209e-01 -1.516788303852081299e-01 1.768594831228256226e-01
-2.642438411712646484e-01 -2.407532930374145508e-01 1.278815418481826782e-01
-1.394423097372055054e-01 -3.065297007560729980e-02 -2.491839528083801270e-01
-2.770091295242309570e-01 -2.000906020402908325e-01 -2.973122000694274902e-01
-2.793227434158325195e-01 -1.420898437500000000e-01 -3.580467104911804199e-01
-2.316502034664154053e-01 -7.989951968193054199e-02 -1.055304706096649170e-02
-2.980999350547790527e-01 -1.328605711460113525e-01 -2.864390611648559570e-03
-2.111552953720092773e-01 -9.039656817913055420e-02 -4.955367445945739746e-01
-1.439779251813888550e-01 -2.063804119825363159e-01 -4.618112444877624512e-01
-3.029788136482238770e-01 -1.715973317623138428e-01 5.489504337310791016e-02
-7.996605336666107178e-02 -7.957215607166290283e-02 -3.719004988670349121e-02
-5.037112534046173096e-02 -5.997473001480102539e-02 -1.971591711044311523e-01
-1.239878982305526733e-01 -3.211288899183273315e-02 -2.392497658729553223e-01
-2.131965309381484985e-01 -2.441794276237487793e-01 1.881944388151168823e-01
-6.433009356260299683e-02 -2.331580817699432373e-01 4.576051235198974609e-02
-1.089120954275131226e-01 -3.099016845226287842e-02 -2.888453006744384766e-01
-9.445945918560028076e-02 -2.635338306427001953e-01 1.443734765052795410e-02
-6.987616419792175293e-03 -1.730445772409439087e-01 -3.521207869052886963e-01
-6.795416772365570068e-02 -2.162707746028900146e-01 -3.918156027793884277e-01
-2.800482511520385742e-01 -2.405810952186584473e-01 7.295292615890502930e-02
-1.759712994098663330e-01 -3.318277001380920410e-02 -2.572348713874816895e-01
-3.078870773315429688e-01 -2.128909230232238770e-01 -3.057169914245605469e-02
-1.678826361894607544e-01 -2.302036136388778687e-01 -3.906965553760528564e-01
-1.465883851051330566e-02 -1.661397367715835571e-01 -4.036297798156738281e-01
7.984980940818786621e-03 -1.456137001514434814e-01 -2.457576096057891846e-01
-1.485513001680374146e-01 -1.470719128847122192e-01 1.741421371698379517e-01
-4.488359391689300537e-02 -2.329171597957611084e-01 -3.897123038768768311e-02
-1.687712073326110840e-01 -2.167055904865264893e-01 2.154700309038162231e-01
-1.798299551010131836e-01 -1.580206900835037231e-01 1.964372247457504272e-01
-1.177454516291618347e-01 -2.770879268646240234e-01 -7.173418253660202026e-02
-1.082944944500923157e-01 -2.569671273231506348e-01 -2.699790894985198975e-01
-2.434896230697631836e-01 -1.086330339312553406e-01 7.157461345195770264e-02
-3.095741271972656250e-01 -1.381980478763580322e-01 -6.838037818670272827e-02
-5.457198619842529297e-02 -1.475456804037094116e-01 5.696542561054229736e-02
-2.209007889032363892e-01 -4.746033251285552979e-02 -2.204641550779342651e-01
-2.980490326881408691e-01 -2.276234924793243408e-01 -8.345958590507507324e-02
-1.292426884174346924e-02 -1.514199525117874146e-01 -4.234846234321594238e-01
-3.509628027677536011e-02 -2.024854719638824463e-01 5.061984062194824219e-03
-2.566619813442230225e-01 -2.291367799043655396e-01 -2.727003097534179688e-01
-2.796131372451782227e-01 -2.462607622146606445e-01 -9.127610921859741211e-02
-1.935793906450271606e-01 -2.675512433052062988e-01 -2.162820994853973389e-01
-2.990042865276336670e-01 -2.205583751201629639e-01 4.041711986064910889e-02
-2.569407224655151367e-01 -2.602477073669433594e-01 -1.071584969758987427e-01
-2.976556718349456787e-01 -1.111888289451599121e-01 -2.038378566503524780e-01
-2.321515828371047974e-01 -7.113327085971832275e-02 -4.124527573585510254e-01
-2.075619995594024658e-01 -2.792206704616546631e-01 4.852622747421264648e-02
-1.738205552101135254e-02 -1.086739599704742432e-01 -4.572830796241760254e-01
-1.619083732366561890e-01 -2.815247178077697754e-01 -1.171685308218002319e-01
-9.739880263805389404e-02 -4.963351786136627197e-02 -1.372931897640228271e-01
-2.369091659784317017e-01 -6.813641637563705444e-02 -8.177603781223297119e-02
-2.967980504035949707e-01 -1.203917562961578369e-01 -2.578597068786621094e-01
-5.080487579107284546e-02 -5.677573382854461670e-02 -4.398558735847473145e-01
-3.095476329326629639e-01 -1.574057191610336304e-01 -2.730548381805419922e-03
-2.022022604942321777e-01 -4.868871718645095825e-02 -1.356402337551116943e-01
-1.613466739654541016e-01 -8.605448156595230103e-02 5.348330736160278320e-02
-8.401852101087570190e-02 -2.638889551162719727e-01 -1.330140382051467896e-01
-3.070347309112548828e-01 -1.894201636314392090e-01 4.169034957885742188e-02
-2.242550551891326904e-01 -2.693721652030944824e-01 9.986133873462677002e-02
-2.529515027999877930e-01 -2.555181682109832764e-01 1.070533841848373413e-01
-2.836076021194458008e-01 -9.187279641628265381e-02 -2.199572622776031494e-01
-1.972028464078903198e-01 -2.827866077423095703e-01 9.866982698440551758e-03
-1.098471283912658691e-01 -2.496802061796188354e-01 1.152088493108749390e-01
-1.924356669187545776e-01 -2.356718480587005615e-01 2.052057832479476929e-01
-2.131077647209167480e-01 -5.028978735208511353e-02 -3.788619637489318848e-01
-1.215069442987442017e-01 -2.341082990169525146e-01 -3.811362683773040771e-01
-2.146569639444351196e-01 -6.683201342821121216e-02 -4.453732073307037354e-02
-2.754465043544769287e-01 -2.337443679571151733e-01 -1.949218213558197021e-01
-2.414470314979553223e-01 -2.704244256019592285e-01 3.938026726245880127e-02
-4.225460439920425415e-02 -1.618353575468063354e-01 3.900067508220672607e-02
-1.462792158126831055e-01 -2.576842010021209717e-01 1.449299603700637817e-01
-3.146684169769287109e-01 -1.704596281051635742e-01 -2.579694986343383789e-02
-3.735294938087463379e-02 -1.838537305593490601e-01 2.828386425971984863e-02
-1.935761570930480957e-01 -1.184120327234268188e-01 -5.328813195228576660e-01
-2.910251617431640625e-01 -1.904868632555007935e-01 -2.685180306434631348e-01
-1.733190864324569702e-01 -2.814666032791137695e-01 4.622197151184082031e-02
-1.720561981201171875e-01 -1.972672939300537109e-01 -4.702709317207336426e-01
-9.975907951593399048e-02 -2.678852081298828125e-01 -1.641446352005004883e-01
-7.881579548120498657e-02 -5.125283449888229370e-02 -1.643788218498229980e-01
-2.570142149925231934e-01 -2.643579542636871338e-01 -4.669794440269470215e-02
-2.614107728004455566e-01 -1.916922032833099365e-01 -3.568179011344909668e-01
-2.136457413434982300e-01 -2.392424643039703369e-01 -3.201521337032318115e-01
-2.799827456474304199e-01 -1.786035299301147461e-01 1.331164687871932983e-01
-1.753411442041397095e-01 -2.483059018850326538e-01 1.843307465314865112e-01
-1.771387606859207153e-01 -2.807233631610870361e-01 -1.243600621819496155e-01
-1.062086820602416992e-01 -2.733206748962402344e-01 -5.072337388992309570e-02
-1.915163844823837280e-01 -1.001505851745605469e-01 -5.310475826263427734e-01
-3.336518257856369019e-02 -8.312229812145233154e-02 -1.427620053291320801e-01
-2.837167978286743164e-01 -2.376523613929748535e-01 -1.325176954269409180e-01
-1.607596725225448608e-01 -1.876506954431533813e-01 2.129604667425155640e-01
-1.981277167797088623e-01 -2.076100707054138184e-01 2.215978950262069702e-01
-1.307537406682968140e-01 -9.515027701854705811e-02 -5.709072947502136230e-01
-1.888086795806884766e-01 -2.124114334583282471e-01 -4.248351752758026123e-01
-8.021392673254013062e-02 -4.952112585306167603e-02 -4.751763343811035156e-01
-2.108959406614303589e-01 -4.239503294229507446e-02 -2.762994766235351562e-01
-6.150210648775100708e-02 -2.520694136619567871e-01 -1.377238780260086060e-01
-6.090809404850006104e-02 -1.441066265106201172e-01 -5.296968817710876465e-01
-1.590336710214614868e-01 -2.266025394201278687e-01 -4.051597714424133301e-01
-7.707516849040985107e-02 -3.834354877471923828e-02 -2.952940464019775391e-01
-1.587095558643341064e-01 -1.114365532994270325e-01 -5.631315708160400391e-01
5.157470703125000000e-03 -1.259654015302658081e-01 -2.264320850372314453e-01
-8.907551318407058716e-02 -2.591645419597625732e-01 -2.169959098100662231e-01
-5.963488668203353882e-02 -1.724344640970230103e-01 -4.897225499153137207e-01
-2.779486477375030518e-01 -9.823910892009735107e-02 -5.509591102600097656e-02
-2.354437410831451416e-01 -5.867018550634384155e-02 -1.502206027507781982e-01
-2.392603158950805664e-01 -1.363276988267898560e-01 1.404068619012832642e-01
-2.623971998691558838e-01 -8.896712958812713623e-02 -3.587347865104675293e-01
-2.278697490692138672e-01 -5.124481767416000366e-02 -2.032069116830825806e-01
6.151512265205383301e-03 -1.570721566677093506e-01 -2.106169909238815308e-01
-2.451524436473846436e-01 -5.944753438234329224e-02 -2.214650809764862061e-01
-2.279869318008422852e-01 -2.107832431793212891e-01 -3.818112015724182129e-01
-9.220763295888900757e-02 -3.317903727293014526e-02 -3.399426937103271484e-01
-5.754061043262481689e-02 -2.373059391975402832e-01 5.920067429542541504e-03
-7.338397204875946045e-02 -7.205079495906829834e-02 -5.291981101036071777e-01
-7.480451464653015137e-02 -1.183498203754425049e-01 -5.582265257835388184e-01
-1.779709160327911377e-01 -2.846128046512603760e-01 -4.126009345054626465e-02
-1.696605831384658813e-01 -2.412916123867034912e-01 -3.532508611679077148e-01
-2.046330571174621582e-01 -2.265192866325378418e-01 -3.719699978828430176e-01
2.137899398803710938e-03 -1.076842397451400757e-01 -3.078452348709106445e-01
-9.401321411132812500e-02 -3.415067493915557861e-02 -3.855162262916564941e-01
-1.234681010246276855e-01 -1.203914955258369446e-01 -5.739398002624511719e-01
-6.239157915115356445e-02 -1.569132655858993530e-01 -5.168267488479614258e-01
-1.046438664197921753e-01 -7.794965058565139771e-02 -7.526919245719909668e-03
-4.621819406747817993e-02 -2.311286628246307373e-01 -2.215176820755004883e-02
-3.015446662902832031e-01 -1.445282697677612305e-01 -2.616294026374816895e-01
-2.812068760395050049e-01 -1.044266372919082642e-01 -3.128310441970825195e-01
-1.241968721151351929e-01 -2.749531269073486328e-01 2.364116907119750977e-02
-1.265886574983596802e-01 -3.015489876270294189e-02 -2.662676572799682617e-01
-1.866243481636047363e-01 -4.280039668083190918e-02 -4.095526933670043945e-01
-7.484702765941619873e-02 -1.190439611673355103e-01 5.398774147033691406e-02
-2.248711585998535156e-01 -2.737043201923370361e-01 6.696927547454833984e-02
-3.013264238834381104e-01 -1.186980754137039185e-01 -9.680645167827606201e-02
-5.894821882247924805e-02 -2.494365125894546509e-01 -1.660914421081542969e-01
-2.539622485637664795e-01 -2.652289867401123047e-01 -6.302460283041000366e-02
4.296436905860900879e-03 -1.140307262539863586e-01 -2.912890315055847168e-01
-2.484254240989685059e-01 -6.157718598842620850e-02 -2.562775909900665283e-01
-2.100248783826828003e-01 -2.545459866523742676e-01 1.685666888952255249e-01
-3.632046282291412354e-02 -2.253676503896713257e-01 -2.587964832782745361e-01
-3.020412921905517578e-01 -1.312004625797271729e-01 -2.433755099773406982e-01
-1.058605760335922241e-01 -5.783189833164215088e-02 -8.360411226749420166e-02
-2.085557281970977783e-01 -1.327073723077774048e-01 -5.117096304893493652e-01
-2.739310264587402344e-01 -8.685189485549926758e-02 -1.092075034976005554e-01
-2.046954482793807983e-01 -2.357432246208190918e-01 -3.433674275875091553e-01
-2.161633372306823730e-01 -1.386518031358718872e-01 -4.987380504608154297e-01
-3.141134381294250488e-01 -1.467164605855941772e-01 -1.073403134942054749e-01
-1.446451395750045776e-01 -6.988930702209472656e-02 -5.417622327804565430e-01
-2.989986538887023926e-02 -2.260156273841857910e-01 -1.258578002452850342e-01
-5.212744325399398804e-02 -4.865456372499465942e-02 -3.069412708282470703e-01
-1.012560352683067322e-01 -2.050277590751647949e-01 -4.575124382972717285e-01
-6.724914908409118652e-02 -1.316590607166290283e-01 6.196960806846618652e-02
-2.631408870220184326e-01 -2.587842941284179688e-01 -8.294780552387237549e-02
-1.009944081306457520e-02 -8.967263251543045044e-02 -3.814472556114196777e-01
-1.157904416322708130e-01 -8.285447955131530762e-02 1.948417723178863525e-02
-6.668525189161300659e-02 -5.069915205240249634e-02 -2.021834552288055420e-01
-1.986004412174224854e-02 -8.083060383796691895e-02 -4.128414392471313477e-01
-2.824515104293823242e-01 -2.336296439170837402e-01 8.852793276309967041e-02
-2.299541980028152466e-01 -2.732245326042175293e-01 -9.423108398914337158e-02
-2.699266672134399414e-01 -1.659979522228240967e-01 -3.721003532409667969e-01
5.840495228767395020e-03 -1.411909312009811401e-01 -3.265073895454406738e-01
-1.206846833229064941e-01 -2.494621127843856812e-01 -3.197910487651824951e-01
-7.278025150299072266e-03 -1.221355050802230835e-01 -1.354456841945648193e-01
-3.451287746429443359e-03 -1.878381371498107910e-01 -2.495031952857971191e-01
-8.736953139305114746e-03 -9.601437300443649292e-02 -2.157986313104629517e-01
4.860907793045043945e-03 -1.651808172464370728e-01 -2.685894072055816650e-01
-2.895243763923645020e-01 -2.399436831474304199e-01 -1.206007599830627441e-02
7.260292768478393555e-03 -1.520522832870483398e-01 -2.284011393785476685e-01
-3.094280660152435303e-01 -1.551540493965148926e-01 -2.110333442687988281e-01
-7.217676937580108643e-02 -2.586097419261932373e-01 -9.446904808282852173e-02
-2.808525562286376953e-01 -1.742343604564666748e-01 -3.306216597557067871e-01
-1.002956777811050415e-01 -2.714792191982269287e-01 -8.605553954839706421e-02
-1.077147647738456726e-01 -2.517288327217102051e-01 -2.979021072387695312e-01
-5.978410691022872925e-02 -2.510547935962677002e-01 -1.015408262610435486e-01
-5.550011992454528809e-02 -1.128663197159767151e-01 -5.392483472824096680e-01
-2.458967119455337524e-01 -2.207919955253601074e-01 1.884488612413406372e-01
-1.655029505491256714e-01 -2.845120429992675781e-01 -2.633361518383026123e-02
-7.868907600641250610e-02 -5.735643953084945679e-02 -1.304076015949249268e-01
-1.077277064323425293e-01 -3.936100751161575317e-02 -1.898868083953857422e-01
-2.317241430282592773e-01 -2.600769996643066406e-01 -1.958739012479782104e-01
-1.086949557065963745e-01 -2.691134512424468994e-01 2.456280589103698730e-02
-7.809755206108093262e-02 -2.132109701633453369e-01 -4.155316352844238281e-01
-2.948803901672363281e-01 -1.160812079906463623e-01 -5.438584834337234497e-02
-7.374969124794006348e-02 -4.600460827350616455e-02 -4.446040987968444824e-01
-1.325896382331848145e-01 -3.137598931789398193e-02 -3.977239727973937988e-01
-1.890525221824645996e-01 -2.810223102569580078e-01 -1.080575659871101379e-01
-1.844506263732910156e-01 -4.441240429878234863e-02 -1.407844722270965576e-01
-1.503631472587585449e-03 -1.120963543653488159e-01 -2.032513916492462158e-01
-3.120955228805541992e-01 -1.483634114265441895e-01 -5.173945426940917969e-02
-3.150356411933898926e-01 -1.922340691089630127e-01 -7.372868806123733521e-02
-3.081379532814025879e-01 -2.119549810886383057e-01 -7.325217127799987793e-02
-5.631831288337707520e-02 -1.664792597293853760e-01 7.570432126522064209e-02
-9.765896946191787720e-02 -3.369767218828201294e-02 -2.751465439796447754e-01
-7.153815776109695435e-02 -5.681338906288146973e-02 -1.496967226266860962e-01
-2.388159930706024170e-02 -1.907180100679397583e-01 -2.635812759399414062e-02
-2.218406200408935547e-01 -2.604987025260925293e-01 -2.145518958568572998e-01
-6.825000047683715820e-03 -9.290447831153869629e-02 -2.554745674133300781e-01
-2.670145630836486816e-01 -1.701393574476242065e-01 1.513539105653762817e-01
-1.979241222143173218e-01 -1.618014127016067505e-01 1.997500807046890259e-01
-2.980208992958068848e-01 -1.402149498462677002e-01 -2.793786525726318359e-01
-2.870899438858032227e-02 -2.250615060329437256e-01 -1.859017163515090942e-01
-9.010331332683563232e-02 -2.506811618804931641e-01 -2.780225872993469238e-01
-1.834376305341720581e-01 -4.068009555339813232e-02 -1.711141616106033325e-01
-2.769816815853118896e-01 -2.133435308933258057e-01 -2.633835673332214355e-01
-1.116207987070083618e-01 -1.972791105508804321e-01 -4.800236225128173828e-01
-2.570614814758300781e-01 -9.213370084762573242e-02 -3.871888518333435059e-01
-1.805925667285919189e-01 -8.325134962797164917e-02 -5.301359295845031738e-01
-2.532446682453155518e-01 -1.366294175386428833e-01 -4.313534498214721680e-01
-2.495332062244415283e-01 -2.687043249607086182e-01 -1.290217041969299316e-02
-1.126994863152503967e-01 -1.852088868618011475e-01 1.750244945287704468e-01
-2.325770258903503418e-02 -7.028835266828536987e-02 -2.888533473014831543e-01
-2.123530805110931396e-01 -2.800573408603668213e-01 2.077850699424743652e-02
-2.039962708950042725e-01 -7.271642237901687622e-02 -4.813536405563354492e-01
-3.368169069290161133e-02 -9.364756941795349121e-02 -4.917050600051879883e-01
-1.631677150726318359e-04 -1.541785597801208496e-01 -1.377823948860168457e-01
-1.396655142307281494e-01 -2.661472260951995850e-01 -2.420811057090759277e-01
-2.648524045944213867e-01 -7.724526524543762207e-02 -1.342026293277740479e-01
5.603820085525512695e-03 -1.197953224182128906e-01 -2.697004973888397217e-01
-1.975764483213424683e-01 -2.533306181430816650e-01 -2.846945226192474365e-01
-8.690208196640014648e-02 -2.539583444595336914e-01 4.423567652702331543e-02
-1.399090588092803955e-01 -2.847407758235931396e-02 -3.085689246654510498e-01
-7.463986426591873169e-02 -2.238258719444274902e-01 -3.754892051219940186e-01
-2.284411191940307617e-01 -2.766477167606353760e-01 1.166194677352905273e-03
-1.297301650047302246e-01 -6.800432503223419189e-02 -1.944716274738311768e-02
-2.078923881053924561e-01 -2.814915776252746582e-01 -4.224754869937896729e-02
-2.964725494384765625e-01 -1.908851563930511475e-01 -2.444079816341400146e-01
-1.580670177936553955e-01 -2.726683616638183594e-01 -2.027143836021423340e-01
-3.101629018783569336e-02 -8.436550945043563843e-02 -4.701752662658691406e-01
-3.578937053680419922e-02 -1.146756410598754883e-01 -4.092524945735931396e-02
-2.371112406253814697e-01 -1.895949989557266235e-01 -4.102696776390075684e-01
-7.400567084550857544e-02 -2.591744661331176758e-01 -7.357396185398101807e-02
-1.730435788631439209e-01 -7.576584070920944214e-02 2.030183374881744385e-02
-1.910940557718276978e-01 -1.722800731658935547e-01 -4.971098303794860840e-01
-1.470613479614257812e-02 -1.183630079030990601e-01 -1.075406000018119812e-01
-2.097249180078506470e-01 -1.855342984199523926e-01 2.149764448404312134e-01
-2.164924144744873047e-01 -2.505325376987457275e-01 -2.721552550792694092e-01
-1.711147725582122803e-01 -3.348325937986373901e-02 -3.644913733005523682e-01
-1.928264647722244263e-01 -3.731210529804229736e-02 -3.291962146759033203e-01
-1.271533071994781494e-01 -2.494319379329681396e-01 1.432869583368301392e-01
-2.448013424873352051e-02 -2.209457755088806152e-01 -1.606127917766571045e-01
-2.712871134281158447e-01 -1.261524558067321777e-01 -3.816159963607788086e-01
-6.736502051353454590e-03 -1.930952966213226318e-01 -1.532710939645767212e-01
-3.827181458473205566e-02 -5.841358751058578491e-02 -2.825294733047485352e-01
-1.273603141307830811e-01 -2.741827666759490967e-01 -1.673148423433303833e-01
-3.060100972652435303e-02 -6.566912680864334106e-02 -3.932217657566070557e-01
-5.081678926944732666e-02 -2.209222614765167236e-01 -3.388218879699707031e-01
-1.519611924886703491e-01 -2.740384638309478760e-01 8.560873568058013916e-02
-1.898762434720993042e-01 -3.561333566904067993e-02 -2.828635573387145996e-01
-1.688594669103622437e-01 -3.387421369552612305e-02 -2.249837219715118408e-01
-8.450592309236526489e-02 -5.887802690267562866e-02 -1.113329678773880005e-01
-2.785999774932861328e-01 -9.522138535976409912e-02 -7.652930915355682373e-02
-8.910673111677169800e-02 -5.493640899658203125e-02 -5.051314234733581543e-01
-4.977758973836898804e-02 -6.537394225597381592e-02 -4.734624624252319336e-01
-1.653554886579513550e-01 -1.450668126344680786e-01 1.780790537595748901e-01
-7.051371037960052490e-02 -1.860181987285614014e-01 1.106909960508346558e-01
3.566607832908630371e-03 -1.406000554561614990e-01 -3.505436182022094727e-01
-2.626635432243347168e-01 -2.034571170806884766e-01 1.726938635110855103e-01
-1.211543381214141846e-01 -5.067842453718185425e-02 -1.023321449756622314e-01
-2.882771790027618408e-01 -1.505696177482604980e-01 -3.241287469863891602e-01
-2.666401863098144531e-01 -1.409173309803009033e-01 -3.967062830924987793e-01
-1.494715511798858643e-01 -1.000006273388862610e-01 8.815492689609527588e-02
-2.148178815841674805e-01 -8.657696843147277832e-02 3.633135557174682617e-02
-1.950891166925430298e-01 -1.061071306467056274e-01 1.049954146146774292e-01
-2.161309719085693359e-01 -2.438796758651733398e-01 -2.996487617492675781e-01
-1.055712997913360596e-02 -8.429466933012008667e-02 -2.961312830448150635e-01
-2.953884005546569824e-01 -1.911613047122955322e-01 9.485916793346405029e-02
-2.268909066915512085e-01 -8.495318889617919922e-02 1.686500012874603271e-02
-1.834559440612792969e-01 -2.567939460277557373e-01 1.679210215806961060e-01
-4.613216966390609741e-02 -5.544754862785339355e-02 -2.551199197769165039e-01
-3.149855136871337891e-01 -1.910519748926162720e-01 -9.101901948451995850e-02
-2.993836104869842529e-01 -1.835696697235107422e-01 7.824920117855072021e-02
-9.375359117984771729e-02 -2.607224881649017334e-01 3.121304512023925781e-02
-1.393337994813919067e-01 -2.204503715038299561e-01 -4.265477657318115234e-01
-1.085602194070816040e-01 -5.247304588556289673e-02 -5.093266367912292480e-01
-1.475233137607574463e-01 -2.632575631141662598e-01 1.289385706186294556e-01
-9.166657924652099609e-03 -1.954075545072555542e-01 -2.662125527858734131e-01
-1.058336049318313599e-01 -2.723305225372314453e-01 -2.775637805461883545e-02
-1.431051790714263916e-01 -3.059105575084686279e-02 -3.811475932598114014e-01
-2.464691996574401855e-01 -2.548406422138214111e-01 1.251360923051834106e-01
-1.479609012603759766e-01 -2.385749518871307373e-01 1.846113055944442749e-01
-1.267339438199996948e-01 -3.904931247234344482e-02 -1.700369566679000854e-01
-4.689066112041473389e-02 -2.411390244960784912e-01 -9.804356098175048828e-02
-1.481856554746627808e-01 -6.398693472146987915e-02 -2.618579566478729248e-02
-2.914472222328186035e-01 -1.443460583686828613e-01 5.513076484203338623e-02
-3.050155341625213623e-01 -1.222642436623573303e-01 -1.355907917022705078e-01
-1.437926292419433594e-01 -2.478289604187011719e-01 -3.343165516853332520e-01
-2.722214758396148682e-01 -2.264496982097625732e-01 -2.364737093448638916e-01
4.115983843803405762e-03 -1.622592806816101074e-01 -2.976340651512145996e-01
-1.510398983955383301e-01 -3.328517079353332520e-02 -4.033810496330261230e-01
-3.266958147287368774e-02 -9.167373925447463989e-02 -1.131941080093383789e-01
-1.151480823755264282e-01 -2.655931115150451660e-01 6.638020277023315430e-02
-2.398874163627624512e-01 -1.917274147272109985e-01 1.993448585271835327e-01
-2.196482121944427490e-01 -1.773227751255035400e-01 -4.569429755210876465e-01
-7.929705083370208740e-02 -2.569756507873535156e-01 -2.025597989559173584e-01
-1.002305671572685242e-01 -1.231537461280822754e-01 9.767119586467742920e-02
-1.275394856929779053e-01 -2.467307150363922119e-01 -3.352161347866058350e-01
-9.353097528219223022e-02 -1.517069488763809204e-01 -5.470352768898010254e-01
-2.231192439794540405e-01 -1.248754933476448059e-01 -4.918475747108459473e-01
-2.665797472000122070e-01 -2.354318201541900635e-01 -2.200064957141876221e-01
-2.378152161836624146e-01 -7.122077047824859619e-02 -3.945856094360351562e-01
-1.299742311239242554e-01 -2.672201097011566162e-01 8.889238536357879639e-02
-8.128582686185836792e-02 -2.377916276454925537e-01 8.298222720623016357e-02
-2.476242929697036743e-01 -2.632297873497009277e-01 8.114115893840789795e-02
-2.330972254276275635e-01 -2.355661988258361816e-01 -3.019493222236633301e-01
-2.670258283615112305e-03 -1.572891175746917725e-01 -1.196069121360778809e-01
-4.636666178703308105e-02 -2.099612951278686523e-01 -3.709741234779357910e-01
-1.787173002958297729e-01 -6.168850511312484741e-02 -3.726969659328460693e-02
-1.829659938812255859e-01 -2.735773622989654541e-01 -1.861228644847869873e-01
-1.034888625144958496e-02 -1.374759078025817871e-01 -9.290040284395217896e-02
-2.007310092449188232e-02 -2.003222554922103882e-01 -3.173738121986389160e-01
-1.891743391752243042e-01 -2.462218105792999268e-01 -3.218870759010314941e-01
-6.457603722810745239e-02 -1.075201034545898438e-01 1.178133487701416016e-02
-2.105185985565185547e-01 -5.562537908554077148e-02 -4.163470864295959473e-01
-1.412528455257415771e-01 -1.154878586530685425e-01 1.188588589429855347e-01
-7.275070995092391968e-02 -2.372972667217254639e-01 6.067989766597747803e-02
-9.871418774127960205e-02 -3.854204714298248291e-02 -2.135344147682189941e-01
-2.553763985633850098e-01 -2.452748715877532959e-01 -2.110417485237121582e-01
-2.050787508487701416e-01 -6.639420986175537109e-02 -4.650560021400451660e-01
-2.504059672355651855e-01 -2.170906662940979004e-01 -3.242272138595581055e-01
-7.187175750732421875e-02 -7.948984950780868530e-02 -5.218327045440673828e-02
6.533116102218627930e-04 -1.385928690433502197e-01 -1.555894911289215088e-01
-4.387309402227401733e-02 -1.979556530714035034e-01 -4.045718610286712646e-01
-1.129853725433349609e-01 -2.446400523185729980e-01 1.328152865171432495e-01
-1.460695266723632812e-01 -2.911208570003509521e-02 -2.848405838012695312e-01
-2.218816876411437988e-01 -2.768554091453552246e-01 -7.711008936166763306e-02
-1.024895533919334412e-01 -3.151102364063262939e-02 -3.044893741607666016e-01
-7.985613495111465454e-02 -3.976720571517944336e-02 -2.568862140178680420e-01
-2.547459304332733154e-02 -2.175217866897583008e-01 -2.444609105587005615e-01
-3.030308485031127930e-01 -1.273350268602371216e-01 -2.252081930637359619e-01
-1.129902079701423645e-01 -1.495948880910873413e-01 1.499124318361282349e-01
-1.407764703035354614e-01 -1.635167300701141357e-01 1.872279793024063110e-01
-4.651137441396713257e-02 -6.626591831445693970e-02 -1.740038543939590454e-01
-3.054985404014587402e-01 -2.163522988557815552e-01 -9.493470191955566406e-03
-2.091590166091918945e-01 -2.715300619602203369e-01 1.072491258382797241e-01
-1.682189702987670898e-01 -2.205583155155181885e-01 -4.182068407535552979e-01
-2.093288302421569824e-01 -2.165347337722778320e-01 -3.935625851154327393e-01
-1.770721226930618286e-01 -2.113623470067977905e-01 -4.362789392471313477e-01
-2.640551924705505371e-01 -2.004336565732955933e-01 -3.328397274017333984e-01
-2.206687927246093750e-01 -5.062235146760940552e-02 -1.708322018384933472e-01
-8.179444074630737305e-02 -2.083056867122650146e-01 1.257762163877487183e-01
-2.383449971675872803e-01 -5.683423578739166260e-02 -1.920980960130691528e-01
-3.493084758520126343e-02 -1.820805221796035767e-01 -4.267246127128601074e-01
-3.613501787185668945e-03 -1.788157373666763306e-01 -3.086183071136474609e-01
-2.587678134441375732e-01 -6.985073536634445190e-02 -1.760135293006896973e-01
-3.237799555063247681e-02 -7.354688644409179688e-02 -4.456170201301574707e-01
5.339697003364562988e-03 -1.654701977968215942e-01 -2.406021952629089355e-01
-7.068625837564468384e-02 -6.739955395460128784e-02 -1.005859896540641785e-01
-2.866779267787933350e-01 -2.410890460014343262e-01 -7.679835706949234009e-02
-1.551628559827804565e-01 8.311851322650909424e-02 1.267912685871124268e-01
-1.138158291578292847e-01 1.441635470837354660e-02 1.090663820505142212e-01
-2.596368789672851562e-01 -4.686195775866508484e-02 3.293251097202301025e-01
-1.902873814105987549e-01 -1.231781914830207825e-01 -1.686350814998149872e-02
-2.824457287788391113e-01 -1.628098636865615845e-02 -2.826554477214813232e-01
-1.979719251394271851e-01 7.839865237474441528e-02 -2.233549505472183228e-01
-1.662410944700241089e-01 -8.815426379442214966e-02 1.829921752214431763e-01
-1.249764114618301392e-01 6.188205257058143616e-02 -1.476075127720832825e-02
-1.289972811937332153e-01 -4.935557767748832703e-02 1.474399715662002563e-01
-1.386902481317520142e-01 7.771742343902587891e-02 -1.390692126005887985e-02
-2.003706246614456177e-01 1.011082753539085388e-01 6.795590370893478394e-02
-2.136218249797821045e-01 6.473138183355331421e-02 3.009337782859802246e-01
-1.926414966583251953e-01 -8.587992936372756958e-02 -3.271044194698333740e-01
-2.479070574045181274e-01 1.190303172916173935e-02 3.620699346065521240e-01
-1.891210079193115234e-01 -2.706306427717208862e-02 3.607521057128906250e-01
-2.710714042186737061e-01 -3.293598815798759460e-02 3.213375806808471680e-01
-3.083774149417877197e-01 1.940482109785079956e-02 6.002429127693176270e-02
-1.432434022426605225e-01 -2.835025265812873840e-02 2.575786113739013672e-01
-1.797606199979782104e-01 -3.449145704507827759e-02 3.412155508995056152e-01
-2.041640579700469971e-01 9.916874021291732788e-02 -6.270413100719451904e-02
-1.795853376388549805e-01 -1.183612644672393799e-02 3.572359681129455566e-01
-2.660573124885559082e-01 -9.296531230211257935e-02 2.049258500337600708e-01
-1.701458543539047241e-01 8.588423579931259155e-02 1.692631244659423828e-01
-2.969703674316406250e-01 -2.817417681217193604e-02 2.373172044754028320e-01
-1.668244898319244385e-01 -5.832193791866302490e-02 2.778137624263763428e-01
-2.919519245624542236e-01 8.196185342967510223e-03 2.483030557632446289e-01
-1.916248798370361328e-01 -6.758565455675125122e-02 3.035449683666229248e-01
-1.396254301071166992e-01 5.610771849751472473e-02 -2.038806527853012085e-01
-2.527189850807189941e-01 7.027842104434967041e-02 2.234599590301513672e-01
-2.625210285186767578e-01 6.924695521593093872e-02 1.901725232601165771e-01
-1.713679581880569458e-01 -4.719464853405952454e-02 -3.695305585861206055e-01
-3.033274114131927490e-01 2.390312775969505310e-02 -7.642292976379394531e-02
-2.760294079780578613e-01 -9.025342762470245361e-02 1.845272928476333618e-01
-3.075671792030334473e-01 -6.046950072050094604e-02 1.055083945393562317e-01
-2.556096315383911133e-01 8.553495258092880249e-02 1.027663704007863998e-02
-1.942171603441238403e-01 -1.247893199324607849e-01 -4.804264008998870850e-02
-2.973060011863708496e-01 4.273824021220207214e-02 -1.099601387977600098e-03
-1.599573194980621338e-01 8.924092352390289307e-02 9.431845694780349731e-02
