-2.499384135007858276e-01 3.392668962478637695e-01 1.784448027610778809e-01
-2.783385515213012695e-01 6.942732334136962891e-01 -2.305315136909484863e-01
-2.782309055328369141e-01 6.313455700874328613e-01 1.546481996774673462e-01
-2.806863188743591309e-01 7.159599065780639648e-01 -1.945744305849075317e-01
-2.495534271001815796e-01 7.510090470314025879e-01 8.689200878143310547e-02
-2.837089896202087402e-01 8.979285955429077148e-01 2.143667340278625488e-01
-2.490261495113372803e-01 2.993427813053131104e-01 3.892318904399871826e-02
-2.686170637607574463e-01 9.605612158775329590e-01 -6.570641696453094482e-02
-2.688046693801879883e-01 4.849032759666442871e-01 -4.699990153312683105e-02
-2.699121832847595215e-01 5.516916513442993164e-01 -2.216061353683471680e-01
-2.286128103733062744e-01 3.543403148651123047e-01 -8.865872025489807129e-02
-2.338284552097320557e-01 2.977252602577209473e-01 1.037543267011642456e-01
-2.501845061779022217e-01 7.197917103767395020e-01 1.740292310714721680e-01
-2.607654333114624023e-01 3.940204381942749023e-01 -1.866460964083671570e-02
-2.887587249279022217e-01 8.728260993957519531e-01 1.029416769742965698e-01
-2.844247817993164062e-01 7.815865278244018555e-01 1.893831938505172729e-01
-2.486617416143417358e-01 7.676051259040832520e-01 -1.393837034702301025e-01
-2.744812071323394775e-01 9.117311239242553711e-01 2.183055579662322998e-01
-2.499573677778244019e-01 6.369664669036865234e-01 2.694587409496307373e-01
-2.330821007490158081e-01 4.485378861427307129e-01 9.225685894489288330e-02
-2.342159301042556763e-01 5.364220738410949707e-01 -1.593218445777893066e-01
-2.852106690406799316e-01 7.642375230789184570e-01 1.363038569688796997e-01
-2.632575035095214844e-01 4.657640457153320312e-01 2.263954877853393555e-01
-2.339175492525100708e-01 5.334340333938598633e-01 -5.041177198290824890e-02
-2.447850108146667480e-01 3.178535401821136475e-01 1.780667752027511597e-01
-2.469236254692077637e-01 6.538051962852478027e-01 -3.568368554115295410e-01
-2.857047617435455322e-01 8.254495859146118164e-01 -1.661231368780136108e-01
-2.442342340946197510e-01 2.725695073604583740e-01 3.003505617380142212e-02
-2.702188789844512939e-01 9.702782630920410156e-01 -3.597401082515716553e-02
-2.659597992897033691e-01 5.166843533515930176e-01 2.623542249202728271e-01
-2.675327062606811523e-01 8.673498630523681641e-01 2.258331179618835449e-01
-2.559762597084045410e-01 4.221113324165344238e-01 2.574426233768463135e-01
-2.881964743137359619e-01 9.510354399681091309e-01 -1.116130277514457703e-01
-2.391172200441360474e-01 5.504105687141418457e-01 -3.189778625965118408e-01
-2.381488978862762451e-01 5.863235592842102051e-01 6.141515821218490601e-02
-2.791100144386291504e-01 1.008947372436523438e+00 -8.748972415924072266e-02
-2.327303886413574219e-01 4.761175811290740967e-01 4.125384241342544556e-02
-2.693088948726654053e-01 7.004557847976684570e-01 -3.749043345451354980e-01
-2.511354684829711914e-01 3.316705524921417236e-01 -1.519996523857116699e-01
-2.585561573505401611e-01 4.133374691009521484e-01 2.087419331073760986e-01
-2.818349301815032959e-01 6.723462343215942383e-01 4.595847427845001221e-02
-2.506636679172515869e-01 7.920012474060058594e-01 -1.362542510032653809e-01
-2.574204802513122559e-01 7.926677465438842773e-01 1.986214667558670044e-01
-2.888218164443969727e-01 8.982341289520263672e-01 1.090043783187866211e-01
-2.702882289886474609e-01 5.131910443305969238e-01 1.398094594478607178e-01
-2.846295535564422607e-01 8.486366271972656250e-01 2.145988941192626953e-01
-2.646994888782501221e-01 7.864649295806884766e-01 2.931409776210784912e-01
-2.578963935375213623e-01 3.827469944953918457e-01 -1.301490068435668945e-01
-2.397145181894302368e-01 5.979774594306945801e-01 9.878663718700408936e-02
-2.476973235607147217e-01 7.507177591323852539e-01 -1.766067594289779663e-01
-2.843414843082427979e-01 7.338794469833374023e-01 -6.904892623424530029e-02
-2.339075803756713867e-01 2.902118861675262451e-01 -1.981059610843658447e-01
-2.837357521057128906e-01 8.417338728904724121e-01 2.289111614227294922e-01
-2.586455643177032471e-01 8.766601681709289551e-01 -1.322026848793029785e-01
-2.461036741733551025e-01 3.354874849319458008e-01 2.018288522958755493e-01
-2.620240747928619385e-01 4.059616029262542725e-01 -2.490609884262084961e-03
-2.694740891456604004e-01 5.928111672401428223e-01 2.980531752109527588e-01
-2.607551813125610352e-01 4.278319478034973145e-01 1.972943991422653198e-01
-2.374856919050216675e-01 4.394312500953674316e-01 1.997066140174865723e-01
-2.654435932636260986e-01 8.884405493736267090e-01 1.595681458711624146e-01
-2.348762154579162598e-01 5.556007623672485352e-01 -7.123062014579772949e-02
-2.427531629800796509e-01 6.776113510131835938e-01 1.385353878140449524e-02
-2.356243729591369629e-01 5.626313090324401855e-01 -1.733408421277999878e-01
-2.604405879974365234e-01 3.907812833786010742e-01 3.946951776742935181e-02
-2.700230479240417480e-01 4.991741180419921875e-01 -3.983416035771369934e-02
-2.546707093715667725e-01 3.388180136680603027e-01 -1.148916408419609070e-02
-2.598062157630920410e-01 4.722374081611633301e-01 -2.940560281276702881e-01
-2.428539097309112549e-01 4.361209869384765625e-01 2.644006609916687012e-01
-2.570962607860565186e-01 4.084981679916381836e-01 2.228378355503082275e-01
-2.439516335725784302e-01 5.459428429603576660e-01 2.507979571819305420e-01
-2.359570413827896118e-01 5.423622727394104004e-01 6.250105053186416626e-02
-2.846622765064239502e-01 8.234368562698364258e-01 2.091890126466751099e-01
-2.322866022586822510e-01 4.899135231971740723e-01 -2.238251455128192902e-02
-2.390269339084625244e-01 4.693798422813415527e-01 -3.507225811481475830e-01
-2.488659322261810303e-01 7.532449364662170410e-01 -2.289969623088836670e-01
-2.732507586479187012e-01 5.893260836601257324e-01 2.298338115215301514e-01
-2.418563067913055420e-01 6.597942113876342773e-01 3.010672330856323242e-02
-2.296532094478607178e-01 3.372887670993804932e-01 2.362181618809700012e-02
-2.379826605319976807e-01 5.576342344284057617e-01 -2.855373024940490723e-01
-2.323044091463088989e-01 4.453606605529785156e-01 -2.356705218553543091e-01
-2.335786819458007812e-01 5.231950283050537109e-01 -1.548367589712142944e-01
-2.369635105133056641e-01 5.627488493919372559e-01 6.314873695373535156e-02
-2.800051867961883545e-01 6.611289381980895996e-01 1.524718850851058960e-01
-2.295806854963302612e-01 4.022808670997619629e-01 -2.249073982238769531e-02
-2.825398445129394531e-01 7.736859917640686035e-01 2.294584214687347412e-01
-2.876310944557189941e-01 9.141088724136352539e-01 1.439304500818252563e-01
-2.837094962596893311e-01 7.740621566772460938e-01 2.025483697652816772e-01
-2.860961854457855225e-01 7.681424617767333984e-01 8.689644187688827515e-02
-2.667712569236755371e-01 5.978850126266479492e-01 3.266661763191223145e-01
-2.390097528696060181e-01 4.334927797317504883e-01 -3.468687832355499268e-01
-2.392370402812957764e-01 4.338285326957702637e-01 2.264330983161926270e-01
-2.822812795639038086e-01 8.191707134246826172e-01 -2.478983998298645020e-01
-2.308061718940734863e-01 3.980318605899810791e-01 -2.133035361766815186e-01
-2.525700926780700684e-01 3.253901004791259766e-01 5.839160829782485962e-02
-2.745252549648284912e-01 5.732339620590209961e-01 1.514041572809219360e-01
-2.513724267482757568e-01 7.718604207038879395e-01 9.234912693500518799e-02
-2.859245836734771729e-01 7.823481559753417969e-01 -9.775188565254211426e-02
-2.616446018218994141e-01 8.883183002471923828e-01 6.618499010801315308e-02
-2.349389195442199707e-01 5.078272819519042969e-01 8.330850303173065186e-02
-2.808980047702789307e-01 7.859185338020324707e-01 2.620820105075836182e-01
-2.427413165569305420e-01 6.700106263160705566e-01 4.233892261981964111e-02
-2.530781030654907227e-01 6.474604606628417969e-01 2.980262041091918945e-01
-2.760549783706665039e-01 6.403480172157287598e-01 -2.129320651292800903e-01
-2.684219777584075928e-01 5.468530654907226562e-01 -2.492962330579757690e-01
-2.351672798395156860e-01 5.004750490188598633e-01 1.019684672355651855e-01
-2.358459383249282837e-01 4.650662541389465332e-01 1.553499549627304077e-01
-2.678134739398956299e-01 9.531860351562500000e-01 -1.124415919184684753e-01
-2.433153539896011353e-01 6.011192202568054199e-01 -3.497141897678375244e-01
-2.325398772954940796e-01 4.375895261764526367e-01 -2.483776807785034180e-01
-2.699759304523468018e-01 4.952384233474731445e-01 1.157545670866966248e-02
-2.486498653888702393e-01 3.482456803321838379e-01 -2.423563152551651001e-01
-2.417940199375152588e-01 6.547683477401733398e-01 4.408521950244903564e-02
-2.836597263813018799e-01 7.689383029937744141e-01 -1.721394956111907959e-01
-2.739869654178619385e-01 5.555821061134338379e-01 -6.495196372270584106e-02
-2.835013568401336670e-01 7.179718017578125000e-01 1.204422563314437866e-01
-2.378769516944885254e-01 6.107391715049743652e-01 -1.349096894264221191e-01
-2.382510155439376831e-01 2.518678903579711914e-01 3.388665616512298584e-03
-2.290533930063247681e-01 3.867536187171936035e-01 -1.168535649776458740e-01
-2.669487297534942627e-01 4.681732654571533203e-01 -8.330594748258590698e-02
-2.438707947731018066e-01 6.911407709121704102e-01 2.663393691182136536e-02
-2.743881046772003174e-01 8.893028497695922852e-01 2.456300556659698486e-01
-2.337010800838470459e-01 2.697572410106658936e-01 -1.506074666976928711e-01
-2.439445853233337402e-01 6.976790428161621094e-01 -1.901765465736389160e-01
-2.610453367233276367e-01 8.019253611564636230e-01 2.405477166175842285e-01
-2.334597408771514893e-01 5.094642043113708496e-01 -1.917014420032501221e-01
-2.824365496635437012e-01 9.303079843521118164e-01 -2.370890676975250244e-01
-2.367018014192581177e-01 5.106572508811950684e-01 -3.012225627899169922e-01
-2.395226359367370605e-01 6.318498253822326660e-01 -1.110461726784706116e-02
-2.672645449638366699e-01 6.945712566375732422e-01 -3.894059956073760986e-01
-2.857796251773834229e-01 7.905414700508117676e-01 1.528037190437316895e-01
-2.431502938270568848e-01 6.945995688438415527e-01 -1.309124827384948730e-01
-2.417137920856475830e-01 6.735311150550842285e-01 -6.473803520202636719e-02
-2.660553455352783203e-01 4.582707583904266357e-01 1.177228838205337524e-01
-2.439513057470321655e-01 7.069447040557861328e-01 -7.658897340297698975e-02
-2.721450924873352051e-01 5.230410099029541016e-01 3.375924378633499146e-02
-2.432300448417663574e-01 6.714913845062255859e-01 6.135825067758560181e-02
-2.520067691802978516e-01 7.851533889770507812e-01 7.486884295940399170e-02
-2.307383418083190918e-01 4.516950547695159912e-01 -1.382600963115692139e-01
-2.413631528615951538e-01 6.411620974540710449e-01 -2.476359307765960693e-01
-2.554453909397125244e-01 8.194427490234375000e-01 -2.527139186859130859e-01
-2.327675670385360718e-01 3.384165465831756592e-01 1.158327609300613403e-01
-2.361914813518524170e-01 4.074888825416564941e-01 -3.158052861690521240e-01
-2.604201436042785645e-01 8.945714235305786133e-01 -4.784228652715682983e-02
-2.450909912586212158e-01 6.746010184288024902e-01 1.229609102010726929e-01
-2.647399306297302246e-01 4.451691508293151855e-01 1.238604635000228882e-01
-2.466230988502502441e-01 6.261326074600219727e-01 2.287311553955078125e-01
-2.588438093662261963e-01 8.800112009048461914e-01 -1.116292327642440796e-01
-2.795711755752563477e-01 6.586912870407104492e-01 -1.240051239728927612e-01
-2.383624464273452759e-01 5.573484897613525391e-01 1.239055097103118896e-01
-2.497386634349822998e-01 7.623286843299865723e-01 5.802032351493835449e-02
-2.766332924365997314e-01 6.322432160377502441e-01 2.136553674936294556e-01
-2.483067810535430908e-01 6.993389725685119629e-01 1.648337841033935547e-01
-2.380371093750000000e-01 6.118579506874084473e-01 -4.366958141326904297e-02
-2.320530563592910767e-01 4.924525320529937744e-01 -1.158840656280517578e-01
-2.723400890827178955e-01 6.725882887840270996e-01 3.178395032882690430e-01
-2.529659569263458252e-01 7.998247146606445312e-01 6.299263238906860352e-02
-2.826647758483886719e-01 7.056826353073120117e-01 -9.153386950492858887e-02
-2.737570106983184814e-01 7.801939249038696289e-01 -3.532257378101348877e-01
-2.570530474185943604e-01 5.178651809692382812e-01 -3.743807673454284668e-01
-2.315050363540649414e-01 4.722815752029418945e-01 -1.483702063560485840e-01
-2.834742665290832520e-01 8.758000135421752930e-01 -2.390052080154418945e-01
-2.727157771587371826e-01 9.448724985122680664e-01 1.438418477773666382e-01
-2.569519877433776855e-01 8.587670922279357910e-01 -1.985894516110420227e-02
-2.658773660659790039e-01 9.338897466659545898e-01 1.804213970899581909e-02
-2.750361263751983643e-01 6.187039017677307129e-01 2.332504689693450928e-01
-2.484146505594253540e-01 5.808348059654235840e-01 2.876054048538208008e-01
-2.461628913879394531e-01 2.858934104442596436e-01 6.252875924110412598e-02
-2.782373428344726562e-01 7.061983942985534668e-01 -2.470404356718063354e-01
-2.725000381469726562e-01 5.385441780090332031e-01 -8.380964398384094238e-02
-2.590763866901397705e-01 8.684372901916503906e-01 -2.059268057346343994e-01
-2.487565129995346069e-01 3.045323193073272705e-01 8.783689141273498535e-02
-2.495846748352050781e-01 7.134310603141784668e-01 -3.306524753570556641e-01
-2.896855473518371582e-01 8.844095468521118164e-01 3.365815430879592896e-02
-2.481153160333633423e-01 5.119946002960205078e-01 -4.014666676521301270e-01
-2.504544258117675781e-01 6.142837405204772949e-01 2.912526428699493408e-01
-2.554090321063995361e-01 3.681418001651763916e-01 1.588302552700042725e-01
-2.352233231067657471e-01 5.432509779930114746e-01 2.291065827012062073e-02
-2.385182678699493408e-01 5.242248773574829102e-01 -3.270083963871002197e-01
-2.786423861980438232e-01 6.403882503509521484e-01 -1.177181974053382874e-01
-2.409668415784835815e-01 6.079161763191223145e-01 1.221749782562255859e-01
-2.297522276639938354e-01 3.887382149696350098e-01 -1.726035475730895996e-01
-2.745214700698852539e-01 5.912688970565795898e-01 1.987095326185226440e-01
-2.777863144874572754e-01 9.698827266693115234e-01 -2.166084498167037964e-01
-2.395590990781784058e-01 6.164204478263854980e-01 4.863033443689346313e-02
-2.789188027381896973e-01 6.642192006111145020e-01 -1.645067632198333740e-01
-2.289801985025405884e-01 3.884757757186889648e-01 -8.570935577154159546e-02
-2.286278307437896729e-01 3.549538552761077881e-01 -6.454488635063171387e-02
-2.501377463340759277e-01 7.681182026863098145e-01 -2.309329658746719360e-01
-2.626053988933563232e-01 7.312312126159667969e-01 3.202702999114990234e-01
-2.289092838764190674e-01 3.570648431777954102e-01 -1.321798712015151978e-01
-2.396143823862075806e-01 5.732663869857788086e-01 1.374733000993728638e-01
-2.553369402885437012e-01 3.524950444698333740e-01 9.894959628582000732e-02
-2.448465675115585327e-01 6.956111788749694824e-01 6.090394407510757446e-02
-2.874967157840728760e-01 8.447374105453491211e-01 -1.168100014328956604e-01
-2.619464993476867676e-01 4.104912877082824707e-01 9.084212779998779297e-02
-2.587929666042327881e-01 7.042971849441528320e-01 3.118243217468261719e-01
-2.657967805862426758e-01 6.019861102104187012e-01 -3.559899926185607910e-01
-2.550806999206542969e-01 3.464396595954895020e-01 -6.797134876251220703e-02
-2.322187572717666626e-01 3.725044727325439453e-01 1.079511940479278564e-01
-2.564031183719635010e-01 8.512100577354431152e-01 -4.428122192621231079e-03
-2.508393526077270508e-01 6.227234005928039551e-01 -4.097334444522857666e-01
-2.380647361278533936e-01 4.984717965126037598e-01 1.802634149789810181e-01
-2.717410326004028320e-01 9.740008115768432617e-01 1.991380751132965088e-02
-2.857938408851623535e-01 7.532876729965209961e-01 3.729844838380813599e-02
-2.621484398841857910e-01 8.993122577667236328e-01 -1.876805424690246582e-01
-2.883245050907135010e-01 8.394867777824401855e-01 -6.109266728162765503e-02
-2.655938267707824707e-01 4.480147957801818848e-01 -5.345896258950233459e-02
-2.704833149909973145e-01 9.044802784919738770e-01 1.983224898576736450e-01
-2.334624528884887695e-01 5.204724669456481934e-01 -3.307891637086868286e-02
-2.581000328063964844e-01 8.645690083503723145e-01 1.989793404936790466e-02
-2.709188461303710938e-01 5.160047411918640137e-01 -7.620376348495483398e-02
-2.317420542240142822e-01 3.715822994709014893e-01 -2.406336367130279541e-01
-2.364826351404190063e-01 5.874090790748596191e-01 -1.055451035499572754e-01
-2.691885232925415039e-01 5.466533303260803223e-01 2.497806847095489502e-01
-2.791771292686462402e-01 1.002860784530639648e+00 4.315318167209625244e-02
-2.465361058712005615e-01 7.030502557754516602e-01 -2.808451056480407715e-01
-2.787854671478271484e-01 6.256312727928161621e-01 9.745816886425018311e-02
-2.571121752262115479e-01 8.316897153854370117e-01 1.073271930217742920e-01
-2.331426441669464111e-01 4.541508555412292480e-01 -2.549425959587097168e-01
-2.619679570198059082e-01 5.374263525009155273e-01 -3.438738882541656494e-01
-2.502908408641815186e-01 3.785755038261413574e-01 -2.775383591651916504e-01
-2.774221301078796387e-01 6.812047958374023438e-01 -2.367472201585769653e-01
-2.336565852165222168e-01 5.307502150535583496e-01 -1.054218262434005737e-01
-2.620920240879058838e-01 4.523954689502716064e-01 2.228796780109405518e-01
-2.404804229736328125e-01 5.719569921493530273e-01 1.623232513666152954e-01
-2.746024131774902344e-01 6.691604852676391602e-01 2.919648289680480957e-01
-2.371726185083389282e-01 4.831295609474182129e-01 -3.247686922550201416e-01
-2.462385445833206177e-01 7.122634053230285645e-01 7.048100978136062622e-02
-2.492317557334899902e-01 3.969522118568420410e-01 -3.144213855266571045e-01
-2.899743616580963135e-01 9.154351353645324707e-01 -7.174614816904067993e-03
-2.652372121810913086e-01 5.211295485496520996e-01 -2.740986645221710205e-01
-2.519793212413787842e-01 6.310020089149475098e-01 2.972007691860198975e-01
-2.584961950778961182e-01 7.833924293518066406e-01 2.304183542728424072e-01
-2.527685463428497314e-01 7.071585059165954590e-01 2.408722937107086182e-01
-2.520354688167572021e-01 4.038904905319213867e-01 -2.971393764019012451e-01
-2.575917541980743408e-01 3.678449094295501709e-01 -6.326769292354583740e-02
-2.639101445674896240e-01 8.328710794448852539e-01 2.341561317443847656e-01
-2.292288541793823242e-01 3.663128316402435303e-01 -1.531783938407897949e-01
-2.725945413112640381e-01 6.480092406272888184e-01 -2.993028163909912109e-01
-2.839159369468688965e-01 8.020378351211547852e-01 2.161662280559539795e-01
-2.614669203758239746e-01 6.505723595619201660e-01 -4.116404354572296143e-01
-2.782199084758758545e-01 7.778236865997314453e-01 -2.999602556228637695e-01
-2.816340923309326172e-01 6.902053952217102051e-01 1.487864106893539429e-01
-2.642980217933654785e-01 4.468860030174255371e-01 -1.250685453414916992e-01
-2.751868963241577148e-01 9.959686994552612305e-01 -1.280233077704906464e-02
-2.756296396255493164e-01 5.734814405441284180e-01 -2.296489477157592773e-02
-2.420829385519027710e-01 5.365388393402099609e-01 2.280249595642089844e-01
-2.845136523246765137e-01 8.661473393440246582e-01 -2.180229872465133667e-01
-2.434554845094680786e-01 6.133252382278442383e-01 1.803749799728393555e-01
-2.748772501945495605e-01 6.268725991249084473e-01 -2.231587320566177368e-01
-2.725418508052825928e-01 9.838474988937377930e-01 -8.581513166427612305e-02
-2.887983918190002441e-01 9.137690067291259766e-01 1.081894934177398682e-01
-2.790417969226837158e-01 6.576388478279113770e-01 -1.451365351676940918e-01
-2.325992584228515625e-01 5.008337497711181641e-01 -1.505672037601470947e-01
-2.628176510334014893e-01 8.783639669418334961e-01 -2.690482139587402344e-01
-2.600153684616088867e-01 5.000830888748168945e-01 -3.276030719280242920e-01
-2.350146621465682983e-01 5.578033924102783203e-01 -1.281344890594482422e-01
-2.441754192113876343e-01 2.706019282341003418e-01 6.436794996261596680e-03
-2.331193834543228149e-01 3.704314827919006348e-01 1.291825771331787109e-01
-2.876533865928649902e-01 8.851578831672668457e-01 -1.395253539085388184e-01
-2.597118318080902100e-01 8.107326030731201172e-01 2.082925885915756226e-01
-2.895373404026031494e-01 8.860841989517211914e-01 -3.771788626909255981e-02
-2.829846441745758057e-01 7.476661205291748047e-01 1.963701248168945312e-01
-2.735915482044219971e-01 5.447315573692321777e-01 -2.550079859793186188e-02
-2.444214075803756714e-01 7.112894654273986816e-01 -4.402489960193634033e-02
-2.522372007369995117e-01 3.307795822620391846e-01 -1.129490062594413757e-01
-2.585811913013458252e-01 7.748470902442932129e-01 2.430353462696075439e-01
-2.456677407026290894e-01 5.607279539108276367e-01 2.656311094760894775e-01
-2.402386218309402466e-01 5.703222155570983887e-01 -3.232837617397308350e-01
-2.401901036500930786e-01 2.974465787410736084e-01 -2.182670682668685913e-01
-2.428209036588668823e-01 2.815574705600738525e-01 -1.501707732677459717e-01
-2.598590254783630371e-01 8.872355222702026367e-01 -2.071520499885082245e-02
-2.399013489484786987e-01 5.298537015914916992e-01 1.931134760379791260e-01
-2.375481426715850830e-01 5.110788345336914062e-01 1.577147990465164185e-01
-2.521132826805114746e-01 8.105749487876892090e-01 -7.833831757307052612e-02
-2.557857632637023926e-01 7.910304665565490723e-01 -3.188211321830749512e-01
-2.464050799608230591e-01 7.290380597114562988e-01 1.679160818457603455e-02
-2.853309810161590576e-01 7.446535825729370117e-01 6.073104590177536011e-02
-2.376595288515090942e-01 3.883653581142425537e-01 -3.204904496669769287e-01
-2.763804495334625244e-01 7.307556867599487305e-01 -3.035664856433868408e-01
-2.340458929538726807e-01 4.810221791267395020e-01 -2.591836452484130859e-01
-2.805137932300567627e-01 6.701906919479370117e-01 -1.085012853145599365e-01
-2.299579083919525146e-01 2.906349301338195801e-01 -1.085134036839008331e-02
-2.669789791107177734e-01 5.765012502670288086e-01 3.115082383155822754e-01
-2.333896756172180176e-01 4.643915891647338867e-01 8.577737212181091309e-02
-2.879211306571960449e-01 9.742278456687927246e-01 -9.193211048841476440e-02
-2.664282023906707764e-01 4.736168384552001953e-01 -1.339173316955566406e-01
-2.301546931266784668e-01 3.375379741191864014e-01 -1.872565299272537231e-01
-2.661036849021911621e-01 4.522374868392944336e-01 -3.970483317971229553e-02
-2.367416471242904663e-01 5.746849179267883301e-01 -2.076371908187866211e-01
-2.384273111820220947e-01 4.434242248535156250e-01 2.135023176670074463e-01
-2.507500350475311279e-01 7.948623895645141602e-01 -8.248054981231689453e-02
-2.663769125938415527e-01 4.584344029426574707e-01 9.815543889999389648e-02
-2.666362226009368896e-01 9.011665582656860352e-01 -2.755558788776397705e-01
-2.481460720300674438e-01 6.274884939193725586e-01 -3.895255625247955322e-01
-2.697127163410186768e-01 8.239297270774841309e-01 2.898269593715667725e-01
-2.547578215599060059e-01 7.096117138862609863e-01 2.663949131965637207e-01
-2.537709772586822510e-01 3.648858964443206787e-01 -1.918826699256896973e-01
-2.316749244928359985e-01 3.435195088386535645e-01 -2.281338274478912354e-01
-2.335166931152343750e-01 3.434512019157409668e-01 -2.565793991088867188e-01
-2.302135974168777466e-01 4.273073077201843262e-01 -1.997025869786739349e-02
-2.674947679042816162e-01 5.105518698692321777e-01 -2.017830759286880493e-01
-2.450294047594070435e-01 2.876992523670196533e-01 -1.322490423917770386e-01
-2.334100008010864258e-01 3.322447240352630615e-01 -2.463803142309188843e-01
-2.301081717014312744e-01 3.966185748577117920e-01 -1.856047660112380981e-01
-2.792976498603820801e-01 6.978567242622375488e-01 2.358039915561676025e-01
-2.605718970298767090e-01 4.106841087341308594e-01 1.534846872091293335e-01
-2.329508811235427856e-01 4.915829300880432129e-01 2.152764797210693359e-02
-2.415926903486251831e-01 5.562074780464172363e-01 2.036961466073989868e-01
-2.353055924177169800e-01 4.184533357620239258e-01 -3.070223033428192139e-01
-2.705390751361846924e-01 6.474727988243103027e-01 -3.311733901500701904e-01
-2.727552056312561035e-01 5.705538988113403320e-01 -1.764116138219833374e-01
-2.824640274047851562e-01 7.684584856033325195e-01 -2.076493799686431885e-01
-2.855916917324066162e-01 7.510983943939208984e-01 -1.829461194574832916e-02
-2.529121339321136475e-01 3.247778713703155518e-01 6.681904196739196777e-04
-2.648293673992156982e-01 8.054343461990356445e-01 2.762736380100250244e-01
-2.879529297351837158e-01 8.472567796707153320e-01 -9.744763374328613281e-02
-2.852200567722320557e-01 8.415653705596923828e-01 2.025172561407089233e-01
-2.803324460983276367e-01 8.170271515846252441e-01 -2.813377678394317627e-01
-2.315578609704971313e-01 4.682625830173492432e-01 -1.498775184154510498e-02
-2.858431339263916016e-01 8.098061084747314453e-01 1.708760559558868408e-01
-2.443619370460510254e-01 2.806915342807769775e-01 -1.156271174550056458e-01
-2.302855551242828369e-01 2.976295650005340576e-01 -1.465166807174682617e-01
-2.413976192474365234e-01 5.058693289756774902e-01 -3.699543774127960205e-01
-2.350078821182250977e-01 4.418677091598510742e-01 1.504353433847427368e-01
-2.341260462999343872e-01 5.191733837127685547e-01 -2.068404704332351685e-01
-2.469743043184280396e-01 6.657253503799438477e-01 1.872639507055282593e-01
-2.532626390457153320e-01 8.097078204154968262e-01 3.688643872737884521e-02
-2.350418865680694580e-01 5.508408546447753906e-01 -1.656145788729190826e-02
-2.329268455505371094e-01 2.818430364131927490e-01 6.583163887262344360e-02
-2.350023090839385986e-01 3.568060696125030518e-01 1.613655388355255127e-01
-2.766061425209045410e-01 7.901027202606201172e-01 -3.254418671131134033e-01
-2.683416008949279785e-01 4.874075651168823242e-01 1.313258260488510132e-01
-2.647096812725067139e-01 6.368862390518188477e-01 -3.879100978374481201e-01
-2.359076291322708130e-01 5.396324992179870605e-01 -2.461820095777511597e-01
-2.464756220579147339e-01 7.351338267326354980e-01 -1.752863228321075439e-01
-2.477798461914062500e-01 7.321233749389648438e-01 -2.512853145599365234e-01
-2.323790937662124634e-01 4.826234579086303711e-01 7.286287844181060791e-03
-2.874227762222290039e-01 8.568567037582397461e-01 -1.313675940036773682e-01
-2.329629212617874146e-01 4.213453531265258789e-01 -2.658382058143615723e-01
-2.444844692945480347e-01 7.044547200202941895e-01 6.857987493276596069e-03
-2.853055894374847412e-01 8.089209794998168945e-01 1.863151490688323975e-01
-2.511089742183685303e-01 7.516484856605529785e-01 -2.992565333843231201e-01
-2.893437147140502930e-01 8.829818964004516602e-01 -5.229997634887695312e-02
-2.536680996417999268e-01 3.363637030124664307e-01 -7.962529361248016357e-02
-2.321707010269165039e-01 4.874496757984161377e-01 -1.599191129207611084e-01
-2.511587142944335938e-01 7.988950014114379883e-01 -6.041460856795310974e-02
-2.587226331233978271e-01 8.501679301261901855e-01 -2.546675205230712891e-01
-2.820222377777099609e-01 7.025912404060363770e-01 -1.184834018349647522e-01
-2.886106967926025391e-01 8.335410356521606445e-01 4.034843295812606812e-02
-2.332006096839904785e-01 4.769673347473144531e-01 6.144704669713973999e-02
-2.391327172517776489e-01 6.033554673194885254e-01 6.364650279283523560e-02
-2.415691018104553223e-01 6.677368283271789551e-01 -3.020480833947658539e-02
-2.875871062278747559e-01 8.144837617874145508e-01 9.629790484905242920e-02
-2.448504567146301270e-01 3.473463356494903564e-01 -2.780401706695556641e-01
-2.522220909595489502e-01 3.591297566890716553e-01 -2.093877643346786499e-01
-2.872338891029357910e-01 8.056136965751647949e-01 -6.657747179269790649e-02
-2.370472699403762817e-01 5.977419018745422363e-01 -8.913607895374298096e-02
-2.769475579261779785e-01 6.001819372177124023e-01 -6.936245411634445190e-02
-2.660749256610870361e-01 9.415771961212158203e-01 -1.011609584093093872e-01
-2.477336227893829346e-01 7.444898486137390137e-01 -2.088789194822311401e-01
-2.675320506095886230e-01 4.697400033473968506e-01 8.470781147480010986e-02
-2.486758679151535034e-01 6.294307112693786621e-01 2.580839097499847412e-01
-2.846193313598632812e-01 7.321015000343322754e-01 8.184413611888885498e-02
-2.442883253097534180e-01 6.580911278724670410e-01 1.313472539186477661e-01
-2.386300414800643921e-01 4.832967519760131836e-01 -3.447473049163818359e-01
-2.857273221015930176e-01 8.716301321983337402e-01 -1.915247142314910889e-01
-2.673784494400024414e-01 4.644006490707397461e-01 4.206088185310363770e-02
-2.396409958600997925e-01 4.920346140861511230e-01 2.141743451356887817e-01
-2.558381557464599609e-01 8.402240276336669922e-01 2.600076794624328613e-02
-2.714651525020599365e-01 7.358807325363159180e-01 -3.660761713981628418e-01
-2.341472208499908447e-01 5.389718413352966309e-01 -1.355156600475311279e-01
-2.513636350631713867e-01 7.977455854415893555e-01 -2.058871090412139893e-02
-2.877667248249053955e-01 8.059515357017517090e-01 -5.250515416264533997e-03
-2.659933865070343018e-01 4.488317966461181641e-01 4.624760895967483521e-02
-2.617222964763641357e-01 4.447932839393615723e-01 -2.044277638196945190e-01
-2.879021763801574707e-01 9.827597141265869141e-01 4.949209839105606079e-02
-2.313760817050933838e-01 2.770271301269531250e-01 -1.311329305171966553e-01
-2.434759587049484253e-01 6.305735707283020020e-01 -3.231987953186035156e-01
-2.714386582374572754e-01 5.736712813377380371e-01 2.455997169017791748e-01
-2.734484970569610596e-01 5.831297039985656738e-01 2.138597369194030762e-01
-2.575611770153045654e-01 6.849310398101806641e-01 3.145239651203155518e-01
-2.504237890243530273e-01 5.840603113174438477e-01 3.059982657432556152e-01
-2.795569598674774170e-01 6.330315470695495605e-01 5.315198749303817749e-02
-2.790170013904571533e-01 8.233690261840820312e-01 -3.014043569564819336e-01
-2.391343563795089722e-01 5.822264552116394043e-01 1.081619262695312500e-01
-2.475559860467910767e-01 6.837014555931091309e-01 -3.342691659927368164e-01
-2.440092414617538452e-01 7.038289308547973633e-01 -3.000110946595668793e-02
-2.890185415744781494e-01 9.581984281539916992e-01 5.943680554628372192e-02
-2.601134777069091797e-01 8.814885020256042480e-01 -1.896299570798873901e-01
-2.571903467178344727e-01 3.743736743927001953e-01 1.302265375852584839e-01
-2.609748244285583496e-01 8.850479125976562500e-01 -2.064799070358276367e-01
-2.551015019416809082e-01 8.410135507583618164e-01 -3.452276065945625305e-02
-2.670673727989196777e-01 9.465045928955078125e-01 -1.280330866575241089e-01
-2.462243139743804932e-01 6.895535588264465332e-01 -2.981254160404205322e-01
-2.360932976007461548e-01 5.762248635292053223e-01 -1.505313962697982788e-01
-2.679722309112548828e-01 4.861013889312744141e-01 -1.104524880647659302e-01
-2.294265478849411011e-01 2.937886416912078857e-01 -8.129816502332687378e-02
-2.603912353515625000e-01 4.054473042488098145e-01 -1.242526918649673462e-01
-2.322450876235961914e-01 3.199266791343688965e-01 9.541942179203033447e-02
-2.342480421066284180e-01 2.623879909515380859e-01 -1.316392421722412109e-01
-2.694024443626403809e-01 9.366899132728576660e-01 -2.313473373651504517e-01
-2.803626358509063721e-01 6.555867195129394531e-01 1.131396740674972534e-01
-2.665453553199768066e-01 4.754278361797332764e-01 1.640224456787109375e-01
-2.646949291229248047e-01 6.575558185577392578e-01 -3.962143063545227051e-01
-2.337431460618972778e-01 4.460634887218475342e-01 1.150347143411636353e-01
-2.748930752277374268e-01 9.059514999389648438e-01 -3.030044734477996826e-01
-2.475211769342422485e-01 5.651927590370178223e-01 2.854562699794769287e-01
-2.811633348464965820e-01 6.597228646278381348e-01 2.162719145417213440e-02
-2.523410618305206299e-01 8.034880757331848145e-01 1.569782197475433350e-02
-2.733065187931060791e-01 6.467671394348144531e-01 -2.850323319435119629e-01
-2.742825448513031006e-01 5.519427657127380371e-01 2.276118844747543335e-02
-2.670664191246032715e-01 5.413843393325805664e-01 -2.693840861320495605e-01
-2.884322702884674072e-01 8.451070785522460938e-01 9.279584884643554688e-02
-2.793574631214141846e-01 6.289286017417907715e-01 1.666600257158279419e-02
-2.678334414958953857e-01 6.756932139396667480e-01 -3.786509335041046143e-01
-2.885112166404724121e-01 8.329827189445495605e-01 5.632163584232330322e-02
-2.869874238967895508e-01 8.154611587524414062e-01 -1.019638329744338989e-01
-2.291339039802551270e-01 3.395287394523620605e-01 -1.452865302562713623e-01
-2.310302257537841797e-01 2.750200927257537842e-01 -2.111069858074188232e-03
-2.593013942241668701e-01 8.177580833435058594e-01 1.892424225807189941e-01
-2.892239987850189209e-01 9.115327000617980957e-01 8.972534537315368652e-02
-2.661551535129547119e-01 4.975398480892181396e-01 -2.097559571266174316e-01
-2.662187814712524414e-01 4.511400461196899414e-01 -6.394069641828536987e-03
-2.850555181503295898e-01 7.955877184867858887e-01 -1.571725457906723022e-01
-2.381501197814941406e-01 2.524557113647460938e-01 -7.454772293567657471e-02
-2.531392276287078857e-01 7.803828716278076172e-01 -2.880073189735412598e-01
-2.393033653497695923e-01 5.973894596099853516e-01 -2.649715840816497803e-01
-2.720804512500762939e-01 6.237867474555969238e-01 2.913122177124023438e-01
-2.607249319553375244e-01 4.717742204666137695e-01 -2.784003615379333496e-01
-2.638902366161346436e-01 9.151452779769897461e-01 -1.786483079195022583e-01
-2.376509606838226318e-01 4.577538371086120605e-01 -3.364250063896179199e-01
-2.740296125411987305e-01 8.762143254280090332e-01 -3.278976082801818848e-01
-2.641164958477020264e-01 4.338945746421813965e-01 -6.989997625350952148e-02
-2.863940000534057617e-01 8.683179616928100586e-01 1.806879639625549316e-01
-2.519048750400543213e-01 6.928673982620239258e-01 -3.819911479949951172e-01
-2.320034503936767578e-01 4.023402929306030273e-01 -2.472703307867050171e-01
-2.453828603029251099e-01 5.888842940330505371e-01 2.422744631767272949e-01
-2.691875696182250977e-01 9.204552173614501953e-01 1.502144932746887207e-01
-2.763715982437133789e-01 6.030251979827880859e-01 -1.162088513374328613e-01
-2.658542096614837646e-01 8.669801354408264160e-01 2.066502571105957031e-01
-2.381121218204498291e-01 4.985804259777069092e-01 -3.333401381969451904e-01
-2.539262473583221436e-01 8.123873472213745117e-01 5.689848214387893677e-02
-2.762165367603302002e-01 5.826948285102844238e-01 7.687603682279586792e-02
-2.565777301788330078e-01 7.759875059127807617e-01 -3.501245081424713135e-01
-2.494076341390609741e-01 6.833524107933044434e-01 -3.625207245349884033e-01
-2.377754747867584229e-01 6.041340827941894531e-01 -2.328838780522346497e-02
-2.342044115066528320e-01 3.261903226375579834e-01 1.349380463361740112e-01
-2.794468402862548828e-01 7.047260403633117676e-01 -2.149000614881515503e-01
-2.421727329492568970e-01 6.034441590309143066e-01 -3.280774354934692383e-01
-2.306165993213653564e-01 4.194486737251281738e-01 -1.912199407815933228e-01
-2.897543907165527344e-01 8.953368663787841797e-01 4.329105466604232788e-02
-2.542856335639953613e-01 8.334460854530334473e-01 -4.966673254966735840e-02
-2.595910131931304932e-01 3.917583525180816650e-01 -9.671732038259506226e-02
-2.369255274534225464e-01 5.225238800048828125e-01 1.285472810268402100e-01
-2.544313669204711914e-01 8.262202143669128418e-01 1.998357102274894714e-02
-2.503492534160614014e-01 6.727760434150695801e-01 -3.819411993026733398e-01
-2.462137788534164429e-01 7.177837491035461426e-01 5.143591016530990601e-02
-2.800206243991851807e-01 8.390784859657287598e-01 -2.898127734661102295e-01
-2.726550400257110596e-01 5.375928878784179688e-01 -6.768995523452758789e-02
-2.755715548992156982e-01 5.759526491165161133e-01 -4.974490776658058167e-02
-2.604218423366546631e-01 4.634539783000946045e-01 2.657470107078552246e-01
-2.606069743633270264e-01 8.559707999229431152e-01 1.358177512884140015e-01
-2.412373125553131104e-01 6.660449504852294922e-01 -1.312504559755325317e-01
-2.346702069044113159e-01 5.521910190582275391e-01 -8.693443983793258667e-02
-2.884932160377502441e-01 8.615858554840087891e-01 -8.513514697551727295e-02
-2.838897705078125000e-01 1.014108538627624512e+00 -3.927243128418922424e-02
-2.484801262617111206e-01 7.449138164520263672e-01 6.261064857244491577e-02
-2.838865816593170166e-01 8.450811505317687988e-01 -2.253900617361068726e-01
-2.345278263092041016e-01 5.347986817359924316e-01 -1.902958452701568604e-01
-2.652306854724884033e-01 9.359314441680908203e-01 -6.603930890560150146e-02
-2.489022165536880493e-01 2.975645363330841064e-01 -4.026480391621589661e-02
-2.411579042673110962e-01 2.578206360340118408e-01 -2.925886213779449463e-02
-2.457454800605773926e-01 6.114209294319152832e-01 2.281841635704040527e-01
-2.417558431625366211e-01 5.889512896537780762e-01 1.719893813133239746e-01
-2.384177893400192261e-01 5.977749824523925781e-01 -2.301907390356063843e-01
-2.525033354759216309e-01 4.150393605232238770e-01 -3.078660964965820312e-01
-2.821515500545501709e-01 6.790293455123901367e-01 -7.458373904228210449e-03
-2.429883778095245361e-01 3.728204369544982910e-01 2.409931421279907227e-01
-2.544569373130798340e-01 3.867444396018981934e-01 -2.314487397670745850e-01
-2.616177201271057129e-01 7.941502928733825684e-01 -3.727873265743255615e-01
-2.761139273643493652e-01 6.797416806221008301e-01 2.782040238380432129e-01
-2.873518168926239014e-01 7.931172847747802734e-01 3.642862290143966675e-02
-2.759172320365905762e-01 8.058643937110900879e-01 3.019244670867919922e-01
-2.603188157081604004e-01 8.936827778816223145e-01 -1.105278134346008301e-01
-2.476356178522109985e-01 6.450070738792419434e-01 -3.733031451702117920e-01
-2.435459047555923462e-01 5.118062496185302734e-01 2.617734670639038086e-01
-2.422382533550262451e-01 6.274020671844482422e-01 1.266032606363296509e-01
-2.352056801319122314e-01 5.352620482444763184e-01 -2.255199253559112549e-01
-2.648051083087921143e-01 9.133211374282836914e-01 -2.139190137386322021e-01
-2.522983849048614502e-01 7.522527575492858887e-01 1.644949316978454590e-01
-2.869481444358825684e-01 8.014789819717407227e-01 1.124536246061325073e-01
-2.638827860355377197e-01 4.287837743759155273e-01 -5.031649768352508545e-02
-2.650047540664672852e-01 9.201435446739196777e-01 -1.939278095960617065e-01
-2.552924752235412598e-01 3.589301407337188721e-01 1.301861107349395752e-01
-2.426593005657196045e-01 6.834595799446105957e-01 -2.488980628550052643e-02
-2.694417238235473633e-01 6.038100719451904297e-01 -3.069604337215423584e-01
-2.784066796302795410e-01 6.173359155654907227e-01 -3.401234745979309082e-02
-2.666040360927581787e-01 8.450769186019897461e-01 2.468760013580322266e-01
-2.894899249076843262e-01 9.325042963027954102e-01 6.587170809507369995e-02
-2.352373450994491577e-01 3.702341914176940918e-01 -2.918082773685455322e-01
-2.301829308271408081e-01 4.362789988517761230e-01 -5.408153682947158813e-02
-2.831598520278930664e-01 7.433857917785644531e-01 -1.523552834987640381e-01
-2.345776855945587158e-01 3.959191441535949707e-01 1.571942269802093506e-01
-2.351323515176773071e-01 5.345135331153869629e-01 4.059395194053649902e-02
-2.737821042537689209e-01 6.856526136398315430e-01 -3.128736615180969238e-01
-2.831722199916839600e-01 8.605351448059082031e-01 2.345389127731323242e-01
-2.763772904872894287e-01 1.002306938171386719e+00 -3.564853593707084656e-02
-2.347133606672286987e-01 4.117079973220825195e-01 1.566101610660552979e-01
-2.341196835041046143e-01 5.086264610290527344e-01 4.697073996067047119e-02
-2.636787593364715576e-01 7.698652744293212891e-01 2.998732328414916992e-01
-2.801829874515533447e-01 7.599677443504333496e-01 -2.544564604759216309e-01
-2.705455720424652100e-01 5.242834091186523438e-01 -1.316069364547729492e-01
-2.465718090534210205e-01 6.717190146446228027e-01 1.688261777162551880e-01
-2.585417330265045166e-01 3.962907195091247559e-01 -1.578220129013061523e-01
-2.840911746025085449e-01 7.264151573181152344e-01 1.064876616001129150e-01
-2.891145348548889160e-01 8.637343645095825195e-01 6.768717616796493530e-02
-2.772953808307647705e-01 6.258819699287414551e-01 -1.400610059499740601e-01
-2.454982995986938477e-01 3.142299950122833252e-01 -2.081684470176696777e-01
-2.428727596998214722e-01 3.021252155303955078e-01 1.561042517423629761e-01
-2.705658972263336182e-01 8.901684284210205078e-01 2.215985059738159180e-01
-2.416173517704010010e-01 5.692930817604064941e-01 1.914577931165695190e-01
-2.652928233146667480e-01 4.744858443737030029e-01 1.995178759098052979e-01
-2.387537956237792969e-01 5.743438601493835449e-01 -2.846042811870574951e-01
-2.881076037883758545e-01 9.264137744903564453e-01 1.251220703125000000e-01
-2.808320820331573486e-01 6.783621311187744141e-01 1.575674712657928467e-01
-2.342294603586196899e-01 4.968720078468322754e-01 7.288694381713867188e-02
-2.651221752166748047e-01 9.097238183021545410e-01 9.654007852077484131e-02
-2.767668366432189941e-01 5.882500410079956055e-01 1.010845601558685303e-02
-2.511174976825714111e-01 7.606719136238098145e-01 1.141221225261688232e-01
-2.760715484619140625e-01 6.291580200195312500e-01 -1.924470514059066772e-01
-2.897575199604034424e-01 9.089117050170898438e-01 -3.863970562815666199e-02
-2.630259394645690918e-01 4.404157996177673340e-01 -1.523251533508300781e-01
-2.419542670249938965e-01 6.781918406486511230e-01 -9.015539288520812988e-02
-2.708287239074707031e-01 9.719358682632446289e-01 -7.552513852715492249e-03
-2.337149977684020996e-01 3.541324138641357422e-01 1.390275061130523682e-01
-2.337453216314315796e-01 4.080035388469696045e-01 1.366194784641265869e-01
-2.667768597602844238e-01 9.163185358047485352e-01 1.161408424377441406e-01
-2.515230178833007812e-01 7.504580616950988770e-01 1.488826572895050049e-01
-2.663488388061523438e-01 4.914073944091796875e-01 -1.897192895412445068e-01
-2.481421381235122681e-01 5.990696549415588379e-01 2.737755477428436279e-01
-2.464216500520706177e-01 5.894628763198852539e-01 2.573830783367156982e-01
-2.808133363723754883e-01 7.145638465881347656e-01 2.179481387138366699e-01
-2.315537333488464355e-01 2.946642935276031494e-01 5.539722740650177002e-02
-2.536405622959136963e-01 7.304491996765136719e-01 2.258349657058715820e-01
-2.866972386837005615e-01 8.514394760131835938e-01 -1.538082957267761230e-01
-2.540313005447387695e-01 8.049061298370361328e-01 8.694915473461151123e-02
-2.407056093215942383e-01 6.563733220100402832e-01 -4.682969301939010620e-02
-2.845283150672912598e-01 7.251481413841247559e-01 4.091307520866394043e-02
-2.587242722511291504e-01 7.862779498100280762e-01 -3.600446581840515137e-01
-2.621088624000549316e-01 4.433337450027465820e-01 -1.902116686105728149e-01
-2.310096323490142822e-01 4.324992597103118896e-01 2.472171932458877563e-02
-2.467233240604400635e-01 7.431786060333251953e-01 -1.370774209499359131e-01
-2.659254670143127441e-01 4.652212858200073242e-01 1.529481261968612671e-01
-2.680599391460418701e-01 9.563000202178955078e-01 -8.949723839759826660e-02
-2.485247552394866943e-01 3.300759494304656982e-01 -2.027701884508132935e-01
-2.627871036529541016e-01 8.817591667175292969e-01 1.208141297101974487e-01
-2.721080183982849121e-01 5.612328648567199707e-01 2.078037858009338379e-01
-2.624064385890960693e-01 7.450625896453857422e-01 3.099890947341918945e-01
-2.758867740631103516e-01 9.812957048416137695e-01 -1.810792535543441772e-01
-2.859135270118713379e-01 7.691961526870727539e-01 1.055015176534652710e-01
-2.510151565074920654e-01 7.745519876480102539e-01 -2.432211786508560181e-01
-2.483714967966079712e-01 7.167848348617553711e-01 1.330222189426422119e-01
-2.464680373668670654e-01 7.372642755508422852e-01 -1.605381816625595093e-01
-2.740960717201232910e-01 7.424407005310058594e-01 3.195658922195434570e-01
-2.593005895614624023e-01 8.809192180633544922e-01 -1.492942124605178833e-01
-2.614778876304626465e-01 4.616430997848510742e-01 2.492424845695495605e-01
-2.864238023757934570e-01 8.477709293365478516e-01 1.759914308786392212e-01
-2.780407965183258057e-01 6.712881326675415039e-01 -2.060402631759643555e-01
-2.775149643421173096e-01 8.054687976837158203e-01 -3.175037801265716553e-01
-2.524216771125793457e-01 3.223303258419036865e-01 3.633459657430648804e-02
-2.311785370111465454e-01 4.270460009574890137e-01 4.079964011907577515e-02
-2.536985874176025391e-01 3.320038318634033203e-01 -3.463843837380409241e-02
-2.349790036678314209e-01 5.547332763671875000e-01 -1.470336318016052246e-01
-2.396492958068847656e-01 2.704658508300781250e-01 8.939509093761444092e-02
-2.669969201087951660e-01 6.564525365829467773e-01 -3.776164352893829346e-01
-2.532523572444915771e-01 8.201155066490173340e-01 -1.486202031373977661e-01
-2.599034905433654785e-01 3.851005434989929199e-01 -4.730159416794776917e-03
-2.524723112583160400e-01 3.802804052829742432e-01 -2.515712678432464600e-01
-2.356883883476257324e-01 5.722781419754028320e-01 -8.373598754405975342e-02
-2.632649838924407959e-01 9.046013355255126953e-01 -2.033199518918991089e-01
-2.476017177104949951e-01 3.064917623996734619e-01 1.223782747983932495e-01
-2.782756090164184570e-01 7.176525592803955078e-01 -2.579997777938842773e-01
-2.625950574874877930e-01 4.504458904266357422e-01 2.086206525564193726e-01
-2.696544229984283447e-01 9.588327407836914062e-01 3.219344466924667358e-02
-2.454029917716979980e-01 7.264878749847412109e-01 -1.253469437360763550e-01
-2.564734220504760742e-01 8.116433620452880859e-01 1.412969827651977539e-01
-2.374026328325271606e-01 5.391568541526794434e-01 -2.918018996715545654e-01
-2.582798004150390625e-01 3.704933524131774902e-01 3.703170269727706909e-02
-2.534552812576293945e-01 8.256489038467407227e-01 -8.290277421474456787e-02
-2.402239441871643066e-01 5.158071517944335938e-01 -3.555140793323516846e-01
-2.659010887145996094e-01 4.472351372241973877e-01 3.182422369718551636e-02
-2.713745236396789551e-01 5.346364974975585938e-01 1.659138798713684082e-01
-2.475251108407974243e-01 7.338477373123168945e-01 -2.368354350328445435e-01
-2.379599064588546753e-01 4.193896353244781494e-01 2.104743123054504395e-01
-2.376773655414581299e-01 5.831561088562011719e-01 4.703275114297866821e-02
-2.615320086479187012e-01 8.541018366813659668e-01 -2.978568077087402344e-01
-2.307376563549041748e-01 4.345121383666992188e-01 4.905715584754943848e-03
-2.500044405460357666e-01 6.981571316719055176e-01 2.039886415004730225e-01
-2.465003579854965210e-01 6.802170276641845703e-01 1.525801569223403931e-01
-2.617428302764892578e-01 8.991231322288513184e-01 -1.714375913143157959e-01
-2.754664719104766846e-01 6.995293498039245605e-01 2.984105050563812256e-01
-2.311458885669708252e-01 4.404420852661132812e-01 -1.931233853101730347e-01
-2.333328872919082642e-01 4.071463346481323242e-01 -2.754088938236236572e-01
-2.465328574180603027e-01 7.417327165603637695e-01 -6.617865711450576782e-02
-2.684206366539001465e-01 9.002436399459838867e-01 1.814857423305511475e-01
-2.524802684783935547e-01 8.138111829757690430e-01 -1.227810829877853394e-01
-2.563501894474029541e-01 7.866722345352172852e-01 -3.335723578929901123e-01
-2.385677844285964966e-01 2.746165990829467773e-01 -1.712490618228912354e-01
-2.350018918514251709e-01 5.440329909324645996e-01 6.203524768352508545e-03
-2.838456034660339355e-01 8.030941486358642578e-01 -2.021042406558990479e-01
-2.825731337070465088e-01 7.079910039901733398e-01 1.460416764020919800e-01
-2.596798241138458252e-01 7.468546628952026367e-01 2.862418293952941895e-01
-2.797168493270874023e-01 6.939985752105712891e-01 -1.912908703088760376e-01
-2.882171273231506348e-01 8.194786906242370605e-01 -8.475370705127716064e-04
-2.312674969434738159e-01 3.107321858406066895e-01 6.521169841289520264e-02
-2.896768748760223389e-01 8.816429972648620605e-01 -1.530323177576065063e-03
-2.800788879394531250e-01 6.543649435043334961e-01 1.277150064706802368e-01
-2.690605223178863525e-01 7.413591146469116211e-01 -3.851210772991180420e-01
-2.687446177005767822e-01 9.550454020500183105e-01 -1.476882249116897583e-01
-2.425951808691024780e-01 6.870117187500000000e-01 -6.945358216762542725e-02
-2.491037994623184204e-01 6.807959675788879395e-01 2.102065235376358032e-01
-2.523660659790039062e-01 7.943484783172607422e-01 -2.291758954524993896e-01
-2.311851382255554199e-01 4.681867957115173340e-01 -5.997957289218902588e-02
-2.654053866863250732e-01 9.005177021026611328e-01 -2.606399059295654297e-01
-2.834032773971557617e-01 8.957383632659912109e-01 -2.384532094001770020e-01
-2.506707012653350830e-01 3.254652917385101318e-01 1.273829787969589233e-01
