-3.803154528141021729e-01 -9.123579412698745728e-02 -1.418951600790023804e-01
-2.400241792201995850e-03 -4.023578390479087830e-02 3.905788660049438477e-01
1.121267676353454590e-03 -1.064180880784988403e-01 2.853214442729949951e-01
-6.428408622741699219e-02 -4.800003021955490112e-02 -3.861053884029388428e-01
2.845385670661926270e-02 8.668715506792068481e-02 -2.726580798625946045e-01
-3.924707472324371338e-01 -1.512212678790092468e-02 1.361696273088455200e-01
8.810696005821228027e-02 1.105124689638614655e-02 3.243211209774017334e-01
3.413379192352294922e-02 -1.259216666221618652e-01 -9.098866581916809082e-02
-3.419947028160095215e-01 -1.371369510889053345e-01 8.270460367202758789e-02
-3.407373130321502686e-01 -3.890148550271987915e-02 -2.691018581390380859e-01
-1.913577318191528320e-01 7.065236568450927734e-04 -3.901785612106323242e-01
7.032380998134613037e-02 4.664272814989089966e-02 3.163078427314758301e-01
-2.993190586566925049e-01 -9.482581168413162231e-02 2.999598085880279541e-01
-1.017818227410316467e-01 1.004400849342346191e-01 2.547615468502044678e-01
-2.636287510395050049e-01 -2.967575564980506897e-02 3.677678108215332031e-01
-1.308320760726928711e-01 -1.194002181291580200e-01 -2.889511287212371826e-01
1.308247745037078857e-01 8.571075648069381714e-02 1.345421075820922852e-01
8.758635818958282471e-02 -1.080771535634994507e-01 -7.679946720600128174e-03
-1.891815513372421265e-01 -2.796348556876182556e-02 -3.948466181755065918e-01
1.563985645771026611e-01 -4.808335006237030029e-02 1.247534006834030151e-01
-3.410020768642425537e-01 -1.008264496922492981e-01 2.329934686422348022e-01
-1.947374939918518066e-01 3.716174885630607605e-02 -3.583132326602935791e-01
-1.792622208595275879e-01 1.298217661678791046e-02 -3.884018361568450928e-01
1.187590509653091431e-01 4.534059017896652222e-02 -2.433437407016754150e-01
-5.153067782521247864e-02 1.756669953465461731e-03 4.151338636875152588e-01
-1.068895831704139709e-01 -1.135659664869308472e-01 -2.979857325553894043e-01
-2.643238902091979980e-01 9.155909717082977295e-02 -8.978139609098434448e-02
-1.328305900096893311e-01 5.633217096328735352e-02 -3.566834032535552979e-01
-4.001250863075256348e-02 -4.661434888839721680e-02 4.053022563457489014e-01
-2.022259533405303955e-01 -9.566909074783325195e-02 3.641562759876251221e-01
5.818434059619903564e-02 -6.131280213594436646e-02 -2.813355028629302979e-01
1.050072759389877319e-01 -9.767320752143859863e-02 6.452398747205734253e-02
-2.494075745344161987e-01 9.670541435480117798e-02 -9.610608220100402832e-02
4.372063279151916504e-02 1.055087149143218994e-01 -2.012471109628677368e-01
-3.088372647762298584e-01 7.406013458967208862e-02 -4.428964108228683472e-02
-2.505674958229064941e-01 9.978751838207244873e-02 -3.626337647438049316e-02
-1.408366113901138306e-01 1.258367002010345459e-01 5.891390144824981689e-02
-2.272672355175018311e-01 6.987167149782180786e-02 -2.692719995975494385e-01
2.220170199871063232e-02 8.322196081280708313e-03 -3.636288940906524658e-01
3.229743242263793945e-02 -5.215669795870780945e-02 -3.232321739196777344e-01
-3.314573466777801514e-01 -1.661150343716144562e-02 -2.769060134887695312e-01
-3.781852722167968750e-01 -6.033808924257755280e-03 1.696310192346572876e-01
8.539301156997680664e-02 1.173245087265968323e-01 -1.413560658693313599e-02
1.003287434577941895e-01 7.900249212980270386e-03 -2.878670990467071533e-01
-6.042471528053283691e-02 -1.580081284046173096e-01 -1.882465369999408722e-02
3.480330109596252441e-03 -7.518612593412399292e-02 -3.143565654754638672e-01
-1.935268342494964600e-01 -1.699167788028717041e-01 1.831413805484771729e-02
-1.624511629343032837e-01 1.218660995364189148e-01 6.253250688314437866e-02
-1.067865937948226929e-01 1.314816176891326904e-01 -4.393305629491806030e-02
-2.488244473934173584e-01 7.929185777902603149e-02 -2.076763063669204712e-01
8.439327776432037354e-02 -8.204908668994903564e-02 2.304395437240600586e-01
9.352093935012817383e-02 8.332711458206176758e-02 -2.126100063323974609e-01
-2.861285805702209473e-01 7.023043930530548096e-02 1.628651469945907593e-01
-3.210992813110351562e-01 -1.479883790016174316e-01 4.654249548912048340e-02
4.665058851242065430e-02 6.519215553998947144e-02 3.087776899337768555e-01
7.698747515678405762e-02 6.307788938283920288e-02 2.851064503192901611e-01
-3.679699450731277466e-02 1.306588053703308105e-01 9.371773898601531982e-02
-2.082671523094177246e-01 -1.009572520852088928e-01 -3.229269385337829590e-01
-2.311719059944152832e-01 1.067344322800636292e-01 -4.851049743592739105e-03
-2.637090682983398438e-01 -1.535991132259368896e-01 1.561620980501174927e-01
-3.635337352752685547e-01 -1.150371879339218140e-01 -1.150798648595809937e-01
-1.078883409500122070e-01 3.793629258871078491e-02 3.902758061885833740e-01
7.799637317657470703e-02 1.140006855130195618e-01 9.900828450918197632e-02
-2.472186237573623657e-01 1.012917160987854004e-01 -2.130241692066192627e-02
-4.207415878772735596e-02 -1.150787994265556335e-01 -2.586125135421752930e-01
1.730793416500091553e-01 -2.528019249439239502e-02 -8.439923822879791260e-02
-1.196490824222564697e-01 -1.241090670228004456e-01 -2.733083963394165039e-01
-2.992637157440185547e-01 -1.063657831400632858e-02 3.234391212463378906e-01
-3.817924559116363525e-01 -1.088446155190467834e-01 -7.226644456386566162e-02
7.721874117851257324e-02 -6.596352159976959229e-02 -2.454607486724853516e-01
-4.225244373083114624e-02 2.413088083267211914e-02 4.003692865371704102e-01
-1.075454354286193848e-01 -1.630569398403167725e-01 -5.878841131925582886e-02
-1.004213094711303711e-01 1.313204467296600342e-01 4.916371405124664307e-02
-3.138779103755950928e-02 -1.230283454060554504e-01 2.661135494709014893e-01
-5.752201005816459656e-02 -9.263509511947631836e-02 -3.236117064952850342e-01
-3.098228871822357178e-01 -1.029472202062606812e-01 2.747235596179962158e-01
1.248080134391784668e-01 6.681347638368606567e-02 2.101334035396575928e-01
3.660760819911956787e-02 -1.315607279539108276e-01 3.459530323743820190e-02
-2.394261956214904785e-02 1.248724088072776794e-01 -1.498969346284866333e-01
4.411453008651733398e-02 -3.636834770441055298e-02 3.583145737648010254e-01
1.030059307813644409e-01 -8.806756138801574707e-02 -1.146663650870323181e-01
-8.851445466279983521e-02 -4.506384581327438354e-02 4.192675054073333740e-01
8.421890437602996826e-02 -8.172032237052917480e-02 -1.910984665155410767e-01
1.035273522138595581e-01 -9.107133001089096069e-02 -9.461398422718048096e-02
-2.274318039417266846e-02 1.169152185320854187e-01 -1.960128843784332275e-01
1.247570663690567017e-01 -7.965131103992462158e-02 -7.257443666458129883e-02
-1.231376230716705322e-01 1.287011802196502686e-01 5.223107337951660156e-02
-2.370387315750122070e-01 1.018514186143875122e-01 -8.617453277111053467e-02
1.979964971542358398e-02 -1.358169317245483398e-01 8.709213137626647949e-02
-2.537846267223358154e-01 -1.354804337024688721e-01 2.498024106025695801e-01
-4.036961495876312256e-01 -6.262312084436416626e-02 1.204641535878181458e-01
1.826775670051574707e-01 -1.855059340596199036e-02 7.004935294389724731e-02
-3.806055188179016113e-01 2.161677926778793335e-02 -4.868819564580917358e-02
-9.243859350681304932e-02 -1.065033748745918274e-01 -3.098759949207305908e-01
-1.875544190406799316e-01 -1.679163277149200439e-01 9.258430451154708862e-02
-7.975847274065017700e-02 -1.591456830501556396e-01 -5.958028882741928101e-02
1.627232134342193604e-01 5.716539919376373291e-02 1.369681507349014282e-01
1.184593737125396729e-01 6.876974552869796753e-02 -2.070932388305664062e-01
-1.245030984282493591e-01 -1.220522895455360413e-01 3.200141191482543945e-01
-3.255209326744079590e-01 -6.675249896943569183e-03 2.842361629009246826e-01
1.491041183471679688e-01 4.929989576339721680e-02 -1.782781779766082764e-01
-3.877708315849304199e-01 -5.465433746576309204e-02 1.819918155670166016e-01
-1.735166907310485840e-01 1.205772832036018372e-01 4.512199759483337402e-02
-4.229974001646041870e-02 1.232676431536674500e-01 1.560416668653488159e-01
-2.979089319705963135e-02 -1.057731881737709045e-01 -2.751899063587188721e-01
-2.984962761402130127e-01 2.211218699812889099e-03 -3.075345456600189209e-01
-7.793416082859039307e-02 9.300533682107925415e-02 2.846381366252899170e-01
-6.085821241140365601e-02 -1.529078781604766846e-01 1.410525888204574585e-01
-3.254683315753936768e-02 5.676762759685516357e-02 3.607444763183593750e-01
-1.626057326793670654e-01 1.456928998231887817e-02 4.014936685562133789e-01
-4.046255648136138916e-01 -9.035226702690124512e-02 2.081579063087701797e-03
-2.363610267639160156e-02 1.200310215353965759e-01 -1.799551844596862793e-01
-9.039478003978729248e-02 -1.596565246582031250e-01 1.227824389934539795e-01
-1.711693406105041504e-01 3.218692168593406677e-02 3.796014785766601562e-01
-1.685151755809783936e-01 6.662150472402572632e-02 -3.239259719848632812e-01
-1.650932282209396362e-01 -1.652869284152984619e-01 1.267878711223602295e-01
-3.066681623458862305e-01 7.311871647834777832e-02 -7.719839364290237427e-02
7.469303905963897705e-02 1.132694408297538757e-01 -1.145003810524940491e-01
-2.648921608924865723e-01 -1.288014203310012817e-01 -2.270447313785552979e-01
-3.088577687740325928e-01 4.930020123720169067e-02 1.980381011962890625e-01
8.743704855442047119e-02 -1.057626679539680481e-01 9.450715035200119019e-02
-4.188848286867141724e-02 -1.423790156841278076e-01 -1.415833383798599243e-01
-2.186150103807449341e-01 -6.599065661430358887e-02 -3.648110628128051758e-01
1.721393465995788574e-01 6.312165409326553345e-02 6.443824619054794312e-02
-1.626544296741485596e-01 8.600864559412002563e-03 -3.963899016380310059e-01
-2.539545297622680664e-01 -1.593027114868164062e-01 -8.377133309841156006e-02
-5.800060182809829712e-02 1.156026050448417664e-01 -2.080563157796859741e-01
-2.218907624483108521e-01 -1.626181900501251221e-01 -8.896190673112869263e-02
1.660116016864776611e-01 7.212422788143157959e-02 -3.269462287425994873e-02
-2.962243556976318359e-01 8.039136230945587158e-02 3.328412026166915894e-02
1.701691746711730957e-01 -4.342090338468551636e-02 1.570199243724346161e-02
6.592407822608947754e-02 1.081167683005332947e-01 -1.618035882711410522e-01
-2.512508928775787354e-01 -1.408015787601470947e-01 -1.950593739748001099e-01
-4.026112854480743408e-01 -1.003695465624332428e-02 -5.948736518621444702e-02
-2.060684412717819214e-01 -5.746782198548316956e-02 -3.764990568161010742e-01
-4.319303482770919800e-02 -1.552073061466217041e-01 3.929934278130531311e-02
-2.674197256565093994e-01 -1.530589163303375244e-01 -1.150812879204750061e-01
-3.447227478027343750e-01 4.377902671694755554e-02 -1.205547824501991272e-01
-3.585350513458251953e-01 4.113190248608589172e-02 -5.743917077779769897e-02
-1.137610375881195068e-01 1.235513910651206970e-01 1.265816390514373779e-01
-1.810273826122283936e-01 -1.484526097774505615e-01 -1.920968294143676758e-01
-3.437577486038208008e-01 -2.461340837180614471e-02 -2.613830268383026123e-01
-3.483878970146179199e-01 -1.283103823661804199e-01 1.257506906986236572e-01
-8.969144523143768311e-02 -1.132118031382560730e-01 -2.925953567028045654e-01
-2.316926419734954834e-02 -1.141014099121093750e-01 2.874003648757934570e-01
-2.360250055789947510e-01 7.781687378883361816e-02 -2.331014871597290039e-01
1.010758280754089355e-01 1.112754717469215393e-01 -3.756848722696304321e-02
-2.171812653541564941e-01 -1.443496346473693848e-01 2.406930774450302124e-01
-3.552997112274169922e-01 8.796541020274162292e-03 -2.025047093629837036e-01
-3.295738995075225830e-02 -1.527812480926513672e-01 6.465820595622062683e-03
-1.066269874572753906e-01 -1.377637982368469238e-01 -2.220040261745452881e-01
-3.319200873374938965e-01 4.951784759759902954e-02 -1.398329436779022217e-01
-1.562132388353347778e-01 3.565479069948196411e-02 3.812323212623596191e-01
-1.242615059018135071e-01 6.660544127225875854e-02 3.405684530735015869e-01
-1.840417087078094482e-01 1.133846864104270935e-01 -1.232013478875160217e-01
-2.039666771888732910e-01 -1.240397766232490540e-01 -2.731910049915313721e-01
-1.094228252768516541e-01 1.156449988484382629e-01 1.833349168300628662e-01
6.775166094303131104e-02 -9.108224511146545410e-02 -1.928274482488632202e-01
-2.158052176237106323e-01 -1.309441030025482178e-01 -2.493390440940856934e-01
4.105558991432189941e-02 1.097694411873817444e-01 -1.857292056083679199e-01
-4.041236340999603271e-01 -8.420835435390472412e-02 -5.594246089458465576e-02
-3.545973896980285645e-01 3.706249967217445374e-02 1.086215674877166748e-01
1.306089907884597778e-01 6.849698722362518311e-02 1.944032907485961914e-01
-3.766667842864990234e-01 2.750727534294128418e-02 7.240883074700832367e-03
-9.627275168895721436e-02 -1.645823717117309570e-01 3.944492712616920471e-02
1.077657639980316162e-01 1.015127673745155334e-01 1.129712313413619995e-01
-2.072054296731948853e-01 -2.129616588354110718e-02 4.024136066436767578e-01
-4.559218883514404297e-02 1.018073856830596924e-01 2.567140161991119385e-01
-4.026077687740325928e-02 1.129983291029930115e-01 -2.185235023498535156e-01
-3.622478544712066650e-01 -1.257881224155426025e-01 -5.484329164028167725e-02
-1.361798495054244995e-01 -1.652008295059204102e-01 1.138417869806289673e-01
-3.801405727863311768e-01 -5.621127784252166748e-04 1.508206874132156372e-01
1.366179436445236206e-01 -3.051196783781051636e-02 -1.977905780076980591e-01
-1.445928663015365601e-01 -1.146355196833610535e-01 -3.026881217956542969e-01
-1.832895278930664062e-01 3.029987215995788574e-03 4.023213386535644531e-01
-1.815235912799835205e-01 -1.036318764090538025e-02 4.100732207298278809e-01
-2.355793714523315430e-01 -6.482084095478057861e-02 3.798540532588958740e-01
-3.995759189128875732e-01 -9.668864309787750244e-02 -1.658540777862071991e-02
-2.789412736892700195e-01 8.044379204511642456e-02 1.218154281377792358e-01
4.194056987762451172e-02 -1.060638725757598877e-01 2.291484028100967407e-01
-2.369992434978485107e-01 -1.648356616497039795e-01 8.820068836212158203e-02
-1.167774200439453125e-02 1.228910610079765320e-01 1.499743312597274780e-01
-2.156071364879608154e-01 1.072127819061279297e-01 8.831131458282470703e-02
1.098046153783798218e-01 -5.732702836394309998e-02 2.418201416730880737e-01
1.631290018558502197e-01 5.394961684942245483e-02 -1.287541985511779785e-01
-9.632110595703125000e-04 -4.271471872925758362e-03 -3.780710995197296143e-01
-1.034515202045440674e-01 -1.481595039367675781e-01 -1.724115461111068726e-01
-3.134887218475341797e-01 -1.488038599491119385e-01 8.053814619779586792e-02
-6.619127839803695679e-02 -1.008548662066459656e-01 3.487663567066192627e-01
-3.498834967613220215e-01 4.508754611015319824e-02 7.835983484983444214e-02
-1.027039811015129089e-01 -1.455499529838562012e-01 2.310166060924530029e-01
-3.188716173171997070e-01 5.427619069814682007e-02 -1.591678857803344727e-01
-3.684287369251251221e-01 3.310735523700714111e-02 4.770449548959732056e-02
-7.042126357555389404e-02 8.936754614114761353e-02 -2.990843057632446289e-01
-9.743046760559082031e-02 9.584660083055496216e-02 -2.778473794460296631e-01
-3.767398297786712646e-01 -1.022831052541732788e-01 -1.215652599930763245e-01
9.121811389923095703e-02 1.122681275010108948e-01 7.487286627292633057e-02
-3.599639534950256348e-01 -1.260246932506561279e-01 9.432126581668853760e-02
-3.648586869239807129e-01 -1.264982670545578003e-01 5.732744187116622925e-02
-1.681242138147354126e-02 -1.488371789455413818e-01 2.725885063409805298e-02
1.933102309703826904e-02 -1.052470058202743530e-01 -2.241074293851852417e-01
-2.484746575355529785e-01 4.781522601842880249e-02 2.963193058967590332e-01
-7.120868563652038574e-02 -6.277900189161300659e-02 -3.742635548114776611e-01
-3.146720528602600098e-01 2.070077136158943176e-02 -2.615897655487060547e-01
-3.986674547195434570e-02 1.313811242580413818e-01 -9.664209187030792236e-02
-1.946936249732971191e-01 1.113933995366096497e-01 1.038459166884422302e-01
-2.646917849779129028e-02 1.209814622998237610e-01 1.675430685281753540e-01
-2.821525335311889648e-01 8.664643764495849609e-02 3.819953650236129761e-02
-1.764295250177383423e-02 9.894798696041107178e-02 2.608443498611450195e-01
-2.284886240959167480e-01 -1.676606535911560059e-01 4.017769545316696167e-02
-2.090047001838684082e-01 4.747858643531799316e-02 -3.342195451259613037e-01
-1.983560621738433838e-01 1.119480058550834656e-01 8.807820826768875122e-02
-6.187050044536590576e-02 -1.543004810810089111e-01 -7.975693047046661377e-02
-2.764828801155090332e-01 8.992832154035568237e-02 1.249974593520164490e-02
-3.030032217502593994e-01 -1.130201444029808044e-01 2.626669406890869141e-01
-1.662500053644180298e-01 -7.918098941445350647e-03 4.143069386482238770e-01
-3.668659031391143799e-01 -5.679462105035781860e-02 -2.185848504304885864e-01
-2.020109295845031738e-01 9.099463373422622681e-02 2.168195694684982300e-01
-4.921966791152954102e-02 -8.014808595180511475e-02 -3.416169881820678711e-01
-4.853659868240356445e-02 -1.315840482711791992e-01 -2.051081806421279907e-01
4.043467342853546143e-03 1.139366552233695984e-01 -1.974388808012008667e-01
-2.729901969432830811e-01 -1.603184342384338379e-01 -2.627874724566936493e-02
-2.291092276573181152e-01 7.026029378175735474e-02 2.595297098159790039e-01
-2.279113233089447021e-02 1.066759377717971802e-01 2.347942590713500977e-01
1.594905555248260498e-01 -5.596496537327766418e-02 2.054223418235778809e-02
-2.396753728389739990e-01 -4.586597532033920288e-02 3.850063681602478027e-01
-3.297818303108215332e-01 -1.179688945412635803e-01 -1.819018721580505371e-01
9.538911283016204834e-03 -1.381772756576538086e-01 1.030917987227439880e-01
1.658006310462951660e-01 1.922076195478439331e-02 -1.591521054506301880e-01
-3.103231787681579590e-01 5.279922485351562500e-02 1.814870089292526245e-01
-3.883457183837890625e-01 -3.319682180881500244e-02 -1.664536893367767334e-01
3.645965456962585449e-02 1.691616699099540710e-02 3.690253198146820068e-01
4.468996822834014893e-02 -9.667895734310150146e-02 2.568798363208770752e-01
-1.844349801540374756e-01 -1.438342928886413574e-01 2.532427310943603516e-01
-2.689142823219299316e-01 -1.451458688825368881e-02 3.575694859027862549e-01
-1.898315697908401489e-01 1.083544418215751648e-01 1.395230144262313843e-01
-1.893244683742523193e-02 -5.050202086567878723e-02 -3.635891675949096680e-01
-2.275842130184173584e-01 6.254586577415466309e-02 -2.881221175193786621e-01
-7.788494229316711426e-03 -1.032484695315361023e-01 3.030921518802642822e-01
-1.082640960812568665e-01 -4.474880918860435486e-02 4.213438928127288818e-01
5.883136391639709473e-02 -1.224724650382995605e-01 3.323280811309814453e-02
-1.946982145309448242e-01 -1.615523099899291992e-01 -1.123809516429901123e-01
-8.313599973917007446e-02 -6.764071993529796600e-03 4.227070510387420654e-01
-1.867260336875915527e-01 -1.648465394973754883e-01 -8.478140830993652344e-02
-4.044683873653411865e-01 -6.880755722522735596e-02 -9.481698274612426758e-02
-2.813114523887634277e-01 8.254147320985794067e-02 -1.078839898109436035e-01
-2.184380590915679932e-02 7.636380195617675781e-02 -3.202735781669616699e-01
-2.015189528465270996e-01 6.387510895729064941e-02 -3.081826567649841309e-01
-1.383747607469558716e-01 -1.685875654220581055e-01 4.928687214851379395e-02
-2.014342099428176880e-01 1.011447980999946594e-01 1.669594794511795044e-01
7.295812666416168213e-02 -5.346374586224555969e-02 -2.750068902969360352e-01
-1.286612600088119507e-01 7.638835906982421875e-02 3.170274198055267334e-01
-2.192196547985076904e-01 -9.224443882703781128e-02 -3.333845436573028564e-01
1.742951869964599609e-01 6.460593640804290771e-02 1.749303191900253296e-03
-2.247704416513442993e-01 -1.651880741119384766e-01 1.016734465956687927e-01
9.962548315525054932e-02 -3.877803683280944824e-04 3.115580379962921143e-01
-2.564725875854492188e-01 8.956984430551528931e-02 -1.357054412364959717e-01
-5.600382387638092041e-02 1.105899438261985779e-01 2.230779528617858887e-01
-9.273727238178253174e-02 9.020426869392395020e-02 -2.950260043144226074e-01
-3.173870146274566650e-01 -1.143129989504814148e-01 -2.117232978343963623e-01
5.788062512874603271e-02 2.747201547026634216e-02 -3.299425542354583740e-01
-4.302542656660079956e-02 1.253211498260498047e-01 -1.515115201473236084e-01
8.242326974868774414e-02 3.664340078830718994e-02 -2.997375726699829102e-01
9.109108150005340576e-02 -8.747581392526626587e-02 1.959902644157409668e-01
5.695769190788269043e-02 -1.177018210291862488e-01 -7.974772900342941284e-02
-2.048624455928802490e-01 -1.595096290111541748e-01 1.681307256221771240e-01
8.675757050514221191e-02 1.165216043591499329e-01 -2.987463213503360748e-02
2.111190557479858398e-02 -1.324556767940521240e-01 1.235148236155509949e-01
-1.448649764060974121e-01 2.755424007773399353e-02 3.945859968662261963e-01
-1.473944038152694702e-01 1.224454268813133240e-01 -1.052678301930427551e-01
-8.820284157991409302e-02 1.257266402244567871e-01 -1.397769600152969360e-01
-4.066939651966094971e-02 -1.535504758358001709e-01 7.673065364360809326e-02
-2.373623698949813843e-01 -1.491701304912567139e-01 -1.674807965755462646e-01
-7.860364764928817749e-02 6.937352567911148071e-02 3.429213166236877441e-01
-1.675075441598892212e-01 -9.523610025644302368e-02 3.731999099254608154e-01
1.194868087768554688e-01 1.029659435153007507e-02 2.823949754238128662e-01
-1.945233941078186035e-01 1.763119548559188843e-02 -3.785174489021301270e-01
-1.098372265696525574e-01 -1.328952610492706299e-01 2.842981517314910889e-01
-6.888639926910400391e-02 1.028420552611351013e-01 2.530106902122497559e-01
-3.007391691207885742e-01 6.193916499614715576e-02 1.660960316658020020e-01
-2.739583849906921387e-01 -1.344760656356811523e-01 2.348727732896804810e-01
-4.642787575721740723e-02 8.453121781349182129e-02 3.079334497451782227e-01
-1.975976675748825073e-01 -6.160362809896469116e-02 3.994347751140594482e-01
-4.165328294038772583e-02 1.290384531021118164e-01 1.110104545950889587e-01
-1.731704026460647583e-01 9.044193476438522339e-02 2.488440275192260742e-01
-1.094119995832443237e-02 5.097808688879013062e-02 3.626340627670288086e-01
1.186348646879196167e-01 -6.237544119358062744e-02 2.093697935342788696e-01
-2.257272899150848389e-01 1.001939773559570312e-01 -1.378265768289566040e-01
-2.116867899894714355e-02 -1.346041075885295868e-02 4.080706834793090820e-01
4.451681673526763916e-02 1.135568320751190186e-02 -3.466467857360839844e-01
-3.717956840991973877e-01 -7.446194440126419067e-02 2.107794433832168579e-01
7.013888657093048096e-02 9.286595135927200317e-02 2.190205901861190796e-01
-1.232362091541290283e-01 1.299668848514556885e-01 1.641203276813030243e-02
-6.818291544914245605e-02 1.343910694122314453e-01 2.131173014640808105e-02
-7.916645705699920654e-02 3.887244313955307007e-02 3.906671106815338135e-01
-6.875587999820709229e-02 -1.602684259414672852e-01 4.215796291828155518e-02
1.414823532104492188e-01 -6.993097811937332153e-02 8.212558925151824951e-02
-1.416349261999130249e-01 -1.639448106288909912e-01 1.318320482969284058e-01
-1.749207973480224609e-01 1.198057457804679871e-01 -6.920368969440460205e-02
5.324341356754302979e-02 1.047711074352264404e-01 1.930874139070510864e-01
1.438299417495727539e-01 1.092763431370258331e-02 2.384551912546157837e-01
-1.122475340962409973e-01 1.289746761322021484e-01 -8.321096003055572510e-02
-1.701456308364868164e-01 -6.668686121702194214e-02 -3.782725334167480469e-01
-3.216426372528076172e-01 6.608958542346954346e-02 -6.013106554746627808e-02
-3.822263181209564209e-01 -3.517945110797882080e-02 1.938401311635971069e-01
-1.293710470199584961e-01 -7.386057078838348389e-02 -3.726527690887451172e-01
1.150900125503540039e-01 -6.218615174293518066e-02 -1.806751191616058350e-01
-5.756269022822380066e-02 9.851113706827163696e-02 2.684476375579833984e-01
-2.407015562057495117e-01 -1.359764933586120605e-01 -2.205419987440109253e-01
-9.219184517860412598e-03 -1.466295421123504639e-01 9.267245419323444366e-03
-1.400435119867324829e-01 -1.617331802845001221e-02 4.228199422359466553e-01
-5.925646796822547913e-02 -1.026963517069816589e-01 -3.031215965747833252e-01
-2.415252476930618286e-02 1.295251250267028809e-01 1.018061339855194092e-01
-2.482351660728454590e-02 -1.460533738136291504e-01 1.281845420598983765e-01
-2.884583473205566406e-01 -1.433086097240447998e-01 1.804155260324478149e-01
1.239072233438491821e-01 1.013830229640007019e-01 -3.704471886157989502e-02
-9.704623371362686157e-02 7.211619988083839417e-03 -4.046062231063842773e-01
8.995410799980163574e-02 -1.026918217539787292e-01 -6.651955097913742065e-02
-4.112165570259094238e-01 -2.411946281790733337e-02 -2.640132047235965729e-02
2.155119180679321289e-02 -1.364243030548095703e-01 6.183344870805740356e-02
1.890364885330200195e-01 1.814951375126838684e-02 7.715038955211639404e-02
9.092110395431518555e-02 1.034582778811454773e-01 -1.410109102725982666e-01
4.044428467750549316e-02 1.280470788478851318e-01 3.875307738780975342e-04
1.734810471534729004e-01 -3.286600112915039062e-02 8.555444329977035522e-02
-3.695086836814880371e-01 3.032405301928520203e-02 -7.084122300148010254e-02
-3.651257455348968506e-01 -1.195085719227790833e-01 -8.682839572429656982e-02
-1.754519939422607422e-01 -1.686526238918304443e-01 8.176293969154357910e-02
1.302458345890045166e-01 -1.741130463778972626e-02 2.568188905715942383e-01
1.605324447154998779e-01 -3.735738247632980347e-02 1.433665454387664795e-01
-1.298587918281555176e-01 -6.749791651964187622e-02 4.075168371200561523e-01
-2.029189616441726685e-01 1.119171455502510071e-01 7.364344596862792969e-02
-4.698728024959564209e-02 4.943362623453140259e-02 3.743093311786651611e-01
-3.591067194938659668e-01 3.015388920903205872e-02 1.246277168393135071e-01
9.416700899600982666e-02 -9.056540578603744507e-02 -1.308221518993377686e-01
1.925376057624816895e-02 -6.399798393249511719e-02 -3.188195228576660156e-01
1.232912391424179077e-02 1.165106967091560364e-01 -1.790421307086944580e-01
6.660248339176177979e-02 1.303023286163806915e-02 -3.265184462070465088e-01
-2.807508111000061035e-01 -4.125925712287425995e-03 3.388474881649017334e-01
3.555573523044586182e-03 1.008392944931983948e-01 2.461285144090652466e-01
-4.257442057132720947e-02 1.204093620181083679e-01 1.737658828496932983e-01
1.648322045803070068e-01 -4.261730611324310303e-02 1.004302874207496643e-01
-3.311533331871032715e-01 -1.430208086967468262e-01 6.897234916687011719e-02
-2.016260921955108643e-01 7.314243912696838379e-02 -2.855369150638580322e-01
-2.506781220436096191e-01 -1.648510992527008057e-01 -5.168708972632884979e-03
1.685546338558197021e-01 -2.732485532760620117e-02 1.347525566816329956e-01
-1.852001845836639404e-01 -1.391848623752593994e-01 2.701004445552825928e-01
6.251288950443267822e-02 -7.216094434261322021e-02 -2.542062103748321533e-01
-6.326347589492797852e-02 -1.147905588150024414e-01 -2.745905220508575439e-01
-2.527539134025573730e-01 -1.642465889453887939e-01 5.779303610324859619e-02
-2.866365611553192139e-01 -8.971746265888214111e-02 3.195953071117401123e-01
-2.534332275390625000e-01 -1.228804886341094971e-01 -2.528572678565979004e-01
4.147411882877349854e-02 -1.140536069869995117e-01 1.949834078550338745e-01
-3.936450779438018799e-01 -9.447503089904785156e-02 -8.014087378978729248e-02
-2.986386418342590332e-01 4.372428730130195618e-02 -2.399085909128189087e-01
-3.913794457912445068e-01 -2.479259297251701355e-02 -1.498353034257888794e-01
-1.857447326183319092e-01 -4.802193865180015564e-02 4.097574651241302490e-01
-3.779654800891876221e-01 2.546627447009086609e-02 2.899347990751266479e-02
-1.992242634296417236e-01 1.085143759846687317e-01 1.195049658417701721e-01
-1.785709708929061890e-02 -8.159504830837249756e-02 -3.197295665740966797e-01
1.335314810276031494e-01 -4.361411929130554199e-02 -1.809763908386230469e-01
-1.665558665990829468e-02 1.267479956150054932e-01 -1.325201839208602905e-01
-2.298524826765060425e-01 1.030350252985954285e-01 -1.001649573445320129e-01
-4.095729440450668335e-02 -1.538344323635101318e-01 -2.142825536429882050e-02
-2.901561260223388672e-01 -7.380829751491546631e-02 3.324056565761566162e-01
-9.750695526599884033e-02 8.969895541667938232e-02 2.909884154796600342e-01
1.044711470603942871e-01 1.091153100132942200e-01 5.344379693269729614e-02
6.930664181709289551e-02 -5.375083908438682556e-02 3.134793937206268311e-01
1.439062356948852539e-01 -3.486976027488708496e-02 -1.715700030326843262e-01
-3.998254537582397461e-01 -2.090142108500003815e-03 4.046033322811126709e-02
-3.891569077968597412e-01 -7.627284526824951172e-02 -1.440972983837127686e-01
-3.340531885623931885e-01 9.315760806202888489e-03 -2.463787496089935303e-01
-3.777617216110229492e-02 1.350242495536804199e-01 -1.684772968292236328e-02
-3.419103026390075684e-01 3.576411306858062744e-02 -1.663090586662292480e-01
7.825545966625213623e-02 -1.001593396067619324e-01 1.731325536966323853e-01
-3.160382509231567383e-01 2.884507179260253906e-02 2.421615719795227051e-01
-2.825550138950347900e-01 -1.544364690780639648e-01 -7.753524184226989746e-02
-1.752734184265136719e-02 1.125288978219032288e-01 -2.144155800342559814e-01
-2.361380159854888916e-01 4.102510586380958557e-02 -3.232286870479583740e-01
3.599223494529724121e-02 7.315929979085922241e-02 3.012301921844482422e-01
1.077013313770294189e-01 6.550214439630508423e-02 -2.315869331359863281e-01
-7.709565013647079468e-02 -1.598755717277526855e-01 -4.192122071981430054e-02
-3.007140159606933594e-01 -1.418369412422180176e-01 -1.323180496692657471e-01
1.309232264757156372e-01 -6.284189224243164062e-02 1.722177416086196899e-01
1.729521751403808594e-01 5.865674465894699097e-02 -6.903962045907974243e-02
-2.665008306503295898e-01 2.320642769336700439e-02 3.220318257808685303e-01
-4.129790365695953369e-01 -3.293734416365623474e-02 4.532641172409057617e-02
6.656901538372039795e-02 3.731586039066314697e-04 3.489094376564025879e-01
4.470609128475189209e-02 -1.200354993343353271e-01 -1.039587408304214478e-01
-3.380978107452392578e-01 3.480200842022895813e-02 1.764038652181625366e-01
-1.461544036865234375e-01 -1.690098941326141357e-01 -2.148409374058246613e-03
-2.678464353084564209e-01 -1.499926447868347168e-01 1.731747090816497803e-01
-2.024996876716613770e-01 9.372512251138687134e-02 -2.144084125757217407e-01
-5.913868546485900879e-03 1.266668438911437988e-01 1.182534992694854736e-01
-3.075702190399169922e-01 6.944746524095535278e-02 9.809002280235290527e-02
8.439704775810241699e-03 -1.216161549091339111e-01 -1.755465567111968994e-01
-1.614542007446289062e-01 1.113815233111381531e-01 1.617177873849868774e-01
-1.849995553493499756e-01 7.702446728944778442e-02 -2.886653542518615723e-01
-1.059543117880821228e-01 -1.646563410758972168e-01 7.820279896259307861e-02
7.269947230815887451e-02 1.002492532134056091e-01 -1.869839429855346680e-01
-8.402867615222930908e-02 -1.499220728874206543e-01 1.935540735721588135e-01
-4.105902314186096191e-01 -7.458108663558959961e-02 5.188416689634323120e-02
-3.046788573265075684e-01 4.895031452178955078e-02 -2.137795239686965942e-01
-8.844278007745742798e-02 -1.345374286174774170e-01 -2.247653603553771973e-01
-4.147004187107086182e-01 -5.743589997291564941e-02 -3.511755168437957764e-02
-2.502157092094421387e-01 -1.487313807010650635e-01 1.990829706192016602e-01
-2.517374157905578613e-01 8.301737159490585327e-02 1.751122623682022095e-01
-2.478722482919692993e-01 -9.019228816032409668e-02 -3.223264217376708984e-01
-3.137706816196441650e-01 3.991759940981864929e-02 -2.217698544263839722e-01
5.745491385459899902e-02 9.440005570650100708e-02 -2.262109965085983276e-01
-2.828243374824523926e-01 7.809117436408996582e-02 -1.366917341947555542e-01
-6.261558830738067627e-02 -1.448982208967208862e-02 -4.014849662780761719e-01
-1.344859749078750610e-01 5.370423197746276855e-02 3.616579174995422363e-01
-2.720791697502136230e-01 -1.553623974323272705e-01 -8.993969857692718506e-02
-3.637629747390747070e-02 -3.863881528377532959e-02 -3.824248611927032471e-01
-3.388263285160064697e-01 -1.344878077507019043e-01 -8.632624894380569458e-02
-6.440076231956481934e-02 1.342792212963104248e-01 -4.261305183172225952e-02
6.465339660644531250e-02 -4.105300828814506531e-02 -3.025389611721038818e-01
9.091128408908843994e-02 -1.050199121236801147e-01 7.894294708967208862e-02
6.286185979843139648e-02 7.038386911153793335e-02 2.852144539356231689e-01
-3.587207794189453125e-01 3.400934860110282898e-02 -1.112890839576721191e-01
1.866907179355621338e-01 9.877165779471397400e-03 -6.923181563615798950e-02
-1.980895400047302246e-01 2.829089015722274780e-02 3.707153201103210449e-01
-2.564679384231567383e-01 9.249944239854812622e-02 -1.118587777018547058e-01
-3.142575919628143311e-01 1.038519851863384247e-02 -2.775301337242126465e-01
-7.961556315422058105e-02 7.998155057430267334e-02 -3.211959600448608398e-01
5.834928154945373535e-02 1.234704330563545227e-01 -4.723970592021942139e-02
-3.921107649803161621e-01 -1.002207919955253601e-01 -6.136483699083328247e-02
-3.210136294364929199e-01 6.035233289003372192e-02 -1.180152222514152527e-01
-2.663852870464324951e-01 9.274238348007202148e-02 -6.128773838281631470e-02
1.748922169208526611e-01 2.936751022934913635e-02 1.443038880825042725e-01
1.895931959152221680e-01 3.512019664049148560e-02 3.361059725284576416e-02
-3.093729019165039062e-01 6.012693047523498535e-02 1.511068791151046753e-01
1.659242510795593262e-01 7.333721220493316650e-02 2.612944133579730988e-02
-2.047103643417358398e-01 1.136743649840354919e-01 3.303017094731330872e-02
1.570923328399658203e-01 -5.799467489123344421e-02 4.240830987691879272e-02
-3.337191641330718994e-01 -6.322183646261692047e-03 2.706381678581237793e-01
1.668061912059783936e-01 -4.747106134891510010e-02 3.188845142722129822e-02
2.385385334491729736e-02 1.281993687152862549e-01 6.708823144435882568e-02
-2.191455662250518799e-01 -1.678776443004608154e-01 -1.731360331177711487e-02
1.021742820739746094e-01 1.116518899798393250e-01 1.059002708643674850e-02
-2.179455459117889404e-01 9.590274095535278320e-02 1.694306433200836182e-01
-1.075117215514183044e-01 -1.573367714881896973e-01 1.644904166460037231e-01
-1.704611033201217651e-01 5.524944514036178589e-02 3.436892032623291016e-01
-2.338145971298217773e-01 -1.659415662288665771e-01 -3.133917599916458130e-02
2.566668391227722168e-02 -9.523425251245498657e-02 -2.464992403984069824e-01
-4.683130979537963867e-02 4.490333423018455505e-02 -3.728224933147430420e-01
-1.255706846714019775e-01 -1.667417585849761963e-01 -2.689689211547374725e-02
-3.145641684532165527e-01 -1.309242248535156250e-01 -1.607519537210464478e-01
1.782269179821014404e-01 5.801149457693099976e-02 3.947781026363372803e-02
-4.012277126312255859e-01 -1.917638815939426422e-02 1.031081080436706543e-01
-3.855075836181640625e-01 1.821944490075111389e-02 -1.667297258973121643e-02
-2.095841914415359497e-01 -1.644676327705383301e-01 1.241413205862045288e-01
1.201311349868774414e-01 -1.179191470146179199e-02 2.783763706684112549e-01
1.870763301849365234e-01 -1.288479007780551910e-02 3.794422000646591187e-02
1.433619856834411621e-01 -5.799735337495803833e-02 -1.056258305907249451e-01
-2.906654775142669678e-01 2.746127173304557800e-02 2.853938341140747070e-01
5.748468637466430664e-02 -1.209810003638267517e-01 8.779233694076538086e-02
-3.912370502948760986e-01 -8.187799155712127686e-02 -1.268829256296157837e-01
4.204232990741729736e-02 -6.529195234179496765e-03 -3.480047583580017090e-01
-4.841700196266174316e-03 -4.756236076354980469e-02 -3.578025102615356445e-01
4.538120329380035400e-02 1.270004510879516602e-01 -2.094609849154949188e-02
-2.488062083721160889e-01 9.538133442401885986e-02 9.895700216293334961e-02
-2.520135045051574707e-01 9.729500114917755127e-02 -7.667721062898635864e-02
-1.866641491651535034e-01 1.179651245474815369e-01 3.823916614055633545e-02
-3.946385085582733154e-01 -1.738585531711578369e-03 8.593067526817321777e-02
1.311815232038497925e-01 -6.739620864391326904e-02 -1.135688126087188721e-01
-6.320988386869430542e-02 -1.481543481349945068e-01 1.816272139549255371e-01
-1.541066765785217285e-01 -1.428891718387603760e-01 2.584265768527984619e-01
-7.172353565692901611e-02 1.328397691249847412e-01 -6.956005096435546875e-02
-8.021274954080581665e-02 -1.619778573513031006e-01 5.344413965940475464e-02
-2.046501636505126953e-01 1.053030490875244141e-01 1.335328370332717896e-01
-2.298727184534072876e-01 -1.439628005027770996e-01 -1.960807740688323975e-01
2.488151192665100098e-02 7.536781579256057739e-02 -2.995692789554595947e-01
-1.272360086441040039e-01 -1.608252227306365967e-01 -1.039799749851226807e-01
-3.104957938194274902e-02 1.124157533049583435e-01 2.128023803234100342e-01
4.955172538757324219e-02 -1.250976137816905975e-02 3.638443648815155029e-01
-5.036099255084991455e-02 -6.759870797395706177e-02 3.917347490787506104e-01
1.713538765907287598e-01 -4.131659120321273804e-02 -3.531416878104209900e-03
1.534337997436523438e-01 -8.606494404375553131e-03 2.114980518817901611e-01
-1.378159224987030029e-01 9.379656612873077393e-02 -2.693949639797210693e-01
1.860988438129425049e-01 3.101505711674690247e-02 8.494894206523895264e-02
7.830294966697692871e-02 -3.312479332089424133e-02 -2.944866716861724854e-01
-5.894797295331954956e-02 -1.580035984516143799e-01 6.111224740743637085e-02
-1.553881317377090454e-01 1.074745878577232361e-01 1.910135149955749512e-01
-3.156478404998779297e-01 7.102219760417938232e-02 1.495444960892200470e-02
8.300690352916717529e-02 -1.107045412063598633e-01 4.712329804897308350e-02
-2.319859564304351807e-01 -1.271229684352874756e-01 2.892396152019500732e-01
1.273024082183837891e-02 -1.347716301679611206e-01 -8.056877553462982178e-02
1.716468930244445801e-01 1.401088014245033264e-02 1.648134738206863403e-01
3.690183162689208984e-03 4.499200731515884399e-02 -3.544760644435882568e-01
1.709989905357360840e-01 -4.674477502703666687e-03 1.608873605728149414e-01
1.721130907535552979e-01 -3.939459845423698425e-02 5.251693725585937500e-02
-2.977830171585083008e-01 -1.579879783093929291e-02 -3.201223313808441162e-01
-2.358818054199218750e-02 1.338103413581848145e-01 -4.960947483777999878e-02
-2.260841131210327148e-01 9.674291312694549561e-02 1.487395763397216797e-01
1.744617819786071777e-01 -3.524335101246833801e-02 -2.471213229000568390e-02
1.644862890243530273e-01 -2.317425608634948730e-02 -1.287412345409393311e-01
-8.328349888324737549e-02 1.280031502246856689e-01 -1.225646808743476868e-01
-3.554153740406036377e-01 -2.874524891376495361e-02 2.511753141880035400e-01
1.029477268457412720e-01 -2.512495405972003937e-02 -2.679638862609863281e-01
-3.526015877723693848e-01 5.295479670166969299e-03 2.166636139154434204e-01
-1.812174916267395020e-01 -1.562258303165435791e-01 1.954864561557769775e-01
1.058970242738723755e-01 3.755363821983337402e-02 -2.697769105434417725e-01
-1.271386444568634033e-01 -1.667552590370178223e-01 7.858728617429733276e-02
5.913954973220825195e-02 -6.985752284526824951e-02 3.008659482002258301e-01
-3.838294744491577148e-02 1.335561573505401611e-01 5.307938903570175171e-02
9.152826666831970215e-02 -3.385637328028678894e-02 -2.757950127124786377e-01
-3.288328051567077637e-01 1.547392457723617554e-02 2.466095238924026489e-01
-3.131923079490661621e-02 6.197287887334823608e-02 -3.475781381130218506e-01
-4.116662740707397461e-01 -4.126619547605514526e-02 7.464372366666793823e-02
1.752423048019409180e-01 -2.988062240183353424e-02 -5.194944143295288086e-02
-4.855694621801376343e-02 -1.564390063285827637e-01 1.899529434740543365e-02
-1.436739414930343628e-02 -1.471189856529235840e-01 -2.316787280142307281e-02
-1.293768435716629028e-01 -1.678298115730285645e-01 -4.721685312688350677e-03
-1.838678866624832153e-01 7.606422156095504761e-02 2.863735556602478027e-01
-2.861985266208648682e-01 5.671375989913940430e-02 2.183879315853118896e-01
-3.706258237361907959e-01 -1.147620603442192078e-01 1.175631880760192871e-01
8.662655949592590332e-03 8.658012375235557556e-03 -3.720776736736297607e-01
9.901468455791473389e-02 1.080960109829902649e-01 -8.836599439382553101e-02
-5.740222334861755371e-02 -3.394464775919914246e-02 -3.933157920837402344e-01
-3.797580897808074951e-01 2.345034852623939514e-03 -1.436665505170822144e-01
-1.659541726112365723e-01 -1.262201219797134399e-01 -2.730761766433715820e-01
3.270915150642395020e-02 1.129183396697044373e-01 1.759088933467864990e-01
5.913846194744110107e-03 1.086261048913002014e-01 -2.191306501626968384e-01
-1.903202235698699951e-01 9.029135107994079590e-02 -2.421012520790100098e-01
-1.577155888080596924e-01 1.140947714447975159e-01 -1.610599756240844727e-01
1.378534138202667236e-01 -7.139638066291809082e-02 9.713742136955261230e-02
-6.360851228237152100e-02 1.145310923457145691e-01 2.045934200286865234e-01
1.287685334682464600e-02 9.143425524234771729e-02 2.709057927131652832e-01
-2.953892052173614502e-01 -1.322580873966217041e-01 2.174626141786575317e-01
-2.171206772327423096e-01 -1.603875756263732910e-01 1.549659371376037598e-01
-1.821266561746597290e-01 1.167003288865089417e-01 7.786769419908523560e-02
-2.661159336566925049e-01 -1.624045670032501221e-01 4.583618789911270142e-02
-2.867369055747985840e-01 4.018510505557060242e-02 2.642606496810913086e-01
1.375729739665985107e-01 8.078718185424804688e-02 -1.281765103340148926e-01
-2.990643978118896484e-01 6.160524487495422363e-02 -1.798853427171707153e-01
-3.354164958000183105e-01 -1.331607401371002197e-01 1.374636292457580566e-01
-5.661272257566452026e-02 9.446952491998672485e-02 -2.848790884017944336e-01
-2.695779204368591309e-01 -1.612236797809600830e-01 6.188567727804183960e-02
-2.096212655305862427e-02 -6.180311366915702820e-02 -3.520769774913787842e-01
-1.878777742385864258e-01 1.058334335684776306e-01 -1.721148192882537842e-01
-1.818621903657913208e-01 -1.516246795654296875e-01 -1.766160279512405396e-01
-1.310524046421051025e-01 -3.778808750212192535e-03 4.204878211021423340e-01
-2.052304148674011230e-02 -1.478240787982940674e-01 -4.144195467233657837e-02
-3.481218218803405762e-01 -9.979359060525894165e-02 -1.977613270282745361e-01
-4.076912105083465576e-01 -2.847885712981224060e-02 8.372640609741210938e-02
-1.207858920097351074e-01 -1.407286226749420166e-01 -2.161604762077331543e-01
-3.696395158767700195e-01 -3.337156027555465698e-03 1.898294538259506226e-01
-5.277692899107933044e-02 7.852231711149215698e-02 -3.230161964893341064e-01
-3.010308742523193359e-01 -8.974817395210266113e-02 -2.806340754032135010e-01
9.446771442890167236e-02 -9.961875528097152710e-02 1.162883862853050232e-01
-3.914202749729156494e-01 -9.725353866815567017e-02 1.019321307539939880e-01
-3.244893252849578857e-01 1.164708659052848816e-02 2.612046003341674805e-01
1.654573678970336914e-01 -4.433290660381317139e-02 -4.942752420902252197e-02
-2.524548172950744629e-01 5.331001430749893188e-02 2.787679731845855713e-01
-2.641479372978210449e-01 -8.251313120126724243e-02 -3.221623003482818604e-01
3.638300299644470215e-02 -1.275782585144042969e-01 1.149790510535240173e-01
-2.972416877746582031e-01 -1.058610230684280396e-01 2.839881479740142822e-01
2.063906192779541016e-02 1.181825622916221619e-01 -1.628336310386657715e-01
-2.562993168830871582e-01 -2.462957054376602173e-04 3.588539063930511475e-01
-3.569255471229553223e-01 -1.314602047204971313e-01 -2.364193834364414215e-02
-3.428647220134735107e-01 -1.396671235561370850e-01 1.504694856703281403e-02
-1.223978102207183838e-01 1.270140111446380615e-01 8.027954399585723877e-02
1.540843546390533447e-01 1.194977946579456329e-02 -1.914318054914474487e-01
1.426325738430023193e-01 8.545833081007003784e-02 9.332641214132308960e-02
-9.583479166030883789e-02 -8.883472532033920288e-02 -3.456551730632781982e-01
-3.618232309818267822e-01 2.314781770110130310e-02 -1.461521983146667480e-01
-2.904891967773437500e-01 -1.516439914703369141e-01 1.234814673662185669e-01
-6.157580018043518066e-02 1.318494677543640137e-01 -8.972463011741638184e-02
-1.751656830310821533e-01 -1.322554945945739746e-01 -2.544157505035400391e-01
-1.474354416131973267e-01 1.237999126315116882e-01 7.405152171850204468e-02
-2.941364347934722900e-01 1.757765933871269226e-02 2.975487709045410156e-01
-2.361043393611907959e-01 -9.531606733798980713e-02 3.495397865772247314e-01
-1.388686746358871460e-01 1.085889413952827454e-01 -2.106495350599288940e-01
5.175252258777618408e-02 -1.202515512704849243e-01 1.247300654649734497e-01
-3.578208684921264648e-01 -1.217494383454322815e-01 -1.012775674462318420e-01
-4.160248339176177979e-01 -4.197049885988235474e-02 1.079973764717578888e-02
-4.072648286819458008e-01 -3.216449171304702759e-02 -8.639473468065261841e-02
-1.850480586290359497e-02 -1.218528747558593750e-01 -2.122187465429306030e-01
1.852647662162780762e-01 4.756155610084533691e-02 2.203948330134153366e-03
1.362414211034774780e-01 -7.668979465961456299e-02 -5.331092514097690582e-03
-3.202406764030456543e-01 -5.978067405521869659e-03 -2.859647274017333984e-01
6.949476897716522217e-02 -1.132868230342864990e-02 -3.202971816062927246e-01
-7.814203202724456787e-02 -1.468982994556427002e-01 -1.585937589406967163e-01
-2.789523601531982422e-01 -1.586780250072479248e-01 7.449388504028320312e-02
-1.427089124917984009e-01 -1.393713802099227905e-01 2.703169286251068115e-01
2.975581586360931396e-02 -1.036037281155586243e-01 2.575488984584808350e-01
7.401658594608306885e-02 -1.145140081644058228e-01 6.643174588680267334e-02
-3.914234042167663574e-01 1.028816029429435730e-02 -3.445567190647125244e-02
-1.666957736015319824e-01 -1.079773902893066406e-01 3.521893322467803955e-01
3.381240367889404297e-02 -1.317978948354721069e-01 -1.753092184662818909e-02
-1.647313237190246582e-01 1.235476210713386536e-01 -1.617945730686187744e-03
-2.357881367206573486e-01 1.041403338313102722e-01 -5.568442493677139282e-02
-6.658092141151428223e-03 1.310793757438659668e-01 7.146609574556350708e-02
-2.505588233470916748e-01 9.228918701410293579e-02 1.200793534517288208e-01
1.447201073169708252e-01 8.123287558555603027e-02 -1.011388525366783142e-01
-3.220043182373046875e-01 4.332246258854866028e-02 1.884250938892364502e-01
1.732863485813140869e-01 -3.568729385733604431e-02 7.037066668272018433e-02
-1.900755614042282104e-01 8.377666026353836060e-02 2.570829391479492188e-01
9.031918644905090332e-02 -1.290433108806610107e-03 -2.994959950447082520e-01
-3.908308148384094238e-01 6.721163168549537659e-03 -7.063086330890655518e-02
-7.389007508754730225e-02 -8.712170273065567017e-02 -3.412015736103057861e-01
5.487725138664245605e-04 -1.045879423618316650e-01 -2.494131028652191162e-01
6.588225066661834717e-02 6.550294160842895508e-02 -2.835356891155242920e-01
-3.268427848815917969e-01 -1.462883651256561279e-01 2.907937206327915192e-02
-1.689106822013854980e-01 1.011199280619621277e-01 2.088838368654251099e-01
-1.514267623424530029e-01 -1.561861336231231689e-01 -1.489870250225067139e-01
-1.244053766131401062e-01 1.218513920903205872e-01 -1.426739096641540527e-01
7.901364564895629883e-02 -1.943093352019786835e-02 3.321906626224517822e-01
-8.591552078723907471e-02 -1.443618535995483398e-01 -1.793358623981475830e-01
1.798978447914123535e-01 8.153850212693214417e-03 1.319843530654907227e-01
-3.372102379798889160e-01 5.562520027160644531e-02 6.174614280462265015e-02
-2.006179839372634888e-01 -1.079031154513359070e-01 -3.119611144065856934e-01
-2.954032421112060547e-01 8.130806684494018555e-02 1.792279630899429321e-02
-1.376626789569854736e-01 8.804954588413238525e-02 2.809314727783203125e-01
-3.304805159568786621e-01 -8.081041276454925537e-02 2.787746191024780273e-01
-7.075592875480651855e-03 -1.218929812312126160e-01 2.426282912492752075e-01
-2.284163236618041992e-01 5.847722291946411133e-02 2.927768230438232422e-01
-1.931429058313369751e-01 1.080144271254539490e-01 -1.489149481058120728e-01
-1.084486767649650574e-01 -1.514539122581481934e-01 2.038881778717041016e-01
-1.054022461175918579e-01 -1.616168618202209473e-01 -7.377910614013671875e-02
1.864179074764251709e-01 1.644024252891540527e-02 9.719213843345642090e-02
1.036309450864791870e-02 1.101495251059532166e-01 2.062229663133621216e-01
5.129192769527435303e-02 5.431310087442398071e-02 -3.126882314682006836e-01
-8.498497307300567627e-03 -1.435425877571105957e-01 1.054326444864273071e-01
