-3.364046216011047363e-01 5.501290410757064819e-02 -4.289295077323913574e-01
-4.648299217224121094e-01 -1.925062537193298340e-01 -1.955036222934722900e-01
-2.465181648731231689e-01 4.697657376527786255e-02 4.091154932975769043e-01
-4.145095944404602051e-01 -1.804148554801940918e-01 -4.270882010459899902e-01
1.720625311136245728e-01 2.249775826930999756e-02 2.009055614471435547e-01
-5.089014768600463867e-01 9.478114545345306396e-03 -2.649868726730346680e-01
-3.363121747970581055e-01 8.304255455732345581e-02 1.545575261116027832e-01
-4.589316844940185547e-01 -1.431329846382141113e-01 3.027399778366088867e-01
2.868726253509521484e-01 -1.523324549198150635e-01 -1.275679469108581543e-02
-2.672764658927917480e-01 -2.035731822252273560e-01 -5.442824363708496094e-01
5.765150487422943115e-02 -2.342149615287780762e-01 1.751323342323303223e-01
-3.267398476600646973e-01 9.520185738801956177e-02 -3.575997054576873779e-02
-2.120006084442138672e-01 -2.224928140640258789e-01 -5.147662758827209473e-01
-7.825614511966705322e-02 -2.633477449417114258e-01 5.059242248535156250e-02
-4.140855669975280762e-01 -2.127360403537750244e-01 -2.337083518505096436e-01
-5.472429394721984863e-01 -1.043621525168418884e-01 -2.668702602386474609e-01
1.636660546064376831e-01 4.789417237043380737e-02 6.282582879066467285e-02
-3.720531463623046875e-01 -2.302852869033813477e-01 -1.946133375167846680e-01
-1.276969015598297119e-01 -2.507281601428985596e-01 -4.032839834690093994e-01
-3.549611568450927734e-01 7.237451523542404175e-02 -3.064263463020324707e-01
-1.789018958806991577e-01 -2.413191199302673340e-01 -4.420709013938903809e-01
-3.118355274200439453e-01 -2.333844602108001709e-01 1.509084403514862061e-01
-2.758333683013916016e-01 8.988774567842483521e-02 1.804321706295013428e-01
1.004525721073150635e-01 -9.275566786527633667e-02 4.593502283096313477e-01
-5.465974807739257812e-01 -1.736990362405776978e-02 1.178274750709533691e-01
1.971813887357711792e-01 -2.079265117645263672e-01 4.618218541145324707e-02
-4.238781332969665527e-02 1.023101583123207092e-01 -1.374372988939285278e-01
1.729624718427658081e-01 -2.272413671016693115e-01 -1.880025267601013184e-01
7.080514729022979736e-02 -1.947674602270126343e-01 -5.766386389732360840e-01
7.096593081951141357e-02 8.042230457067489624e-02 -2.023666501045227051e-01
2.999648451805114746e-03 8.705518394708633423e-02 -2.866162657737731934e-01
-1.928278505802154541e-01 -1.870659291744232178e-01 4.367195963859558105e-01
-4.777511954307556152e-01 -6.428429484367370605e-02 3.593648076057434082e-01
1.462012976408004761e-01 -2.261649668216705322e-01 -3.278495967388153076e-01
-4.427419900894165039e-01 -6.008016318082809448e-02 -5.350746512413024902e-01
1.525376588106155396e-01 5.832254886627197266e-03 2.977133989334106445e-01
-2.269579172134399414e-01 -2.283780574798583984e-01 2.727092504501342773e-01
-9.752781689167022705e-02 -2.127868533134460449e-01 -5.859769582748413086e-01
3.081520795822143555e-01 -5.317073315382003784e-02 -7.574917376041412354e-02
-4.018947482109069824e-03 -2.579041421413421631e-01 5.580647289752960205e-02
-5.380575656890869141e-01 -1.392044425010681152e-01 -1.873874515295028687e-01
9.609134495258331299e-02 -2.225404083728790283e-01 1.893329024314880371e-01
-2.334269583225250244e-01 8.754258602857589722e-02 2.305715978145599365e-01
-5.331847667694091797e-01 -3.181020915508270264e-02 2.084128558635711670e-01
-2.682995200157165527e-01 -2.494705617427825928e-01 -2.781851887702941895e-01
1.136106550693511963e-01 -2.275604009628295898e-01 1.290411055088043213e-01
-3.590989708900451660e-01 -2.332575321197509766e-01 2.578724920749664307e-02
7.627332210540771484e-02 -1.124027222394943237e-01 4.714840054512023926e-01
1.854750066995620728e-01 -5.859026685357093811e-02 3.481307029724121094e-01
-1.122955530881881714e-01 -5.391034111380577087e-02 5.697567462921142578e-01
-2.550504207611083984e-01 8.426592499017715454e-02 2.397475242614746094e-01
1.508170366287231445e-02 -2.323080599308013916e-01 2.305238544940948486e-01
-4.192806482315063477e-01 6.191066652536392212e-02 1.419150382280349731e-01
3.126393258571624756e-02 -1.721761524677276611e-01 -6.543539762496948242e-01
-2.477472871541976929e-01 1.033486798405647278e-01 4.854814708232879639e-02
1.412899047136306763e-01 -8.768270164728164673e-02 4.162964820861816406e-01
1.477783471345901489e-01 -2.223465144634246826e-01 8.896858990192413330e-02
-4.754214733839035034e-02 -2.621067762374877930e-01 4.874849319458007812e-02
5.505228042602539062e-02 -2.546927630901336670e-01 -2.423322051763534546e-01
-6.524973362684249878e-02 8.363971859216690063e-02 -3.804016113281250000e-01
-4.832083731889724731e-02 1.545261591672897339e-02 4.730531573295593262e-01
1.634909063577651978e-01 4.479514807462692261e-02 -2.850929498672485352e-01
-2.021649330854415894e-01 -3.866208717226982117e-02 -7.187133431434631348e-01
7.246673107147216797e-02 8.135943859815597534e-02 -1.772578060626983643e-01
3.553101420402526855e-02 -5.341343581676483154e-03 4.587417840957641602e-01
-2.638749480247497559e-01 1.305877417325973511e-02 4.848683476448059082e-01
-5.496352314949035645e-01 -6.657211482524871826e-02 -2.861312627792358398e-01
9.911492466926574707e-03 -1.383462250232696533e-01 4.924269914627075195e-01
-1.104120984673500061e-01 -2.486599385738372803e-01 1.907583773136138916e-01
-5.409504175186157227e-01 -3.302549943327903748e-02 1.832053661346435547e-01
-3.658327460289001465e-02 9.873435646295547485e-02 -2.044903337955474854e-01
-3.978499770164489746e-01 -1.398052424192428589e-01 4.020841121673583984e-01
1.861196011304855347e-01 4.472397267818450928e-02 -3.763299807906150818e-02
-8.708268404006958008e-02 -2.147161066532135010e-01 3.552800714969635010e-01
-2.972650527954101562e-02 -2.577370405197143555e-01 8.493511378765106201e-02
1.009501367807388306e-01 -2.004488706588745117e-01 2.799700200557708740e-01
1.685408204793930054e-01 3.053738921880722046e-02 1.711562573909759521e-01
-1.499436497688293457e-01 -1.612159609794616699e-01 4.993891119956970215e-01
-3.550197184085845947e-02 4.962263256311416626e-02 3.752060234546661377e-01
-5.798071622848510742e-02 -2.589985132217407227e-01 9.163005650043487549e-02
-3.410429954528808594e-01 -2.234424352645874023e-01 1.729805469512939453e-01
-2.544862627983093262e-01 9.423132985830307007e-02 1.622384190559387207e-01
3.035119175910949707e-01 -9.032942354679107666e-02 -2.983370721340179443e-01
-1.461754739284515381e-02 -1.837178468704223633e-01 4.230754971504211426e-01
2.092629671096801758e-02 -2.407999634742736816e-01 1.752097606658935547e-01
1.178120374679565430e-01 2.103234082460403442e-02 -5.006323456764221191e-01
-3.481297492980957031e-01 -1.517378389835357666e-01 -5.946075320243835449e-01
-1.874649226665496826e-01 -9.644329547882080078e-02 -7.431392669677734375e-01
1.704749464988708496e-02 -1.623815596103668213e-01 4.512407779693603516e-01
-5.320110321044921875e-01 -1.460998952388763428e-01 5.120435357093811035e-02
1.221078485250473022e-01 -2.331915795803070068e-01 -3.294570744037628174e-01
1.129531115293502808e-01 -1.674966514110565186e-02 4.012442231178283691e-01
1.271711438894271851e-01 1.127206534147262573e-02 3.234635889530181885e-01
1.321658939123153687e-01 6.297200173139572144e-02 2.489709854125976562e-02
2.434692531824111938e-01 -1.553408503532409668e-01 -4.199210107326507568e-01
-2.690666019916534424e-01 -2.195360064506530762e-01 -4.810866415500640869e-01
-1.383920013904571533e-02 9.243199974298477173e-02 1.041187644004821777e-01
-1.346438825130462646e-01 -1.944831609725952148e-01 -6.347606182098388672e-01
2.948772907257080078e-01 -1.443607509136199951e-01 -2.404678314924240112e-01
3.822833299636840820e-03 -9.778087586164474487e-02 -7.355157136917114258e-01
-4.135730266571044922e-01 2.018862962722778320e-02 3.459900617599487305e-01
-1.227634474635124207e-01 -2.603681981563568115e-01 -3.221820294857025146e-01
-4.794574379920959473e-01 -1.425277888774871826e-01 -4.007689952850341797e-01
-1.031624823808670044e-01 -2.650662958621978760e-01 -2.679889798164367676e-01
8.025048673152923584e-02 8.088140934705734253e-02 -3.112598136067390442e-02
-2.676737308502197266e-01 6.684305518865585327e-02 3.255175352096557617e-01
-2.924886345863342285e-01 -2.507677376270294189e-01 -1.819484829902648926e-01
-8.962154388427734375e-04 -1.190452054142951965e-01 -7.299249172210693359e-01
-4.730931520462036133e-01 -1.912312507629394531e-01 -9.033881127834320068e-03
-1.450705826282501221e-01 -1.303577423095703125e-01 5.443157553672790527e-01
2.678606510162353516e-01 -5.192540585994720459e-03 -4.663351178169250488e-02
2.696709334850311279e-02 -6.305953860282897949e-02 5.178145766258239746e-01
2.797529101371765137e-01 -2.242870628833770752e-02 -2.390154451131820679e-01
-1.778380721807479858e-01 -2.649450004100799561e-01 -9.665004909038543701e-03
-5.547904372215270996e-01 -8.682706207036972046e-02 1.460567414760589600e-01
-5.072158575057983398e-01 -1.679685413837432861e-01 -1.740862429141998291e-01
-3.058330416679382324e-01 -1.299885064363479614e-01 -6.625239849090576172e-01
-1.945606619119644165e-02 -2.202650606632232666e-01 -5.466953516006469727e-01
-6.707304716110229492e-02 7.266391068696975708e-02 -4.462626874446868896e-01
-2.900033593177795410e-01 9.234861284494400024e-02 1.394657641649246216e-01
-3.518662154674530029e-01 -1.528975367546081543e-02 -6.011406183242797852e-01
-1.518158912658691406e-01 -1.450749486684799194e-02 5.443935990333557129e-01
-6.872804462909698486e-02 -2.375535368919372559e-01 2.503198385238647461e-01
-5.478351116180419922e-01 -1.150500625371932983e-01 -2.376858741044998169e-01
-9.636980295181274414e-02 9.252922981977462769e-02 -3.292982578277587891e-01
-5.068711191415786743e-02 -2.331835627555847168e-01 -5.019160509109497070e-01
-2.576103806495666504e-01 -2.372642159461975098e-01 1.961953043937683105e-01
1.266346126794815063e-01 -2.322190701961517334e-01 6.246595084667205811e-02
-2.713055610656738281e-01 9.618390351533889771e-02 -2.293104082345962524e-01
-7.613639533519744873e-02 -1.880138367414474487e-01 -6.531888842582702637e-01
-2.412071228027343750e-01 -2.589375674724578857e-01 -1.935364454984664917e-01
-1.074553728103637695e-01 -2.699532806873321533e-01 -1.210868954658508301e-01
-1.305511891841888428e-01 -2.661024630069732666e-01 1.072329282760620117e-02
2.612148225307464600e-02 -2.446949779987335205e-01 1.422922164201736450e-01
-4.647193551063537598e-01 -3.178713843226432800e-02 -4.747789800167083740e-01
-2.458135038614273071e-01 6.590803712606430054e-02 3.407217264175415039e-01
-3.239462375640869141e-01 1.475529372692108154e-02 -5.698263049125671387e-01
-2.848108708858489990e-01 9.260717779397964478e-02 -2.494545727968215942e-01
-4.413284659385681152e-01 -1.851216554641723633e-01 -3.440287411212921143e-01
-5.100434273481369019e-02 -2.668907642364501953e-01 -2.148604840040206909e-01
1.692265421152114868e-01 5.199634283781051636e-02 -1.548924446105957031e-01
-5.536230802536010742e-01 -1.229543760418891907e-01 -1.650365889072418213e-01
-2.160422503948211670e-01 -1.907446086406707764e-01 4.197703003883361816e-01
2.679653167724609375e-01 -8.973420411348342896e-02 -4.308057427406311035e-01
-1.382868587970733643e-01 1.294062286615371704e-02 -6.547890305519104004e-01
-2.857015132904052734e-01 -2.108143270015716553e-01 -5.006960630416870117e-01
-1.021491512656211853e-01 -2.675272226333618164e-01 -2.246470153331756592e-01
-3.862122893333435059e-01 -1.790105402469635010e-01 3.168203830718994141e-01
-2.092469930648803711e-01 7.852498441934585571e-02 2.939374744892120361e-01
-3.887603878974914551e-01 -2.278262376785278320e-02 -5.729486346244812012e-01
-1.435561180114746094e-01 7.224392145872116089e-02 3.284850418567657471e-01
9.625971317291259766e-03 -2.061548531055450439e-01 3.447270095348358154e-01
-3.988218903541564941e-01 5.532643944025039673e-02 2.340904474258422852e-01
-4.955750703811645508e-02 -1.591182351112365723e-01 -7.030263543128967285e-01
-2.500227093696594238e-02 -2.371730804443359375e-01 2.329248487949371338e-01
-2.282389104366302490e-01 -2.158155143260955811e-01 3.292329311370849609e-01
2.165372520685195923e-01 -1.072135195136070251e-01 2.956104576587677002e-01
-4.674312472343444824e-01 -1.230250075459480286e-01 3.293380737304687500e-01
1.841124147176742554e-01 -2.203520238399505615e-01 -2.430860847234725952e-01
2.880111932754516602e-01 -4.510707035660743713e-02 -2.982607483863830566e-01
2.345075458288192749e-01 -8.553560823202133179e-02 -5.077253580093383789e-01
-3.642967939376831055e-01 -5.238529294729232788e-02 4.946069717407226562e-01
1.613019406795501709e-02 -2.138262689113616943e-01 3.126564621925354004e-01
1.604842990636825562e-01 2.237725257873535156e-02 -4.259849190711975098e-01
-3.895974755287170410e-01 7.964833825826644897e-02 2.902357280254364014e-02
-3.230661153793334961e-01 -2.448194622993469238e-01 -2.982555702328681946e-02
7.722213864326477051e-02 5.770475417375564575e-02 -3.944917321205139160e-01
2.011137753725051880e-01 3.819987922906875610e-02 -1.450692415237426758e-01
-2.178085446357727051e-01 -2.629469037055969238e-01 -1.601602137088775635e-01
6.248559057712554932e-02 -2.500029206275939941e-01 3.398476541042327881e-02
-2.547536194324493408e-01 -6.063997745513916016e-03 5.187234282493591309e-01
-2.822850346565246582e-01 5.222348123788833618e-02 -4.918291270732879639e-01
2.320248335599899292e-01 -2.016515284776687622e-01 -1.149235665798187256e-01
-5.605097413063049316e-01 -6.952400505542755127e-02 -2.371061295270919800e-01
3.058300614356994629e-01 -6.380759179592132568e-02 -2.472093999385833740e-01
-3.839017152786254883e-01 -7.763055711984634399e-02 4.786219596862792969e-01
-4.490094780921936035e-01 -1.188681870698928833e-01 3.670975565910339355e-01
-1.305662095546722412e-02 4.474885016679763794e-02 3.762925863265991211e-01
-4.242446422576904297e-01 -1.677365899085998535e-01 2.948116660118103027e-01
-3.164689987897872925e-02 -2.174404859542846680e-01 3.270821571350097656e-01
-1.955690085887908936e-01 -2.657625079154968262e-01 -1.036054790019989014e-01
-4.452571272850036621e-01 8.117116987705230713e-03 -4.313329458236694336e-01
7.693471014499664307e-02 -2.537047863006591797e-01 -1.091983467340469360e-01
6.144478917121887207e-03 -4.311111569404602051e-02 -7.125383019447326660e-01
-1.660975217819213867e-01 -2.574211359024047852e-01 1.068118512630462646e-01
-1.783532351255416870e-01 -1.356235742568969727e-01 -7.232722043991088867e-01
1.006607860326766968e-01 -1.415266394615173340e-01 4.188727140426635742e-01
-3.582128882408142090e-02 -2.116419374942779541e-01 3.504254519939422607e-01
-6.190789490938186646e-02 2.756477892398834229e-02 -6.127259731292724609e-01
2.464450150728225708e-01 -1.872417032718658447e-01 -1.275280117988586426e-02
-9.628622978925704956e-02 9.268847852945327759e-02 1.915994882583618164e-01
3.962486982345581055e-01 -3.473293185234069824e-01 -6.707224845886230469e-01
2.898625433444976807e-01 -5.414150953292846680e-01 -1.080291509628295898e+00
4.020336270332336426e-01 -4.620599448680877686e-01 -4.637854397296905518e-01
3.671190142631530762e-01 -5.631407499313354492e-01 -2.902455925941467285e-01
2.526465058326721191e-01 -3.228210210800170898e-01 -6.774071455001831055e-01
2.416013181209564209e-01 -6.676796674728393555e-01 -1.035544872283935547e+00
2.677560150623321533e-01 -2.318592518568038940e-01 -4.551433920860290527e-01
2.906572818756103516e-01 -5.726441144943237305e-01 -4.551911354064941406e-02
3.514959216117858887e-01 -2.887931466102600098e-01 -7.711628675460815430e-01
3.299495279788970947e-01 -1.579719781875610352e-01 -4.195999801158905029e-01
2.461985796689987183e-01 -2.567959129810333252e-01 -2.220659255981445312e-01
1.928591430187225342e-01 -5.409622788429260254e-01 -5.538412928581237793e-01
2.516975402832031250e-01 -2.749443650245666504e-01 -5.066875815391540527e-01
2.080965638160705566e-01 -7.043921351432800293e-01 -8.052899837493896484e-01
2.051550149917602539e-01 -4.212201833724975586e-01 -3.718872666358947754e-01
2.307193875312805176e-01 -4.282986819744110107e-01 -7.925436496734619141e-01
3.125052154064178467e-01 -4.182168245315551758e-01 -9.828300476074218750e-01
3.305647075176239014e-01 -5.527615547180175781e-01 -1.042382955551147461e+00
2.053914815187454224e-01 -6.604602336883544922e-01 -8.391187787055969238e-01
3.797946274280548096e-01 -5.397717356681823730e-01 -3.417332768440246582e-01
2.420819550752639771e-01 -5.915970206260681152e-01 -1.200332641601562500e-01
4.098455607891082764e-01 -3.655334115028381348e-01 -4.996506869792938232e-01
2.008515149354934692e-01 -5.836301445960998535e-01 -3.327023088932037354e-01
2.000498175621032715e-01 -4.643623232841491699e-01 -3.567973673343658447e-01
2.633696198463439941e-01 -2.305991947650909424e-01 -4.031998813152313232e-01
2.761056721210479736e-01 -7.688302993774414062e-01 -6.537665128707885742e-01
3.873716592788696289e-01 -2.930284142494201660e-01 2.729859948158264160e-02
2.816828191280364990e-01 -7.676346898078918457e-01 -6.762104630470275879e-01
4.006718695163726807e-01 -4.569694995880126953e-01 -5.992189645767211914e-01
3.678885400295257568e-01 -5.851507782936096191e-01 -3.806956708431243896e-01
2.152868509292602539e-01 -6.355903744697570801e-01 -2.990286052227020264e-01
3.783691823482513428e-01 -1.838795244693756104e-01 -4.496271610260009766e-01
4.029372632503509521e-01 -2.950640022754669189e-01 -5.473144054412841797e-01
3.567678630352020264e-01 -4.118286967277526855e-01 6.197875738143920898e-02
3.517337441444396973e-01 -2.602468729019165039e-01 1.649890542030334473e-01
3.938784599304199219e-01 -2.783280611038208008e-01 -1.145470142364501953e-02
2.030782103538513184e-01 -5.138846635818481445e-01 -7.172718048095703125e-01
3.982073664665222168e-01 -4.726902842521667480e-01 -6.177964210510253906e-01
2.392949461936950684e-01 -7.336640357971191406e-01 -4.649289250373840332e-01
3.805536627769470215e-01 -5.140019059181213379e-01 -8.053408861160278320e-01
1.989262402057647705e-01 -6.648578643798828125e-01 -5.336350798606872559e-01
3.661479353904724121e-01 -6.181627511978149414e-01 -5.624927282333374023e-01
2.017642408609390259e-01 -4.487673044204711914e-01 -4.941516518592834473e-01
3.240656554698944092e-01 -1.879141330718994141e-01 -5.293295979499816895e-01
2.467225044965744019e-01 -4.424147903919219971e-01 3.955090045928955078e-02
4.031789898872375488e-01 -2.318781465291976929e-01 -3.989047408103942871e-01
2.092339396476745605e-01 -5.632256269454956055e-01 -2.333209663629531860e-01
2.700184285640716553e-01 -6.819945573806762695e-01 -2.712050080299377441e-01
2.044316530227661133e-01 -5.416575074195861816e-01 -7.756700515747070312e-01
1.954248398542404175e-01 -5.922971367835998535e-01 -7.070581912994384766e-01
4.102627038955688477e-01 -3.537544012069702148e-01 -2.757951319217681885e-01
4.026463925838470459e-01 -3.265838027000427246e-01 -1.174421906471252441e-01
2.962187826633453369e-01 -1.566821336746215820e-01 -1.899605095386505127e-01
3.575230538845062256e-01 -1.469875872135162354e-01 -3.673062026500701904e-01
2.258392870426177979e-01 -5.892266035079956055e-01 -9.665116071701049805e-01
3.786548376083374023e-01 -4.996635913848876953e-01 -2.055476307868957520e-01
3.645314276218414307e-01 -2.431507259607315063e-01 -6.562920212745666504e-01
2.445935308933258057e-01 -2.777654528617858887e-01 -9.474614262580871582e-02
2.388437688350677490e-01 -3.273591101169586182e-01 -3.602913022041320801e-02
2.162091135978698730e-01 -6.987581253051757812e-01 -4.500902295112609863e-01
2.551382482051849365e-01 -4.111388623714447021e-01 -8.791550397872924805e-01
3.822259306907653809e-01 -2.895221710205078125e-01 5.726814270019531250e-02
3.727425634860992432e-01 -5.858480334281921387e-01 -4.559155106544494629e-01
3.458931148052215576e-01 -4.471571445465087891e-01 -9.699197411537170410e-01
2.649985849857330322e-01 -7.113383412361145020e-01 -3.564599156379699707e-01
3.894577622413635254e-01 -5.258606672286987305e-01 -4.531436264514923096e-01
3.925496935844421387e-01 -3.867828547954559326e-01 -9.529134631156921387e-02
2.331169098615646362e-01 -5.023904442787170410e-01 -9.218906760215759277e-01
3.858358263969421387e-01 -5.148375630378723145e-01 -3.277615308761596680e-01
3.720801770687103271e-01 -1.897969841957092285e-01 7.274657487869262695e-02
3.898180723190307617e-01 -4.324166178703308105e-01 -1.500836610794067383e-01
3.997822105884552002e-01 -3.665153980255126953e-01 -1.332308948040008545e-01
3.840026855468750000e-01 -4.172619879245758057e-01 -7.792118191719055176e-02
2.387697696685791016e-01 -4.472996592521667480e-01 6.936252117156982422e-03
2.877058088779449463e-01 -3.784553706645965576e-01 -9.105511903762817383e-01
2.316226959228515625e-01 -7.231955528259277344e-01 -9.534981250762939453e-01
1.958237737417221069e-01 -5.450739264488220215e-01 -6.595686078071594238e-01
2.726045846939086914e-01 -2.952683866024017334e-01 1.212874650955200195e-01
2.563502788543701172e-01 -7.739170789718627930e-01 -8.569100499153137207e-01
2.344888299703598022e-01 -6.379851102828979492e-01 -2.209149450063705444e-01
3.488909304141998291e-01 -6.478011608123779297e-01 -8.545686602592468262e-01
3.912096917629241943e-01 -1.767635047435760498e-01 -8.829414844512939453e-02
3.374660015106201172e-01 -1.251021325588226318e-01 -6.996837258338928223e-02
2.884820997714996338e-01 -4.492250084877014160e-01 1.128855347633361816e-01
4.096381664276123047e-01 -2.642808258533477783e-01 -3.732575774192810059e-01
2.470612376928329468e-01 -2.569177150726318359e-01 -1.742005646228790283e-01
2.877546548843383789e-01 -3.139536976814270020e-01 -7.929068207740783691e-01
3.077287375926971436e-01 -4.022270739078521729e-01 -9.633817076683044434e-01
4.020223319530487061e-01 -2.022120356559753418e-01 -2.207830846309661865e-01
2.427742332220077515e-01 -3.976199328899383545e-01 3.300368785858154297e-02
2.156583070755004883e-01 -5.034536719322204590e-01 -8.202322125434875488e-01
2.718177139759063721e-01 -2.403237372636795044e-01 -5.233012437820434570e-01
2.071444690227508545e-01 -4.103129208087921143e-01 -3.454301953315734863e-01
2.157519012689590454e-01 -7.192019224166870117e-01 -8.569544553756713867e-01
3.408384919166564941e-01 -5.767145156860351562e-01 -1.005744695663452148e+00
2.041453123092651367e-01 -6.212851405143737793e-01 -8.341498374938964844e-01
3.151479363441467285e-01 -6.776751875877380371e-01 -1.007948637008666992e+00
3.637216687202453613e-01 -4.127274155616760254e-01 -8.944566249847412109e-01
2.295160591602325439e-01 -3.311349749565124512e-01 -4.976511299610137939e-01
2.372684180736541748e-01 -5.560109019279479980e-01 -8.513346314430236816e-02
1.970573067665100098e-01 -4.822089076042175293e-01 -4.329853653907775879e-01
2.523310184478759766e-01 -3.025051653385162354e-01 3.040066361427307129e-02
3.272648155689239502e-01 -4.455051422119140625e-01 -1.000686883926391602e+00
3.654699921607971191e-01 -6.180293560028076172e-01 -7.269206047058105469e-01
4.081475734710693359e-01 -3.742437958717346191e-01 -2.677397727966308594e-01
4.085136651992797852e-01 -3.956512808799743652e-01 -5.084249377250671387e-01
3.951853513717651367e-01 -1.994877457618713379e-01 -7.151678204536437988e-02
2.509391307830810547e-01 -4.339832663536071777e-01 -9.006403684616088867e-01
3.602937161922454834e-01 -5.443148612976074219e-01 -1.866585910320281982e-01
3.370402753353118896e-01 -4.881592392921447754e-01 1.790496706962585449e-02
3.369196057319641113e-01 -6.467455029487609863e-01 -3.538917601108551025e-01
2.735516428947448730e-01 -1.929826140403747559e-01 -2.020276337862014771e-01
3.946509957313537598e-01 -4.378590285778045654e-01 -7.146809101104736328e-01
3.233262002468109131e-01 -6.242222189903259277e-01 -1.039001822471618652e+00
3.428241908550262451e-01 -6.798572540283203125e-01 -6.096881628036499023e-01
2.968210279941558838e-01 -2.240419685840606689e-01 -5.842447876930236816e-01
3.037123382091522217e-01 -1.660134792327880859e-01 -3.679201006889343262e-01
3.950242996215820312e-01 -4.553884565830230713e-01 -7.001293897628784180e-01
4.111906588077545166e-01 -2.998959124088287354e-01 -4.199226796627044678e-01
2.240172922611236572e-01 -5.329714417457580566e-01 -1.139422059059143066e-01
1.925344169139862061e-01 -5.849455595016479492e-01 -4.853135645389556885e-01
3.874416649341583252e-01 -5.407792925834655762e-01 -5.196510553359985352e-01
2.923391163349151611e-01 -6.465833783149719238e-01 -1.986891627311706543e-01
3.777341246604919434e-01 -3.181940913200378418e-01 6.510651111602783203e-02
2.089271843433380127e-01 -4.547899961471557617e-01 -2.021017074584960938e-01
2.868292927742004395e-01 -4.874149858951568604e-01 -1.041640996932983398e+00
1.962130069732666016e-01 -6.229778528213500977e-01 -4.607054591178894043e-01
3.563405275344848633e-01 -6.001871824264526367e-01 -9.001433849334716797e-01
2.842025458812713623e-01 -7.591211795806884766e-01 -6.076296567916870117e-01
2.628099322319030762e-01 -2.200121283531188965e-01 -3.114042580127716064e-01
3.867226541042327881e-01 -3.726910948753356934e-01 -7.582045793533325195e-01
2.252408564090728760e-01 -4.514358043670654297e-01 -8.010168075561523438e-01
3.951293528079986572e-01 -1.837092041969299316e-01 -1.224799752235412598e-01
3.289440572261810303e-01 -1.265740692615509033e-01 -1.045004725456237793e-01
3.310877382755279541e-01 -6.888934373855590820e-01 -8.856461048126220703e-01
2.449831068515777588e-01 -2.614850997924804688e-01 -3.029823303222656250e-01
2.306919246912002563e-01 -3.551113009452819824e-01 -6.071448326110839844e-01
3.409771323204040527e-01 -1.866597235202789307e-01 1.363551616668701172e-01
2.140339016914367676e-01 -5.385724902153015137e-01 -1.763568818569183350e-01
2.589438557624816895e-01 -7.782688736915588379e-01 -7.260639667510986328e-01
3.509311378002166748e-01 -6.529989242553710938e-01 -5.227626562118530273e-01
2.455887347459793091e-01 -6.016869544982910156e-01 -1.044382572174072266e+00
1.971589326858520508e-01 -6.554244756698608398e-01 -7.160252332687377930e-01
3.617947399616241455e-01 -6.223388314247131348e-01 -4.925545454025268555e-01
4.115616083145141602e-01 -3.620771169662475586e-01 -4.332266449928283691e-01
2.669928669929504395e-01 -2.064172774553298950e-01 -1.741655468940734863e-01
3.805950284004211426e-01 -4.630675911903381348e-01 -8.302052617073059082e-01
2.927406430244445801e-01 -6.612867712974548340e-01 -1.077269315719604492e+00
3.650907576084136963e-01 -5.718768239021301270e-01 -8.729194402694702148e-01
4.064166247844696045e-01 -2.333246022462844849e-01 -1.906308531761169434e-01
2.868259251117706299e-01 -5.907799005508422852e-01 -1.095916032791137695e+00
2.162775695323944092e-01 -6.376301050186157227e-01 -9.308215975761413574e-01
2.101242542266845703e-01 -6.275881528854370117e-01 -8.874053955078125000e-01
2.735225856304168701e-01 -2.595819234848022461e-01 9.187304973602294922e-02
2.586612999439239502e-01 -2.701982855796813965e-01 2.333715558052062988e-02
3.959788680076599121e-01 -2.659868597984313965e-01 -5.593739151954650879e-01
2.784940600395202637e-01 -2.610420584678649902e-01 1.143985390663146973e-01
2.423817664384841919e-01 -5.167491436004638672e-01 -2.663516998291015625e-02
3.678553998470306396e-01 -6.133047342300415039e-01 -6.925708651542663574e-01
2.826004922389984131e-01 -7.685321569442749023e-01 -8.218194246292114258e-01
2.681907415390014648e-01 -4.909883141517639160e-01 -1.019577026367187500e+00
1.918661296367645264e-01 -5.994145274162292480e-01 -5.672271251678466797e-01
3.598742485046386719e-01 -5.513108968734741211e-01 -9.290975332260131836e-01
3.827638030052185059e-01 -2.722691297531127930e-01 -6.504956483840942383e-01
2.165189683437347412e-01 -5.160832405090332031e-01 -8.444081544876098633e-01
3.204841613769531250e-01 -7.261147499084472656e-01 -7.471686601638793945e-01
2.101001739501953125e-01 -5.088877677917480469e-01 -1.875515878200531006e-01
3.567186594009399414e-01 -1.549190878868103027e-01 -4.065690934658050537e-01
2.285588085651397705e-01 -4.645279943943023682e-01 -4.781663417816162109e-02
3.273835778236389160e-01 -1.558831334114074707e-01 7.185679674148559570e-02
2.215270996093750000e-01 -4.839791655540466309e-01 -8.317897915840148926e-01
2.034322321414947510e-01 -4.624413251876831055e-01 -2.765216529369354248e-01
2.482219636440277100e-01 -3.560379445552825928e-01 -7.378176450729370117e-01
3.121834993362426758e-01 -6.466002464294433594e-01 -1.053181409835815430e+00
4.118833839893341064e-01 -2.819130420684814453e-01 -2.915898263454437256e-01
2.262225449085235596e-01 -4.937865734100341797e-01 -8.751814961433410645e-01
3.510048389434814453e-01 -5.938601493835449219e-01 -9.446400403976440430e-01
2.282049655914306641e-01 -3.180184662342071533e-01 -2.195505648851394653e-01
4.114691615104675293e-01 -3.692390620708465576e-01 -4.055290818214416504e-01
3.980491459369659424e-01 -4.540231823921203613e-01 -6.578233838081359863e-01
2.840766012668609619e-01 -1.764929890632629395e-01 -1.072858273983001709e-01
1.934393346309661865e-01 -6.257396340370178223e-01 -5.462613105773925781e-01
3.971637487411499023e-01 -4.754048585891723633e-01 -3.652313351631164551e-01
3.283793032169342041e-01 -1.318784952163696289e-01 -2.494010031223297119e-01
2.106402516365051270e-01 -4.112694859504699707e-01 -5.440813302993774414e-01
2.273656129837036133e-01 -4.349512755870819092e-01 -4.936996102333068848e-02
3.910467624664306641e-01 -1.908144056797027588e-01 -4.497337341308593750e-02
3.953816890716552734e-01 -3.911943435668945312e-01 -1.269415616989135742e-01
2.102684080600738525e-01 -3.932518064975738525e-01 -3.255774974822998047e-01
3.593205511569976807e-01 -5.331512093544006348e-01 -1.539399325847625732e-01
3.771693706512451172e-01 -3.656479716300964355e-01 -8.019449710845947266e-01
2.317926883697509766e-01 -3.010977506637573242e-01 -2.952313423156738281e-01
3.839282393455505371e-01 -3.703988492488861084e-01 -1.338201761245727539e-02
3.871710300445556641e-01 -5.237886905670166016e-01 -3.867987692356109619e-01
4.066490232944488525e-01 -4.063725471496582031e-01 -3.210384845733642578e-01
1.945933699607849121e-01 -6.455014348030090332e-01 -6.390184164047241211e-01
3.781292140483856201e-01 -3.000402450561523438e-01 -7.168850898742675781e-01
3.684337735176086426e-01 -2.433280646800994873e-01 1.194618940353393555e-01
3.619333803653717041e-01 -1.260905265808105469e-01 -1.230973005294799805e-01
2.363509088754653931e-01 -7.061932682991027832e-01 -9.943559169769287109e-01
4.047468602657318115e-01 -2.924979925155639648e-01 -1.202096939086914062e-01
4.080265760421752930e-01 -2.875048816204071045e-01 -1.676900684833526611e-01
3.463234901428222656e-01 -3.304769396781921387e-01 1.582459807395935059e-01
2.261528521776199341e-01 -6.387599706649780273e-01 -2.518700063228607178e-01
2.974135279655456543e-01 -5.964580774307250977e-01 -9.508630633354187012e-02
3.994143009185791016e-01 -4.797383844852447510e-01 -5.112856626510620117e-01
2.988094389438629150e-01 -1.567848920822143555e-01 -2.506849169731140137e-01
2.497933059930801392e-01 -7.578380107879638672e-01 -5.522628426551818848e-01
4.029842019081115723e-01 -2.444983422756195068e-01 -4.411003589630126953e-01
3.751915395259857178e-01 -3.465870916843414307e-01 -7.904611825942993164e-01
2.839262783527374268e-01 -5.367256402969360352e-01 1.176050305366516113e-02
2.688449919223785400e-01 -2.365381419658660889e-01 2.380231022834777832e-02
2.041580379009246826e-01 -6.294311285018920898e-01 -3.704471290111541748e-01
2.462522983551025391e-01 -2.563476264476776123e-01 -2.450015097856521606e-01
1.919040381908416748e-01 -5.763996243476867676e-01 -5.099977254867553711e-01
2.048039287328720093e-01 -6.044585108757019043e-01 -3.214744627475738525e-01
2.182243764400482178e-01 -3.544182181358337402e-01 -2.980794310569763184e-01
3.807158470153808594e-01 -5.466881394386291504e-01 -3.841377496719360352e-01
2.681876718997955322e-01 -2.869182825088500977e-01 9.769642353057861328e-02
2.810930311679840088e-01 -2.091639339923858643e-01 -4.500812888145446777e-01
2.556670010089874268e-01 -5.494185090065002441e-01 -3.159713745117187500e-02
3.998423218727111816e-01 -3.922703564167022705e-01 -1.752426624298095703e-01
1.986692994832992554e-01 -4.710226058959960938e-01 -4.993541836738586426e-01
3.994643688201904297e-01 -2.119518220424652100e-01 -1.017872095108032227e-01
2.808198034763336182e-01 -4.179092049598693848e-01 1.297870874404907227e-01
3.464397788047790527e-01 -5.423104763031005859e-01 -9.948990941047668457e-01
1.929801702499389648e-01 -6.145929694175720215e-01 -6.424456238746643066e-01
1.965944916009902954e-01 -5.359089970588684082e-01 -3.585723638534545898e-01
3.193338513374328613e-01 -1.411985158920288086e-01 -1.306483149528503418e-02
3.559763133525848389e-01 -5.845416784286499023e-01 -2.707699239253997803e-01
3.530603647232055664e-01 -6.495195031166076660e-01 -7.877822518348693848e-01
3.437591195106506348e-01 -5.210579037666320801e-01 -1.004447460174560547e+00
3.726836144924163818e-01 -5.894604921340942383e-01 -7.344785332679748535e-01
3.297038078308105469e-01 -6.974480748176574707e-01 -5.430824756622314453e-01
2.998673319816589355e-01 -2.440600991249084473e-01 -6.533932685852050781e-01
2.729761302471160889e-01 -2.455582469701766968e-01 6.828707456588745117e-02
3.295526504516601562e-01 -1.531228125095367432e-01 -3.955962955951690674e-01
2.779857814311981201e-01 -4.873582124710083008e-01 6.924599409103393555e-02
4.028275310993194580e-01 -4.347083270549774170e-01 -5.955209732055664062e-01
1.929496526718139648e-01 -5.880171060562133789e-01 -6.437340974807739258e-01
2.668299973011016846e-01 -5.149636864662170410e-01 2.735912799835205078e-02
3.351359367370605469e-01 -1.369845271110534668e-01 -3.132213950157165527e-01
2.061412632465362549e-01 -4.207447767257690430e-01 -3.177043497562408447e-01
2.858611047267913818e-01 -7.426884174346923828e-01 -9.606314897537231445e-01
1.983880847692489624e-01 -4.706204235553741455e-01 -4.747850596904754639e-01
3.142633140087127686e-01 -7.050616741180419922e-01 -4.575710892677307129e-01
1.985658854246139526e-01 -6.775752305984497070e-01 -6.606018543243408203e-01
3.946204483509063721e-01 -3.449795544147491455e-01 -5.990791320800781250e-02
3.632031083106994629e-01 -4.858576655387878418e-01 -9.277725219726562500e-01
2.043073326349258423e-01 -4.458411037921905518e-01 -5.562771558761596680e-01
3.586567640304565430e-01 -3.858239352703094482e-01 8.399081230163574219e-02
4.066204130649566650e-01 -2.637940049171447754e-01 -1.482625901699066162e-01
2.230535596609115601e-01 -6.072874069213867188e-01 -2.100019603967666626e-01
3.918758630752563477e-01 -3.046613633632659912e-01 -6.526092290878295898e-01
3.888106644153594971e-01 -4.648036658763885498e-01 -7.629845142364501953e-01
3.628177642822265625e-01 -3.648263514041900635e-01 8.973938226699829102e-02
1.973892450332641602e-01 -6.446265578269958496e-01 -4.943340122699737549e-01
2.258901149034500122e-01 -5.487606525421142578e-01 -9.367864727973937988e-01
2.502365708351135254e-01 -7.258247137069702148e-01 -1.005990386009216309e+00
2.809147834777832031e-01 -7.505697011947631836e-01 -5.376756191253662109e-01
2.838544249534606934e-01 -7.580786347389221191e-01 -9.029585123062133789e-01
2.351717650890350342e-01 -6.146013736724853516e-01 -1.015803813934326172e+00
3.527421653270721436e-01 -3.916946947574615479e-01 -9.084024429321289062e-01
3.217504620552062988e-01 -6.904968619346618652e-01 -4.361464381217956543e-01
3.124184608459472656e-01 -6.299231052398681641e-01 -1.981243491172790527e-01
2.364611476659774780e-01 -3.046094775199890137e-01 -4.664498567581176758e-01
1.929123401641845703e-01 -5.449153184890747070e-01 -4.612620472908020020e-01
2.035134732723236084e-01 -4.477426707744598389e-01 -3.009642362594604492e-01
3.705104291439056396e-01 -1.908316612243652344e-01 -5.043294429779052734e-01
3.334968686103820801e-01 -1.639630496501922607e-01 -4.506471455097198486e-01
2.990006506443023682e-01 -6.917882561683654785e-01 -3.414209783077239990e-01
2.507901191711425781e-01 -6.917467117309570312e-01 -1.044311046600341797e+00
3.647207617759704590e-01 -1.297596693038940430e-01 -2.123875319957733154e-01
3.723195791244506836e-01 -2.943117022514343262e-01 1.001023650169372559e-01
1.932480335235595703e-01 -5.460501313209533691e-01 -5.905169844627380371e-01
3.167121112346649170e-01 -7.105602025985717773e-01 -9.212672710418701172e-01
4.089263677597045898e-01 -2.635027766227722168e-01 -1.964935958385467529e-01
3.022317886352539062e-01 -5.222327113151550293e-01 -1.070363521575927734e+00
4.004294872283935547e-01 -2.493178248405456543e-01 -4.835366010665893555e-01
2.348309159278869629e-01 -3.326135873794555664e-01 -5.701109170913696289e-01
2.197339236736297607e-01 -3.809917867183685303e-01 -5.707170367240905762e-01
4.122698307037353516e-01 -3.450452089309692383e-01 -4.124725162982940674e-01
2.051806151866912842e-01 -4.221752285957336426e-01 -4.403033852577209473e-01
4.008827805519104004e-01 -4.591268301010131836e-01 -3.831161856651306152e-01
3.930549919605255127e-01 -3.146352767944335938e-01 -2.205801010131835938e-02
2.795859873294830322e-01 -3.246182799339294434e-01 1.522545814514160156e-01
2.439654767513275146e-01 -6.280133724212646484e-01 -1.046016693115234375e+00
3.270881474018096924e-01 -2.407338023185729980e-01 -6.849211454391479492e-01
2.500205636024475098e-01 -6.443533301353454590e-01 -1.060928106307983398e+00
2.241504788398742676e-01 -7.511660456657409668e-01 -8.139144778251647949e-01
2.560951113700866699e-01 -3.340428769588470459e-01 7.705181837081909180e-02
3.213781714439392090e-01 -7.197876572608947754e-01 -6.202909350395202637e-01
2.111744284629821777e-01 -5.098825693130493164e-01 -7.939161062240600586e-01
2.943194508552551270e-01 -7.266000509262084961e-01 -9.817637801170349121e-01
2.287596762180328369e-01 -3.995875716209411621e-01 -4.774171113967895508e-02
3.688738048076629639e-01 -1.585450768470764160e-01 3.039342164993286133e-02
2.166688144207000732e-01 -7.393091917037963867e-01 -6.499264240264892578e-01
3.635081946849822998e-01 -4.521740972995758057e-01 -9.177085161209106445e-01
4.119603335857391357e-01 -3.232571780681610107e-01 -4.262272417545318604e-01
3.594940602779388428e-01 -5.762468576431274414e-01 -9.097675085067749023e-01
2.930770814418792725e-01 -2.026385515928268433e-01 8.326590061187744141e-02
2.387875318527221680e-01 -6.560485363006591797e-01 -2.457227259874343872e-01
3.777225017547607422e-01 -2.599403858184814453e-01 8.460062742233276367e-02
3.323947191238403320e-01 -6.302393078804016113e-01 -2.726874351501464844e-01
2.466417551040649414e-01 -2.564809322357177734e-01 -1.981483399868011475e-01
3.995082080364227295e-01 -1.961656808853149414e-01 -2.919128537178039551e-01
3.908112645149230957e-01 -5.146688818931579590e-01 -4.169473946094512939e-01
3.816199600696563721e-01 -2.132776975631713867e-01 -5.249112844467163086e-01
3.049362897872924805e-01 -2.065889090299606323e-01 1.295668482780456543e-01
3.537917137145996094e-01 -1.306386590003967285e-01 -2.708134055137634277e-01
2.020354717969894409e-01 -6.947261095046997070e-01 -6.295580863952636719e-01
1.944560110569000244e-01 -5.143302679061889648e-01 -4.428382515907287598e-01
3.054960072040557861e-01 -7.261360883712768555e-01 -9.352678656578063965e-01
2.561770677566528320e-01 -2.320544272661209106e-01 -1.692768037319183350e-01
2.682508528232574463e-01 -5.652266740798950195e-01 -1.074504137039184570e+00
4.074518680572509766e-01 -2.679178118705749512e-01 -4.345232844352722168e-01
3.535802066326141357e-01 -6.424884200096130371e-01 -8.160256147384643555e-01
3.700637221336364746e-01 -5.984663963317871094e-01 -4.864257872104644775e-01
4.102465510368347168e-01 -2.747215032577514648e-01 -2.218265235424041748e-01
2.043234705924987793e-01 -5.600134730339050293e-01 -2.721002697944641113e-01
3.468249440193176270e-01 -6.262612342834472656e-01 -3.465363085269927979e-01
1.974835842847824097e-01 -5.491740107536315918e-01 -6.965945363044738770e-01
3.423087298870086670e-01 -4.242487251758575439e-01 8.930635452270507812e-02
3.878692090511322021e-01 -5.258331298828125000e-01 -6.836419105529785156e-01
2.184365838766098022e-01 -6.644213795661926270e-01 -9.398207664489746094e-01
2.956707477569580078e-01 -2.395380288362503052e-01 -6.287370324134826660e-01
3.618782460689544678e-01 -6.196414232254028320e-01 -7.909836769104003906e-01
4.020605683326721191e-01 -4.241697192192077637e-01 -6.234367489814758301e-01
2.531102895736694336e-01 -2.570300698280334473e-01 -4.332148432731628418e-01
3.968292474746704102e-01 -3.122014999389648438e-01 -5.001038312911987305e-02
4.108272790908813477e-01 -2.682778239250183105e-01 -2.587306499481201172e-01
3.367846906185150146e-01 -2.063380032777786255e-01 -5.970798134803771973e-01
2.363994270563125610e-01 -6.418052911758422852e-01 -1.023856878280639648e+00
3.628174662590026855e-01 -2.627693116664886475e-01 1.384779214859008789e-01
2.832443416118621826e-01 -2.011923342943191528e-01 -4.257342815399169922e-01
2.812822163105010986e-01 -1.846302151679992676e-01 -2.915234863758087158e-01
2.191609144210815430e-01 -4.435441493988037109e-01 -7.396417260169982910e-01
3.076068460941314697e-01 -6.000423431396484375e-01 -1.179125607013702393e-01
3.008885979652404785e-01 -4.986203312873840332e-01 -1.056110501289367676e+00
3.770443499088287354e-01 -5.508388280868530273e-01 -7.888064384460449219e-01
2.989225387573242188e-01 -2.810898721218109131e-01 -7.449266910552978516e-01
3.848994970321655273e-01 -5.411389470100402832e-01 -4.336992502212524414e-01
2.242816686630249023e-01 -3.334988355636596680e-01 -4.017239809036254883e-01
2.574301064014434814e-01 -2.451125830411911011e-01 -5.521592497825622559e-02
2.384096980094909668e-01 -3.002045750617980957e-01 -1.009147167205810547e-01
2.163322567939758301e-01 -4.730010926723480225e-01 -7.748203873634338379e-01
2.545898258686065674e-01 -2.408472895622253418e-01 -1.217253208160400391e-01
3.955109119415283203e-01 -3.915885984897613525e-01 -7.049576044082641602e-01
2.591406404972076416e-01 -2.730852067470550537e-01 -5.613909363746643066e-01
3.278511464595794678e-01 -5.885843038558959961e-01 -1.043865442276000977e+00
2.057546377182006836e-01 -4.618531167507171631e-01 -2.393023520708084106e-01
1.960257887840270996e-01 -5.619093179702758789e-01 -3.789650201797485352e-01
4.104787409305572510e-01 -3.778499960899353027e-01 -3.527371287345886230e-01
3.127738237380981445e-01 -3.925940394401550293e-01 1.589771509170532227e-01
2.473382055759429932e-01 -7.643998861312866211e-01 -5.970702171325683594e-01
1.996890604496002197e-01 -5.443872213363647461e-01 -3.125123083591461182e-01
4.003989398479461670e-01 -2.738937139511108398e-01 -6.712001562118530273e-02
2.844245731830596924e-01 -2.055317759513854980e-01 4.627603292465209961e-02
1.961531639099121094e-01 -4.905705153942108154e-01 -4.555754363536834717e-01
3.357685804367065430e-01 -5.213680267333984375e-01 -1.026408672332763672e+00
3.413423597812652588e-01 -6.857578158378601074e-01 -6.603495478630065918e-01
3.994607925415039062e-01 -3.465325832366943359e-01 -6.421478390693664551e-01
2.302687764167785645e-01 -3.914548754692077637e-01 -7.078176736831665039e-01
2.985159456729888916e-01 -7.507847547531127930e-01 -6.406002640724182129e-01
3.519804179668426514e-01 -6.596959829330444336e-01 -6.206814646720886230e-01
4.027458131313323975e-01 -4.567010402679443359e-01 -5.132594108581542969e-01
3.532956242561340332e-01 -2.191210836172103882e-01 -6.211658716201782227e-01
3.013516962528228760e-01 -4.552181661128997803e-01 -1.020132303237915039e+00
2.198377251625061035e-01 -3.942368626594543457e-01 -6.179291605949401855e-01
3.930717110633850098e-01 -4.357503652572631836e-01 -1.881604790687561035e-01
3.844015002250671387e-01 -1.560202240943908691e-01 -2.633362710475921631e-01
2.824325263500213623e-01 -2.839528024196624756e-01 -7.085609436035156250e-01
2.048153877258300781e-01 -6.900737285614013672e-01 -5.328801274299621582e-01
2.279105782508850098e-01 -6.577824354171752930e-01 -9.898542761802673340e-01
2.980447709560394287e-01 -1.634674370288848877e-01 -2.507075667381286621e-02
2.847449183464050293e-01 -3.073763251304626465e-01 -7.710847258567810059e-01
3.488573431968688965e-01 -6.677970886230468750e-01 -7.222476005554199219e-01
2.238323390483856201e-01 -6.707108616828918457e-01 -9.669224619865417480e-01
3.186708986759185791e-01 -6.895255446434020996e-01 -4.132811427116394043e-01
4.027096033096313477e-01 -2.812715172767639160e-01 -9.278103709220886230e-02
3.077908754348754883e-01 -1.862086951732635498e-01 1.011204719543457031e-01
1.924273520708084106e-01 -6.121458411216735840e-01 -6.117566227912902832e-01
2.193200886249542236e-01 -4.030142426490783691e-01 -6.391077637672424316e-01
3.786135911941528320e-01 -5.649909973144531250e-01 -4.430320858955383301e-01
2.703935205936431885e-01 -4.274471700191497803e-01 1.084510087966918945e-01
2.363446801900863647e-01 -4.732856750488281250e-01 -8.983697295188903809e-01
2.127173840999603271e-01 -7.257812619209289551e-01 -7.948002815246582031e-01
2.121031582355499268e-01 -6.502068638801574707e-01 -3.489538729190826416e-01
3.171283006668090820e-01 -3.280067741870880127e-01 -8.579691648483276367e-01
2.032247781753540039e-01 -4.329600334167480469e-01 -4.081547558307647705e-01
3.692729175090789795e-01 -5.173289179801940918e-01 -1.781269907951354980e-01
1.986783444881439209e-01 -6.400283575057983398e-01 -7.645481824874877930e-01
3.669624924659729004e-01 -3.384879827499389648e-01 -8.102416992187500000e-01
3.911958932876586914e-01 -5.232338905334472656e-01 -5.875377655029296875e-01
2.115797698497772217e-01 -7.010173797607421875e-01 -4.958237111568450928e-01
3.456271588802337646e-01 -3.596894145011901855e-01 1.416050195693969727e-01
2.161974906921386719e-01 -4.844314455986022949e-01 -1.312597393989562988e-01
1.916775107383728027e-01 -5.744315981864929199e-01 -5.460098385810852051e-01
3.952999711036682129e-01 -1.797783970832824707e-01 -2.616333961486816406e-01
3.795948624610900879e-01 -2.035422176122665405e-01 5.301678180694580078e-02
3.808825016021728516e-01 -3.410361707210540771e-01 -7.591822743415832520e-01
3.376580476760864258e-01 -1.647073626518249512e-01 1.013613343238830566e-01
3.675298988819122314e-01 -3.634894192218780518e-01 -8.374377489089965820e-01
4.084001779556274414e-01 -2.423385083675384521e-01 -2.348205447196960449e-01
2.922006845474243164e-01 -2.291826754808425903e-01 1.249893903732299805e-01
2.560638785362243652e-01 -7.789196968078613281e-01 -7.587165832519531250e-01
3.456842899322509766e-01 -1.891962885856628418e-01 -5.439079999923706055e-01
3.821585178375244141e-01 -1.587546765804290771e-01 -3.111416399478912354e-01
3.427876234054565430e-01 -6.581937074661254883e-01 -4.504618942737579346e-01
3.628301918506622314e-01 -5.904582142829895020e-01 -3.477469682693481445e-01
2.997459173202514648e-01 -3.442389965057373047e-01 -8.718025684356689453e-01
3.923080563545227051e-01 -4.670381247997283936e-01 -7.239549160003662109e-01
3.648788630962371826e-01 -1.320933997631072998e-01 -6.497436761856079102e-02
1.998479366302490234e-01 -4.609395563602447510e-01 -3.819251954555511475e-01
3.357878327369689941e-01 -6.973777413368225098e-01 -7.429817914962768555e-01
3.024442493915557861e-01 -2.894095778465270996e-01 -7.698892354965209961e-01
1.961853355169296265e-01 -5.149785280227661133e-01 -3.748928010463714600e-01
2.208243310451507568e-01 -3.442355990409851074e-01 -2.738248705863952637e-01
3.317925333976745605e-01 -3.994001150131225586e-01 1.350440382957458496e-01
4.047706425189971924e-01 -3.522416353225708008e-01 -1.725571453571319580e-01
3.954607844352722168e-01 -4.948833882808685303e-01 -4.257857799530029297e-01
3.746464252471923828e-01 -4.602780044078826904e-01 -9.165194630622863770e-02
2.079529017210006714e-01 -6.837458014488220215e-01 -4.707799553871154785e-01
3.848148584365844727e-01 -4.329781830310821533e-01 -7.995759248733520508e-01
2.391742020845413208e-01 -3.307922482490539551e-01 -6.051058173179626465e-01
2.539912462234497070e-01 -3.284302949905395508e-01 -7.002029418945312500e-01
3.383883237838745117e-01 -6.572120785713195801e-01 -9.225990772247314453e-01
2.220268249511718750e-01 -6.244242787361145020e-01 -9.615723490715026855e-01
2.505129873752593994e-01 -7.650265693664550781e-01 -9.025154113769531250e-01
2.558948397636413574e-01 -3.898030221462249756e-01 -8.442805409431457520e-01
3.321381807327270508e-01 -6.326866745948791504e-01 -9.987154603004455566e-01
1.996117830276489258e-01 -6.781729459762573242e-01 -7.161430716514587402e-01
4.028298854827880859e-01 -3.462396264076232910e-01 -6.075055599212646484e-01
