3.042184710502624512e-01 5.958269536495208740e-02 -4.738251119852066040e-02
2.865946292877197266e-01 9.325265884399414062e-02 -2.031525969505310059e-02
4.017985463142395020e-01 -2.758852839469909668e-01 1.472765207290649414e-02
4.915235340595245361e-01 1.679503619670867920e-01 -2.763934805989265442e-02
2.747036814689636230e-01 -8.337837457656860352e-02 4.764164984226226807e-02
4.243002831935882568e-01 2.301147878170013428e-01 1.360569149255752563e-02
4.041888713836669922e-01 -1.422599107027053833e-01 -7.624101638793945312e-02
4.231403768062591553e-01 -2.733052074909210205e-01 5.970927421003580093e-03
4.526174962520599365e-01 -2.374418377876281738e-01 -3.525399416685104370e-02
4.257978200912475586e-01 -1.737761050462722778e-01 -6.916676461696624756e-02
3.064940571784973145e-01 1.399645358324050903e-01 4.198105260729789734e-02
4.653607606887817383e-01 2.039353400468826294e-01 1.399280317127704620e-02
4.525028467178344727e-01 1.999198198318481445e-01 2.999632619321346283e-02
3.520055413246154785e-01 -2.813964709639549255e-02 8.756992965936660767e-02
3.502542376518249512e-01 -1.917668730020523071e-01 -5.385233461856842041e-02
2.902038097381591797e-01 -1.232162564992904663e-01 5.505396053194999695e-02
5.088550448417663574e-01 -1.495211422443389893e-01 2.213098481297492981e-02
3.157604336738586426e-01 1.124740988016128540e-01 6.043577194213867188e-02
2.940642535686492920e-01 2.550580725073814392e-02 6.510950624942779541e-02
4.115183055400848389e-01 -1.811572164297103882e-01 6.809569150209426880e-02
4.011129736900329590e-01 1.897429823875427246e-01 5.155008658766746521e-02
3.702795505523681641e-01 4.980330914258956909e-02 8.569665998220443726e-02
3.248545825481414795e-01 -2.165745496749877930e-01 -2.913988567888736725e-02
2.974461317062377930e-01 -7.116574048995971680e-02 6.817001849412918091e-02
4.095213413238525391e-01 -2.566080689430236816e-01 -3.466573357582092285e-02
4.504155814647674561e-01 3.683362901210784912e-02 -8.191542327404022217e-02
3.048652410507202148e-01 1.075934916734695435e-01 -3.580831736326217651e-02
4.547653496265411377e-01 5.307289212942123413e-02 7.344249635934829712e-02
2.651083171367645264e-01 -4.806326329708099365e-02 3.753243386745452881e-02
3.975904881954193115e-01 -9.992969036102294922e-02 8.463907241821289062e-02
3.067811429500579834e-01 -2.188922315835952759e-01 -1.805645413696765900e-03
2.594942450523376465e-01 -5.048149824142456055e-02 9.141718968749046326e-03
2.949149012565612793e-01 -7.389114797115325928e-02 -4.618541896343231201e-02
3.462066650390625000e-01 1.762039214372634888e-01 -3.700054809451103210e-02
2.880607843399047852e-01 -1.798990517854690552e-01 -4.269347526133060455e-03
3.219949901103973389e-01 7.229123264551162720e-03 7.990468293428421021e-02
3.479617536067962646e-01 -6.979390978813171387e-02 -7.415743172168731689e-02
3.095350563526153564e-01 -1.658873260021209717e-01 5.673578009009361267e-02
4.599455296993255615e-01 8.740344643592834473e-02 6.679549813270568848e-02
3.934353888034820557e-01 -2.188317924737930298e-01 5.784998834133148193e-02
2.751284241676330566e-01 -1.401550769805908203e-01 2.771442010998725891e-02
5.311040878295898438e-01 -1.514568924903869629e-03 2.055157721042633057e-02
3.482478260993957520e-01 -2.601488828659057617e-01 -1.099698618054389954e-02
3.481837511062622070e-01 -1.529419124126434326e-01 -6.329169869422912598e-02
3.061938285827636719e-01 -2.197861224412918091e-01 1.471300981938838959e-02
5.177376866340637207e-01 -6.516318023204803467e-02 3.518157079815864563e-02
3.387782275676727295e-01 1.055474579334259033e-01 7.172732055187225342e-02
4.003997147083282471e-01 7.744401693344116211e-02 8.210002630949020386e-02
2.783946990966796875e-01 8.568251132965087891e-02 3.269148245453834534e-02
2.875798940658569336e-01 -6.236562132835388184e-02 6.234880164265632629e-02
6.135625243186950684e-01 -2.867911010980606079e-02 4.790824279189109802e-02
7.251208424568176270e-01 1.692925393581390381e-01 5.501488968729972839e-02
6.478049755096435547e-01 -5.314932018518447876e-02 -9.597922861576080322e-02
4.721916317939758301e-01 -4.497267305850982666e-03 -6.653733551502227783e-02
5.868819355964660645e-01 2.719877958297729492e-01 -5.882989242672920227e-02
5.617121458053588867e-01 -6.426442414522171021e-02 2.021251246333122253e-02
6.921153068542480469e-01 3.925306349992752075e-02 -9.374566376209259033e-02
4.910766482353210449e-01 5.529001355171203613e-04 -8.393353223800659180e-02
5.989699959754943848e-01 8.201480656862258911e-02 -1.063487678766250610e-01
6.043462753295898438e-01 1.624309122562408447e-01 6.263805925846099854e-02
7.748410105705261230e-01 1.747590303421020508e-01 1.814994215965270996e-02
6.566300988197326660e-01 -6.392978876829147339e-02 4.401134327054023743e-02
6.656233668327331543e-01 -9.600801020860671997e-02 -8.339057862758636475e-02
5.434632897377014160e-01 2.946157157421112061e-01 -4.003178700804710388e-02
6.171464323997497559e-01 1.986656188964843750e-01 5.950191244482994080e-02
5.623617768287658691e-01 -3.748107701539993286e-02 -9.771519899368286133e-02
5.353151559829711914e-01 9.760542213916778564e-02 -1.034337431192398071e-01
4.740638136863708496e-01 -2.540352940559387207e-02 -4.346624761819839478e-02
4.537311196327209473e-01 2.128311097621917725e-01 -4.902865737676620483e-02
6.419097185134887695e-01 -1.411522626876831055e-01 -6.210571900010108948e-02
5.254157185554504395e-01 2.781572043895721436e-01 1.428815349936485291e-02
4.995429515838623047e-01 2.056100666522979736e-01 -7.933601737022399902e-02
7.299005389213562012e-01 2.378008365631103516e-01 -9.933975525200366974e-03
5.636968612670898438e-01 -6.728280335664749146e-02 -8.979108929634094238e-02
7.228467464447021484e-01 2.183782756328582764e-01 -3.825727105140686035e-02
4.921036958694458008e-01 -4.417525231838226318e-02 -2.079351432621479034e-02
4.524466395378112793e-01 1.663990616798400879e-01 3.842748701572418213e-04
8.175945878028869629e-01 3.590162470936775208e-02 -1.745441928505897522e-03
5.626222491264343262e-01 1.597542613744735718e-01 5.522652342915534973e-02
8.033428788185119629e-01 6.690391898155212402e-02 -2.911816537380218506e-02
6.741932630538940430e-01 1.077509522438049316e-01 6.864456832408905029e-02
7.138459682464599609e-01 4.351287335157394409e-02 -8.704286813735961914e-02
4.869384169578552246e-01 2.592047154903411865e-01 -3.625452518463134766e-05
6.442557573318481445e-01 8.550991117954254150e-02 -1.012842655181884766e-01
7.904863357543945312e-01 4.816634207963943481e-02 4.071427136659622192e-02
5.200999975204467773e-01 3.939795121550559998e-02 -1.005526632070541382e-01
5.830340385437011719e-01 -2.187367528676986694e-02 4.243085160851478577e-02
7.318826913833618164e-01 1.122213900089263916e-03 5.678773298859596252e-02
5.889626741409301758e-01 1.083181053400039673e-01 6.166948005557060242e-02
6.454803943634033203e-01 5.096546187996864319e-02 -1.030619740486145020e-01
6.148982048034667969e-01 -8.635280281305313110e-02 2.854570373892784119e-02
5.827035903930664062e-01 1.451003551483154297e-01 -1.002037674188613892e-01
8.001126050949096680e-01 3.982298076152801514e-03 -3.873690962791442871e-02
7.506860494613647461e-01 1.863832473754882812e-01 -3.496895357966423035e-02
4.724441170692443848e-01 1.751654744148254395e-01 1.649893447756767273e-02
6.630678772926330566e-01 2.522780299186706543e-01 4.229271784424781799e-02
8.041610121726989746e-01 1.107428520917892456e-01 -4.379141144454479218e-03
7.858291864395141602e-01 3.338205441832542419e-02 -5.108345299959182739e-02
6.997254490852355957e-01 1.105276048183441162e-01 -8.486960828304290771e-02
7.076281905174255371e-01 2.133652567863464355e-01 -5.106226727366447449e-02
5.563504695892333984e-01 2.873188257217407227e-01 -4.890303686261177063e-02
6.032110452651977539e-01 -4.932651668787002563e-02 -9.872566163539886475e-02
6.466922760009765625e-01 3.242257609963417053e-02 -1.031425148248672485e-01
7.071433663368225098e-01 -1.429630815982818604e-01 1.134777441620826721e-03
6.822720170021057129e-01 9.237401187419891357e-03 6.197920814156532288e-02
6.818526387214660645e-01 1.474851220846176147e-01 6.603078544139862061e-02
7.859376668930053711e-01 -9.327044337987899780e-02 -7.044157013297080994e-03
5.564062595367431641e-01 2.101937532424926758e-01 -8.586218953132629395e-02
5.441974997520446777e-01 -1.278156787157058716e-02 -9.935370087623596191e-02
7.906501293182373047e-01 -6.917982548475265503e-02 1.288367062807083130e-02
4.987451732158660889e-01 1.096196770668029785e-01 -9.567929804325103760e-02
7.315684556961059570e-01 -1.421692967414855957e-01 -1.061672531068325043e-02
5.385341048240661621e-01 -5.450709909200668335e-02 1.317619904875755310e-02
6.472793221473693848e-01 2.427165806293487549e-01 4.843651130795478821e-02
4.868274927139282227e-01 2.723644077777862549e-01 -2.520345337688922882e-02
4.552329182624816895e-01 1.947138458490371704e-02 -5.427210032939910889e-02
5.923810005187988281e-01 -2.481705695390701294e-02 -1.026417016983032227e-01
8.137440085411071777e-01 3.807241097092628479e-02 1.624746620655059814e-02
7.538162469863891602e-01 6.094334274530410767e-02 5.705700442194938660e-02
5.868402123451232910e-01 3.056210279464721680e-02 5.434182658791542053e-02
5.991017222404479980e-01 1.196766644716262817e-01 -1.029408872127532959e-01
7.109340429306030273e-01 2.492818832397460938e-01 -2.190671488642692566e-02
6.394039988517761230e-01 -1.565684080123901367e-01 -2.757728099822998047e-02
4.711453020572662354e-01 1.731134355068206787e-01 -7.733076065778732300e-02
7.843996286392211914e-01 -7.910985499620437622e-02 -3.490202501416206360e-02
8.041303157806396484e-01 3.151466324925422668e-02 2.945581823587417603e-02
6.601152420043945312e-01 4.973068833351135254e-02 6.639859080314636230e-02
5.152193903923034668e-01 1.084500700235366821e-01 -9.959436953067779541e-02
7.269211411476135254e-01 -1.461950540542602539e-01 -2.530365809798240662e-02
7.543083429336547852e-01 2.080663442611694336e-01 1.604801043868064880e-02
5.673770904541015625e-01 -2.982993423938751221e-02 3.524990752339363098e-02
7.570868730545043945e-01 -5.540636926889419556e-02 3.823764994740486145e-02
7.322763800621032715e-01 1.409979760646820068e-01 5.817986652255058289e-02
4.698948860168457031e-01 9.359671175479888916e-02 -8.516074717044830322e-02
7.115633487701416016e-01 5.994380638003349304e-02 -8.683185279369354248e-02
5.878561735153198242e-01 2.912759482860565186e-01 -4.479057341814041138e-02
7.706500887870788574e-01 3.737160190939903259e-02 -6.136446073651313782e-02
5.742394328117370605e-01 4.615648835897445679e-02 -1.074506491422653198e-01
8.107398748397827148e-01 5.758867785334587097e-02 1.998098939657211304e-02
5.104585886001586914e-01 3.453532233834266663e-02 2.804693207144737244e-02
4.747661352157592773e-01 1.897529959678649902e-01 1.615970954298973083e-02
8.099999427795410156e-01 -6.654173135757446289e-03 1.700243726372718811e-02
4.654025435447692871e-01 1.641072630882263184e-01 1.233443990349769592e-02
7.217708230018615723e-01 2.842182666063308716e-02 -8.478721976280212402e-02
6.163834929466247559e-01 -8.302947133779525757e-02 -9.056286513805389404e-02
6.393588185310363770e-01 1.022996380925178528e-01 -1.004304140806198120e-01
5.314353108406066895e-01 5.461641401052474976e-02 -1.035302132368087769e-01
6.873024702072143555e-01 -1.114117875695228577e-01 2.605830132961273193e-02
7.009571790695190430e-01 -1.193460747599601746e-01 2.102604135870933533e-02
7.889980077743530273e-01 -2.638392150402069092e-03 -4.886662587523460388e-02
6.822696924209594727e-01 2.736537456512451172e-01 1.827206835150718689e-02
5.846970677375793457e-01 8.219881355762481689e-02 5.962268635630607605e-02
7.425355315208435059e-01 7.365237176418304443e-02 6.024654582142829895e-02
4.635858237743377686e-01 1.354240030050277710e-01 1.184950768947601318e-02
4.618421792984008789e-01 1.522087156772613525e-01 -7.636933028697967529e-02
5.273355841636657715e-01 1.582061350345611572e-01 4.489288106560707092e-02
6.015912890434265137e-01 2.863066196441650391e-01 -4.685031250119209290e-02
5.394462943077087402e-01 -8.795089274644851685e-02 -7.065492123365402222e-02
5.636308789253234863e-01 1.194271594285964966e-01 -1.037114411592483521e-01
6.547627449035644531e-01 -1.143718436360359192e-01 -7.779337465763092041e-02
7.980977296829223633e-01 1.052776947617530823e-01 2.665412425994873047e-02
4.589993953704833984e-01 1.199094206094741821e-01 -7.820123434066772461e-02
7.496902346611022949e-01 1.815842092037200928e-02 -7.340011000633239746e-02
6.153535842895507812e-01 1.045975983142852783e-01 6.569261848926544189e-02
6.663282513618469238e-01 8.734553307294845581e-02 6.864613294601440430e-02
8.016957640647888184e-01 2.908433228731155396e-02 -3.669303655624389648e-02
5.199100971221923828e-01 -5.161774903535842896e-02 -8.064316213130950928e-02
5.449311137199401855e-01 -8.787778764963150024e-02 -2.915989607572555542e-03
4.478648304939270020e-01 4.670927673578262329e-02 -2.453021705150604248e-02
6.349796056747436523e-01 -1.079105660319328308e-01 2.258502319455146790e-02
4.934821724891662598e-01 5.137988179922103882e-02 -9.358724951744079590e-02
6.518849134445190430e-01 8.242821693420410156e-02 6.813395023345947266e-02
7.429363727569580078e-01 1.501795649528503418e-01 -5.653905123472213745e-02
5.459901690483093262e-01 2.531268596649169922e-01 3.418244048953056335e-02
5.128679275512695312e-01 1.422423124313354492e-01 3.980717435479164124e-02
5.803892612457275391e-01 -1.257570683956146240e-01 -1.280573755502700806e-02
4.878142476081848145e-01 2.147715091705322266e-01 1.966271549463272095e-02
5.831422209739685059e-01 -5.359662324190139771e-02 -9.664209187030792236e-02
4.369745254516601562e-01 1.248953565955162048e-01 -2.004432305693626404e-02
5.757240653038024902e-01 6.719286739826202393e-02 -1.073726266622543335e-01
6.157631278038024902e-01 -1.197354495525360107e-02 5.230974778532981873e-02
4.564819037914276123e-01 1.965586543083190918e-01 -6.080096587538719177e-02
5.649758577346801758e-01 -1.226188912987709045e-01 -2.428052760660648346e-02
4.752213060855865479e-01 2.481338381767272949e-01 -4.683815687894821167e-02
8.090740442276000977e-01 -4.006417840719223022e-02 2.288874238729476929e-04
6.527647972106933594e-01 1.093530356884002686e-01 6.859675049781799316e-02
6.413828134536743164e-01 -5.879882723093032837e-02 4.390710964798927307e-02
7.003306746482849121e-01 1.229955628514289856e-01 6.619660556316375732e-02
7.042855024337768555e-01 4.987683892250061035e-02 6.547880172729492188e-02
4.802307486534118652e-01 2.633604705333709717e-01 -3.400700539350509644e-02
7.951169610023498535e-01 7.272666692733764648e-02 -3.754995763301849365e-02
6.281466484069824219e-01 1.784298419952392578e-01 -8.889874815940856934e-02
7.221969962120056152e-01 7.193892449140548706e-02 6.431838870048522949e-02
7.501488327980041504e-01 1.283613294363021851e-01 5.419327691197395325e-02
4.481240510940551758e-01 6.503558903932571411e-02 -1.474761031568050385e-02
7.186506986618041992e-01 2.354389727115631104e-01 -2.856617048382759094e-02
7.735084295272827148e-01 -7.492443174123764038e-02 -4.754263907670974731e-02
6.256954073905944824e-01 -1.447763442993164062e-01 -5.646605417132377625e-02
7.502606511116027832e-01 2.009393572807312012e-01 2.933150902390480042e-02
7.346071004867553711e-01 -5.409819632768630981e-02 4.425301775336265564e-02
6.919850707054138184e-01 -4.422061145305633545e-02 -8.960184454917907715e-02
7.018440365791320801e-01 2.248573303222656250e-01 -4.818297922611236572e-02
5.901541709899902344e-01 -1.022021099925041199e-01 -8.079493045806884766e-02
5.274135470390319824e-01 -9.538305550813674927e-02 -3.877430781722068787e-02
4.836451113224029541e-01 1.223925575613975525e-01 2.508415654301643372e-02
7.576343417167663574e-01 2.071348726749420166e-01 3.977859392762184143e-03
7.828178405761718750e-01 1.304905712604522705e-01 3.481718897819519043e-02
6.657828688621520996e-01 -1.323501169681549072e-01 1.208918541669845581e-02
5.624203085899353027e-01 1.628657877445220947e-01 -9.732711315155029297e-02
4.330286979675292969e-01 1.301132142543792725e-01 -3.431145101785659790e-02
7.432265877723693848e-01 2.250141799449920654e-01 8.820785209536552429e-03
4.857864379882812500e-01 1.605568379163742065e-01 2.607286348938941956e-02
8.165489435195922852e-01 1.356504112482070923e-02 -1.090552844107151031e-02
6.889295578002929688e-01 1.035368815064430237e-01 6.802344322204589844e-02
5.866593718528747559e-01 2.251998782157897949e-01 5.092741921544075012e-02
7.724364995956420898e-01 -8.744212239980697632e-02 -4.307179525494575500e-02
4.791133105754852295e-01 1.756744459271430969e-02 -8.124133944511413574e-02
6.341030597686767578e-01 1.897601783275604248e-01 6.181930378079414368e-02
6.258938312530517578e-01 -3.095268458127975464e-02 -1.012669801712036133e-01
5.334436297416687012e-01 7.213763147592544556e-02 -1.040089875459671021e-01
5.727366805076599121e-01 2.391985356807708740e-01 -7.575716823339462280e-02
5.661261081695556641e-01 2.958282083272933960e-02 -1.065371781587600708e-01
6.954097747802734375e-01 2.690503001213073730e-01 1.058160699903964996e-02
4.876961708068847656e-01 1.863797754049301147e-02 9.859934449195861816e-03
5.846800208091735840e-01 1.866959631443023682e-01 -9.175346791744232178e-02
6.689999103546142578e-01 -1.501382589340209961e-01 -4.592241719365119934e-03
5.071326494216918945e-01 -2.460748702287673950e-02 7.158843800425529480e-03
6.152628064155578613e-01 4.230454564094543457e-03 -1.053529232740402222e-01
6.274638175964355469e-01 2.099684178829193115e-01 -7.997985184192657471e-02
5.809530019760131836e-01 2.100504636764526367e-01 5.312052741646766663e-02
6.688715815544128418e-01 -6.781017035245895386e-02 -9.026125073432922363e-02
7.295601963996887207e-01 1.122497767210006714e-02 -8.199040591716766357e-02
5.864123106002807617e-01 -3.419402986764907837e-02 3.991270065307617188e-02
7.699530124664306641e-01 -6.140179187059402466e-02 -5.434402823448181152e-02
8.000221252441406250e-01 2.286329865455627441e-03 3.006834164261817932e-02
5.729973316192626953e-01 3.045518100261688232e-01 8.073823526501655579e-03
7.647210359573364258e-01 1.305996030569076538e-01 4.728795215487480164e-02
4.623431265354156494e-01 2.324133217334747314e-01 -1.077941432595252991e-02
5.215113162994384766e-01 6.107067316770553589e-02 3.797530010342597961e-02
6.247794032096862793e-01 -4.872334003448486328e-02 -9.855720400810241699e-02
7.083824872970581055e-01 8.840461820363998413e-02 -8.509640395641326904e-02
7.402255535125732422e-01 -8.739284425973892212e-02 -6.402037292718887329e-02
5.337368845939636230e-01 2.532709240913391113e-01 3.007390722632408142e-02
5.782923102378845215e-01 -9.457709640264511108e-02 -8.203594386577606201e-02
4.707573056221008301e-01 2.168233096599578857e-01 6.686003878712654114e-03
7.555273771286010742e-01 1.731091439723968506e-01 -3.806178271770477295e-02
4.680876135826110840e-01 2.481242716312408447e-01 -3.577709197998046875e-02
5.481402873992919922e-01 3.053203523159027100e-01 -2.366248331964015961e-02
7.286543846130371094e-01 -1.361137330532073975e-01 1.470405608415603638e-03
5.490930080413818359e-01 4.409940913319587708e-02 -1.056363582611083984e-01
7.242038249969482422e-01 5.937059968709945679e-02 6.361606717109680176e-02
5.272759199142456055e-01 1.906415969133377075e-01 4.210057482123374939e-02
5.169803500175476074e-01 1.013263165950775146e-01 4.035175964236259460e-02
4.554278850555419922e-01 1.471692621707916260e-01 4.744196310639381409e-03
5.111547708511352539e-01 -7.437370717525482178e-03 -9.123460948467254639e-02
6.793014407157897949e-01 1.965785622596740723e-01 5.851878598332405090e-02
6.784123182296752930e-01 3.034138306975364685e-02 6.477487087249755859e-02
6.983525753021240234e-01 -3.912819176912307739e-02 5.215406790375709534e-02
6.595650315284729004e-01 1.198509633541107178e-01 6.852869689464569092e-02
4.392262995243072510e-01 7.698138803243637085e-02 -2.826452255249023438e-02
6.951957941055297852e-01 -5.324926227331161499e-02 4.851688817143440247e-02
7.086350917816162109e-01 1.692741215229034424e-01 -6.805317103862762451e-02
6.776621937751770020e-01 2.631749808788299561e-01 3.157403320074081421e-02
4.479528367519378662e-01 3.484360128641128540e-02 -3.861626237630844116e-02
4.539686441421508789e-01 8.490675687789916992e-02 -7.431077212095260620e-02
7.418999075889587402e-01 -3.208976984024047852e-02 -7.447411119937896729e-02
7.951956391334533691e-01 -2.873764187097549438e-02 -4.037692397832870483e-02
8.163474798202514648e-01 5.082596093416213989e-02 4.835566505789756775e-03
7.681031823158264160e-01 6.885286420583724976e-02 -5.980917438864707947e-02
4.680109024047851562e-01 -1.406644284725189209e-02 -4.128807038068771362e-02
6.581619381904602051e-01 -2.336025238037109375e-02 -9.870541095733642578e-02
5.879700779914855957e-01 -1.026419550180435181e-02 4.667737707495689392e-02
5.474726557731628418e-01 5.260806158185005188e-02 4.656648263335227966e-02
5.187204480171203613e-01 2.843850553035736084e-01 -4.263556748628616333e-02
6.428937315940856934e-01 -7.540821284055709839e-02 3.841290250420570374e-02
5.477236509323120117e-01 2.903389632701873779e-01 1.517954468727111816e-02
6.342754364013671875e-01 2.351035773754119873e-01 5.161502584815025330e-02
6.298321485519409180e-01 -4.700154066085815430e-03 5.605080351233482361e-02
6.690224409103393555e-01 2.779249548912048340e-01 -2.653305605053901672e-02
6.482940912246704102e-01 1.461581885814666748e-01 6.707361340522766113e-02
6.105148196220397949e-01 1.648351550102233887e-03 5.418599024415016174e-02
7.812223434448242188e-01 1.282370835542678833e-01 -3.450825810432434082e-02
5.363323092460632324e-01 4.298350214958190918e-02 4.110559448599815369e-02
5.175088644027709961e-01 2.202042937278747559e-01 -7.877647876739501953e-02
5.297134518623352051e-01 2.095701992511749268e-01 -8.408346772193908691e-02
4.795802235603332520e-01 2.193993926048278809e-01 -6.692224740982055664e-02
7.099244594573974609e-01 -1.355483382940292358e-02 5.698737129569053650e-02
6.729249358177185059e-01 -9.572727233171463013e-02 3.323634341359138489e-02
7.520125508308410645e-01 1.576184034347534180e-01 4.736548289656639099e-02
4.935502409934997559e-01 -5.273439735174179077e-02 -5.427730083465576172e-02
7.802094221115112305e-01 -4.525052011013031006e-02 3.164634481072425842e-02
8.148032426834106445e-01 2.912320941686630249e-02 -1.611958630383014679e-02
6.781191825866699219e-01 1.272467374801635742e-01 6.781247258186340332e-02
6.637578606605529785e-01 2.117745578289031982e-01 -7.026134431362152100e-02
5.797085762023925781e-01 2.025812864303588867e-05 4.684182628989219666e-02
6.877036690711975098e-01 1.569811403751373291e-01 -7.942777127027511597e-02
6.631906032562255859e-01 -1.251660585403442383e-01 -7.169020920991897583e-02
6.752924919128417969e-01 -1.062904074788093567e-01 -7.827115803956985474e-02
5.158630609512329102e-01 1.659513413906097412e-01 4.012130945920944214e-02
6.025541424751281738e-01 -1.450731456279754639e-01 -4.293254762887954712e-02
6.200900673866271973e-01 -1.089761480689048767e-01 -8.099516481161117554e-02
7.338700890541076660e-01 2.036529779434204102e-01 -3.898110240697860718e-02
6.393913030624389648e-01 2.456775903701782227e-01 -6.289760768413543701e-02
4.871888756752014160e-01 1.833282709121704102e-01 2.488670125603675842e-02
4.527020752429962158e-01 2.022932171821594238e-01 -7.909129373729228973e-03
6.179122924804687500e-01 -6.432748585939407349e-02 3.798040002584457397e-02
6.923370957374572754e-01 1.544759273529052734e-01 6.420345604419708252e-02
4.421538114547729492e-01 1.898935437202453613e-01 -4.322703182697296143e-02
5.015173554420471191e-01 1.397513896226882935e-01 3.479279205203056335e-02
4.778144955635070801e-01 3.260225057601928711e-03 -7.582406699657440186e-02
7.292834520339965820e-01 1.862635314464569092e-01 4.899634048342704773e-02
7.528542280197143555e-01 1.091774851083755493e-01 -6.179573386907577515e-02
6.030946373939514160e-01 2.434155344963073730e-01 -7.140247523784637451e-02
5.775167346000671387e-01 -1.057869568467140198e-01 4.141662269830703735e-03
6.879166364669799805e-01 -1.757085323333740234e-03 6.016314402222633362e-02
5.995442867279052734e-01 2.622033953666687012e-01 -6.285970658063888550e-02
5.710058808326721191e-01 -7.800980657339096069e-02 -8.748634159564971924e-02
4.827805161476135254e-01 1.094221919775009155e-01 2.383717894554138184e-02
5.696412324905395508e-01 -1.155485585331916809e-01 -9.318173862993717194e-03
5.376906394958496094e-01 2.340413331985473633e-01 3.743154928088188171e-02
7.522178292274475098e-01 -1.303596794605255127e-01 -2.284592203795909882e-02
5.951012969017028809e-01 1.407364383339881897e-02 5.342165753245353699e-02
6.321617364883422852e-01 1.360035836696624756e-01 6.693705916404724121e-02
7.654834985733032227e-01 1.679587066173553467e-01 -3.120482526719570160e-02
6.131829023361206055e-01 1.043279767036437988e-01 -1.035182923078536987e-01
4.971387982368469238e-01 3.377030789852142334e-02 2.047076076269149780e-02
7.158728241920471191e-01 -2.622827887535095215e-03 -8.648531138896942139e-02
6.662778258323669434e-01 1.839419901371002197e-01 -7.878126204013824463e-02
7.089194059371948242e-01 1.019891873002052307e-01 -8.304469287395477295e-02
7.385133504867553711e-01 2.263595163822174072e-01 -1.323390007019042969e-02
6.476386785507202148e-01 1.965883970260620117e-01 6.074426695704460144e-02
6.023325324058532715e-01 7.908341288566589355e-02 6.272804737091064453e-02
6.514703035354614258e-01 9.609784185886383057e-02 6.849062442779541016e-02
4.944223761558532715e-01 -3.673270344734191895e-03 6.742302328348159790e-03
8.152581453323364258e-01 5.474293231964111328e-02 -7.964926771819591522e-03
7.911484241485595703e-01 8.695446699857711792e-02 -3.823416680097579956e-02
6.782041192054748535e-01 1.678638607263565063e-01 -7.969109714031219482e-02
6.912823915481567383e-01 -9.874366968870162964e-02 -7.757410407066345215e-02
6.799945831298828125e-01 1.456029415130615234e-01 -8.446992933750152588e-02
4.511478841304779053e-01 1.057351231575012207e-01 -7.277645170688629150e-02
4.446845054626464844e-01 1.253115683794021606e-01 -7.267863489687442780e-03
5.205190181732177734e-01 1.230059117078781128e-01 4.277461767196655273e-02
7.654101848602294922e-01 -1.118877753615379333e-01 -3.286068141460418701e-02
7.665244340896606445e-01 -5.151405930519104004e-03 -6.419803947210311890e-02
5.098743438720703125e-01 -6.290519982576370239e-02 -1.482389122247695923e-02
5.482451319694519043e-01 1.298295557498931885e-01 5.226776376366615295e-02
5.183723568916320801e-01 9.465393424034118652e-02 -1.009465306997299194e-01
5.312389731407165527e-01 2.229176759719848633e-01 -7.997599244117736816e-02
5.158517956733703613e-01 -6.536624580621719360e-02 -7.024626433849334717e-02
5.202149748802185059e-01 1.112565398216247559e-03 2.448624745011329651e-02
5.526722073554992676e-01 3.172530978918075562e-02 4.497941955924034119e-02
7.283512949943542480e-01 9.869976341724395752e-02 -7.596252858638763428e-02
5.855036377906799316e-01 -1.322252154350280762e-01 -5.537676438689231873e-02
5.780944824218750000e-01 2.566634118556976318e-01 -6.780135631561279297e-02
5.884346961975097656e-01 2.974158227443695068e-01 1.861612871289253235e-02
7.507323622703552246e-01 5.506781116127967834e-02 -7.109488546848297119e-02
5.457320213317871094e-01 -6.109381467103958130e-02 -8.727672696113586426e-02
4.361348748207092285e-01 1.658132225275039673e-01 -2.934163436293601990e-02
4.772698283195495605e-01 1.598310321569442749e-01 -8.276069164276123047e-02
6.070119738578796387e-01 -2.991799265146255493e-02 -1.020700484514236450e-01
5.899125337600708008e-01 1.437400728464126587e-01 6.158963963389396667e-02
6.706330776214599609e-01 2.207076549530029297e-01 -6.434804201126098633e-02
4.966596364974975586e-01 1.715869456529617310e-01 3.111486509442329407e-02
5.379521846771240234e-01 2.486960962414741516e-02 3.834466263651847839e-02
5.461958646774291992e-01 -7.232142239809036255e-02 8.235972374677658081e-03
6.842957735061645508e-01 6.179195642471313477e-02 6.738054752349853516e-02
5.479437708854675293e-01 7.627595961093902588e-02 -1.056574136018753052e-01
7.219839096069335938e-01 1.686993837356567383e-01 -6.197109073400497437e-02
5.024229884147644043e-01 -4.611357301473617554e-02 -7.204438745975494385e-02
5.210906863212585449e-01 1.089288294315338135e-02 -9.777124226093292236e-02
6.508959531784057617e-01 6.392896175384521484e-04 -1.016437411308288574e-01
7.793565988540649414e-01 1.656593680381774902e-01 -1.235207170248031616e-02
6.863630414009094238e-01 2.267794311046600342e-01 -5.510085448622703552e-02
7.050931453704833984e-01 1.106933951377868652e-01 6.627036631107330322e-02
5.772931575775146484e-01 -1.330672204494476318e-01 -3.220523521304130554e-02
6.942211389541625977e-01 2.592034339904785156e-01 -2.736851200461387634e-02
5.424077510833740234e-01 2.661395072937011719e-01 -6.209111586213111877e-02
4.977338910102844238e-01 1.738221645355224609e-01 -8.695439994335174561e-02
5.004602670669555664e-01 2.599697113037109375e-01 -5.505936965346336365e-02
4.748438596725463867e-01 8.372619748115539551e-02 1.589062437415122986e-02
5.239503383636474609e-01 2.615303993225097656e-01 2.278525382280349731e-02
6.344547271728515625e-01 -1.548405587673187256e-01 -4.063561186194419861e-02
4.998832345008850098e-01 1.505314931273460388e-02 1.705513522028923035e-02
4.852267801761627197e-01 -4.370956122875213623e-02 -3.963737934827804565e-02
8.128874301910400391e-01 -2.528294175863265991e-02 -6.010793149471282959e-04
4.652826189994812012e-01 4.612454771995544434e-02 -7.799212634563446045e-02
7.073426246643066406e-01 2.599363923072814941e-01 -8.682297542691230774e-03
6.990079879760742188e-01 1.482579708099365234e-01 -7.762800902128219604e-02
7.110800743103027344e-01 1.429831385612487793e-01 -7.426272332668304443e-02
4.984386265277862549e-01 2.823945283889770508e-01 -1.821162179112434387e-02
5.063381195068359375e-01 2.847452759742736816e-01 -3.319592773914337158e-02
6.688702106475830078e-01 -1.588116884231567383e-01 -3.518471121788024902e-02
7.509351968765258789e-01 -3.176381438970565796e-02 4.651806131005287170e-02
7.180711627006530762e-01 -6.965143233537673950e-02 -7.763576507568359375e-02
6.267549991607666016e-01 2.891350090503692627e-01 -3.745078295469284058e-02
6.058034300804138184e-01 -7.019347697496414185e-02 -9.395729005336761475e-02
5.453262329101562500e-01 2.683863341808319092e-01 2.776509895920753479e-02
7.445731759071350098e-01 -1.172865256667137146e-01 1.214761286973953247e-02
5.933649539947509766e-01 1.828027665615081787e-01 5.913693085312843323e-02
6.181996464729309082e-01 -1.508982181549072266e-01 -2.721660025417804718e-02
5.931807160377502441e-01 3.022260069847106934e-01 -3.221170604228973389e-02
4.662835001945495605e-01 1.232497841119766235e-01 1.356735825538635254e-02
4.522531926631927490e-01 2.220685780048370361e-01 -2.549947053194046021e-02
6.027935743331909180e-01 6.011518090963363647e-02 -1.070837527513504028e-01
7.125172615051269531e-01 -5.938359349966049194e-02 4.569505527615547180e-02
5.372030138969421387e-01 -1.000355258584022522e-01 -2.418471686542034149e-02
7.159395813941955566e-01 1.992144882678985596e-01 4.966331645846366882e-02
6.884744763374328613e-01 -1.568758487701416016e-01 -3.465363383293151855e-02
7.830311655998229980e-01 1.745045185089111328e-02 4.316634312272071838e-02
8.033376336097717285e-01 -5.276135355234146118e-02 -1.977614127099514008e-02
7.174180746078491211e-01 -8.729823678731918335e-02 3.532512485980987549e-02
4.718312323093414307e-01 2.270783185958862305e-01 -5.862211436033248901e-02
5.129860043525695801e-01 1.214708760380744934e-01 -9.812383353710174561e-02
5.502722263336181641e-01 2.488592267036437988e-01 -7.146810740232467651e-02
7.398959398269653320e-01 3.582554683089256287e-02 -7.739263772964477539e-02
6.583561301231384277e-01 8.753737062215805054e-02 -9.856308996677398682e-02
7.942527532577514648e-01 -7.506559044122695923e-02 -2.141212671995162964e-02
5.583160519599914551e-01 2.229719161987304688e-01 -8.183475583791732788e-02
7.890248298645019531e-01 1.325296759605407715e-01 -2.249216474592685699e-02
7.512205839157104492e-01 1.700347810983657837e-01 4.397504404187202454e-02
5.256901383399963379e-01 1.816052198410034180e-01 -9.084320068359375000e-02
7.370651364326477051e-01 1.089760735630989075e-01 -7.018122076988220215e-02
6.204739809036254883e-01 4.828231036663055420e-02 -1.060952991247177124e-01
7.337980270385742188e-01 3.936323523521423340e-02 6.080145016312599182e-02
7.105578780174255371e-01 -8.490998297929763794e-02 -7.637549191713333130e-02
5.940378904342651367e-01 2.153689265251159668e-01 5.408295616507530212e-02
5.642597675323486328e-01 2.429090440273284912e-03 4.281558468937873840e-02
7.484633922576904297e-01 3.150433301925659180e-03 -7.386182248592376709e-02
5.249860286712646484e-01 -3.376527875661849976e-02 -8.941528201103210449e-02
7.348857522010803223e-01 -7.599831372499465942e-02 -6.971276551485061646e-02
7.018001079559326172e-01 -2.691827714443206787e-02 -8.907434344291687012e-02
5.004770755767822266e-01 -6.503222137689590454e-02 -3.844526037573814392e-02
7.744707465171813965e-01 -9.456985443830490112e-02 1.061031594872474670e-02
7.461297512054443359e-01 -7.574061304330825806e-02 3.430465981364250183e-02
6.202675104141235352e-01 1.296091526746749878e-01 -9.959577023983001709e-02
6.164126396179199219e-01 3.062201142311096191e-01 2.933748066425323486e-03
7.918747663497924805e-01 -7.865823060274124146e-02 2.766419202089309692e-03
7.925440669059753418e-01 -8.284146338701248169e-02 -1.135515794157981873e-02
5.872687101364135742e-01 -8.408532291650772095e-02 -8.803799748420715332e-02
7.939243912696838379e-01 4.814382642507553101e-02 -4.284940659999847412e-02
4.589021205902099609e-01 5.126003921031951904e-02 -5.387635901570320129e-03
5.713680982589721680e-01 6.224783509969711304e-02 5.476807430386543274e-02
4.609210491180419922e-01 2.238447666168212891e-01 -5.066289752721786499e-02
7.087849974632263184e-01 1.689769029617309570e-01 5.925373360514640808e-02
4.782049953937530518e-01 7.777640223503112793e-02 -8.887015283107757568e-02
5.559117794036865234e-01 7.146381586790084839e-02 5.148817971348762512e-02
6.240344643592834473e-01 -1.256381273269653320e-01 -7.239827513694763184e-02
8.061072230339050293e-01 -2.133981883525848389e-02 1.799207553267478943e-02
4.372911453247070312e-01 8.122154325246810913e-02 -4.713273048400878906e-02
7.403101921081542969e-01 5.644557625055313110e-02 6.043879315257072449e-02
7.021839618682861328e-01 2.998310327529907227e-02 6.390030682086944580e-02
5.924648046493530273e-01 1.961687505245208740e-01 5.722457543015480042e-02
4.620020091533660889e-01 9.652218222618103027e-02 7.755117490887641907e-03
5.955101847648620605e-01 2.482670247554779053e-01 4.569051787257194519e-02
4.441749453544616699e-01 8.216194063425064087e-02 -1.524663530290126801e-02
6.534488797187805176e-01 -5.346149206161499023e-03 5.846487358212471008e-02
7.950807809829711914e-01 -4.121930152177810669e-02 -3.774924948811531067e-02
5.919253230094909668e-01 1.580261588096618652e-01 6.117947027087211609e-02
6.530730724334716797e-01 2.687699198722839355e-01 -4.431012272834777832e-02
6.056123971939086914e-01 1.543862968683242798e-01 -9.708350896835327148e-02
6.883152127265930176e-01 2.120218873023986816e-01 -6.111454591155052185e-02
5.619502663612365723e-01 1.442748606204986572e-01 -1.004636883735656738e-01
5.825956463813781738e-01 2.872451543807983398e-01 2.602586895227432251e-02
4.408253431320190430e-01 1.694413721561431885e-01 -5.229237675666809082e-02
6.125618815422058105e-01 7.363562285900115967e-02 6.394603848457336426e-02
4.642574787139892578e-01 1.486084610223770142e-02 -1.517577003687620163e-02
5.878769755363464355e-01 1.287550032138824463e-01 -1.023957431316375732e-01
7.112417221069335938e-01 2.464443147182464600e-01 2.605982497334480286e-02
6.843848228454589844e-01 -1.564783453941345215e-01 -1.591052860021591187e-02
6.679442524909973145e-01 7.188662886619567871e-02 -9.789364039897918701e-02
7.763052582740783691e-01 -1.071041747927665710e-01 -1.534195244312286377e-02
5.895109176635742188e-01 -7.154788821935653687e-02 -9.246487915515899658e-02
6.601343750953674316e-01 -1.362583637237548828e-01 -6.528899073600769043e-02
5.227732062339782715e-01 4.809802025556564331e-02 3.646787628531455994e-02
6.992824077606201172e-01 9.070001542568206787e-02 6.732167303562164307e-02
5.179944634437561035e-01 -8.181145042181015015e-02 -2.658190950751304626e-02
4.414484500885009766e-01 6.296847015619277954e-02 -5.069727450609207153e-02
8.063887357711791992e-01 7.487225532531738281e-02 2.374066784977912903e-02
4.523297548294067383e-01 3.362553566694259644e-02 -5.894804745912551880e-02
5.691511034965515137e-01 1.588945463299751282e-02 4.716436937451362610e-02
6.270497441291809082e-01 3.049855232238769531e-01 -5.607595667243003845e-03
6.364732980728149414e-01 7.881644368171691895e-02 6.698291003704071045e-02
7.153530716896057129e-01 1.130597591400146484e-01 -7.883451133966445923e-02
6.530938148498535156e-01 -3.968837857246398926e-02 5.076053366065025330e-02
7.172643542289733887e-01 -5.557211488485336304e-02 -8.062402904033660889e-02
4.508208632469177246e-01 5.043631047010421753e-02 -6.438475847244262695e-02
7.835267782211303711e-01 7.854625582695007324e-04 4.072802141308784485e-02
6.670665144920349121e-01 2.835714221000671387e-01 1.573644950985908508e-02
4.712432026863098145e-01 1.234191358089447021e-01 -8.474744856357574463e-02
5.203678607940673828e-01 7.581428438425064087e-02 -1.017750799655914307e-01
5.836294889450073242e-01 -9.639687091112136841e-02 1.315860077738761902e-02
7.359457612037658691e-01 1.624987125396728516e-01 -5.650644376873970032e-02
7.022016048431396484e-01 -7.692473381757736206e-02 4.065179079771041870e-02
5.974334478378295898e-01 9.395505487918853760e-02 6.271113455295562744e-02
7.957472205162048340e-01 1.301506757736206055e-01 -1.095649693161249161e-02
4.810029864311218262e-01 2.413405179977416992e-01 -5.656773969531059265e-02
5.401833057403564453e-01 2.187836766242980957e-01 4.178149253129959106e-02
4.872058033943176270e-01 1.024084314703941345e-01 -9.243686497211456299e-02
4.979425668716430664e-01 2.224781215190887451e-01 -7.309539616107940674e-02
7.173541784286499023e-01 1.993978321552276611e-01 -5.231721326708793640e-02
6.648440361022949219e-01 1.147003769874572754e-01 -9.393694996833801270e-02
7.651768326759338379e-01 1.781761944293975830e-01 2.957157790660858154e-02
5.542756319046020508e-01 -1.114904209971427917e-01 -5.875090882182121277e-02
4.944180846214294434e-01 2.311130613088607788e-02 -9.050905704498291016e-02
5.288523435592651367e-01 2.227443754673004150e-01 3.715803101658821106e-02
6.036810874938964844e-01 1.422696113586425781e-01 6.376501917839050293e-02
7.707024812698364258e-01 1.866525262594223022e-01 -1.861639320850372314e-03
6.197022795677185059e-01 -1.513850390911102295e-01 -4.059691727161407471e-02
7.019875049591064453e-01 -1.049287095665931702e-01 2.885705232620239258e-02
8.019844293594360352e-01 -5.363192409276962280e-02 7.340900599956512451e-03
7.656520605087280273e-01 1.395936310291290283e-01 -4.439298063516616821e-02
7.496697902679443359e-01 -9.435575455427169800e-02 -5.651498213410377502e-02
6.322540640830993652e-01 1.484848260879516602e-01 6.626068055629730225e-02
6.375097632408142090e-01 1.622738391160964966e-01 -9.100480377674102783e-02
4.718352556228637695e-01 3.017747774720191956e-02 -7.937739789485931396e-02
6.190949082374572754e-01 -1.257778108119964600e-01 7.045287638902664185e-03
4.681180417537689209e-01 6.325375288724899292e-02 -8.249825239181518555e-02
5.494019985198974609e-01 -1.146756634116172791e-01 -4.000582545995712280e-02
7.127751708030700684e-01 2.206614315509796143e-01 4.231353104114532471e-02
8.086950778961181641e-01 1.887996494770050049e-02 -2.818225696682929993e-02
5.924984812736511230e-01 -1.239119991660118103e-01 -6.771621108055114746e-02
5.063663721084594727e-01 5.326908826828002930e-02 -9.791888296604156494e-02
4.959797561168670654e-01 -1.414903253316879272e-02 -8.220638334751129150e-02
5.088921189308166504e-01 2.703247368335723877e-01 -5.117643997073173523e-02
5.790487527847290039e-01 3.098558485507965088e-01 -1.483784988522529602e-03
6.514124274253845215e-01 2.191158533096313477e-01 -7.112941145896911621e-02
5.011006593704223633e-01 1.862915456295013428e-01 -8.502815663814544678e-02
5.753880143165588379e-01 -1.314119100570678711e-01 -4.546968638896942139e-02
7.988134622573852539e-01 -6.624684482812881470e-02 1.806668937206268311e-03
7.241475582122802734e-01 1.071356162428855896e-01 6.341245770454406738e-02
7.364349961280822754e-01 1.259796619415283203e-01 5.897529050707817078e-02
6.439258456230163574e-01 7.157710194587707520e-02 -1.023593991994857788e-01
8.049340248107910156e-01 8.165022730827331543e-02 -2.220950834453105927e-02
7.627606391906738281e-01 1.178349405527114868e-01 5.049080029129981995e-02
6.628336906433105469e-01 1.566500365734100342e-01 -8.673304319381713867e-02
6.809357404708862305e-01 4.720458388328552246e-02 6.642256677150726318e-02
7.503795027732849121e-01 -8.649834245443344116e-02 2.841093018651008606e-02
7.639731764793395996e-01 8.075992763042449951e-02 5.338258668780326843e-02
5.481234192848205566e-01 8.618306368589401245e-02 5.045792832970619202e-02
4.695759415626525879e-01 2.055545747280120850e-01 -6.691758334636688232e-02
6.555948257446289062e-01 -1.155289486050605774e-01 2.182176336646080017e-02
7.542861700057983398e-01 7.630825042724609375e-03 5.285404995083808899e-02
4.755168557167053223e-01 2.034485638141632080e-01 1.408753544092178345e-02
6.957627534866333008e-01 -8.693807572126388550e-02 3.713945299386978149e-02
6.605411767959594727e-01 9.156495332717895508e-03 6.143486127257347107e-02
7.735777497291564941e-01 8.622393012046813965e-02 -5.325135216116905212e-02
7.532612085342407227e-01 -1.947727799415588379e-02 4.857987537980079651e-02
5.368421673774719238e-01 6.284140795469284058e-02 4.424529150128364563e-02
7.169740796089172363e-01 1.480730772018432617e-01 6.095291301608085632e-02
5.310929417610168457e-01 -8.428876847028732300e-02 -1.181232929229736328e-02
7.499027252197265625e-01 1.384747028350830078e-01 -5.595101043581962585e-02
7.054068446159362793e-01 -1.541367173194885254e-01 -2.860642783343791962e-02
6.245036721229553223e-01 3.967940807342529297e-02 6.235140189528465271e-02
7.215275168418884277e-01 -8.295111358165740967e-03 5.674389377236366272e-02
8.090839385986328125e-01 -3.839057683944702148e-02 -1.401416119188070297e-02
6.854466795921325684e-01 -1.409007012844085693e-01 5.849359557032585144e-03
5.394487380981445312e-01 9.168505668640136719e-03 -1.016402840614318848e-01
6.291069984436035156e-01 -3.459459543228149414e-02 4.910534247756004333e-02
7.192091345787048340e-01 -1.467378437519073486e-01 -3.541889786720275879e-02
7.358802556991577148e-01 2.006051540374755859e-01 4.030181095004081726e-02
7.384101152420043945e-01 -4.672221094369888306e-02 -7.406713068485260010e-02
7.151721715927124023e-01 -1.409640312194824219e-01 -4.632622003555297852e-02
8.122796416282653809e-01 -7.089197635650634766e-03 -1.990284956991672516e-02
5.427881479263305664e-01 2.130903005599975586e-01 -8.431032299995422363e-02
6.943546533584594727e-01 -6.587787717580795288e-02 4.472088441252708435e-02
6.631969213485717773e-01 -4.957277327775955200e-02 -9.453673660755157471e-02
4.336027503013610840e-01 1.438101828098297119e-01 -4.100593179464340210e-02
7.368853688240051270e-01 -8.552133291959762573e-02 3.264767676591873169e-02
5.592255592346191406e-01 2.625251114368438721e-01 -6.516879051923751831e-02
5.516554713249206543e-01 1.920553445816040039e-01 -9.066769480705261230e-02
6.641722321510314941e-01 1.281351149082183838e-01 -9.199117124080657959e-02
7.221969366073608398e-01 -2.728856354951858521e-02 -8.266718685626983643e-02
5.511916279792785645e-01 9.294002503156661987e-02 -1.052551418542861938e-01
7.062150835990905762e-01 2.607483565807342529e-01 1.088918931782245636e-02
4.579867720603942871e-01 7.528789341449737549e-03 -4.403130710124969482e-02
7.611749768257141113e-01 8.386982977390289307e-02 -6.177932024002075195e-02
6.549818515777587891e-01 2.705039456486701965e-02 6.368418037891387939e-02
6.509667038917541504e-01 2.411487698554992676e-01 -6.167631596326828003e-02
6.973019838333129883e-01 -1.358088105916976929e-02 5.776486173272132874e-02
5.273495316505432129e-01 2.105015218257904053e-01 3.909762203693389893e-02
6.744694709777832031e-01 2.843252420425415039e-01 3.313105553388595581e-03
4.502354562282562256e-01 2.108686268329620361e-01 -1.720757596194744110e-02
4.863685965538024902e-01 1.326242089271545410e-01 -8.999454975128173828e-02
5.650300383567810059e-01 1.873141229152679443e-01 -9.212757647037506104e-02
6.415066123008728027e-01 -1.733087003231048584e-02 -1.014783680438995361e-01
5.521888732910156250e-01 -3.321857750415802002e-02 2.837748080492019653e-02
5.112875699996948242e-01 -7.239931076765060425e-02 -5.857149884104728699e-02
7.503073811531066895e-01 2.106581628322601318e-02 5.552999302744865417e-02
5.247160196304321289e-01 9.013371169567108154e-02 4.260814934968948364e-02
8.106008172035217285e-01 6.444394588470458984e-03 -2.491226047277450562e-02
6.147103309631347656e-01 2.744827270507812500e-01 -5.276102572679519653e-02
6.173594594001770020e-01 2.583949565887451172e-01 4.335318133234977722e-02
4.517264366149902344e-01 8.611497282981872559e-02 -4.049555398523807526e-03
5.536897778511047363e-01 -7.836201041936874390e-02 -8.272077143192291260e-02
5.759816765785217285e-01 1.648687720298767090e-01 5.782740935683250427e-02
8.170348405838012695e-01 1.378892734646797180e-02 5.140654742717742920e-03
6.774284243583679199e-01 1.807151436805725098e-01 6.191257759928703308e-02
7.157006263732910156e-01 7.535902410745620728e-02 -8.401489257812500000e-02
4.357781708240509033e-01 1.293213814496994019e-01 -5.211254209280014038e-02
7.934650778770446777e-01 1.180224567651748657e-01 2.791099622845649719e-02
5.316839218139648438e-01 2.721133828163146973e-01 -5.678223818540573120e-02
4.741012156009674072e-01 1.102523654699325562e-01 -8.687637746334075928e-02
7.677910327911376953e-01 1.650025099515914917e-01 3.434207662940025330e-02
7.122504711151123047e-01 1.278873682022094727e-01 -7.718476653099060059e-02
6.624701619148254395e-01 2.405147850513458252e-01 4.754864051938056946e-02
5.138289332389831543e-01 2.229427099227905273e-01 3.117137029767036438e-02
4.698885977268218994e-01 1.501457989215850830e-01 1.643036305904388428e-02
5.517820119857788086e-01 -5.626665800809860229e-02 1.922478526830673218e-02
5.895737409591674805e-01 1.718541383743286133e-01 -9.487488865852355957e-02
6.287435293197631836e-01 2.274032533168792725e-01 -7.346963137388229370e-02
5.855665802955627441e-01 3.032224625349044800e-02 -1.073087751865386963e-01
8.065142035484313965e-01 3.946589678525924683e-02 -2.980949729681015015e-02
5.219029784202575684e-01 7.722308486700057983e-02 4.021119326353073120e-02
6.355558037757873535e-01 -1.252096593379974365e-01 1.212782785296440125e-02
7.199601531028747559e-01 1.563419848680496216e-01 -6.684126704931259155e-02
5.524543523788452148e-01 -3.029309213161468506e-03 -1.022189557552337646e-01
5.657598972320556641e-01 -2.076386660337448120e-02 -1.013332456350326538e-01
7.337999939918518066e-01 -1.315525174140930176e-02 5.405815318226814270e-02
5.171000957489013672e-01 -2.139617502689361572e-02 1.508297771215438843e-02
4.402101635932922363e-01 1.496013998985290527e-01 -5.718648061156272888e-02
8.026984930038452148e-01 8.741908520460128784e-02 2.595307305455207825e-02
5.569521784782409668e-01 1.436643600463867188e-01 5.449930950999259949e-02
7.924346923828125000e-01 1.448726058006286621e-01 1.190204173326492310e-03
7.723557949066162109e-01 -7.531244307756423950e-02 2.398730441927909851e-02
6.457458138465881348e-01 1.266652643680572510e-01 -9.610737860202789307e-02
5.165792107582092285e-01 1.403427422046661377e-01 -9.669743478298187256e-02
4.833419322967529297e-01 1.711266338825225830e-01 -8.295606076717376709e-02
5.354309082031250000e-01 1.101036146283149719e-01 -1.025995463132858276e-01
4.861142039299011230e-01 2.676817774772644043e-01 -1.004576589912176132e-02
4.604797959327697754e-01 1.874514222145080566e-01 5.077159032225608826e-03
6.832827329635620117e-01 1.900804340839385986e-01 -7.138828933238983154e-02
7.822196483612060547e-01 -2.374197542667388916e-02 -5.245155841112136841e-02
