-2.002570629119873047e-01 -6.925860643386840820e-01 -4.402990639209747314e-01
-1.414075344800949097e-01 -6.194392442703247070e-01 -3.042450845241546631e-01
-8.458638191223144531e-02 -7.209957242012023926e-01 3.022886514663696289e-01
-1.178502291440963745e-01 -7.281827330589294434e-01 1.615553647279739380e-01
-2.024434655904769897e-01 -7.168904542922973633e-01 2.599601745605468750e-01
2.453679144382476807e-01 -6.796403527259826660e-01 3.623739778995513916e-01
1.709735095500946045e-01 -6.847562789916992188e-01 4.571904540061950684e-01
2.713014483451843262e-01 -6.932445764541625977e-01 1.711029112339019775e-01
3.040773048996925354e-02 -5.970591902732849121e-01 9.868812561035156250e-02
-1.622668951749801636e-01 -6.008462905883789062e-01 1.184062510728836060e-01
4.785433039069175720e-02 -7.134623527526855469e-01 3.664398491382598877e-01
-1.367375254631042480e-01 -7.218328714370727539e-01 2.624180316925048828e-01
1.577889472246170044e-01 -7.050325870513916016e-01 3.398586511611938477e-01
1.367997974157333374e-01 -6.394399404525756836e-01 5.246503949165344238e-01
1.578563898801803589e-01 -6.063001155853271484e-01 1.446730643510818481e-01
-2.367713004350662231e-01 -7.217015624046325684e-01 9.296551346778869629e-02
1.941899061203002930e-01 -7.145227789878845215e-01 7.907059788703918457e-02
-3.024247884750366211e-01 -7.102040648460388184e-01 -1.568017303943634033e-01
-3.498804271221160889e-01 -6.985811591148376465e-01 1.249394416809082031e-01
-1.311255693435668945e-01 -7.313770055770874023e-01 -7.515285164117813110e-03
-2.326256185770034790e-01 -7.237342596054077148e-01 8.136637508869171143e-03
-2.053380012512207031e-03 -6.137111783027648926e-01 -2.754441499710083008e-01
3.020646274089813232e-01 -6.837000250816345215e-01 6.394404917955398560e-03
-7.500320672988891602e-02 -6.996378898620605469e-01 -4.657995402812957764e-01
8.787462115287780762e-02 -7.274684309959411621e-01 4.008653014898300171e-02
-1.502889692783355713e-01 -6.551527380943298340e-01 -4.780336320400238037e-01
-6.616894155740737915e-02 -7.236728668212890625e-01 -2.907911241054534912e-01
7.503646612167358398e-02 -7.267869710922241211e-01 1.214139461517333984e-01
-8.533179759979248047e-02 -6.230143308639526367e-01 5.174513459205627441e-01
-1.695332080125808716e-01 -7.290166020393371582e-01 3.075189515948295593e-02
-2.286277264356613159e-01 -6.747412681579589844e-01 4.960910379886627197e-01
2.736868262290954590e-01 -6.957800388336181641e-01 9.248809516429901123e-02
-1.166202425956726074e-01 -5.985691547393798828e-01 1.675045788288116455e-01
-1.556658595800399780e-01 -6.317810416221618652e-01 -3.847657740116119385e-01
-3.006903231143951416e-01 -6.775473952293395996e-01 3.954739868640899658e-01
4.387793317437171936e-02 -6.858317852020263672e-01 5.435826182365417480e-01
-1.171002388000488281e-01 -6.323069334030151367e-01 -4.051015377044677734e-01
5.944786593317985535e-02 -6.245080828666687012e-01 5.176429748535156250e-01
-3.160433471202850342e-02 -6.090978980064392090e-01 -2.295815646648406982e-01
1.024215966463088989e-01 -7.126196026802062988e-01 -3.104457557201385498e-01
2.721392735838890076e-02 -7.082654237747192383e-01 4.226836860179901123e-01
1.400454938411712646e-01 -7.121300101280212402e-01 2.884662151336669922e-01
1.003918796777725220e-01 -6.919167637825012207e-01 4.882842302322387695e-01
-8.021433651447296143e-02 -7.302855849266052246e-01 -1.675382256507873535e-01
-1.979916095733642578e-01 -6.463580727577209473e-01 -4.254640340805053711e-01
-1.071019470691680908e-01 -7.171805500984191895e-01 3.388313651084899902e-01
-1.028269752860069275e-01 -6.367880702018737793e-01 -4.320254027843475342e-01
9.938555955886840820e-02 -6.670301556587219238e-01 -4.608998596668243408e-01
1.543643176555633545e-01 -7.127422094345092773e-01 2.552543878555297852e-01
2.109685540199279785e-01 -6.918952465057373047e-01 3.603779971599578857e-01
-1.560934782028198242e-01 -7.185698151588439941e-01 -3.131329715251922607e-01
-2.034216523170471191e-01 -7.237523794174194336e-01 1.349758952856063843e-01
-2.840418815612792969e-01 -7.138057351112365723e-01 1.261707097291946411e-01
1.141508966684341431e-01 -7.209736704826354980e-01 -1.840608119964599609e-01
7.505042850971221924e-02 -6.165849566459655762e-01 4.587515890598297119e-01
1.341422498226165771e-01 -7.114236950874328613e-01 3.059265315532684326e-01
9.982711076736450195e-02 -6.078146100044250488e-01 -1.307221800088882446e-01
-3.129265904426574707e-01 -7.111322283744812012e-01 -6.282077729701995850e-02
-3.690430223941802979e-01 -6.745120286941528320e-01 2.447809129953384399e-01
-3.451326191425323486e-01 -6.354407668113708496e-01 2.226518392562866211e-01
-3.018647432327270508e-01 -6.394212841987609863e-01 -2.682480216026306152e-01
1.247294247150421143e-02 -7.318643331527709961e-01 4.303064197301864624e-03
3.302798047661781311e-02 -6.228486299514770508e-01 -3.411369621753692627e-01
2.157889008522033691e-01 -6.970363259315490723e-01 -2.463304996490478516e-01
7.430361211299896240e-02 -6.072848439216613770e-01 3.644759953022003174e-01
8.111579716205596924e-02 -7.276133298873901367e-01 6.674675643444061279e-02
1.309357732534408569e-01 -6.201887726783752441e-01 4.384067654609680176e-01
4.903306439518928528e-02 -6.880547404289245605e-01 -4.735017716884613037e-01
5.571511760354042053e-02 -7.215242981910705566e-01 2.612886130809783936e-01
-2.362211346626281738e-01 -7.180908322334289551e-01 -2.137482464313507080e-01
-3.274247348308563232e-01 -7.005611658096313477e-01 1.924115717411041260e-01
1.691316440701484680e-02 -6.987828612327575684e-01 -4.549859464168548584e-01
-7.698026299476623535e-02 -7.202044725418090820e-01 -3.302614688873291016e-01
5.553807690739631653e-02 -6.176226735115051270e-01 -2.872271537780761719e-01
-3.135236799716949463e-01 -7.052849531173706055e-01 1.757808178663253784e-01
2.256335914134979248e-01 -6.213277578353881836e-01 -6.312668323516845703e-02
-5.111653357744216919e-03 -5.963272452354431152e-01 1.381732374429702759e-01
-1.372537948191165924e-02 -7.022089958190917969e-01 -4.500940144062042236e-01
-3.159438669681549072e-01 -6.216374635696411133e-01 8.455714583396911621e-02
-2.708991765975952148e-01 -6.130423545837402344e-01 9.191009402275085449e-02
2.095361053943634033e-01 -6.239681839942932129e-01 -1.474901139736175537e-01
3.916375339031219482e-03 -6.300702691078186035e-01 -3.975925445556640625e-01
-6.416743993759155273e-02 -6.028751730918884277e-01 3.376465737819671631e-01
-2.760432064533233643e-01 -7.179047465324401855e-01 -5.778415128588676453e-02
2.578522861003875732e-01 -6.847178339958190918e-01 -2.127678394317626953e-01
-3.987609744071960449e-01 -6.559141278266906738e-01 5.326084792613983154e-03
5.025431513786315918e-03 -7.312566041946411133e-01 7.601808756589889526e-02
-1.072419993579387665e-02 -7.319572567939758301e-01 5.876102298498153687e-02
2.047124952077865601e-01 -6.455341577529907227e-01 -3.050251901149749756e-01
-3.197779953479766846e-01 -7.030244469642639160e-01 -2.014124244451522827e-01
-2.455713897943496704e-01 -6.546436548233032227e-01 -4.096961617469787598e-01
-6.241033226251602173e-02 -6.058252453804016113e-01 -1.840603053569793701e-01
5.968547984957695007e-02 -6.208786964416503906e-01 -3.122554421424865723e-01
1.359528303146362305e-02 -7.288595438003540039e-01 1.521791815757751465e-01
1.148672997951507568e-01 -6.080067753791809082e-01 3.268903791904449463e-01
-1.014042794704437256e-01 -6.476671695709228516e-01 -4.742071926593780518e-01
-3.098566830158233643e-01 -6.742126345634460449e-01 -3.489840626716613770e-01
3.178665339946746826e-01 -6.636303663253784180e-01 -4.747223109006881714e-03
-2.837048470973968506e-01 -7.030585408210754395e-01 2.791537940502166748e-01
-7.880710810422897339e-02 -6.115573644638061523e-01 4.378824532032012939e-01
2.049266397953033447e-01 -7.066243886947631836e-01 2.258112728595733643e-01
-3.050267510116100311e-02 -5.996516942977905273e-01 2.837899029254913330e-01
2.433958351612091064e-01 -7.024423480033874512e-01 1.504102498292922974e-01
1.180298924446105957e-01 -6.156501173973083496e-01 4.144984185695648193e-01
1.922762393951416016e-01 -6.261373162269592285e-01 -2.057029008865356445e-01
1.245364546775817871e-01 -6.203744411468505859e-01 -2.525483369827270508e-01
2.275114655494689941e-01 -7.021124362945556641e-01 2.226270735263824463e-01
-1.345361024141311646e-01 -6.320674419403076172e-01 -3.969756364822387695e-01
5.305526033043861389e-02 -6.070774197578430176e-01 3.783799409866333008e-01
-3.112291395664215088e-01 -7.025988698005676270e-01 -2.313148081302642822e-01
-2.173987925052642822e-01 -7.187203168869018555e-01 2.090641856193542480e-01
-6.334494799375534058e-02 -7.255527377128601074e-01 -2.646075189113616943e-01
-2.874128222465515137e-01 -6.915859580039978027e-01 3.577301800251007080e-01
-1.969234794378280640e-01 -7.159441113471984863e-01 2.794667482376098633e-01
2.113074436783790588e-02 -6.670144200325012207e-01 -5.014691352844238281e-01
1.259511411190032959e-01 -6.062465310096740723e-01 -5.377235636115074158e-02
-8.310730755329132080e-02 -7.221002578735351562e-01 -3.081662952899932861e-01
-2.236748859286308289e-02 -5.976034402847290039e-01 2.247297614812850952e-01
-8.840254694223403931e-02 -7.279681563377380371e-01 1.869328916072845459e-01
1.129147857427597046e-01 -6.175286769866943359e-01 -2.383045852184295654e-01
7.017217576503753662e-02 -7.289633154869079590e-01 -2.017603442072868347e-02
2.431360185146331787e-01 -6.967981457710266113e-01 -1.727599948644638062e-01
2.500129044055938721e-01 -6.566173434257507324e-01 -2.565032541751861572e-01
-6.140000745654106140e-02 -6.850397586822509766e-01 -5.059912204742431641e-01
1.463230252265930176e-01 -6.129279732704162598e-01 3.469629287719726562e-01
-3.840430080890655518e-01 -6.467611789703369141e-01 1.213814616203308105e-01
2.493928745388984680e-02 -7.151087522506713867e-01 3.612217903137207031e-01
-1.898497939109802246e-01 -6.356195211410522461e-01 -3.837879002094268799e-01
-4.977840930223464966e-02 -5.983476042747497559e-01 2.449464797973632812e-01
-1.538772732019424438e-01 -7.076576948165893555e-01 -4.030976891517639160e-01
-7.318961620330810547e-02 -7.040446400642395020e-01 4.611585736274719238e-01
-1.685980856418609619e-01 -7.288249135017395020e-01 4.839932173490524292e-02
8.215367794036865234e-02 -5.994868874549865723e-01 9.828761219978332520e-02
-5.315221846103668213e-02 -6.303346157073974609e-01 5.587470531463623047e-01
-6.901916861534118652e-02 -7.090241909027099609e-01 -4.199819266796112061e-01
-2.582689821720123291e-01 -7.205145359039306641e-01 1.668157242238521576e-02
-7.720027863979339600e-02 -5.974792242050170898e-01 2.061744034290313721e-02
-1.333813816308975220e-01 -7.184848785400390625e-01 3.091279268264770508e-01
2.666304707527160645e-01 -6.972211599349975586e-01 -4.984711483120918274e-02
-3.438167273998260498e-01 -7.040200829505920410e-01 9.107559919357299805e-03
1.809670925140380859e-01 -6.957401633262634277e-01 -3.206651508808135986e-01
-2.081321328878402710e-01 -7.217929363250732422e-01 1.699551045894622803e-01
1.630613207817077637e-01 -6.265249848365783691e-01 4.434438347816467285e-01
-2.343859821557998657e-01 -7.170485258102416992e-01 2.038097381591796875e-01
-2.018909007310867310e-01 -7.063217163085937500e-01 -3.764760494232177734e-01
-3.962356150150299072e-01 -6.802090406417846680e-01 3.417471796274185181e-02
1.964849829673767090e-01 -6.757954359054565430e-01 -3.575579524040222168e-01
-1.865899264812469482e-01 -7.192599177360534668e-01 2.480744272470474243e-01
-2.690574526786804199e-01 -6.342740058898925781e-01 -2.894297838211059570e-01
-2.961933314800262451e-01 -6.176616549491882324e-01 1.076742261648178101e-01
-2.197604477405548096e-01 -6.109198927879333496e-01 -1.076036095619201660e-01
5.428284779191017151e-02 -6.005603075027465820e-01 2.602474391460418701e-01
1.011911034584045410e-01 -6.207371950149536133e-01 4.699131846427917480e-01
2.022815495729446411e-02 -7.234208583831787109e-01 2.578488588333129883e-01
-1.428086012601852417e-01 -7.116788625717163086e-01 -3.823411464691162109e-01
2.057260870933532715e-01 -7.087297439575195312e-01 -1.463917046785354614e-01
-1.631914824247360229e-01 -7.293944358825683594e-01 -7.655109465122222900e-02
-1.805089861154556274e-01 -6.067177653312683105e-01 -1.004079431295394897e-01
9.113479405641555786e-03 -6.162778735160827637e-01 4.835032522678375244e-01
2.549582719802856445e-01 -6.244979500770568848e-01 2.338286489248275757e-02
6.402321159839630127e-04 -6.160694956779479980e-01 -2.972558140754699707e-01
2.119168937206268311e-01 -6.145927906036376953e-01 1.675065606832504272e-01
2.965510264039039612e-02 -6.410152912139892578e-01 -4.415442943572998047e-01
2.665710449218750000e-01 -6.982074975967407227e-01 -1.788764819502830505e-02
2.262704074382781982e-01 -6.184382438659667969e-01 4.554048180580139160e-03
-1.064301729202270508e-01 -6.177232265472412109e-01 4.756451845169067383e-01
7.857103645801544189e-02 -6.124762296676635742e-01 4.205500781536102295e-01
-3.189758360385894775e-01 -6.243063211441040039e-01 -4.226034507155418396e-02
-3.148707449436187744e-01 -6.526813507080078125e-01 3.879957199096679688e-01
-2.547320127487182617e-01 -6.974827647209167480e-01 3.715569972991943359e-01
2.348019480705261230e-01 -6.302422881126403809e-01 -1.498048752546310425e-01
5.599060282111167908e-02 -7.171974778175354004e-01 3.200726509094238281e-01
-2.505501806735992432e-01 -6.334277391433715820e-01 -3.097560703754425049e-01
1.720023006200790405e-01 -7.013551592826843262e-01 3.521324694156646729e-01
-1.298573017120361328e-01 -7.077798247337341309e-01 4.142472743988037109e-01
-1.760460436344146729e-01 -7.034814953804016113e-01 4.154743552207946777e-01
-9.552475810050964355e-02 -7.268874645233154297e-01 2.055064737796783447e-01
-1.361532360315322876e-01 -6.008425951004028320e-01 -2.464377507567405701e-02
-7.684985548257827759e-02 -6.358687281608581543e-01 -4.326159358024597168e-01
6.074145808815956116e-02 -5.987320542335510254e-01 4.930493980646133423e-02
-1.808634251356124878e-01 -7.193242907524108887e-01 -2.816829085350036621e-01
9.305500984191894531e-02 -6.063624024391174316e-01 -1.150102019309997559e-01
-2.304293662309646606e-01 -6.120008826255798340e-01 2.683973610401153564e-01
3.056967854499816895e-01 -6.621241569519042969e-01 -9.110304713249206543e-02
-2.394250780344009399e-01 -6.150041818618774414e-01 -1.377111971378326416e-01
-1.056203097105026245e-01 -6.154419183731079102e-01 -2.851324975490570068e-01
8.585910499095916748e-02 -6.007151007652282715e-01 1.981575600802898407e-02
5.168883129954338074e-02 -7.083457708358764648e-01 4.109825193881988525e-01
-1.525517851114273071e-01 -7.298946380615234375e-01 4.185533523559570312e-02
1.348574608564376831e-01 -7.218590974807739258e-01 1.095670312643051147e-01
2.455139756202697754e-01 -6.233136653900146484e-01 -1.084393262863159180e-02
2.795890271663665771e-01 -6.394330859184265137e-01 2.670254111289978027e-01
-3.629149496555328369e-02 -7.296302914619445801e-01 1.574910730123519897e-01
-3.502567112445831299e-01 -6.466235518455505371e-01 -2.000169903039932251e-01
-2.060865312814712524e-01 -7.261693477630615234e-01 3.097397089004516602e-02
1.201936751604080200e-01 -6.110464334487915039e-01 -1.517617404460906982e-01
-2.816698849201202393e-01 -6.183313131332397461e-01 -7.888473570346832275e-02
-5.615549534559249878e-02 -5.964523553848266602e-01 6.733231991529464722e-02
-1.085268892347812653e-02 -7.198557853698730469e-01 3.195962905883789062e-01
-5.780304223299026489e-02 -7.106882333755493164e-01 4.139393866062164307e-01
-5.885452032089233398e-02 -6.263180971145629883e-01 -3.812587559223175049e-01
3.034341633319854736e-01 -6.487029790878295898e-01 -4.863524064421653748e-02
1.084951311349868774e-01 -6.115612983703613281e-01 -1.748093068599700928e-01
2.175306975841522217e-01 -6.595764756202697754e-01 -3.227042853832244873e-01
-1.616230905055999756e-01 -6.017037630081176758e-01 1.863694190979003906e-01
-3.630019426345825195e-01 -6.980280876159667969e-01 1.469708979129791260e-03
1.194930076599121094e-01 -6.222165226936340332e-01 -2.741420567035675049e-01
-2.285511195659637451e-01 -7.215080261230468750e-01 1.266823709011077881e-01
1.023697406053543091e-01 -7.076978087425231934e-01 3.802669942378997803e-01
2.623967826366424561e-01 -6.985638737678527832e-01 1.183498650789260864e-01
-2.350192070007324219e-01 -7.235608100891113281e-01 -3.177619352936744690e-02
2.604551911354064941e-01 -6.965103149414062500e-01 -1.043859273195266724e-01
-1.327198743820190430e-01 -7.287610173225402832e-01 -1.682336032390594482e-01
3.028797209262847900e-01 -6.795917749404907227e-01 1.586355865001678467e-01
1.978329420089721680e-01 -6.148430109024047852e-01 -3.830556198954582214e-02
1.277668774127960205e-01 -6.817525625228881836e-01 -4.298215210437774658e-01
-1.924597620964050293e-01 -6.123997569084167480e-01 3.483202755451202393e-01
3.092318773269653320e-01 -6.480606794357299805e-01 2.908430993556976318e-03
-3.711809515953063965e-01 -6.539940834045410156e-01 2.414370328187942505e-01
-2.184585779905319214e-01 -7.124657630920410156e-01 2.920261621475219727e-01
-2.515223324298858643e-01 -6.837607026100158691e-01 4.447978734970092773e-01
-1.071989089250564575e-01 -6.531130671501159668e-01 5.918723344802856445e-01
-1.899314820766448975e-01 -6.031557321548461914e-01 6.421087682247161865e-02
-1.768726259469985962e-01 -6.032854914665222168e-01 2.001156210899353027e-01
-3.471722602844238281e-01 -6.658377647399902344e-01 -2.739772796630859375e-01
6.244696676731109619e-03 -7.001568675041198730e-01 4.849948287010192871e-01
-1.974445283412933350e-01 -6.070975661277770996e-01 2.519947588443756104e-01
-3.671942651271820068e-02 -7.219908237457275391e-01 -3.097124695777893066e-01
-6.252994388341903687e-02 -7.327544689178466797e-01 2.829870767891407013e-02
-2.771094739437103271e-01 -7.082175016403198242e-01 -2.564472556114196777e-01
-1.755950748920440674e-01 -7.252030372619628906e-01 -1.936671584844589233e-01
1.410319209098815918e-01 -7.043308019638061523e-01 -3.276137411594390869e-01
9.942393004894256592e-02 -6.107944846153259277e-01 3.839869201183319092e-01
-1.781414300203323364e-01 -7.241479158401489258e-01 1.754014194011688232e-01
-1.242545843124389648e-01 -7.299527525901794434e-01 -1.425736695528030396e-01
-1.304782778024673462e-01 -6.928929090499877930e-01 -4.768874347209930420e-01
8.727792650461196899e-03 -7.309342622756958008e-01 -1.109622269868850708e-01
-2.727552056312561035e-01 -6.146920323371887207e-01 1.744108051061630249e-01
-7.509437948465347290e-02 -6.306645870208740234e-01 -4.058962166309356689e-01
1.632722616195678711e-01 -6.336493492126464844e-01 -3.046616315841674805e-01
-1.264074742794036865e-01 -7.080589532852172852e-01 -4.135298132896423340e-01
-1.451333761215209961e-01 -6.736875772476196289e-01 5.604654550552368164e-01
3.118406236171722412e-01 -6.720330119132995605e-01 -3.668937459588050842e-02
1.714667081832885742e-01 -7.040007114410400391e-01 3.286393880844116211e-01
-5.859023332595825195e-02 -7.324053049087524414e-01 5.608379468321800232e-02
5.722229555249214172e-02 -6.045162081718444824e-01 -1.237919777631759644e-01
6.567266583442687988e-02 -6.997466087341308594e-01 -4.255895018577575684e-01
9.146192669868469238e-02 -6.544243097305297852e-01 -4.498772025108337402e-01
-1.692721545696258545e-01 -7.270309329032897949e-01 -1.595211923122406006e-01
-1.619633436203002930e-01 -6.007760167121887207e-01 8.942331373691558838e-02
-4.484062269330024719e-02 -6.175858974456787109e-01 -3.165686130523681641e-01
-3.921040892601013184e-01 -6.679340600967407227e-01 -1.193718463182449341e-01
-9.923408925533294678e-02 -6.293840408325195312e-01 5.426718592643737793e-01
1.859057322144508362e-02 -7.226916551589965820e-01 -2.783376276493072510e-01
8.364613354206085205e-02 -6.001315712928771973e-01 4.295043647289276123e-02
1.841785013675689697e-02 -6.214390397071838379e-01 5.149009227752685547e-01
-2.113129049539566040e-01 -7.253419160842895508e-01 5.293215811252593994e-02
-6.587451696395874023e-02 -7.195106148719787598e-01 3.252249360084533691e-01
-1.410479247570037842e-01 -7.265937924385070801e-01 1.740476489067077637e-01
-2.504422068595886230e-01 -7.215575575828552246e-01 -5.512909963726997375e-02
-3.447350561618804932e-01 -6.381724476814270020e-01 2.508144676685333252e-01
-2.354322522878646851e-01 -6.084073781967163086e-01 2.676748856902122498e-02
1.745887100696563721e-01 -7.121396064758300781e-01 -1.889378130435943604e-01
-8.489412069320678711e-02 -7.119909524917602539e-01 3.975774049758911133e-01
-3.723032772541046143e-01 -6.807989478111267090e-01 2.050590515136718750e-01
-4.536597430706024170e-02 -6.941457986831665039e-01 -4.847549498081207275e-01
-1.017826795578002930e-01 -7.141459584236145020e-01 -3.799640834331512451e-01
-5.698524415493011475e-03 -5.988652110099792480e-01 -4.413597658276557922e-02
2.498893067240715027e-02 -5.975857973098754883e-01 3.204606100916862488e-02
1.063246279954910278e-01 -6.026425361633300781e-01 1.620654016733169556e-03
4.079094901680946350e-02 -7.252829670906066895e-01 -2.196764051914215088e-01
-2.615464031696319580e-01 -6.230977177619934082e-01 3.427842855453491211e-01
1.678329408168792725e-01 -6.074294447898864746e-01 1.302272528409957886e-01
7.689832150936126709e-02 -6.339588761329650879e-01 5.490238070487976074e-01
1.241138279438018799e-01 -7.105233073234558105e-01 3.294067382812500000e-01
-2.479815334081649780e-01 -7.144940495491027832e-01 2.156779170036315918e-01
7.721006870269775391e-02 -6.889340877532958984e-01 -4.549653232097625732e-01
-1.612366139888763428e-01 -6.013649702072143555e-01 2.199203148484230042e-02
2.450005710124969482e-01 -7.020568847656250000e-01 -9.152522683143615723e-02
-3.231226503849029541e-01 -6.572903394699096680e-01 -3.083662688732147217e-01
-7.095427066087722778e-02 -7.183103561401367188e-01 -3.497108519077301025e-01
2.127038240432739258e-01 -6.143283843994140625e-01 7.742718607187271118e-02
-1.955379098653793335e-01 -6.977892518043518066e-01 4.358613491058349609e-01
-4.153035208582878113e-02 -7.189865708351135254e-01 3.334481120109558105e-01
-1.187026649713516235e-01 -5.983558893203735352e-01 6.223302334547042847e-02
-3.650073409080505371e-01 -6.870256662368774414e-01 1.915587484836578369e-01
-2.307764254510402679e-02 -7.225586175918579102e-01 -2.997431159019470215e-01
-5.853128433227539062e-02 -5.968236923217773438e-01 3.879797086119651794e-02
2.614232599735260010e-01 -6.281909346580505371e-01 2.207312285900115967e-01
-1.089554131031036377e-01 -6.204885840415954590e-01 4.928370416164398193e-01
1.031586378812789917e-01 -6.040422320365905762e-01 2.702515125274658203e-01
1.994989812374114990e-03 -7.266908884048461914e-01 2.100803256034851074e-01
-2.459580600261688232e-01 -6.145921945571899414e-01 2.726956903934478760e-01
2.134531736373901367e-03 -7.294793128967285156e-01 -1.672540903091430664e-01
-1.044583767652511597e-01 -6.127759814262390137e-01 -2.581383287906646729e-01
3.043202459812164307e-01 -6.526923775672912598e-01 -6.941157579421997070e-02
-1.676077395677566528e-01 -7.195394039154052734e-01 2.663217186927795410e-01
-3.718397319316864014e-01 -6.835331320762634277e-01 -1.750444769859313965e-01
2.677071467041969299e-02 -5.970469713211059570e-01 1.452387273311614990e-01
-1.924677193164825439e-02 -5.962354540824890137e-01 7.728311419486999512e-02
-2.525832653045654297e-01 -6.102530956268310547e-01 8.399587869644165039e-02
1.913954764604568481e-01 -7.014217376708984375e-01 3.187064230442047119e-01
-5.416273325681686401e-02 -7.169758677482604980e-01 -3.621514439582824707e-01
-2.195433974266052246e-01 -7.248262166976928711e-01 -7.755775749683380127e-02
-1.870909184217453003e-01 -6.250634789466857910e-01 -3.174448311328887939e-01
-3.521394133567810059e-01 -6.752623915672302246e-01 2.937260270118713379e-01
-7.335951924324035645e-02 -6.001541614532470703e-01 2.803273200988769531e-01
6.387183070182800293e-02 -7.292609810829162598e-01 -4.152890667319297791e-02
-3.503669798374176025e-01 -6.885891556739807129e-01 2.325452119112014771e-01
5.811562016606330872e-02 -7.271859049797058105e-01 -1.540368348360061646e-01
6.506849825382232666e-02 -5.990234017372131348e-01 1.810921877622604370e-01
-6.553593277931213379e-02 -7.329635620117187500e-01 -6.844580173492431641e-03
-3.334656655788421631e-01 -6.536728143692016602e-01 -2.761960923671722412e-01
1.275305151939392090e-01 -6.099944710731506348e-01 3.374718129634857178e-01
-2.856836020946502686e-01 -6.331102848052978516e-01 3.714567422866821289e-01
2.917406260967254639e-01 -6.756303310394287109e-01 -1.357105076313018799e-01
-2.190708965063095093e-01 -6.081366539001464844e-01 2.149777710437774658e-01
-3.475697934627532959e-01 -6.332277655601501465e-01 1.803450882434844971e-01
-7.267756760120391846e-02 -6.234831809997558594e-01 -3.606581687927246094e-01
-2.219357937574386597e-01 -7.240217328071594238e-01 -1.074340641498565674e-01
-2.303555160760879517e-01 -6.302708387374877930e-01 -3.127423822879791260e-01
-5.232097581028938293e-02 -7.138758897781372070e-01 -3.872728943824768066e-01
-3.718672096729278564e-01 -6.385772824287414551e-01 6.196260452270507812e-02
-1.222968697547912598e-01 -7.316609025001525879e-01 -4.940363392233848572e-02
-1.691979914903640747e-01 -7.140719890594482422e-01 -3.465214371681213379e-01
-3.321245610713958740e-01 -6.266090869903564453e-01 1.390874832868576050e-01
-2.711878418922424316e-01 -6.870859265327453613e-01 4.055902659893035889e-01
8.297352492809295654e-02 -7.100638151168823242e-01 -3.520575761795043945e-01
-4.008142277598381042e-02 -7.233511209487915039e-01 -2.936622798442840576e-01
7.507093250751495361e-04 -7.159223556518554688e-01 3.612585663795471191e-01
1.582666188478469849e-01 -7.203137874603271484e-01 3.948999196290969849e-02
-2.479039728641510010e-01 -6.264463663101196289e-01 -2.593017518520355225e-01
9.377928078174591064e-02 -6.843273639678955078e-01 5.255268216133117676e-01
-6.427562236785888672e-02 -7.262473702430725098e-01 2.284175604581832886e-01
-2.081601768732070923e-01 -7.010284066200256348e-01 -4.005344510078430176e-01
-1.962296664714813232e-04 -7.079809904098510742e-01 4.328501522541046143e-01
-2.448695003986358643e-01 -7.213289141654968262e-01 -1.096207797527313232e-01
1.248106807470321655e-01 -7.243413925170898438e-01 1.212731003761291504e-02
-2.535588741302490234e-01 -7.184787392616271973e-01 -1.603579372167587280e-01
5.831432715058326721e-02 -6.019349098205566406e-01 2.890256643295288086e-01
-3.266947269439697266e-01 -6.411280035972595215e-01 3.249575197696685791e-01
-3.220089077949523926e-01 -7.086148262023925781e-01 -8.602145314216613770e-02
-3.211044669151306152e-01 -6.243920326232910156e-01 1.606104820966720581e-01
-3.145838081836700439e-01 -7.111385464668273926e-01 2.089031040668487549e-04
1.655524969100952148e-01 -6.096019744873046875e-01 2.447491139173507690e-01
-1.952010542154312134e-01 -6.057688593864440918e-01 2.241920530796051025e-01
9.788826107978820801e-02 -6.091340184211730957e-01 -1.539362668991088867e-01
1.656297594308853149e-03 -6.120957732200622559e-01 -2.577258944511413574e-01
-3.684726729989051819e-02 -7.160194516181945801e-01 -3.687249124050140381e-01
2.330379188060760498e-01 -6.212311983108520508e-01 -2.983498945832252502e-02
1.081819236278533936e-01 -6.789036989212036133e-01 5.345042943954467773e-01
-8.598873019218444824e-02 -7.089237570762634277e-01 4.227996170520782471e-01
-1.663238555192947388e-01 -7.249544262886047363e-01 -2.123829722404479980e-01
-9.125564992427825928e-02 -7.314358949661254883e-01 -1.227058172225952148e-01
8.634869754314422607e-02 -6.004464626312255859e-01 1.909651160240173340e-01
-1.932209283113479614e-01 -6.063735485076904297e-01 -6.606538593769073486e-02
-6.316407024860382080e-02 -7.212904691696166992e-01 -3.196163773536682129e-01
-3.695263862609863281e-01 -6.919218897819519043e-01 1.146013438701629639e-01
2.898826301097869873e-01 -6.361408829689025879e-01 2.147424034774303436e-02
2.830209434032440186e-01 -6.350373029708862305e-01 2.014154642820358276e-01
-1.652901321649551392e-01 -7.028824090957641602e-01 4.277497231960296631e-01
7.850791513919830322e-02 -6.158124804496765137e-01 -2.538163363933563232e-01
-3.430970013141632080e-02 -6.852552890777587891e-01 -5.042840242385864258e-01
2.627862989902496338e-01 -6.977492570877075195e-01 -6.787495315074920654e-02
3.120058178901672363e-01 -6.660740375518798828e-01 1.874366849660873413e-01
1.171024888753890991e-01 -6.356701254844665527e-01 -3.646681904792785645e-01
-1.393225938081741333e-01 -6.037914156913757324e-01 2.908418774604797363e-01
2.217783927917480469e-01 -6.831926703453063965e-01 -3.010993003845214844e-01
6.585083901882171631e-02 -6.031261682510375977e-01 3.054513335227966309e-01
-1.894812732934951782e-01 -7.273600101470947266e-01 4.583406820893287659e-02
2.855556607246398926e-01 -6.369467973709106445e-01 -2.867228165268898010e-02
2.284831404685974121e-01 -6.185159087181091309e-01 1.938811987638473511e-01
1.147385537624359131e-01 -6.285393238067626953e-01 -3.255931735038757324e-01
-1.577398031949996948e-01 -6.803616881370544434e-01 5.373024940490722656e-01
3.156802952289581299e-01 -6.507129669189453125e-01 6.428165733814239502e-02
-3.968236744403839111e-01 -6.543949842453002930e-01 7.262779027223587036e-02
-1.754362508654594421e-02 -6.310256719589233398e-01 -4.073098599910736084e-01
-8.349834382534027100e-02 -6.855558156967163086e-01 -5.038086771965026855e-01
-3.419012725353240967e-01 -7.037627100944519043e-01 -7.526415586471557617e-02
2.415653467178344727e-01 -7.048534750938415527e-01 -3.859744593501091003e-02
-1.021670997142791748e-01 -6.004121899604797363e-01 2.615634202957153320e-01
4.329488798975944519e-02 -7.298990488052368164e-01 -8.637267351150512695e-02
2.280878722667694092e-01 -6.994405984878540039e-01 -1.941939890384674072e-01
-2.717525660991668701e-01 -6.132422685623168945e-01 5.364812910556793213e-02
1.610458642244338989e-02 -6.251872777938842773e-01 5.351985692977905273e-01
-9.265445172786712646e-02 -7.234394550323486328e-01 2.654594480991363525e-01
7.824173569679260254e-02 -7.252532243728637695e-01 1.601643115282058716e-01
-7.361035048961639404e-02 -6.181531548500061035e-01 -3.188992142677307129e-01
2.999944686889648438e-01 -6.746128201484680176e-01 -1.014010459184646606e-01
1.437434107065200806e-01 -7.217375636100769043e-01 6.843478977680206299e-02
-1.857484132051467896e-01 -6.028504967689514160e-01 1.309476345777511597e-01
9.380923211574554443e-02 -7.194158434867858887e-01 -2.449598908424377441e-01
2.873123288154602051e-01 -6.879874467849731445e-01 -6.615765392780303955e-02
-1.271668076515197754e-01 -5.988236665725708008e-01 1.452388018369674683e-01
1.575550287961959839e-01 -6.884720921516418457e-01 -3.825915753841400146e-01
-3.539957106113433838e-01 -6.945618391036987305e-01 -1.663732826709747314e-01
-2.575902342796325684e-01 -6.134654283523559570e-01 -5.416202172636985779e-02
9.846414625644683838e-02 -6.025758981704711914e-01 -1.725668832659721375e-02
-1.735189110040664673e-01 -6.054661870002746582e-01 2.687455117702484131e-01
2.543409168720245361e-01 -6.231713294982910156e-01 9.364418685436248779e-02
2.309693396091461182e-01 -6.423353552818298340e-01 -2.443472146987915039e-01
8.927606046199798584e-02 -6.103732585906982422e-01 -1.813321560621261597e-01
-2.964922189712524414e-01 -6.287260055541992188e-01 3.154015243053436279e-01
6.777067482471466064e-02 -5.987642407417297363e-01 7.894158363342285156e-02
-1.639114618301391602e-01 -6.538145542144775391e-01 -4.685387909412384033e-01
5.589722469449043274e-02 -6.310220360755920410e-01 5.481723546981811523e-01
-3.567307889461517334e-01 -6.988534927368164062e-01 -8.241084218025207520e-02
2.378804683685302734e-01 -6.192904710769653320e-01 1.274917721748352051e-01
1.050677895545959473e-01 -7.262279987335205078e-01 -1.804944500327110291e-02
-2.110046595335006714e-01 -6.098393797874450684e-01 2.760138809680938721e-01
-1.502715237438678741e-02 -7.325968742370605469e-01 -3.593334183096885681e-02
-1.763795465230941772e-01 -6.188069581985473633e-01 -2.724085152149200439e-01
2.485371530055999756e-01 -6.224818825721740723e-01 1.682976931333541870e-01
1.031332612037658691e-01 -7.150352001190185547e-01 -2.856162786483764648e-01
2.777513116598129272e-03 -5.978558659553527832e-01 -5.423121154308319092e-03
2.446461021900177002e-01 -6.437055468559265137e-01 3.883540630340576172e-01
-3.100013136863708496e-01 -7.111769914627075195e-01 6.116260215640068054e-02
8.691483736038208008e-02 -7.226341962814331055e-01 -2.045503258705139160e-01
-1.552307605743408203e-01 -6.105288863182067871e-01 -1.969414949417114258e-01
2.183998525142669678e-01 -6.927399635314941406e-01 3.402019441127777100e-01
-3.023778274655342102e-02 -5.978496074676513672e-01 -1.773272082209587097e-02
-3.317700624465942383e-01 -7.031031847000122070e-01 -1.547106355428695679e-01
-6.291672587394714355e-03 -6.294873952865600586e-01 5.571438670158386230e-01
-1.795813143253326416e-01 -6.742597222328186035e-01 5.383676886558532715e-01
1.112854331731796265e-01 -7.256244421005249023e-01 2.222997322678565979e-02
-6.411892920732498169e-02 -6.491470336914062500e-01 -4.834945499897003174e-01
3.071726262569427490e-01 -6.450457572937011719e-01 1.446650475263595581e-01
-9.191021323204040527e-02 -6.558441519737243652e-01 5.978042483329772949e-01
2.210771143436431885e-01 -6.179750561714172363e-01 -1.176963374018669128e-02
1.528484672307968140e-01 -7.038563489913940430e-01 -3.142080307006835938e-01
1.377778947353363037e-01 -7.075926661491394043e-01 -3.077724874019622803e-01
-1.047264784574508667e-01 -6.238974332809448242e-01 5.145692825317382812e-01
-1.250641047954559326e-01 -6.008070111274719238e-01 -4.265590384602546692e-02
3.935052827000617981e-02 -6.971567273139953613e-01 -4.513384997844696045e-01
8.192962408065795898e-02 -6.801536083221435547e-01 5.463515520095825195e-01
-1.804912537336349487e-01 -6.121810674667358398e-01 -1.922393888235092163e-01
-6.387102603912353516e-02 -5.964416265487670898e-01 8.685927093029022217e-02
1.413327082991600037e-02 -7.274341583251953125e-01 1.868688911199569702e-01
5.909025296568870544e-02 -6.037412881851196289e-01 3.237099051475524902e-01
1.510726511478424072e-01 -6.095280647277832031e-01 2.841936945915222168e-01
-3.149280250072479248e-01 -6.252112984657287598e-01 -8.354994654655456543e-02
-2.358637303113937378e-01 -6.424192786216735840e-01 -3.766014575958251953e-01
6.742882728576660156e-02 -6.487542390823364258e-01 -4.503359198570251465e-01
-1.673922687768936157e-01 -7.095274329185485840e-01 3.751553595066070557e-01
-1.432128809392452240e-02 -6.129278540611267090e-01 4.602453410625457764e-01
-3.490677177906036377e-01 -6.488671302795410156e-01 -2.166666388511657715e-01
-2.580253481864929199e-01 -6.112611293792724609e-01 1.213788837194442749e-01
1.371555030345916748e-03 -6.061988472938537598e-01 3.895210623741149902e-01
-1.131652742624282837e-01 -6.992611885070800781e-01 4.789967834949493408e-01
2.782327532768249512e-01 -6.356835961341857910e-01 2.381129264831542969e-01
-7.943874597549438477e-02 -6.710760593414306641e-01 5.894570946693420410e-01
2.699296176433563232e-01 -6.642819046974182129e-01 -2.198037505149841309e-01
-2.612020671367645264e-01 -6.259137392044067383e-01 -2.330947816371917725e-01
-1.563879698514938354e-01 -6.034827232360839844e-01 2.564594745635986328e-01
-2.117851376533508301e-02 -6.063366532325744629e-01 3.937323093414306641e-01
2.315116822719573975e-01 -6.183753609657287598e-01 4.864998161792755127e-02
-1.608605235815048218e-01 -7.186421751976013184e-01 2.850065529346466064e-01
-2.102347016334533691e-01 -7.259148955345153809e-01 -6.325860321521759033e-02
-2.031281404197216034e-02 -6.022582054138183594e-01 3.352867066860198975e-01
-1.377536058425903320e-01 -6.099129319190979004e-01 3.838301002979278564e-01
-1.464587897062301636e-01 -7.298792600631713867e-01 -1.046867370605468750e-01
1.353018432855606079e-01 -7.223779559135437012e-01 8.546276390552520752e-02
3.293964639306068420e-02 -7.310706973075866699e-01 -2.566985785961151123e-03
-1.767153292894363403e-01 -6.933617591857910156e-01 -4.537891447544097900e-01
-9.667191654443740845e-02 -5.984834432601928711e-01 2.071249783039093018e-01
2.126550376415252686e-01 -7.047079801559448242e-01 -1.820496767759323120e-01
-3.825537860393524170e-01 -6.473557353019714355e-01 1.426076889038085938e-01
-1.992606669664382935e-01 -6.173052787780761719e-01 3.915034234523773193e-01
-1.975091844797134399e-01 -6.226508021354675293e-01 -2.877853214740753174e-01
3.164697885513305664e-01 -6.714327931404113770e-01 1.203970983624458313e-02
-3.240569308400154114e-02 -7.263623476028442383e-01 -2.487567365169525146e-01
1.851924806833267212e-01 -6.318714022636413574e-01 4.430613815784454346e-01
2.737744450569152832e-01 -6.841338276863098145e-01 2.603240609169006348e-01
-7.323440164327621460e-03 -7.317709922790527344e-01 -9.375913441181182861e-02
-1.173047870397567749e-01 -5.981758832931518555e-01 7.850819826126098633e-02
1.880736202001571655e-01 -6.300638318061828613e-01 -2.452132999897003174e-01
1.135312914848327637e-01 -6.027618050575256348e-01 2.040591090917587280e-01
-2.720103263854980469e-01 -7.107664942741394043e-01 2.157744914293289185e-01
-1.233965307474136353e-01 -6.927524209022521973e-01 5.085360407829284668e-01
-3.928653299808502197e-01 -6.816582679748535156e-01 -5.162469670176506042e-02
2.830912545323371887e-02 -6.334581971168518066e-01 -4.080964922904968262e-01
1.066736876964569092e-02 -5.994563698768615723e-01 2.699642777442932129e-01
-3.388286828994750977e-01 -6.982935070991516113e-01 -1.880097687244415283e-01
-1.796725839376449585e-01 -6.120117306709289551e-01 3.616594970226287842e-01
2.683222889900207520e-01 -6.870793104171752930e-01 -1.662233471870422363e-01
-1.029363349080085754e-01 -6.049540042877197266e-01 -1.543892920017242432e-01
1.055705100297927856e-01 -7.141976952552795410e-01 3.096579909324645996e-01
1.827683001756668091e-01 -7.044174671173095703e-01 3.045628368854522705e-01
2.244314551353454590e-01 -6.272316575050354004e-01 3.403040766716003418e-01
-6.594783067703247070e-02 -6.650539040565490723e-01 -5.127058029174804688e-01
-8.720634132623672485e-02 -6.102737188339233398e-01 4.219093620777130127e-01
1.253085285425186157e-01 -6.747086048126220703e-01 5.337077379226684570e-01
4.479399695992469788e-02 -7.270427942276000977e-01 -1.788744777441024780e-01
-3.522109091281890869e-01 -6.452660560607910156e-01 2.724124193191528320e-01
-2.981298267841339111e-01 -6.863715052604675293e-01 -3.479359149932861328e-01
1.019504964351654053e-01 -7.242852449417114258e-01 1.355021148920059204e-01
-1.006630361080169678e-01 -6.111984848976135254e-01 -2.420037090778350830e-01
-1.868631131947040558e-02 -7.215018868446350098e-01 3.001361489295959473e-01
1.273152232170104980e-01 -6.029520034790039062e-01 1.196716576814651489e-01
1.111934930086135864e-01 -6.063709259033203125e-01 -8.661557734012603760e-02
-1.715139746665954590e-01 -7.280896306037902832e-01 7.601333409547805786e-02
5.876383557915687561e-02 -7.176111340522766113e-01 -3.067242801189422607e-01
1.845504939556121826e-01 -6.949561834335327148e-01 3.828817605972290039e-01
-1.358521878719329834e-01 -6.231801509857177734e-01 -3.379843235015869141e-01
-3.880837857723236084e-01 -6.469434499740600586e-01 5.946918949484825134e-02
-2.896303534507751465e-01 -6.209226846694946289e-01 -1.017500758171081543e-01
-2.526694238185882568e-01 -7.214301824569702148e-01 -1.325295493006706238e-02
1.274832934141159058e-01 -6.131358146667480469e-01 3.776102364063262939e-01
-2.670726552605628967e-02 -6.225383877754211426e-01 -3.547933101654052734e-01
2.298416793346405029e-01 -6.861432194709777832e-01 3.608510196208953857e-01
4.955298081040382385e-02 -5.978286862373352051e-01 8.711422979831695557e-02
-2.188635319471359253e-01 -6.061178445816040039e-01 1.201176643371582031e-01
7.654580473899841309e-02 -6.059287190437316895e-01 -1.282270252704620361e-01
-6.842639297246932983e-03 -7.283495664596557617e-01 -2.009659111499786377e-01
2.810716927051544189e-01 -6.614341735839843750e-01 3.237261474132537842e-01
1.154639720916748047e-01 -6.029967069625854492e-01 1.782903634011745453e-02
8.305758237838745117e-02 -7.255850434303283691e-01 1.414780914783477783e-01
1.626098603010177612e-01 -6.571324467658996582e-01 -3.928271234035491943e-01
2.721401751041412354e-01 -6.553058624267578125e-01 -1.994765549898147583e-01
2.567495703697204590e-01 -6.495966315269470215e-01 3.771208524703979492e-01
-1.529326438903808594e-01 -7.036849856376647949e-01 -4.256428182125091553e-01
-2.242274023592472076e-02 -7.081621289253234863e-01 4.346687495708465576e-01
3.902495279908180237e-02 -7.133055925369262695e-01 -3.611629009246826172e-01
-2.125432491302490234e-01 -6.059978604316711426e-01 1.408887282013893127e-02
-6.299366801977157593e-02 -6.567438244819641113e-01 6.044120192527770996e-01
-2.052318751811981201e-01 -6.736624836921691895e-01 -4.660613238811492920e-01
-1.259592771530151367e-01 -6.465222835540771484e-01 5.776900649070739746e-01
-2.061411440372467041e-01 -7.126282453536987305e-01 3.064113259315490723e-01
-2.977937459945678711e-01 -6.968560814857482910e-01 -3.045269548892974854e-01
8.232004940509796143e-02 -6.025440096855163574e-01 2.708482444286346436e-01
-2.964359521865844727e-01 -6.175342202186584473e-01 6.319601088762283325e-02
-6.132556498050689697e-02 -6.148560643196105957e-01 -2.907788455486297607e-01
-2.343981564044952393e-01 -6.103175282478332520e-01 2.202602773904800415e-01
-8.912318944931030273e-02 -6.925663352012634277e-01 5.213516950607299805e-01
9.567399322986602783e-02 -6.177114844322204590e-01 -2.574196755886077881e-01
-1.247581839561462402e-01 -6.078780889511108398e-01 -1.853354126214981079e-01
-2.412697076797485352e-01 -6.927896142005920410e-01 4.166763424873352051e-01
-8.215029537677764893e-02 -5.999197959899902344e-01 -6.289432942867279053e-02
1.578776687383651733e-01 -7.168583869934082031e-01 1.738039404153823853e-01
6.807668507099151611e-02 -7.089020609855651855e-01 3.965337872505187988e-01
-1.543109565973281860e-01 -7.284264564514160156e-01 -1.455063223838806152e-01
2.074848115444183350e-01 -6.776200532913208008e-01 -3.383086919784545898e-01
-6.098706275224685669e-02 -7.164523601531982422e-01 3.599299490451812744e-01
-2.120904475450515747e-01 -6.070300340652465820e-01 -3.073055669665336609e-02
-1.385474801063537598e-01 -6.374173760414123535e-01 -4.228046536445617676e-01
-1.649739742279052734e-01 -7.256121039390563965e-01 1.639940738677978516e-01
1.294655352830886841e-01 -6.066829562187194824e-01 2.757510244846343994e-01
-8.497402817010879517e-02 -5.984870195388793945e-01 -1.540604978799819946e-02
-2.134788334369659424e-01 -7.065917849540710449e-01 -3.635292053222656250e-01
-1.172852218151092529e-01 -6.048190593719482422e-01 -1.419757455587387085e-01
-9.975722432136535645e-02 -5.975120067596435547e-01 6.941345334053039551e-02
-2.762277722358703613e-01 -6.751067638397216797e-01 4.391499459743499756e-01
-2.210157215595245361e-01 -6.962732672691345215e-01 4.200824499130249023e-01
-3.570948541164398193e-01 -6.987767815589904785e-01 6.920069456100463867e-02
-2.115577608346939087e-01 -6.126416325569152832e-01 -1.540752500295639038e-01
2.464004158973693848e-01 -6.323190331459045410e-01 -1.373588293790817261e-01
-1.607141941785812378e-01 -6.048949956893920898e-01 -9.393700957298278809e-02
-1.598367989063262939e-01 -7.241784334182739258e-01 -2.344026863574981689e-01
9.200847148895263672e-02 -7.223986387252807617e-01 2.017488628625869751e-01
-1.066682636737823486e-01 -6.834775209426879883e-01 5.514351129531860352e-01
1.834836900234222412e-01 -6.991579532623291016e-01 -2.966156601905822754e-01
2.422889471054077148e-01 -6.202033162117004395e-01 1.066773682832717896e-01
2.312793433666229248e-01 -6.820873022079467773e-01 -2.857705354690551758e-01
3.056656569242477417e-03 -6.141307950019836426e-01 4.682320654392242432e-01
1.388898491859436035e-01 -7.219604253768920898e-01 -7.806991040706634521e-02
-3.394011557102203369e-01 -6.278240680694580078e-01 1.772753894329071045e-02
1.364549547433853149e-01 -7.150447368621826172e-01 -2.335357069969177246e-01
7.572141289710998535e-02 -6.177371144294738770e-01 -2.744250297546386719e-01
-1.125361211597919464e-02 -7.066839933395385742e-01 -4.270961582660675049e-01
2.641577124595642090e-01 -6.792131662368774414e-01 3.197874724864959717e-01
1.633705049753189087e-01 -7.177041172981262207e-01 1.331405043601989746e-01
5.044339224696159363e-02 -5.987482070922851562e-01 2.036330848932266235e-01
-1.002191454172134399e-01 -5.974884033203125000e-01 1.324278861284255981e-01
-2.117975801229476929e-01 -6.825946569442749023e-01 4.904470443725585938e-01
-3.760498166084289551e-01 -6.515182256698608398e-01 -1.383079141378402710e-01
-3.066061735153198242e-01 -6.228716373443603516e-01 2.078692317008972168e-01
-2.245151251554489136e-01 -6.067120432853698730e-01 6.321037560701370239e-02
9.276342391967773438e-02 -6.040286421775817871e-01 -6.804786622524261475e-02
-2.781997323036193848e-01 -7.177696228027343750e-01 -3.121696785092353821e-02
2.520526349544525146e-01 -6.229872107505798340e-01 1.498312950134277344e-01
-2.781426608562469482e-01 -6.144407987594604492e-01 3.723205626010894775e-02
-3.276132643222808838e-01 -6.981388926506042480e-01 2.193004339933395386e-01
-2.691369354724884033e-01 -6.317675709724426270e-01 3.938591182231903076e-01
-1.691954582929611206e-01 -6.014186739921569824e-01 6.576502323150634766e-02
1.403295099735260010e-01 -7.226125001907348633e-01 -1.541900262236595154e-02
-1.027080267667770386e-01 -7.307626008987426758e-01 -1.385983079671859741e-01
1.956689655780792236e-01 -6.419394016265869141e-01 4.666962623596191406e-01
-1.957074105739593506e-01 -6.086149215698242188e-01 2.865330874919891357e-01
-1.960796415805816650e-01 -6.984028220176696777e-01 -4.224139153957366943e-01
-7.031514495611190796e-02 -6.439679861068725586e-01 -4.666574895381927490e-01
8.885644376277923584e-02 -6.011728644371032715e-01 2.161563634872436523e-01
-2.276163399219512939e-01 -6.838470697402954102e-01 -4.388079941272735596e-01
-2.469603121280670166e-01 -7.186805605888366699e-01 -1.761404722929000854e-01
-2.683513760566711426e-01 -7.181180119514465332e-01 -1.084513217210769653e-01
-3.237660527229309082e-01 -7.038829922676086426e-01 -1.764385402202606201e-01
-3.315380215644836426e-02 -6.275521516799926758e-01 -3.888644874095916748e-01
-2.288399338722229004e-01 -6.071833968162536621e-01 1.028704866766929626e-01
-1.532913446426391602e-01 -7.092364430427551270e-01 3.882009685039520264e-01
-3.704701066017150879e-01 -6.778944730758666992e-01 2.268265932798385620e-01
2.765423431992530823e-02 -5.977875590324401855e-01 1.977367699146270752e-01
-3.662021160125732422e-01 -6.378912329673767090e-01 1.304064989089965820e-01
1.461971998214721680e-01 -6.201822161674499512e-01 4.205278158187866211e-01
-7.469987869262695312e-02 -7.313132882118225098e-01 1.010512113571166992e-01
3.584891930222511292e-02 -7.285569906234741211e-01 -1.527327597141265869e-01
6.572954356670379639e-02 -6.875492930412292480e-01 5.279885530471801758e-01
9.881716966629028320e-02 -7.251751422882080078e-01 1.148053407669067383e-01
-3.249772787094116211e-01 -6.265442967414855957e-01 -6.180451437830924988e-02
-4.236677661538124084e-02 -7.327470779418945312e-01 2.973309345543384552e-02
2.039007470011711121e-02 -6.183339357376098633e-01 -3.107722103595733643e-01
-1.626912318170070648e-02 -7.271997332572937012e-01 2.076608091592788696e-01
-7.595539838075637817e-02 -6.139516234397888184e-01 -2.794972062110900879e-01
-1.195723414421081543e-01 -6.384417414665222168e-01 5.643320679664611816e-01
-2.524013221263885498e-01 -6.871535778045654297e-01 -4.072718918323516846e-01
-1.687414944171905518e-03 -6.857478618621826172e-01 5.547398328781127930e-01
1.039256900548934937e-01 -7.201733589172363281e-01 -2.177354395389556885e-01
-3.126572370529174805e-01 -6.274465322494506836e-01 -1.291396915912628174e-01
1.133237481117248535e-01 -6.043122410774230957e-01 -3.348476067185401917e-02
1.156137734651565552e-01 -7.193201184272766113e-01 2.206585854291915894e-01
-2.181303128600120544e-02 -6.987512707710266113e-01 -4.661656916141510010e-01
6.389130651950836182e-02 -6.005437374114990234e-01 2.460519373416900635e-01
-8.609749376773834229e-02 -7.032314538955688477e-01 -4.492253959178924561e-01
-3.261181116104125977e-01 -7.070612907409667969e-01 8.104066550731658936e-02
-1.236693114042282104e-01 -5.984268188476562500e-01 9.454177320003509521e-02
