1.524012722074985504e-02 -1.754798144102096558e-01 3.889347426593303680e-03
-2.116730250418186188e-02 -7.397346943616867065e-02 9.198375791311264038e-02
-2.067363262176513672e-02 -7.518488913774490356e-02 1.024335697293281555e-01
8.963944390416145325e-03 -3.547069430351257324e-02 5.532862991094589233e-02
-1.939129084348678589e-02 -5.808921158313751221e-02 3.490000963211059570e-03
-2.375696413218975067e-02 -1.351108849048614502e-01 9.805764071643352509e-03
-1.117276027798652649e-02 -2.402139306068420410e-01 -6.969037652015686035e-02
-2.380509115755558014e-02 -1.341403573751449585e-01 1.175697892904281616e-03
1.124190445989370346e-02 -2.128153741359710693e-01 -1.662115380167961121e-02
8.267089724540710449e-03 -1.918341368436813354e-01 -1.281366646289825439e-01
5.497641861438751221e-03 -3.407332301139831543e-02 1.076972298324108124e-02
1.556416973471641541e-02 -9.602120518684387207e-02 6.525863707065582275e-02
7.301611825823783875e-03 -2.230859696865081787e-01 -1.096183210611343384e-01
4.571324214339256287e-03 -2.258913964033126831e-02 1.362285912036895752e-01
-1.246871706098318100e-02 -2.310741990804672241e-01 -1.053535789251327515e-01
-2.278354018926620483e-02 -1.613141894340515137e-01 -3.202419728040695190e-02
-4.328942857682704926e-03 -3.903613239526748657e-02 1.836785823106765747e-01
4.971523769199848175e-03 -3.540009260177612305e-02 2.956750802695751190e-03
1.252616196870803833e-02 -1.660462319850921631e-01 -9.281796216964721680e-02
-2.380765788257122040e-02 -1.158181354403495789e-01 2.670538611710071564e-03
9.103857912123203278e-03 -1.627613157033920288e-01 1.070272698998451233e-01
-2.218916267156600952e-02 -1.690408587455749512e-01 7.813284173607826233e-04
1.309753023087978363e-02 -1.558113545179367065e-01 -8.471407741308212280e-02
4.714562557637691498e-03 -2.152086794376373291e-01 -1.380300521850585938e-01
1.639460213482379913e-02 -1.493947803974151611e-01 -1.165444776415824890e-02
1.164435595273971558e-02 -1.489979475736618042e-01 -9.775371849536895752e-02
1.527925953269004822e-02 -1.571552306413650513e-01 4.587638750672340393e-02
1.520860753953456879e-02 -8.923050016164779663e-02 6.901226937770843506e-02
-1.911987364292144775e-02 -9.576196968555450439e-02 1.241856440901756287e-01
-1.635564677417278290e-02 -1.505232751369476318e-01 1.094245016574859619e-01
1.010510791093111038e-02 -2.211937606334686279e-01 -3.471764922142028809e-02
-2.300624363124370575e-02 -9.046639502048492432e-02 1.165218371897935867e-02
1.579075865447521210e-02 -1.650958061218261719e-01 -2.663671225309371948e-02
-2.270895615220069885e-02 -9.205440431833267212e-02 -4.114495590329170227e-03
-1.080987136811017990e-02 -1.289715766906738281e-01 -1.363946050405502319e-01
9.696119464933872223e-03 -4.601214081048965454e-02 1.242277175188064575e-01
1.248413510620594025e-02 -1.034619510173797607e-01 -5.368159711360931396e-02
7.973840460181236267e-03 -4.940978437662124634e-02 -6.666492670774459839e-03
-2.036373689770698547e-02 -1.467689275741577148e-01 -8.893611282110214233e-02
-1.874643191695213318e-02 -1.615543961524963379e-01 -1.081376299262046814e-01
1.323716156184673309e-02 -8.060239255428314209e-02 -7.978789508342742920e-03
1.082249730825424194e-02 -2.176794111728668213e-01 -5.090849101543426514e-02
1.643890142440795898e-02 -1.285489648580551147e-01 -5.779093131422996521e-03
-1.651696860790252686e-02 -2.088716924190521240e-01 -1.036765426397323608e-01
-1.735658571124076843e-02 -2.114103138446807861e-01 -1.858157292008399963e-02
1.615202240645885468e-02 -1.279847770929336548e-01 5.448052659630775452e-02
1.211957819759845734e-02 -5.683195590972900391e-02 9.812090545892715454e-02
7.262881845235824585e-03 -9.414342045783996582e-02 1.635349988937377930e-01
-2.067727968096733093e-02 -1.428824663162231445e-01 -8.408491313457489014e-02
8.628127165138721466e-03 -1.275073587894439697e-01 -1.077409535646438599e-01
-1.039282418787479401e-02 -1.073496863245964050e-01 -1.205559074878692627e-01
-2.199368178844451904e-02 -1.592239886522293091e-01 -6.276720017194747925e-02
1.668388582766056061e-02 -1.351092457771301270e-01 1.840608939528465271e-02
-1.599357463419437408e-02 -1.432728171348571777e-01 1.190856695175170898e-01
-1.080679893493652344e-02 -4.566964507102966309e-02 -3.770361840724945068e-02
-1.253902446478605270e-02 -1.193078458309173584e-01 -1.242948770523071289e-01
1.215409860014915466e-02 -5.342637747526168823e-02 7.729908823966979980e-02
9.678087197244167328e-03 -1.823150664567947388e-01 7.718078792095184326e-02
1.322343945503234863e-02 -1.739003658294677734e-01 -8.298252522945404053e-02
-2.807269338518381119e-04 -2.893352508544921875e-02 1.722904294729232788e-01
1.384850963950157166e-02 -1.915900707244873047e-01 -1.584600657224655151e-03
1.060362160205841064e-02 -1.962892264127731323e-01 4.415914416313171387e-02
-2.219345187768340111e-03 -9.376987814903259277e-02 1.865825057029724121e-01
-1.876794546842575073e-02 -6.243012100458145142e-02 1.223836913704872131e-01
-2.003011293709278107e-02 -1.727655678987503052e-01 4.306568950414657593e-02
1.580863818526268005e-02 -1.089838743209838867e-01 6.731279194355010986e-02
-2.963996957987546921e-03 -2.404646724462509155e-01 -1.290523558855056763e-01
4.147637635469436646e-03 -7.279794663190841675e-02 -7.190985232591629028e-02
6.225839257240295410e-03 -1.771034002304077148e-01 -1.413959860801696777e-01
7.461247965693473816e-03 -5.431809276342391968e-02 1.569594293832778931e-01
1.837804447859525681e-03 -9.628833830356597900e-02 -1.083343401551246643e-01
1.094822119921445847e-02 -1.777034401893615723e-01 -1.088585779070854187e-01
-2.133969776332378387e-02 -1.602640151977539062e-01 4.375158250331878662e-02
-1.282724924385547638e-02 -5.502400547266006470e-02 1.676412522792816162e-01
-1.986796408891677856e-02 -1.820093691349029541e-01 -8.746877312660217285e-02
1.610771752893924713e-02 -1.535250544548034668e-01 -2.464399114251136780e-02
-2.278568781912326813e-02 -1.624617874622344971e-01 -2.659729495644569397e-02
-1.422188803553581238e-02 -1.874320954084396362e-01 7.447950541973114014e-02
1.545433327555656433e-02 -8.938585221767425537e-02 4.832053557038307190e-02
1.447417773306369781e-02 -9.349978715181350708e-02 -9.691914543509483337e-03
-1.476536877453327179e-02 -2.160871922969818115e-01 -1.132116466760635376e-01
2.283220645040273666e-03 -4.068060219287872314e-02 1.751185655593872070e-01
1.502544991672039032e-02 -1.512746065855026245e-01 -5.467769503593444824e-02
6.230945698916912079e-03 -1.641711890697479248e-01 -1.390329599380493164e-01
1.666623540222644806e-02 -1.368649154901504517e-01 6.597405299544334412e-03
-1.126780826598405838e-02 -2.003439217805862427e-01 6.883167475461959839e-02
1.547313481569290161e-02 -1.283468008041381836e-01 7.164619863033294678e-02
-9.901942685246467590e-03 -1.192371547222137451e-01 -1.315933912992477417e-01
-2.138010226190090179e-02 -1.826748400926589966e-01 -2.961046248674392700e-02
7.090708240866661072e-04 -2.407304644584655762e-01 -8.794760331511497498e-03
7.889967411756515503e-03 -6.245316565036773682e-02 1.582290083169937134e-01
-9.730324149131774902e-03 -4.726738482713699341e-02 1.777242124080657959e-01
3.396829124540090561e-03 -2.099220007658004761e-01 6.260904669761657715e-02
-1.749784126877784729e-02 -4.445880651473999023e-02 1.196411550045013428e-01
7.670335471630096436e-03 -2.312244176864624023e-01 -3.288324922323226929e-02
-1.997384987771511078e-02 -6.028311699628829956e-02 1.007881164550781250e-01
1.379842124879360199e-02 -7.761128246784210205e-02 1.058670319616794586e-02
1.150425150990486145e-02 -2.100555896759033203e-01 -9.906379505991935730e-03
-4.265948198735713959e-03 -7.544375956058502197e-03 1.352332234382629395e-01
-2.200470119714736938e-02 -1.044497340917587280e-01 -3.855094686150550842e-02
7.878834381699562073e-03 -2.313031852245330811e-01 -4.037943854928016663e-02
-2.330832183361053467e-02 -1.471456438302993774e-01 1.345671620219945908e-02
-1.551766134798526764e-02 -2.626635879278182983e-02 1.036285907030105591e-01
-1.644241437315940857e-02 -3.514835238456726074e-02 1.172079741954803467e-01
-2.180942893028259277e-02 -6.865357607603073120e-02 4.154859855771064758e-02
-2.177697420120239258e-02 -6.835094094276428223e-02 5.583564192056655884e-02
4.568713717162609100e-03 -8.825226873159408569e-02 -9.026273339986801147e-02
-1.149812713265419006e-02 -1.751579493284225464e-01 -1.523934304714202881e-01
1.559204049408435822e-02 -9.388132393360137939e-02 5.896730720996856689e-02
5.730860866606235504e-03 -2.386316657066345215e-01 -7.773429155349731445e-02
-2.164605446159839630e-02 -9.246271848678588867e-02 -2.865330502390861511e-02
-1.601444184780120850e-02 -1.853102296590805054e-01 -1.281603574752807617e-01
-2.205418981611728668e-02 -9.568424522876739502e-02 8.415850251913070679e-02
8.549198508262634277e-03 -2.101390063762664795e-01 3.298739343881607056e-02
2.540269400924444199e-03 -3.558932244777679443e-02 1.699843406677246094e-01
-1.868778094649314880e-02 -1.807829737663269043e-01 -1.048493012785911560e-01
1.338123343884944916e-02 -1.980018168687820435e-01 -1.530879363417625427e-02
1.153338328003883362e-02 -5.743824690580368042e-02 1.135471016168594360e-01
-1.150487828999757767e-02 -2.385600954294204712e-01 -8.371596783399581909e-02
8.598729036748409271e-03 -7.496170699596405029e-02 -4.987958073616027832e-02
-1.411088369786739349e-02 -1.499692052602767944e-01 1.234382018446922302e-01
-1.529353205114603043e-02 -6.376662850379943848e-02 -4.835993424057960510e-02
-2.329703792929649353e-02 -1.381877362728118896e-01 -3.311412036418914795e-02
-1.309906691312789917e-02 -1.842318177223205566e-01 -1.458426266908645630e-01
-1.434169523417949677e-02 -2.659768611192703247e-02 3.327228128910064697e-02
-8.397928439080715179e-03 -2.461104542016983032e-01 -8.024641871452331543e-02
-2.256136201322078705e-02 -9.843311458826065063e-02 7.333907485008239746e-02
-1.577948406338691711e-02 -1.930231451988220215e-01 -1.268239468336105347e-01
-1.725413277745246887e-02 -1.128634214401245117e-01 1.332401335239410400e-01
-9.718834422528743744e-03 -9.599164128303527832e-02 1.768253594636917114e-01
8.427557535469532013e-03 -2.129148989915847778e-01 2.716657705605030060e-02
8.659340441226959229e-03 -2.288057804107666016e-01 -5.483324825763702393e-02
1.602132059633731842e-02 -1.604300290346145630e-01 1.387794781476259232e-02
-1.321345660835504532e-02 -7.800434529781341553e-02 1.682568788528442383e-01
-1.782816089689731598e-02 -1.545322686433792114e-01 9.373256564140319824e-02
-8.734554052352905273e-03 -3.500293195247650146e-02 1.735707968473434448e-01
1.895114313811063766e-03 -4.459413141012191772e-02 1.788654923439025879e-01
-1.598554849624633789e-02 -2.084274441003799438e-01 -1.111739650368690491e-01
-2.373480238020420074e-02 -1.362630724906921387e-01 -8.926898241043090820e-03
-2.173252403736114502e-02 -1.331617236137390137e-01 -6.594797223806381226e-02
-2.200246788561344147e-02 -1.729422211647033691e-01 -6.276020780205726624e-03
-2.256272360682487488e-02 -1.269634217023849487e-01 6.242909654974937439e-02
1.637203246355056763e-02 -1.508073657751083374e-01 1.784063689410686493e-02
-2.277944236993789673e-02 -8.378380537033081055e-02 2.361753582954406738e-02
1.587961614131927490e-02 -1.667368113994598389e-01 -6.961384788155555725e-03
-1.680351048707962036e-02 -2.122206687927246094e-01 -9.457571431994438171e-03
5.418351851403713226e-03 -2.364039123058319092e-01 -2.373257651925086975e-02
4.974963143467903137e-03 -2.033630758523941040e-02 5.815234780311584473e-02
7.619796320796012878e-03 -9.977188706398010254e-02 1.601957380771636963e-01
1.471805199980735779e-02 -1.356647908687591553e-01 -5.396284908056259155e-02
-2.251820079982280731e-02 -1.611788123846054077e-01 -4.595115408301353455e-02
-1.090366672724485397e-02 -1.420458108186721802e-01 1.444621533155441284e-01
8.358842693269252777e-03 -2.272738516330718994e-01 -8.273360878229141235e-02
-1.230963878333568573e-02 -2.247549593448638916e-01 -1.219014376401901245e-01
1.219748891890048981e-02 -1.556538343429565430e-01 9.131150692701339722e-02
-2.238068543374538422e-02 -1.507507264614105225e-01 3.803227841854095459e-02
6.556967273354530334e-03 -7.969053089618682861e-02 1.689620018005371094e-01
-1.984412781894207001e-02 -4.988640546798706055e-02 5.068361759185791016e-02
-2.148517407476902008e-02 -1.794079542160034180e-01 -9.706813842058181763e-03
1.613145880401134491e-02 -1.608481705188751221e-01 4.076883196830749512e-04
-1.876538246870040894e-02 -4.453872144222259521e-02 9.343986213207244873e-02
-9.622616693377494812e-03 -5.271326750516891479e-02 1.800574660301208496e-01
-9.991066530346870422e-03 -8.788503706455230713e-02 1.786276996135711670e-01
1.343095209449529648e-04 -1.140458881855010986e-01 1.758382469415664673e-01
-1.149191986769437790e-02 -2.389782965183258057e-01 -5.610976368188858032e-02
-1.940229162573814392e-02 -4.637736082077026367e-02 5.481034517288208008e-02
1.591255329549312592e-02 -1.324998438358306885e-01 5.866901949048042297e-02
-1.558572985231876373e-02 -3.371151536703109741e-02 1.266667544841766357e-01
-1.631391420960426331e-02 -1.770445704460144043e-01 7.593251019716262817e-02
1.113999634981155396e-02 -1.512067615985870361e-01 -1.031344309449195862e-01
1.266064867377281189e-02 -1.323587894439697266e-01 1.081501618027687073e-01
-2.147919125854969025e-02 -1.373562067747116089e-01 7.177107781171798706e-02
1.771457493305206299e-03 -2.189260572195053101e-01 4.902798682451248169e-02
1.590862870216369629e-02 -1.153057664632797241e-01 6.525294482707977295e-02
-1.598524302244186401e-02 -2.743430435657501221e-02 6.136308610439300537e-02
-1.350431609898805618e-02 -6.524720788002014160e-02 -6.036663055419921875e-02
7.513723336160182953e-03 -1.901188194751739502e-01 -1.335949599742889404e-01
-1.956812664866447449e-02 -9.398934245109558105e-02 -5.778332054615020752e-02
-1.299991924315690994e-02 -5.581113696098327637e-01 3.903191536664962769e-02
-2.731647714972496033e-02 -4.636780619621276855e-01 8.383130282163619995e-02
-2.793150395154953003e-02 -4.379528164863586426e-01 7.286210358142852783e-02
-1.565952785313129425e-02 -3.670233190059661865e-01 1.804199367761611938e-01
1.400245539844036102e-02 -5.198236107826232910e-01 -1.405360251665115356e-01
1.651872135698795319e-02 -4.411146938800811768e-01 1.404065936803817749e-01
6.203986704349517822e-03 -5.412001609802246094e-01 -1.597042977809906006e-01
-2.581661380827426910e-02 -4.154669344425201416e-01 -4.416807740926742554e-02
-2.153495699167251587e-02 -4.471488893032073975e-01 -1.327025890350341797e-01
1.483871601521968842e-03 -5.250083208084106445e-01 1.369156688451766968e-01
9.101712144911289215e-03 -5.111962556838989258e-01 1.243085786700248718e-01
-2.629625238478183746e-02 -4.952745139598846436e-01 -4.160638153553009033e-02
1.845116354525089264e-02 -4.791426658630371094e-01 -1.419285535812377930e-01
-2.007377892732620239e-02 -5.239468812942504883e-01 -1.115046516060829163e-01
1.286549493670463562e-02 -5.426149964332580566e-01 -4.026323556900024414e-02
-2.349238283932209015e-02 -3.980543911457061768e-01 1.390237361192703247e-01
-1.188516430556774139e-02 -3.244653642177581787e-01 7.670477777719497681e-02
-1.614097692072391510e-02 -4.688250720500946045e-01 -1.800326257944107056e-01
-3.752337768673896790e-03 -5.188884139060974121e-01 1.577363610267639160e-01
-2.793143503367900848e-02 -4.249275922775268555e-01 1.495756488293409348e-02
-2.010100707411766052e-02 -3.964078426361083984e-01 1.763906627893447876e-01
-2.121490798890590668e-02 -5.107745528221130371e-01 1.092665195465087891e-01
2.314622746780514717e-03 -4.870385527610778809e-01 1.878381520509719849e-01
-2.843076363205909729e-02 -4.425407946109771729e-01 4.464546218514442444e-02
-1.620819233357906342e-02 -4.300830066204071045e-01 -1.668124943971633911e-01
-2.792951278388500214e-02 -4.519407153129577637e-01 -2.436399459838867188e-02
-2.790594287216663361e-02 -4.755255281925201416e-01 4.152459278702735901e-02
-2.799963951110839844e-02 -4.434767663478851318e-01 7.174175977706909180e-02
2.111003734171390533e-02 -4.891834855079650879e-01 -1.064135134220123291e-02
-2.469418570399284363e-02 -4.217996001243591309e-01 -7.439194619655609131e-02
1.961281336843967438e-02 -3.963757455348968506e-01 -1.020903736352920532e-01
-2.616930752992630005e-02 -4.282009005546569824e-01 1.169622614979743958e-01
1.767484098672866821e-02 -3.530210852622985840e-01 -8.491828106343746185e-03
1.274823676794767380e-02 -3.667057752609252930e-01 1.543413996696472168e-01
6.226935423910617828e-03 -5.184668302536010742e-01 1.288008391857147217e-01
-1.079379580914974213e-02 -3.258362710475921631e-01 -7.061227224767208099e-04
-2.517137862741947174e-02 -5.139921903610229492e-01 -7.331625558435916901e-03
-2.623550780117511749e-02 -4.104951620101928711e-01 1.000224351882934570e-01
-2.496465668082237244e-02 -3.965326547622680664e-01 1.086995452642440796e-01
2.219754457473754883e-02 -3.953984379768371582e-01 -4.100749269127845764e-02
-2.841767109930515289e-02 -4.410595595836639404e-01 1.353225018829107285e-02
-5.954972933977842331e-03 -3.496828079223632812e-01 -1.115086823701858521e-01
1.837194710969924927e-02 -3.576661646366119385e-01 4.502686858177185059e-02
2.179564721882343292e-02 -4.638847708702087402e-01 4.007226601243019104e-02
-1.091651618480682373e-02 -5.680205821990966797e-01 -2.068851515650749207e-02
2.326404303312301636e-02 -4.136273860931396484e-01 -3.731643036007881165e-02
-2.482295595109462738e-02 -4.447745084762573242e-01 1.391014009714126587e-01
7.152666803449392319e-04 -3.969061076641082764e-01 2.266030758619308472e-01
-2.570691704750061035e-02 -5.073152184486389160e-01 2.781613916158676147e-02
2.115852944552898407e-02 -4.105819463729858398e-01 -9.577034413814544678e-02
2.363759651780128479e-02 -4.259595274925231934e-01 -3.259934112429618835e-02
1.871916651725769043e-02 -3.941268026828765869e-01 1.134614050388336182e-01
1.551937684416770935e-02 -3.428081870079040527e-01 5.526987090706825256e-02
-1.542875263839960098e-02 -3.425371348857879639e-01 1.289413124322891235e-01
1.659512892365455627e-02 -3.546460270881652832e-01 8.416563272476196289e-02
1.033503375947475433e-02 -3.464362323284149170e-01 1.439867764711380005e-01
2.255856059491634369e-02 -4.625784754753112793e-01 -7.248511910438537598e-02
-1.268333010375499725e-02 -5.474223494529724121e-01 8.321294188499450684e-02
2.035114541649818420e-02 -4.982424974441528320e-01 -2.721564471721649170e-02
1.103279925882816315e-02 -5.427173972129821777e-01 -1.117303073406219482e-01
1.046041492372751236e-02 -5.039085745811462402e-01 1.269112378358840942e-01
9.929141029715538025e-03 -5.341334939002990723e-01 -1.503302454948425293e-01
1.473804563283920288e-02 -4.175693094730377197e-01 1.626180559396743774e-01
-2.575688250362873077e-02 -4.326960444450378418e-01 -6.685682386159896851e-02
3.619380993768572807e-03 -4.395886361598968506e-01 -2.192145586013793945e-01
-1.087295729666948318e-02 -5.348158478736877441e-01 -1.680118739604949951e-01
-2.704259566962718964e-02 -4.069366455078125000e-01 3.666331246495246887e-02
1.600332371890544891e-02 -4.809337556362152100e-01 -1.673575192689895630e-01
2.621354302391409874e-03 -5.683009624481201172e-01 -5.192323029041290283e-02
7.357047870755195618e-03 -3.356559872627258301e-01 1.425697356462478638e-01
-4.673623479902744293e-03 -3.148314356803894043e-01 1.598719879984855652e-02
2.370059676468372345e-02 -4.273515641689300537e-01 -2.653921768069267273e-02
-2.378652431070804596e-02 -3.807944059371948242e-01 9.885441511869430542e-02
1.002135593444108963e-02 -5.014820694923400879e-01 -1.943134963512420654e-01
-2.608575113117694855e-02 -3.964247107505798340e-01 2.145985141396522522e-02
1.181807555258274078e-02 -5.230022668838500977e-01 7.680822163820266724e-02
1.573584228754043579e-02 -4.843790233135223389e-01 1.089226156473159790e-01
4.134590737521648407e-03 -4.159424304962158203e-01 -2.059063315391540527e-01
-2.330144867300987244e-02 -5.072241425514221191e-01 -9.133022278547286987e-02
-7.738187909126281738e-03 -3.544782996177673340e-01 -1.151396408677101135e-01
1.869614981114864349e-02 -4.648980796337127686e-01 -1.469295918941497803e-01
1.185798831284046173e-02 -3.345150351524353027e-01 9.428065270185470581e-02
-1.175317261368036270e-02 -3.754289448261260986e-01 2.086551189422607422e-01
2.147681638598442078e-02 -3.912565410137176514e-01 5.450558662414550781e-02
-2.641464769840240479e-02 -4.354984760284423828e-01 1.140619590878486633e-01
-1.102588605135679245e-02 -3.837134540081024170e-01 -1.497996598482131958e-01
-9.818336926400661469e-03 -5.159826278686523438e-01 -1.931676864624023438e-01
-1.775773428380489349e-02 -5.117195844650268555e-01 1.362541168928146362e-01
-2.637861482799053192e-02 -5.020170211791992188e-01 -7.101564668118953705e-03
-2.290544472634792328e-02 -4.778065681457519531e-01 -1.201394051313400269e-01
1.702571846544742584e-02 -3.920939266681671143e-01 1.339387595653533936e-01
6.953786127269268036e-03 -3.198496699333190918e-01 -3.689815290272235870e-03
1.244393549859523773e-02 -3.774969875812530518e-01 1.670164316892623901e-01
-1.548387203365564346e-02 -3.607597947120666504e-01 -7.962951064109802246e-02
5.775201134383678436e-03 -3.266523778438568115e-01 1.271066069602966309e-01
1.966444030404090881e-02 -4.983876943588256836e-01 -8.758855611085891724e-02
2.080075815320014954e-02 -3.784883618354797363e-01 -3.436478599905967712e-02
-2.852927520871162415e-02 -4.533962905406951904e-01 1.499326806515455246e-02
-2.647740580141544342e-02 -4.451391100883483887e-01 -6.157300621271133423e-02
1.106234826147556305e-02 -5.470053553581237793e-01 -9.835805743932723999e-03
-2.613400481641292572e-02 -4.696372151374816895e-01 -7.202029973268508911e-02
-1.306113135069608688e-02 -3.307310044765472412e-01 2.633716678246855736e-03
2.074589394032955170e-02 -4.939521849155426025e-01 -5.574089288711547852e-02
-2.484689094126224518e-02 -4.769235849380493164e-01 -9.303481876850128174e-02
-9.570082649588584900e-03 -3.192215859889984131e-01 5.880118161439895630e-02
1.809800276532769203e-03 -5.151302218437194824e-01 1.528699845075607300e-01
-5.770701449364423752e-03 -5.484374761581420898e-01 -1.618313193321228027e-01
-2.189617231488227844e-02 -3.856891095638275146e-01 -5.945342034101486206e-02
9.692197665572166443e-03 -4.440161883831024170e-01 -2.070134580135345459e-01
7.218994200229644775e-03 -3.911384344100952148e-01 2.049819082021713257e-01
-2.332221530377864838e-02 -4.397516250610351562e-01 -1.089750900864601135e-01
-2.733624726533889771e-02 -4.113575220108032227e-01 4.072223603725433350e-02
-2.544378489255905151e-02 -3.885532021522521973e-01 3.727654367685317993e-02
-1.792418025434017181e-02 -5.314525961875915527e-01 -1.227587237954139709e-01
-2.597741596400737762e-02 -5.017986297607421875e-01 -3.543529659509658813e-02
-2.812705747783184052e-02 -4.281446635723114014e-01 2.359049022197723389e-02
-1.689873449504375458e-02 -4.402739405632019043e-01 -1.679587364196777344e-01
9.757922962307929993e-04 -3.162124156951904297e-01 1.054922789335250854e-01
1.075356733053922653e-02 -4.558656811714172363e-01 -2.051219195127487183e-01
-1.615660451352596283e-02 -3.880520462989807129e-01 1.984249055385589600e-01
-2.582291141152381897e-02 -4.048323333263397217e-01 1.020686551928520203e-01
-1.562609337270259857e-02 -5.543337464332580566e-01 3.046847134828567505e-02
-1.081536058336496353e-02 -4.485856890678405762e-01 2.213461697101593018e-01
-1.353369653224945068e-02 -3.672726154327392578e-01 1.931403130292892456e-01
-2.289710193872451782e-02 -4.299766421318054199e-01 -1.075172424316406250e-01
2.263936772942543030e-02 -4.546629190444946289e-01 2.869953215122222900e-02
2.323773317039012909e-02 -4.439905583858489990e-01 1.890320330858230591e-02
-1.612639799714088440e-02 -4.345644712448120117e-01 -1.700167804956436157e-01
7.054196670651435852e-03 -4.554623961448669434e-01 -2.172938436269760132e-01
-1.859614998102188110e-02 -4.912521839141845703e-01 -1.583532989025115967e-01
-2.848704159259796143e-02 -4.493990838527679443e-01 9.798332117497920990e-03
-2.538320049643516541e-02 -4.474481344223022461e-01 1.304831802845001221e-01
-1.365350652486085892e-02 -5.613964200019836426e-01 -6.941186636686325073e-02
1.732320338487625122e-02 -5.009441971778869629e-01 5.753396824002265930e-02
9.545780718326568604e-03 -5.535560846328735352e-01 -3.221721947193145752e-02
-2.314961142838001251e-02 -3.699814081192016602e-01 4.344110563397407532e-02
-1.186400372534990311e-02 -3.269552588462829590e-01 8.440179750323295593e-03
-2.573997713625431061e-02 -5.089821815490722656e-01 -3.571407869458198547e-04
-1.784075051546096802e-02 -5.191097259521484375e-01 1.222002133727073669e-01
1.932250149548053741e-02 -3.821783065795898438e-01 -8.113937824964523315e-02
-2.244859561324119568e-02 -4.057776927947998047e-01 1.595119535923004150e-01
-1.686869375407695770e-02 -5.479037761688232422e-01 -9.123267233371734619e-02
2.215787582099437714e-02 -4.325407147407531738e-01 6.087688356637954712e-02
-2.792488411068916321e-02 -4.793678522109985352e-01 1.418702490627765656e-02
-2.803071402013301849e-02 -4.403784275054931641e-01 -1.209557335823774338e-02
1.932283677160739899e-02 -3.723151087760925293e-01 -5.522708594799041748e-02
-2.686367928981781006e-02 -4.965011477470397949e-01 1.347445603460073471e-02
1.982896588742733002e-02 -4.863536059856414795e-01 -1.113898605108261108e-01
1.934643089771270752e-02 -4.971951544284820557e-01 2.520190924406051636e-02
-1.802463084459304810e-02 -3.442922234535217285e-01 2.609040588140487671e-02
1.408610306680202484e-02 -4.383799731731414795e-01 -1.846273690462112427e-01
-5.368177779018878937e-03 -3.666307330131530762e-01 2.141430526971817017e-01
1.585983857512474060e-02 -4.656503498554229736e-01 -1.745420992374420166e-01
-1.172276865690946579e-02 -4.262347221374511719e-01 -1.883282065391540527e-01
-2.834988199174404144e-02 -4.616529941558837891e-01 -2.156132832169532776e-04
1.982906833291053772e-02 -3.683510124683380127e-01 4.195054993033409119e-02
1.181317586451768875e-02 -4.124887287616729736e-01 -1.821543574333190918e-01
-1.406353712081909180e-02 -3.650410771369934082e-01 -1.008289232850074768e-01
-8.515663444995880127e-03 -4.515039920806884766e-01 -2.115011513233184814e-01
-2.300270460546016693e-02 -3.805234432220458984e-01 1.177444756031036377e-01
6.451552733778953552e-03 -4.616965949535369873e-01 1.951642930507659912e-01
1.918062940239906311e-02 -4.805008471012115479e-01 -1.303397268056869507e-01
-2.230047434568405151e-02 -3.782757520675659180e-01 1.262363493442535400e-01
1.895320974290370941e-02 -4.228670597076416016e-01 1.182004734873771667e-01
-1.425888948142528534e-02 -4.604505896568298340e-01 2.063681036233901978e-01
-1.222303323447704315e-02 -3.345827162265777588e-01 -2.942254394292831421e-02
-2.837973460555076599e-02 -4.530442655086517334e-01 5.015442147850990295e-02
-5.125246010720729828e-03 -4.140182137489318848e-01 -2.005131691694259644e-01
2.076071500778198242e-02 -3.735713958740234375e-01 8.721327409148216248e-03
1.816982775926589966e-02 -3.828918337821960449e-01 -9.946904331445693970e-02
-2.722091414034366608e-02 -4.404782652854919434e-01 -4.054063186049461365e-02
-1.141481008380651474e-02 -5.633582472801208496e-01 2.207010984420776367e-02
-1.308269333094358444e-02 -4.105951786041259766e-01 2.209264338016510010e-01
-2.813734859228134155e-02 -4.681262075901031494e-01 -8.391117677092552185e-03
-2.558286860585212708e-02 -4.394550919532775879e-01 1.288996487855911255e-01
1.870522275567054749e-02 -3.586498796939849854e-01 3.359721228480339050e-02
-1.235584169626235962e-02 -3.937742412090301514e-01 -1.560338139533996582e-01
-1.159960683435201645e-02 -5.111258625984191895e-01 1.634063422679901123e-01
2.316641621291637421e-02 -4.140249788761138916e-01 -4.409432783722877502e-02
-2.611315622925758362e-02 -3.952590823173522949e-01 4.390575364232063293e-02
4.925352521240711212e-03 -3.620521426200866699e-01 1.952208131551742554e-01
-2.287464216351509094e-02 -3.810353875160217285e-01 -2.985149994492530823e-02
1.063004601746797562e-02 -5.255587100982666016e-01 -1.618536859750747681e-01
-1.327143423259258270e-02 -5.061978101730346680e-01 -1.851982474327087402e-01
-1.715368032455444336e-02 -5.253555774688720703e-01 1.140357777476310730e-01
-8.284325711429119110e-03 -4.540483951568603516e-01 2.224962115287780762e-01
2.140733413398265839e-02 -4.351943731307983398e-01 7.628159224987030029e-02
-2.652134187519550323e-02 -4.012270271778106689e-01 6.085191294550895691e-02
-4.321596119552850723e-03 -5.096462965011596680e-01 -2.112260758876800537e-01
1.979756169021129608e-02 -3.668270409107208252e-01 3.340664505958557129e-02
-2.026404254138469696e-02 -3.786705732345581055e-01 -6.746908277273178101e-02
1.720504835247993469e-02 -3.672118782997131348e-01 1.037310212850570679e-01
1.178773585706949234e-02 -3.599351048469543457e-01 1.539769321680068970e-01
-6.367485038936138153e-03 -5.604304075241088867e-01 5.647495016455650330e-02
-1.647224277257919312e-02 -3.778561353683471680e-01 1.877979040145874023e-01
-9.856667369604110718e-03 -5.422608852386474609e-01 -1.605571806430816650e-01
-2.127526886761188507e-02 -5.274695158004760742e-01 -8.544313907623291016e-02
1.038555521517992020e-02 -3.442597687244415283e-01 -8.362184464931488037e-02
-2.529108710587024689e-02 -3.927188813686370850e-01 -1.585793215781450272e-03
1.041754242032766342e-02 -3.384175300598144531e-01 1.249326542019844055e-01
-1.146664749830961227e-02 -4.089656472206115723e-01 -1.761146932840347290e-01
-1.031474582850933075e-02 -4.348038136959075928e-01 -1.989536881446838379e-01
-1.471991837024688721e-02 -5.072389245033264160e-01 -1.764509826898574829e-01
-2.518075332045555115e-02 -4.889044165611267090e-01 9.542662650346755981e-02
-2.085643354803323746e-04 -5.417429208755493164e-01 1.062876284122467041e-01
-1.402197405695915222e-02 -3.478000462055206299e-01 1.581072062253952026e-01
2.683364087715744972e-03 -4.756308495998382568e-01 1.976296752691268921e-01
1.056609675288200378e-02 -3.249808549880981445e-01 5.387688800692558289e-02
1.032255776226520538e-02 -4.205928146839141846e-01 1.930467933416366577e-01
1.727749779820442200e-02 -3.537891507148742676e-01 6.395887583494186401e-02
-2.704674378037452698e-02 -4.529220163822174072e-01 -5.175727605819702148e-02
2.138777822256088257e-02 -3.807658255100250244e-01 -1.451111491769552231e-02
9.681469760835170746e-03 -3.225698769092559814e-01 2.377238124608993530e-02
1.290821749716997147e-02 -3.937653899192810059e-01 1.729040592908859253e-01
-1.881441660225391388e-02 -4.619275927543640137e-01 -1.607909351587295532e-01
1.504432223737239838e-02 -5.299332141876220703e-01 -8.883254230022430420e-02
1.988314092159271240e-02 -4.995954334735870361e-01 -7.400787621736526489e-02
-2.483563683927059174e-02 -3.839434981346130371e-01 6.767382472753524780e-02
1.953802071511745453e-02 -3.636168837547302246e-01 7.582316175103187561e-03
1.088560651987791061e-02 -3.353089690208435059e-01 -4.923668876290321350e-02
-2.718746848404407501e-02 -4.838199615478515625e-01 5.501410365104675293e-02
1.347513683140277863e-02 -5.364095568656921387e-01 1.561918063089251518e-03
-2.223682962357997894e-02 -5.084928274154663086e-01 1.021088734269142151e-01
-9.244808927178382874e-03 -4.062729775905609131e-01 -1.825706958770751953e-01
1.569987647235393524e-02 -5.079736709594726562e-01 -1.420578658580780029e-01
9.697680361568927765e-03 -5.352842211723327637e-01 6.464712321758270264e-02
5.707078613340854645e-03 -5.614852905273437500e-01 -8.437267690896987915e-02
5.788350477814674377e-03 -3.768468499183654785e-01 2.038203626871109009e-01
-2.380805090069770813e-02 -5.084789395332336426e-01 7.875238358974456787e-02
2.346067130565643311e-02 -4.149672985076904297e-01 1.119688386097550392e-03
-2.771641127765178680e-02 -4.201800227165222168e-01 5.591386556625366211e-02
2.106805704534053802e-02 -4.626530110836029053e-01 5.948428437113761902e-02
-2.363827079534530640e-02 -4.558142125606536865e-01 -1.114954948425292969e-01
1.922412589192390442e-02 -4.013703167438507080e-01 1.104601398110389709e-01
7.842993363738059998e-03 -3.277521431446075439e-01 -4.250372573733329773e-02
-2.378938347101211548e-02 -3.793171644210815430e-01 9.311217814683914185e-02
2.292744256556034088e-02 -4.626874327659606934e-01 -3.711443860083818436e-03
1.772162504494190216e-04 -5.273572802543640137e-01 -1.971982866525650024e-01
1.929073780775070190e-02 -4.711150228977203369e-01 8.058879524469375610e-02
-1.830337010324001312e-02 -3.693882226943969727e-01 1.623654365539550781e-01
-6.738801486790180206e-03 -5.720724463462829590e-01 -4.865471646189689636e-02
1.421648636460304260e-02 -3.582752645015716553e-01 1.280758678913116455e-01
-1.668171025812625885e-02 -4.152072072029113770e-01 2.068452686071395874e-01
6.299909204244613647e-03 -5.388221740722656250e-01 8.307344466447830200e-02
-2.092074789106845856e-02 -4.716861844062805176e-01 -1.427712887525558472e-01
1.556638628244400024e-02 -4.252992868423461914e-01 -1.690754294395446777e-01
-2.808244712650775909e-02 -4.324812293052673340e-01 5.993348360061645508e-02
1.731087826192378998e-02 -4.987449347972869873e-01 -1.352568566799163818e-01
-1.281557790935039520e-02 -5.449900031089782715e-01 -1.391386836767196655e-01
-1.806999556720256805e-02 -5.460057258605957031e-01 3.938614577054977417e-02
-2.410225756466388702e-02 -4.662773609161376953e-01 1.371272653341293335e-01
5.355208180844783783e-03 -4.176825284957885742e-01 2.160201668739318848e-01
-2.413271926343441010e-02 -4.204973876476287842e-01 1.466328054666519165e-01
1.525264792144298553e-02 -5.079144239425659180e-01 7.226782292127609253e-02
-2.057552337646484375e-02 -4.409077167510986328e-01 -1.391824483871459961e-01
1.303429249674081802e-03 -5.677323341369628906e-01 -8.687917888164520264e-02
1.386795379221439362e-02 -3.978766798973083496e-01 1.669542193412780762e-01
-2.400973066687583923e-02 -5.102521777153015137e-01 7.004570215940475464e-02
-2.459628321230411530e-02 -4.860646724700927734e-01 1.092925369739532471e-01
-1.917782984673976898e-02 -3.695852160453796387e-01 -6.035403162240982056e-02
-1.592807658016681671e-02 -3.903380334377288818e-01 -1.296573579311370850e-01
6.840940564870834351e-03 -3.725223541259765625e-01 -1.551509946584701538e-01
1.365917176008224487e-02 -4.564374089241027832e-01 -1.905396133661270142e-01
-9.226939640939235687e-03 -3.190991282463073730e-01 7.471255213022232056e-02
-9.088710881769657135e-03 -3.199496269226074219e-01 2.137888222932815552e-02
1.072310283780097961e-02 -4.453390240669250488e-01 1.833001077175140381e-01
6.232082843780517578e-03 -5.527200102806091309e-01 3.576079756021499634e-02
-1.896943151950836182e-02 -3.531504869461059570e-01 -7.382542826235294342e-03
4.545535892248153687e-03 -5.653117895126342773e-01 -5.699536204338073730e-02
1.064249221235513687e-02 -4.918665885925292969e-01 -1.976567059755325317e-01
-1.783374138176441193e-02 -3.811444044113159180e-01 -9.951746463775634766e-02
1.630211994051933289e-02 -5.214351415634155273e-01 -9.667105227708816528e-02
-1.494343578815460205e-02 -3.884396553039550781e-01 2.050349116325378418e-01
1.090277452021837234e-02 -4.272147417068481445e-01 -1.956268399953842163e-01
-2.504452876746654510e-02 -4.947349429130554199e-01 -7.575830072164535522e-02
1.833096705377101898e-02 -4.840041399002075195e-01 -1.392407417297363281e-01
-2.574171870946884155e-02 -4.915834963321685791e-01 -6.421027332544326782e-02
1.900251209735870361e-02 -4.868711829185485840e-01 -1.259424537420272827e-01
1.199516560882329941e-02 -5.451073646545410156e-01 -7.226964086294174194e-02
2.338824048638343811e-02 -4.349420964717864990e-01 1.905456557869911194e-02
2.172522246837615967e-02 -4.626644551753997803e-01 -9.796728193759918213e-02
1.414529979228973389e-02 -5.227214097976684570e-01 -1.321437209844589233e-01
1.324966922402381897e-02 -5.353171825408935547e-01 -1.051996946334838867e-01
1.216627564281225204e-02 -3.695027232170104980e-01 1.620913892984390259e-01
1.565492711961269379e-02 -5.250000357627868652e-01 8.852316066622734070e-03
1.742646098136901855e-02 -3.535549640655517578e-01 -2.268774434924125671e-02
7.029636763036251068e-03 -4.699547886848449707e-01 1.863726526498794556e-01
-2.642500028014183044e-02 -4.639245867729187012e-01 1.039610579609870911e-01
1.388267986476421356e-02 -3.396747708320617676e-01 8.134876191616058350e-02
-1.748763769865036011e-02 -4.315745234489440918e-01 2.029893547296524048e-01
-1.646417006850242615e-02 -3.971931040287017822e-01 2.022022753953933716e-01
-2.842376939952373505e-02 -4.445923864841461182e-01 7.971394807100296021e-03
1.831884123384952545e-02 -3.653618693351745605e-01 -5.385138466954231262e-02
-2.189783751964569092e-02 -4.326931834220886230e-01 -1.210123002529144287e-01
1.995102874934673309e-02 -3.923463523387908936e-01 9.198945015668869019e-02
-1.273757033050060272e-02 -5.652669668197631836e-01 -4.253538325428962708e-02
1.805589161813259125e-02 -5.102624297142028809e-01 -9.406498074531555176e-02
-8.405484259128570557e-03 -3.256033062934875488e-01 -2.496299520134925842e-02
1.510598883032798767e-02 -3.394382894039154053e-01 1.409911271184682846e-02
-1.871470548212528229e-02 -3.782636523246765137e-01 -8.521487563848495483e-02
-2.263098396360874176e-02 -5.106026530265808105e-01 9.232732653617858887e-02
-1.579966768622398376e-02 -5.561949014663696289e-01 -6.623034924268722534e-02
2.841149223968386650e-03 -3.384865224361419678e-01 1.696372032165527344e-01
1.651592366397380829e-02 -3.917599022388458252e-01 1.394591927528381348e-01
2.173608355224132538e-02 -3.905484378337860107e-01 -4.415481165051460266e-02
-8.930249139666557312e-03 -5.544362068176269531e-01 7.438941299915313721e-02
-2.440965920686721802e-02 -3.904286623001098633e-01 1.092875748872756958e-01
1.134381908923387527e-02 -4.074982702732086182e-01 1.869796365499496460e-01
-1.743637956678867340e-02 -4.744085967540740967e-01 1.833298802375793457e-01
-1.336104422807693481e-02 -5.245823860168457031e-01 -1.684703528881072998e-01
-2.198724448680877686e-02 -4.790738224983215332e-01 1.477395147085189819e-01
1.906840316951274872e-02 -5.082305669784545898e-01 -6.192675977945327759e-02
-1.719395257532596588e-02 -3.589296340942382812e-01 -5.682529881596565247e-02
1.285215932875871658e-02 -3.617355823516845703e-01 -1.093665510416030884e-01
2.018203772604465485e-02 -4.899248778820037842e-01 -9.612718969583511353e-02
5.968972109258174896e-03 -3.360102772712707520e-01 1.516251266002655029e-01
1.683181710541248322e-02 -3.565002679824829102e-01 -5.096073448657989502e-02
-1.629726588726043701e-02 -3.604397475719451904e-01 1.653501689434051514e-01
1.677063852548599243e-02 -4.209773242473602295e-01 1.435778439044952393e-01
-2.283583953976631165e-02 -4.015111625194549561e-01 -7.516112923622131348e-02
-2.040415443480014801e-02 -4.251418113708496094e-01 -1.304567754268646240e-01
-2.838730998337268829e-02 -4.375078678131103516e-01 4.039211571216583252e-02
2.166828326880931854e-02 -4.588720500469207764e-01 -1.019887551665306091e-01
-2.752536535263061523e-02 -4.808490574359893799e-01 -2.146588638424873352e-02
-1.076515391469001770e-02 -4.742626547813415527e-01 -2.065584063529968262e-01
-2.360785752534866333e-02 -4.760193824768066406e-01 -1.116162762045860291e-01
-2.560848183929920197e-02 -4.262849688529968262e-01 -6.321496516466140747e-02
-2.602643519639968872e-02 -4.920914769172668457e-01 7.142865657806396484e-02
6.209356710314750671e-03 -5.620289444923400879e-01 -6.168925762176513672e-02
-2.793400362133979797e-02 -4.658214151859283447e-01 -2.205132693052291870e-02
-2.284157648682594299e-02 -3.691835403442382812e-01 7.576174288988113403e-02
1.511505246162414551e-02 -3.525542616844177246e-01 -6.396407634019851685e-02
2.264767140150070190e-02 -4.648106098175048828e-01 -6.430497020483016968e-02
1.198600791394710541e-02 -3.375304937362670898e-01 1.041999831795692444e-01
2.342100441455841064e-02 -4.493573307991027832e-01 -1.074458938091993332e-03
-7.516742916777729988e-04 -5.573445558547973633e-01 6.123477220535278320e-02
1.290004234760999680e-02 -5.366379618644714355e-01 1.402633171528577805e-02
-1.925719715654850006e-02 -4.137605428695678711e-01 1.912220418453216553e-01
1.797029562294483185e-02 -4.686368703842163086e-01 -1.538341492414474487e-01
1.442739367485046387e-02 -5.078590512275695801e-01 8.280079066753387451e-02
-2.104330621659755707e-02 -5.279408693313598633e-01 6.748043745756149292e-02
-7.598495110869407654e-03 -3.216892778873443604e-01 1.173327043652534485e-01
-2.402038872241973877e-02 -4.139849841594696045e-01 1.450268030166625977e-01
-2.678594179451465607e-02 -4.383878409862518311e-01 -5.000903084874153137e-02
-2.348117530345916748e-02 -5.073012709617614746e-01 8.718785643577575684e-02
2.350242249667644501e-02 -4.344535171985626221e-01 1.285527180880308151e-02
-9.638166986405849457e-03 -3.517013490200042725e-01 1.885663419961929321e-01
-1.983009651303291321e-02 -4.672051966190338135e-01 1.747829467058181763e-01
-1.480704639106988907e-02 -3.347789943218231201e-01 9.368319064378738403e-03
-1.548435725271701813e-02 -5.460634231567382812e-01 -1.142413690686225891e-01
1.456436701118946075e-02 -5.146387219429016113e-01 -1.440860182046890259e-01
2.106235921382904053e-02 -4.463544487953186035e-01 -1.170751824975013733e-01
1.839734427630901337e-02 -4.000360369682312012e-01 1.213399395346641541e-01
1.681975275278091431e-02 -5.124465823173522949e-01 3.407106176018714905e-02
1.962670497596263885e-02 -4.913392364978790283e-01 -1.068442985415458679e-01
1.690510846674442291e-02 -3.531853258609771729e-01 -3.518897667527198792e-02
-1.150581520050764084e-02 -4.603832364082336426e-01 2.139940261840820312e-01
-2.158375270664691925e-02 -5.311259627342224121e-01 4.489900544285774231e-02
-1.718086563050746918e-02 -5.240586996078491211e-01 -1.419790387153625488e-01
2.005328424274921417e-02 -4.370551705360412598e-01 -1.307466179132461548e-01
1.342012174427509308e-02 -3.672315478324890137e-01 1.490029096603393555e-01
1.695333048701286316e-02 -5.228796005249023438e-01 -3.300723433494567871e-02
-2.271972782909870148e-02 -5.303156375885009766e-01 1.084016263484954834e-02
-2.854389697313308716e-02 -4.503720104694366455e-01 3.233402594923973083e-02
-5.290183238685131073e-03 -5.684965848922729492e-01 1.555750425904989243e-02
1.561279222369194031e-02 -3.831342160701751709e-01 1.431397795677185059e-01
1.718065328896045685e-02 -3.685544729232788086e-01 -8.196527510881423950e-02
1.098581403493881226e-02 -5.439777374267578125e-01 1.278076041489839554e-02
-1.036249101161956787e-02 -4.859955906867980957e-01 -2.064235210418701172e-01
2.131067402660846710e-02 -4.883515834808349609e-01 -2.172048017382621765e-02
-2.599860355257987976e-02 -4.699333310127258301e-01 1.063556075096130371e-01
1.519319973886013031e-02 -3.711070716381072998e-01 1.358162015676498413e-01
-2.499283850193023682e-02 -4.127601087093353271e-01 -5.703906714916229248e-02
-2.855150401592254639e-02 -4.492330551147460938e-01 2.309449389576911926e-02
-1.001300103962421417e-02 -4.792637526988983154e-01 -2.088671475648880005e-01
-6.774999201297760010e-03 -3.881930708885192871e-01 -1.714759916067123413e-01
-2.552621625363826752e-02 -5.044888854026794434e-01 -4.444705694913864136e-02
1.697637513279914856e-02 -5.223415493965148926e-01 -2.600692212581634521e-02
-2.560993656516075134e-02 -4.069062471389770508e-01 -3.298091515898704529e-02
1.977162621915340424e-02 -4.180016517639160156e-01 1.068986356258392334e-01
1.716378703713417053e-02 -3.661196827888488770e-01 -7.595889270305633545e-02
-2.509340085089206696e-02 -3.943067491054534912e-01 1.002941578626632690e-01
2.094830013811588287e-02 -3.899767398834228516e-01 6.747593730688095093e-02
-1.182329654693603516e-02 -5.493021011352539062e-01 -1.356349438428878784e-01
5.966752767562866211e-03 -5.056474804878234863e-01 -2.069179713726043701e-01
-1.501596719026565552e-02 -3.366530537605285645e-01 9.119368623942136765e-04
-2.453769929707050323e-02 -4.947803616523742676e-01 9.603491425514221191e-02
-8.567195385694503784e-03 -5.584339499473571777e-01 -1.279174834489822388e-01
1.601395942270755768e-02 -4.238912165164947510e-01 1.506621986627578735e-01
2.041902393102645874e-02 -4.966957569122314453e-01 -1.651886105537414551e-02
-2.039673738181591034e-02 -4.484128654003143311e-01 -1.441161185503005981e-01
-1.945938915014266968e-02 -3.507148921489715576e-01 8.383923023939132690e-02
-2.467258647084236145e-02 -3.898055553436279297e-01 -1.204449031502008438e-02
-2.429055236279964447e-02 -4.724646508693695068e-01 1.294742226600646973e-01
-2.699783071875572205e-02 -4.080652594566345215e-01 1.818401739001274109e-02
2.429189858958125114e-03 -4.300017952919006348e-01 2.230230569839477539e-01
8.539809845387935638e-03 -3.354054689407348633e-01 1.334056556224822998e-01
-2.464693970978260040e-02 -5.114814639091491699e-01 5.045738816261291504e-02
-2.263412810862064362e-02 -4.155315458774566650e-01 1.625879257917404175e-01
6.782216951251029968e-03 -3.222507536411285400e-01 1.008925288915634155e-01
-2.379157394170761108e-02 -5.000408291816711426e-01 -9.268611669540405273e-02
-1.497133541852235794e-02 -4.527271091938018799e-01 -1.844908595085144043e-01
-1.660552062094211578e-02 -4.922794401645660400e-01 1.698764264583587646e-01
9.412302635610103607e-03 -5.475664734840393066e-01 -1.140926629304885864e-01
-4.146861843764781952e-03 -3.226800560951232910e-01 1.357742249965667725e-01
-1.824679225683212280e-02 -3.486916422843933105e-01 -3.630351275205612183e-04
-1.646995544433593750e-02 -5.444480180740356445e-01 6.625171750783920288e-02
-2.320358343422412872e-02 -4.006159007549285889e-01 -6.810936331748962402e-02
-2.189555577933788300e-02 -3.757781088352203369e-01 -3.406721353530883789e-02
4.300745204091072083e-03 -5.349991321563720703e-01 1.046906709671020508e-01
-1.531811151653528214e-02 -3.475278615951538086e-01 -4.371056705713272095e-02
-6.395537406206130981e-03 -5.693475604057312012e-01 -8.705766499042510986e-02
3.587940940633416176e-03 -5.666936039924621582e-01 -3.441268205642700195e-02
2.294947206974029541e-02 -4.642571806907653809e-01 -1.341895479708909988e-02
3.729718038812279701e-03 -5.430712103843688965e-01 -1.664314419031143188e-01
1.330519653856754303e-02 -3.346408009529113770e-01 6.501116603612899780e-02
1.584371179342269897e-02 -4.888328611850738525e-01 -1.633344739675521851e-01
-1.629281789064407349e-02 -5.306617021560668945e-01 -1.397063732147216797e-01
-2.169363759458065033e-02 -4.010778367519378662e-01 1.644784361124038696e-01
8.569412864744663239e-03 -4.185436069965362549e-01 2.024805992841720581e-01
4.843498580157756805e-03 -3.917423784732818604e-01 2.143972516059875488e-01
-1.864542067050933838e-02 -4.702173769474029541e-01 1.800161451101303101e-01
1.067523565143346786e-02 -4.666191637516021729e-01 -2.054801434278488159e-01
-1.904501020908355713e-02 -4.694394469261169434e-01 -1.594223231077194214e-01
-2.776584215462207794e-02 -4.235028624534606934e-01 6.271076202392578125e-02
-2.398918010294437408e-02 -3.886774480342864990e-01 -2.703218162059783936e-02
2.235683426260948181e-02 -4.699286222457885742e-01 6.153366528451442719e-03
-2.015789784491062164e-02 -4.085218012332916260e-01 1.827640086412429810e-01
-2.256385050714015961e-02 -5.320677757263183594e-01 -7.506699301302433014e-03
1.877862401306629181e-02 -3.698866367340087891e-01 7.977314293384552002e-02
-2.660030685365200043e-02 -4.975678324699401855e-01 -1.966416463255882263e-02
2.147758007049560547e-02 -3.971264958381652832e-01 6.369528174400329590e-02
1.191025320440530777e-02 -3.698430359363555908e-01 -1.307599544525146484e-01
2.168181352317333221e-02 -4.846974909305572510e-01 -3.337953612208366394e-02
2.026608027517795563e-02 -4.721077084541320801e-01 -1.201427653431892395e-01
-1.648912206292152405e-02 -3.501418232917785645e-01 -3.790087252855300903e-02
-2.319837361574172974e-02 -4.268040060997009277e-01 -1.010945439338684082e-01
1.324763335287570953e-02 -4.426944553852081299e-01 1.677614152431488037e-01
-2.224680222570896149e-02 -4.970054030418395996e-01 -1.181058511137962341e-01
-4.218348301947116852e-03 -5.554736256599426270e-01 -1.481299996376037598e-01
-2.668609470129013062e-02 -4.823241531848907471e-01 -5.075532570481300354e-02
2.345203235745429993e-02 -4.143976867198944092e-01 -2.149581909179687500e-02
-2.560394257307052612e-02 -3.903117775917053223e-01 5.663521215319633484e-02
1.645734766498208046e-03 -4.593735337257385254e-01 -2.256608009338378906e-01
-1.013963855803012848e-02 -3.833476603031158447e-01 2.190339267253875732e-01
