-1.411140859127044678e-01 2.992540225386619568e-02 -1.677671819925308228e-01
-2.271413505077362061e-01 1.872387155890464783e-02 5.299531295895576477e-02
1.800346076488494873e-01 -8.002489805221557617e-02 4.012420028448104858e-02
1.944776773452758789e-01 4.952257499098777771e-02 -5.713529512286186218e-02
8.921146392822265625e-02 -1.618932336568832397e-01 4.194263368844985962e-02
-2.264915406703948975e-01 -2.703304216265678406e-02 9.386959671974182129e-02
-4.020689800381660461e-02 -2.052292227745056152e-01 -9.093094617128372192e-03
-6.204407289624214172e-02 -1.175030320882797241e-01 -2.124333977699279785e-01
1.623650193214416504e-01 1.505757123231887817e-02 1.395046412944793701e-01
-6.199551373720169067e-02 -1.249070167541503906e-01 1.733227521181106567e-01
-2.185555920004844666e-02 8.201031386852264404e-02 2.021830976009368896e-01
-1.574316918849945068e-01 7.914750277996063232e-02 -9.022125601768493652e-02
-6.448064744472503662e-02 -6.197394803166389465e-02 -2.302710562944412231e-01
-3.380680084228515625e-02 -1.756886392831802368e-01 1.017569079995155334e-01
6.547883898019790649e-02 -4.169844835996627808e-02 -2.203636616468429565e-01
1.660722196102142334e-01 -7.241009175777435303e-02 8.959634602069854736e-02
-2.351021170616149902e-01 5.731200799345970154e-03 -2.163165807723999023e-02
3.809794411063194275e-02 -1.143364906311035156e-01 1.686597913503646851e-01
-1.129578128457069397e-01 3.201561048626899719e-02 2.014632225036621094e-01
-1.891741156578063965e-01 7.860416173934936523e-02 1.333830412477254868e-02
2.626055106520652771e-02 -1.264564972370862961e-02 -2.295707017183303833e-01
1.150945052504539490e-01 -1.854035630822181702e-02 -1.933661252260208130e-01
-2.321375012397766113e-01 -1.755485311150550842e-02 7.578333467245101929e-02
-1.486350595951080322e-01 -8.985452353954315186e-03 -1.842707991600036621e-01
-1.045763120055198669e-01 6.301872432231903076e-02 1.889487206935882568e-01
1.496424973011016846e-01 -1.274969726800918579e-01 -2.162216231226921082e-02
1.336238086223602295e-01 -1.331372112035751343e-01 3.743392601609230042e-02
7.397078722715377808e-02 -6.576396524906158447e-02 1.894229054450988770e-01
-1.781664490699768066e-01 7.466350495815277100e-02 9.163764864206314087e-02
1.321743056178092957e-02 1.602526605129241943e-01 4.276116564869880676e-02
5.749911814928054810e-02 -1.404150724411010742e-01 -1.705278605222702026e-01
-1.411704719066619873e-01 -1.484656780958175659e-01 -1.520297676324844360e-01
1.921954154968261719e-01 6.613473594188690186e-02 4.433085024356842041e-02
-1.689548790454864502e-01 -1.212312281131744385e-01 -1.536302268505096436e-01
3.484867513179779053e-03 1.135511994361877441e-01 1.726392060518264771e-01
1.107904687523841858e-01 -1.369314193725585938e-01 -1.218392550945281982e-01
8.850243687629699707e-02 1.353909671306610107e-01 1.044399514794349670e-01
1.995774507522583008e-01 4.220571368932723999e-03 -7.576305419206619263e-02
-8.378766477108001709e-02 -2.006349414587020874e-01 -7.190645486116409302e-02
2.108415365219116211e-01 5.580374971032142639e-03 -5.186763592064380646e-03
-2.981626987457275391e-02 5.289511755108833313e-02 -2.006173729896545410e-01
7.195235043764114380e-02 -1.707721054553985596e-01 4.097198694944381714e-02
1.830213069915771484e-01 -8.690710365772247314e-02 -1.872577518224716187e-02
8.143322169780731201e-02 -1.289951354265213013e-01 1.239495426416397095e-01
5.767794698476791382e-02 -1.674027442932128906e-01 -1.246275007724761963e-01
-4.825740307569503784e-02 -9.051696956157684326e-02 -2.267801314592361450e-01
-7.535833865404129028e-02 2.315440401434898376e-02 2.197572290897369385e-01
9.340897947549819946e-02 1.464449763298034668e-01 -1.288918685168027878e-02
1.791568100452423096e-01 5.444690957665443420e-02 9.872163087129592896e-02
4.422150924801826477e-02 -1.760361790657043457e-01 6.128010153770446777e-02
-1.817704737186431885e-01 6.786331534385681152e-02 -6.797555088996887207e-02
1.466071009635925293e-01 6.709197163581848145e-02 -1.260402202606201172e-01
1.994345784187316895e-01 -4.772011563181877136e-02 -4.708521813154220581e-02
-1.426480263471603394e-01 -1.628782600164413452e-01 8.778378367424011230e-02
-6.946909241378307343e-03 -1.906873434782028198e-01 5.488565936684608459e-02
-3.526778891682624817e-02 1.557226777076721191e-01 2.495685825124382973e-03
1.037853583693504333e-02 -1.513663977384567261e-01 1.337679028511047363e-01
5.374279618263244629e-02 1.455405801534652710e-01 1.029361858963966370e-01
-9.708127379417419434e-02 1.337345391511917114e-01 7.613800466060638428e-02
-1.539560686796903610e-02 1.738982647657394409e-02 2.293416261672973633e-01
-1.010760143399238586e-01 -5.221361666917800903e-02 -2.195777148008346558e-01
3.883522003889083862e-02 -1.367948502302169800e-01 -1.850150525569915771e-01
-1.654771268367767334e-01 -7.548645883798599243e-02 1.637904495000839233e-01
-1.835100054740905762e-01 -1.476337611675262451e-01 -1.024587675929069519e-01
-1.529960334300994873e-01 6.845858693122863770e-02 -1.145744621753692627e-01
1.982478201389312744e-01 5.798439309000968933e-02 2.867883816361427307e-02
-1.742203831672668457e-01 9.242047369480133057e-02 1.246813219040632248e-02
-6.750091910362243652e-02 4.087627306580543518e-02 -2.002733945846557617e-01
-2.419411540031433105e-01 -1.065381988883018494e-02 4.921949468553066254e-03
-2.053220868110656738e-01 -1.430752873420715332e-01 2.392916567623615265e-02
-8.129631727933883667e-02 -1.568457335233688354e-01 1.310924738645553589e-01
1.746362447738647461e-01 -9.831720590591430664e-02 -3.470955044031143188e-02
-1.648190319538116455e-01 -9.314057230949401855e-02 1.539172977209091187e-01
-1.047871634364128113e-02 -2.025148272514343262e-01 -5.293606966733932495e-02
-1.463278830051422119e-01 8.203750848770141602e-02 -1.008753478527069092e-01
6.061360239982604980e-02 -5.356366932392120361e-02 -2.209926843643188477e-01
1.699391901493072510e-01 -3.517130017280578613e-02 -1.342966407537460327e-01
1.604157090187072754e-01 2.277860417962074280e-02 1.413040310144424438e-01
1.290650069713592529e-01 1.329852342605590820e-01 1.027983520179986954e-02
1.023239269852638245e-02 -4.872099310159683228e-02 -2.343045920133590698e-01
1.935642361640930176e-01 -6.384132802486419678e-02 1.663153804838657379e-02
-1.581411957740783691e-01 1.050510555505752563e-01 2.794929593801498413e-02
-2.243310213088989258e-01 2.491950988769531250e-02 5.272743850946426392e-02
-1.248678937554359436e-01 -1.892528533935546875e-01 3.022786602377891541e-02
3.290086612105369568e-02 1.289103627204895020e-01 -1.092167124152183533e-01
1.804226636886596680e-01 -5.936111509799957275e-02 -1.007159501314163208e-01
6.039375066757202148e-02 9.282393753528594971e-02 -1.571068018674850464e-01
1.818897724151611328e-01 -8.382607996463775635e-02 -5.370957776904106140e-02
-1.986105144023895264e-01 6.464228034019470215e-02 5.218858271837234497e-02
-1.874421536922454834e-01 5.114227533340454102e-04 1.509334146976470947e-01
-1.520420908927917480e-01 -1.467353571206331253e-02 -1.837579607963562012e-01
1.883066892623901367e-01 -7.294115424156188965e-02 2.042718790471553802e-02
3.370783478021621704e-02 -1.324841231107711792e-01 -1.915559768676757812e-01
-2.419660426676273346e-02 -4.829842969775199890e-02 -2.359349876642227173e-01
1.878584325313568115e-01 -7.869522273540496826e-02 -8.817331865429878235e-03
-1.354493796825408936e-01 1.110310554504394531e-01 -4.626370593905448914e-02
1.404165029525756836e-01 1.226344853639602661e-01 -2.374671213328838348e-02
-9.111284278333187103e-03 -1.983247548341751099e-01 -8.291015028953552246e-02
1.752803474664688110e-02 -1.468210518360137939e-01 -1.827137172222137451e-01
-2.327921092510223389e-01 1.453940942883491516e-02 2.372015640139579773e-02
2.239558845758438110e-02 6.479620933532714844e-02 2.116233259439468384e-01
4.148869961500167847e-02 1.155534386634826660e-01 1.648610681295394897e-01
4.732264578342437744e-02 -1.412353813648223877e-01 1.310592144727706909e-01
1.658046990633010864e-02 -2.431772463023662567e-02 2.251055091619491577e-01
-7.430780678987503052e-02 -1.987716108560562134e-01 3.140238672494888306e-02
-1.708761155605316162e-01 2.732507511973381042e-02 1.581087857484817505e-01
-5.740720406174659729e-02 -2.862403169274330139e-03 -2.249505370855331421e-01
8.608870953321456909e-02 -1.727063357830047607e-01 -2.256631478667259216e-02
-3.701479732990264893e-02 -1.420894563198089600e-01 1.554767042398452759e-01
-1.143195107579231262e-02 1.553360074758529663e-01 -2.632321044802665710e-02
7.876375690102577209e-03 -1.233260333538055420e-01 1.699039489030838013e-01
-1.879283785820007324e-01 3.870697692036628723e-02 1.270071864128112793e-01
-2.156902551651000977e-01 4.215222969651222229e-02 -2.390976436436176300e-02
-1.835455000400543213e-01 4.446486756205558777e-02 -1.052785068750381470e-01
1.379009485244750977e-01 -2.297148108482360840e-02 1.615422964096069336e-01
1.027400419116020203e-01 1.433555781841278076e-01 -1.139127369970083237e-02
-1.847549676895141602e-01 8.228307962417602539e-02 4.833480343222618103e-04
1.996802687644958496e-01 -4.616371169686317444e-02 2.550537511706352234e-02
-1.055095866322517395e-01 1.295685470104217529e-01 -3.331119194626808167e-02
-2.000782787799835205e-01 5.753692239522933960e-04 -1.235735267400741577e-01
-7.807457447052001953e-02 1.109245866537094116e-01 1.529459655284881592e-01
-1.256476044654846191e-01 -1.950187087059020996e-01 -3.077505901455879211e-02
-9.618152678012847900e-02 1.378371417522430420e-01 -4.869591444730758667e-03
1.159095093607902527e-01 -1.317437738180160522e-01 -1.237723976373672485e-01
-5.994820222258567810e-02 -3.844780847430229187e-02 -2.314841002225875854e-01
-9.925424121320247650e-03 -1.753676533699035645e-01 -1.495615243911743164e-01
2.294432744383811951e-02 4.602765664458274841e-02 -2.061630487442016602e-01
1.814714372158050537e-01 -6.001279130578041077e-02 7.097814977169036865e-02
6.346372514963150024e-02 -1.820248216390609741e-01 -2.584769390523433685e-03
2.294274419546127319e-02 7.681807875633239746e-02 -1.818858385086059570e-01
1.870166063308715820e-01 6.138226017355918884e-03 -1.060918420553207397e-01
-6.932379305362701416e-02 -4.046517610549926758e-02 2.210623770952224731e-01
-2.435296475887298584e-01 -7.596939057111740112e-02 1.023508608341217041e-02
-7.753013074398040771e-02 1.391744613647460938e-01 -3.886811435222625732e-02
-2.206866741180419922e-01 3.822846710681915283e-02 -1.307803555391728878e-03
1.113074459135532379e-02 1.596435159444808960e-01 -2.085695741698145866e-03
2.793267741799354553e-02 -1.223595440387725830e-01 -2.024186253547668457e-01
-1.096611917018890381e-01 3.666821122169494629e-02 -1.843714565038681030e-01
-4.935811832547187805e-02 -1.837359219789505005e-01 -1.373444944620132446e-01
1.979649066925048828e-01 2.425827831029891968e-02 7.019940763711929321e-02
1.747889816761016846e-01 -4.558499157428741455e-02 1.002720594406127930e-01
-2.478612400591373444e-02 -1.848993897438049316e-01 -1.331621259450912476e-01
5.720003694295883179e-02 1.164997071027755737e-01 1.583504378795623779e-01
4.455084353685379028e-02 1.575520336627960205e-01 5.310333147644996643e-02
-5.168363824486732483e-02 -1.770835220813751221e-01 -1.503173410892486572e-01
1.194742098450660706e-01 -3.312730789184570312e-02 1.746200323104858398e-01
3.063549846410751343e-02 -1.946953684091567993e-01 -3.388395905494689941e-02
1.880253851413726807e-01 -1.732228137552738190e-02 -1.052563115954399109e-01
3.926667571067810059e-02 1.084388792514801025e-01 -1.425523906946182251e-01
-2.137339413166046143e-01 -1.990504935383796692e-02 -1.133338809013366699e-01
-1.337369531393051147e-01 -1.773520559072494507e-01 6.195741891860961914e-02
-5.656239017844200134e-02 -1.817981153726577759e-02 -2.292666584253311157e-01
-1.805787086486816406e-01 -1.616667807102203369e-01 3.358196467161178589e-02
1.738795042037963867e-01 7.230599224567413330e-02 9.181851148605346680e-02
-1.255785673856735229e-01 2.768325805664062500e-02 -1.808694750070571899e-01
1.824812293052673340e-01 4.541490599513053894e-02 9.822808951139450073e-02
-8.002083003520965576e-02 1.226317137479782104e-01 1.304741799831390381e-01
-8.125967346131801605e-03 -2.029545158147811890e-01 -3.803844004869461060e-02
1.250585913658142090e-01 7.799834012985229492e-02 1.542541980743408203e-01
-1.669949293136596680e-02 -6.265632808208465576e-02 -2.348442822694778442e-01
1.750647425651550293e-01 -8.654600381851196289e-02 4.261507838964462280e-02
-1.013699620962142944e-01 -1.176525652408599854e-01 1.709422469139099121e-01
-2.325539886951446533e-01 -4.768975079059600830e-02 -8.179333060979843140e-02
-2.008482627570629120e-02 -1.346108131110668182e-02 2.300818860530853271e-01
1.778946518898010254e-01 -5.854412540793418884e-02 8.141136914491653442e-02
2.023884952068328857e-01 1.830922812223434448e-02 5.710279196500778198e-02
-2.342134416103363037e-01 2.796128392219543457e-03 -3.501367568969726562e-02
1.647648513317108154e-01 -1.088277697563171387e-01 1.022291276603937149e-02
8.762428164482116699e-02 1.485115587711334229e-01 5.205038934946060181e-02
1.493030786514282227e-01 -1.056741476058959961e-01 -1.096103042364120483e-01
4.899044334888458252e-02 -1.445129364728927612e-01 -1.707280278205871582e-01
1.585379242897033691e-01 -1.065894812345504761e-01 4.526467993855476379e-02
1.770091056823730469e-01 -2.845644764602184296e-02 -1.243884488940238953e-01
-1.938266158103942871e-01 7.244963943958282471e-02 3.854922950267791748e-02
-4.971041157841682434e-02 -9.628771245479583740e-02 -2.245215028524398804e-01
1.876794993877410889e-01 -2.342001907527446747e-02 -1.048151552677154541e-01
-2.427294850349426270e-01 -2.630813606083393097e-02 3.567941859364509583e-02
-1.458160877227783203e-01 -4.449783265590667725e-02 1.889541447162628174e-01
-1.951020061969757080e-01 -1.161413043737411499e-01 -1.253870129585266113e-01
1.812854111194610596e-01 8.613681793212890625e-02 3.799215704202651978e-02
3.679664433002471924e-02 9.143899381160736084e-02 1.911802738904953003e-01
-2.139184176921844482e-01 -4.576639831066131592e-02 -1.211644262075424194e-01
-1.751011013984680176e-01 8.749224245548248291e-02 -2.466224879026412964e-02
1.030320897698402405e-01 -1.555891931056976318e-01 3.537569195032119751e-02
1.251924410462379456e-02 1.439466625452041626e-01 -7.533172518014907837e-02
5.348335951566696167e-02 -2.024140022695064545e-02 -2.241402864456176758e-01
-4.838296025991439819e-02 1.176189780235290527e-01 -1.191551834344863892e-01
-6.359214335680007935e-02 -1.070639789104461670e-01 1.888413727283477783e-01
-1.274517178535461426e-01 1.222650110721588135e-01 -1.259461697190999985e-02
1.511171758174896240e-01 1.032220870256423950e-01 8.841710537672042847e-02
5.416778475046157837e-02 -1.800228506326675415e-01 -9.012257307767868042e-02
-1.084728166460990906e-03 -8.296140469610691071e-03 -2.315298616886138916e-01
-4.247178882360458374e-02 1.072069257497787476e-01 -1.388927549123764038e-01
-1.462862789630889893e-01 1.268544420599937439e-02 1.867539137601852417e-01
8.033297955989837646e-02 2.024836838245391846e-03 2.071342915296554565e-01
-1.600928306579589844e-01 1.033425480127334595e-01 3.356089070439338684e-02
-4.161712899804115295e-02 9.773460030555725098e-02 -1.527159810066223145e-01
5.784472823143005371e-02 3.948286920785903931e-02 2.124994844198226929e-01
-1.845671832561492920e-01 7.748718559741973877e-02 6.383661925792694092e-02
4.754944145679473877e-02 -9.206770360469818115e-02 -2.141298204660415649e-01
-2.308197319507598877e-01 -9.766466915607452393e-02 4.564511030912399292e-02
-2.026774585247039795e-01 2.876110002398490906e-02 1.106515899300575256e-01
-2.591153606772422791e-02 1.449843794107437134e-01 -6.331406533718109131e-02
-1.830927133560180664e-01 5.116869136691093445e-02 1.212788149714469910e-01
8.409999310970306396e-02 1.281210929155349731e-01 1.246393173933029175e-01
6.844832003116607666e-02 1.118466258049011230e-01 1.594574451446533203e-01
-2.004789113998413086e-01 -7.498632371425628662e-02 -1.400165557861328125e-01
-1.566761434078216553e-01 -1.159313619136810303e-01 1.418258845806121826e-01
-7.210509479045867920e-02 -1.909841150045394897e-01 6.169448047876358032e-02
9.549111127853393555e-02 1.627407595515251160e-02 1.988466382026672363e-01
-1.393088400363922119e-01 1.140146106481552124e-01 -2.200723625719547272e-02
1.471742093563079834e-01 1.024497449398040771e-01 -7.302618771791458130e-02
-1.689029932022094727e-01 -1.150738298892974854e-01 1.320173442363739014e-01
4.632712900638580322e-02 1.562361419200897217e-01 6.182935833930969238e-02
-3.418274968862533569e-02 -8.509428799152374268e-02 2.059789597988128662e-01
1.582840979099273682e-01 1.007065474987030029e-01 -5.464921146631240845e-02
-1.103597432374954224e-01 9.717866778373718262e-02 -1.140826717019081116e-01
-1.073319092392921448e-01 2.635626494884490967e-02 -1.927349865436553955e-01
-1.881284117698669434e-01 -5.397171154618263245e-02 1.507385969161987305e-01
9.147550910711288452e-03 -1.989217847585678101e-01 -5.022949073463678360e-03
-5.721260234713554382e-02 -1.849142909049987793e-01 -1.340353786945343018e-01
-2.052124440670013428e-01 3.608563914895057678e-03 -1.129711642861366272e-01
-1.344236135482788086e-01 1.203696876764297485e-01 9.953035973012447357e-03
-2.446414530277252197e-01 -2.678520418703556061e-02 1.819525659084320068e-02
7.977909594774246216e-02 -1.686938107013702393e-01 3.423502668738365173e-02
-1.725285053253173828e-01 9.339040517807006836e-02 3.160404739901423454e-03
-8.530505746603012085e-02 -2.038059532642364502e-01 -3.370468318462371826e-02
1.535707414150238037e-01 -2.428455278277397156e-02 -1.581887304782867432e-01
-7.309608906507492065e-02 8.960463106632232666e-02 -1.509814709424972534e-01
-1.319843232631683350e-01 -1.640769839286804199e-01 -1.374472677707672119e-01
-1.740780286490917206e-02 4.318545386195182800e-02 -2.087832838296890259e-01
2.032406926155090332e-01 4.824940487742424011e-02 -5.846474785357713699e-03
2.016203403472900391e-01 -3.320290893316268921e-02 -5.691194161772727966e-02
-8.729369938373565674e-02 -1.920356042683124542e-02 2.197999805212020874e-01
-3.533980995416641235e-02 1.136265248060226440e-01 1.676708608865737915e-01
1.553255915641784668e-01 -1.208251267671585083e-01 -2.271651290357112885e-03
3.020481020212173462e-02 1.603269129991531372e-01 2.902644872665405273e-02
1.024828255176544189e-01 1.405985653400421143e-01 6.766323000192642212e-02
2.002765834331512451e-01 -8.730037137866020203e-03 -7.427597790956497192e-02
-5.456235632300376892e-02 -1.940526813268661499e-01 5.455363169312477112e-02
7.303010672330856323e-03 -2.687334455549716949e-02 -2.341361939907073975e-01
-1.068447679281234741e-01 1.344716250896453857e-01 1.049279887229204178e-02
-4.907464608550071716e-02 1.479769945144653320e-01 -3.425266966223716736e-02
1.109360083937644958e-01 1.397058367729187012e-01 5.176667496562004089e-02
1.337312757968902588e-01 -1.298931539058685303e-01 4.776823148131370544e-02
1.418977677822113037e-01 4.229208454489707947e-02 1.578211039304733276e-01
-1.791800856590270996e-01 5.122458562254905701e-02 1.275510489940643311e-01
4.862393438816070557e-02 1.209099441766738892e-01 1.553459465503692627e-01
1.832042634487152100e-02 1.190250217914581299e-01 -1.289268434047698975e-01
1.493192091584205627e-02 8.548271656036376953e-02 -1.738098561763763428e-01
3.232232481241226196e-02 -1.644237488508224487e-01 -1.509614139795303345e-01
1.431875228881835938e-01 -8.563357591629028320e-02 1.117122396826744080e-01
2.402086555957794189e-02 4.089990630745887756e-02 2.209383100271224976e-01
1.422433182597160339e-02 1.051654517650604248e-01 1.818023920059204102e-01
1.432170569896697998e-01 -7.699555903673171997e-02 -1.509640365839004517e-01
1.326905004680156708e-02 2.114009484648704529e-02 2.268560975790023804e-01
-2.043674886226654053e-01 6.031348928809165955e-02 -7.879156619310379028e-03
8.525444567203521729e-02 -1.583728045225143433e-01 -1.122252345085144043e-01
7.267457246780395508e-02 3.086396306753158569e-02 -2.022997885942459106e-01
-6.941907107830047607e-02 -3.258125856518745422e-03 -2.220588624477386475e-01
1.902735531330108643e-01 -1.281624194234609604e-02 -1.008014902472496033e-01
1.764275729656219482e-01 9.439124166965484619e-02 -4.072388168424367905e-03
7.882095873355865479e-02 1.135557889938354492e-01 -1.205934360623359680e-01
-1.603274941444396973e-01 -7.908967137336730957e-02 1.660447269678115845e-01
1.569686830043792725e-01 -1.619167253375053406e-02 -1.544414013624191284e-01
-2.970536984503269196e-02 1.524475514888763428e-01 -2.997668460011482239e-02
-2.259920835494995117e-01 -1.213755160570144653e-01 -3.727470058947801590e-03
-6.157021597027778625e-02 6.609141826629638672e-02 -1.818327754735946655e-01
2.017502188682556152e-01 -4.830284416675567627e-02 -3.687111195176839828e-03
-6.516219675540924072e-02 -7.616191171109676361e-03 -2.245808988809585571e-01
1.226814165711402893e-01 1.356818228960037231e-01 -1.327985199168324471e-03
-1.536247730255126953e-01 -7.643420249223709106e-02 -1.876470893621444702e-01
1.076849475502967834e-01 1.208163350820541382e-01 1.174136325716972351e-01
1.658495962619781494e-01 -1.098254472017288208e-01 -9.012775495648384094e-03
-7.361551374197006226e-02 1.100524365901947021e-01 -1.195025667548179626e-01
4.431912675499916077e-03 -1.239085942506790161e-01 -2.075016498565673828e-01
-1.689400151371955872e-02 1.131984591484069824e-01 -1.362023204565048218e-01
1.757980585098266602e-01 -9.090277552604675293e-02 -6.263057142496109009e-02
-1.335140764713287354e-01 1.110774725675582886e-01 9.091968834400177002e-02
6.863860785961151123e-02 -1.507511734962463379e-01 9.858188033103942871e-02
-1.202290952205657959e-01 1.281775385141372681e-01 3.285808488726615906e-02
-9.757100604474544525e-03 4.603924229741096497e-03 2.302977591753005981e-01
8.516157418489456177e-02 -1.416390836238861084e-01 9.937389940023422241e-02
1.920396685600280762e-01 -3.848840296268463135e-02 6.683147698640823364e-02
-2.409667707979679108e-03 3.721702843904495239e-02 2.249232530593872070e-01
-8.221553266048431396e-02 1.427622884511947632e-01 5.516644194722175598e-02
-1.732111871242523193e-01 9.175835549831390381e-02 -7.955209352076053619e-03
-2.062829434871673584e-01 3.090593218803405762e-02 1.007025018334388733e-01
3.424625098705291748e-02 -2.327802404761314392e-02 -2.295721471309661865e-01
-2.266881763935089111e-01 8.147997781634330750e-03 -5.804914608597755432e-02
6.868256628513336182e-02 1.209883987903594971e-01 -1.127971559762954712e-01
4.635538905858993530e-02 -7.285101711750030518e-02 -2.218981236219406128e-01
-1.671614050865173340e-01 8.076353371143341064e-02 -6.929554045200347900e-02
-1.259448528289794922e-01 5.524949356913566589e-02 -1.572884321212768555e-01
1.062924712896347046e-01 4.850268363952636719e-03 -1.954082399606704712e-01
5.908075720071792603e-02 -1.833327412605285645e-01 1.936066662892699242e-03
-1.955534815788269043e-01 -9.718517959117889404e-02 -1.382459998130798340e-01
-1.576399207115173340e-01 1.038209795951843262e-01 4.817488417029380798e-02
-2.302107214927673340e-01 -1.187533792108297348e-02 7.847210764884948730e-02
1.206315830349922180e-01 9.810686111450195312e-02 1.387079507112503052e-01
2.047268748283386230e-01 -3.503245115280151367e-02 1.374575775116682053e-02
1.730924472212791443e-02 -1.490539014339447021e-01 1.345945745706558228e-01
-1.885446906089782715e-01 4.174729809165000916e-02 -1.006252095103263855e-01
-2.186956703662872314e-01 -1.292847245931625366e-01 -4.366606101393699646e-02
-2.095099985599517822e-01 5.186414346098899841e-02 -1.939085870981216431e-02
1.689816638827323914e-02 -1.864109635353088379e-01 5.346414446830749512e-02
-6.856397539377212524e-02 1.427657455205917358e-01 -3.511053696274757385e-02
1.361443102359771729e-01 1.157862544059753418e-01 8.854420483112335205e-02
1.076932623982429504e-01 -5.810786038637161255e-02 -1.942188888788223267e-01
-1.561211049556732178e-01 5.366704240441322327e-02 1.549744009971618652e-01
1.264924108982086182e-01 -1.473129093647003174e-01 -2.551339194178581238e-02
-2.249038219451904297e-01 -5.147643387317657471e-04 8.575792610645294189e-02
-1.667457818984985352e-01 -1.680175065994262695e-01 4.259985312819480896e-02
1.751432418823242188e-01 -1.987683400511741638e-02 -1.289649605751037598e-01
9.820480644702911377e-02 -8.209039270877838135e-02 1.623456031084060669e-01
-3.514884784817695618e-02 -1.479228138923645020e-01 -1.905903965234756470e-01
1.131834611296653748e-01 -4.577838629484176636e-02 1.742000132799148560e-01
-5.316892638802528381e-02 1.420858353376388550e-01 -5.520627647638320923e-02
1.768207550048828125e-01 6.293490529060363770e-02 -8.499040454626083374e-02
1.295280456542968750e-01 -7.523790933191776276e-03 -1.811881661415100098e-01
-2.191823422908782959e-01 -9.345170855522155762e-02 -1.002578362822532654e-01
-8.541314303874969482e-02 -9.400320053100585938e-02 -2.178931832313537598e-01
-6.202451512217521667e-02 -1.848000288009643555e-01 8.096527308225631714e-02
-2.145421802997589111e-01 -7.828250527381896973e-02 1.041711643338203430e-01
9.267704933881759644e-02 1.477666795253753662e-01 -2.886309986934065819e-03
-2.460800409317016602e-01 -3.802735358476638794e-02 -1.214185450226068497e-02
1.369861066341400146e-01 -1.152289360761642456e-01 7.635764032602310181e-02
-1.870679557323455811e-01 7.175792753696441650e-02 7.432296872138977051e-02
-2.078042924404144287e-01 -1.106164157390594482e-01 8.602755516767501831e-02
-2.175371348857879639e-01 -2.784536033868789673e-02 1.124774292111396790e-01
-1.462785713374614716e-02 -3.694235160946846008e-02 -2.359447032213211060e-01
1.282207965850830078e-01 1.299357116222381592e-01 5.717653036117553711e-02
-1.325528621673583984e-01 -1.905838251113891602e-01 7.987125776708126068e-03
-2.195150852203369141e-01 -1.038185209035873413e-01 -9.060272574424743652e-02
-1.161962151527404785e-01 -1.695191413164138794e-01 -1.400775164365768433e-01
-7.471241056919097900e-02 -8.761696517467498779e-04 2.235044538974761963e-01
-2.450817227363586426e-01 -3.774350136518478394e-02 2.531177364289760590e-02
5.616869777441024780e-02 -3.260388970375061035e-02 -2.240409255027770996e-01
-2.026167809963226318e-01 -1.423055529594421387e-01 -6.951294839382171631e-02
-2.635231055319309235e-02 -1.467749029397964478e-01 -1.914971023797988892e-01
8.572655171155929565e-02 1.042138338088989258e-01 -1.312043219804763794e-01
5.687867105007171631e-02 -1.728674173355102539e-01 5.639949813485145569e-02
-1.219308227300643921e-01 -1.537242978811264038e-01 -1.594911962747573853e-01
-7.244166731834411621e-02 -1.974042803049087524e-01 3.831680864095687866e-02
-7.876592874526977539e-02 5.312651023268699646e-02 2.071846425533294678e-01
2.152559906244277954e-02 1.387990415096282959e-01 -8.873152732849121094e-02
-2.436753809452056885e-01 -7.783254235982894897e-02 -7.443753071129322052e-03
-1.759035289287567139e-01 -1.200199574232101440e-01 -1.471285670995712280e-01
-9.595957398414611816e-02 1.156136095523834229e-01 -9.074350446462631226e-02
-1.281538307666778564e-01 1.230753809213638306e-01 4.597090929746627808e-02
1.898899674415588379e-01 -5.408222228288650513e-02 5.458442866802215576e-02
6.618238240480422974e-02 1.529027074575424194e-01 -1.762308366596698761e-02
1.865736544132232666e-01 7.069025933742523193e-02 5.884736776351928711e-02
-1.667018532752990723e-01 4.238409921526908875e-02 1.525966674089431763e-01
1.436099708080291748e-01 9.187164902687072754e-02 1.194286420941352844e-01
3.678422048687934875e-02 -4.798077791929244995e-02 -2.293030172586441040e-01
-2.301625013351440430e-01 2.135097607970237732e-02 1.421442534774541855e-02
-9.820989519357681274e-02 -1.973598897457122803e-01 -7.662791013717651367e-02
1.910408437252044678e-01 2.152502164244651794e-02 -9.169770777225494385e-02
-1.146731376647949219e-01 -8.672262728214263916e-02 1.885996609926223755e-01
-1.119440197944641113e-01 -1.615140140056610107e-01 -1.551868319511413574e-01
3.867191448807716370e-02 -1.660245358943939209e-01 -1.439041048288345337e-01
7.418468594551086426e-02 1.230426132678985596e-01 -1.061461642384529114e-01
4.786844551563262939e-02 1.840069890022277832e-03 2.202131003141403198e-01
-2.456352673470973969e-02 -1.421017050743103027e-01 -1.960058659315109253e-01
1.480075418949127197e-01 -4.762300103902816772e-02 1.389378756284713745e-01
-1.903763413429260254e-01 6.368586421012878418e-02 -5.639781430363655090e-02
-9.757494181394577026e-02 -1.936615258455276489e-01 -9.362640976905822754e-02
-1.504291892051696777e-01 -1.596976667642593384e-01 8.653756231069564819e-02
-1.807842776179313660e-02 3.406457602977752686e-02 -2.142844498157501221e-01
8.120919018983840942e-02 -1.474709957838058472e-01 9.224121272563934326e-02
-1.516010612249374390e-03 1.283608227968215942e-01 -1.114822477102279663e-01
1.221261844038963318e-01 1.331673562526702881e-01 -2.319301106035709381e-02
1.858175098896026611e-01 4.645150527358055115e-02 9.020512551069259644e-02
-1.262494772672653198e-01 -1.061224937438964844e-01 -1.955541372299194336e-01
-2.012672722339630127e-01 -8.299811743199825287e-03 -1.274786144495010376e-01
-1.807041466236114502e-01 -1.302554085850715637e-02 1.615887135267257690e-01
1.159116253256797791e-01 -1.492308825254440308e-01 -7.702007144689559937e-02
-6.702331453561782837e-02 -1.987169981002807617e-01 3.421982750296592712e-02
4.675180464982986450e-02 1.171268373727798462e-01 1.612393856048583984e-01
-1.018841341137886047e-01 -1.830225586891174316e-01 -1.220627650618553162e-01
-2.055296301841735840e-01 4.439244791865348816e-02 -5.862488597631454468e-02
-1.809151768684387207e-01 -1.128999441862106323e-01 1.218262463808059692e-01
-1.088956743478775024e-01 -5.255308747291564941e-02 2.060515880584716797e-01
-1.387774944305419922e-01 1.106634736061096191e-01 -3.980120643973350525e-02
1.961785852909088135e-01 1.047582924365997314e-02 -8.377525210380554199e-02
-1.253323853015899658e-01 -1.759436875581741333e-01 -1.205108240246772766e-01
-7.170519977807998657e-02 2.975639700889587402e-02 2.190332859754562378e-01
-1.592468619346618652e-01 9.059126675128936768e-02 -6.026620790362358093e-02
1.735239624977111816e-01 4.419698938727378845e-02 1.156800389289855957e-01
-1.733804345130920410e-01 -1.274749189615249634e-01 -1.433910131454467773e-01
9.725147485733032227e-02 -1.340150535106658936e-01 -1.446775496006011963e-01
1.814424097537994385e-01 -3.136669844388961792e-02 9.760117530822753906e-02
-1.730865240097045898e-01 -1.734559237957000732e-01 -3.093062713742256165e-02
1.239981874823570251e-01 -1.432981044054031372e-01 2.719010412693023682e-02
-5.180253833532333374e-02 8.573544025421142578e-02 1.935112625360488892e-01
-1.821187734603881836e-01 1.407826691865921021e-02 1.520619392395019531e-01
-4.597466439008712769e-02 1.454354971647262573e-01 -4.862901568412780762e-02
-1.198555529117584229e-01 3.463797271251678467e-02 -1.796416193246841431e-01
-1.692370474338531494e-01 9.434296190738677979e-02 -1.323732174932956696e-02
-1.837286725640296936e-02 1.580643951892852783e-01 1.404899405315518379e-03
1.896037459373474121e-01 -3.496409207582473755e-02 7.664934545755386353e-02
2.813056111335754395e-03 7.857383787631988525e-02 2.053390592336654663e-01
1.355332136154174805e-01 1.225975453853607178e-01 -3.815228119492530823e-02
-1.833190917968750000e-01 8.274908363819122314e-02 4.264305531978607178e-02
2.074125409126281738e-01 -2.645799517631530762e-02 6.272215396165847778e-03
-2.301649153232574463e-01 2.139094099402427673e-02 4.968059249222278595e-03
-5.190530046820640564e-02 1.462686210870742798e-01 -3.935779258608818054e-02
-1.519075036048889160e-01 -1.518120169639587402e-01 9.969179332256317139e-02
1.289295554161071777e-01 1.178539097309112549e-01 -6.598810106515884399e-02
-4.115778207778930664e-02 -2.058883160352706909e-01 -2.190736122429370880e-02
-1.949363946914672852e-01 -1.338462829589843750e-01 -1.048710644245147705e-01
-1.703170239925384521e-01 -1.714107543230056763e-01 -6.290251016616821289e-02
-4.392992705106735229e-02 1.408379673957824707e-01 1.118664145469665527e-01
1.912007033824920654e-01 -5.642547085881233215e-02 4.616043716669082642e-02
-1.857765913009643555e-01 -3.057795390486717224e-02 1.570032685995101929e-01
3.913694992661476135e-02 1.493530571460723877e-01 9.777590632438659668e-02
-5.164582282304763794e-02 -3.328365460038185120e-02 -2.325836420059204102e-01
-1.605461835861206055e-01 3.682916983962059021e-02 -1.438099890947341919e-01
1.025068089365959167e-01 1.367705464363098145e-01 -4.625760763883590698e-02
-2.044607102870941162e-01 5.900857225060462952e-02 -1.573849841952323914e-02
5.027938634157180786e-03 1.027132570743560791e-02 -2.255963981151580811e-01
-3.867403417825698853e-02 -1.438777297735214233e-01 -1.945918798446655273e-01
1.151401922106742859e-01 -7.851647213101387024e-03 -1.922208964824676514e-01
2.090981900691986084e-01 2.045211195945739746e-02 -1.971497386693954468e-02
1.480835676193237305e-01 1.195172667503356934e-01 -9.913471527397632599e-03
7.965797930955886841e-02 1.351950615644454956e-01 1.128035038709640503e-01
4.023817181587219238e-02 6.737698614597320557e-02 2.066773325204849243e-01
-1.875447034835815430e-01 -1.585295200347900391e-01 2.549356408417224884e-02
1.785214617848396301e-02 7.263198494911193848e-04 -2.276071757078170776e-01
5.113516747951507568e-02 -1.796701550483703613e-01 -9.625273942947387695e-02
-1.486711800098419189e-01 -1.815003305673599243e-01 -7.235293835401535034e-02
1.066127717494964600e-01 -1.325621455907821655e-01 -1.355917006731033325e-01
1.114650741219520569e-01 9.123522043228149414e-02 1.544422954320907593e-01
4.372150450944900513e-02 1.520599275827407837e-01 -4.100881516933441162e-02
-5.019466578960418701e-02 1.226059496402740479e-01 1.487874686717987061e-01
3.640983626246452332e-02 -8.277607709169387817e-02 -2.218221276998519897e-01
-1.182617843151092529e-01 -1.143190413713455200e-01 1.670411527156829834e-01
6.975437700748443604e-02 -3.426328673958778381e-02 -2.189018577337265015e-01
-2.404812276363372803e-01 -1.325516682118177414e-02 -2.742433734238147736e-02
1.835681870579719543e-02 1.514787524938583374e-01 -5.004525184631347656e-02
6.429681926965713501e-02 -1.696866750717163086e-01 5.674568936228752136e-02
-7.407301664352416992e-02 1.356965899467468262e-01 -5.714197084307670593e-02
-1.847447156906127930e-01 6.732110679149627686e-02 -6.214319542050361633e-02
-7.453526556491851807e-02 -1.615381091833114624e-01 -1.702424883842468262e-01
-1.550117731094360352e-01 -1.041273176670074463e-01 1.535151153802871704e-01
5.068415403366088867e-02 1.193407028913497925e-01 -1.226382404565811157e-01
3.693476319313049316e-02 1.301481127738952637e-01 1.441132575273513794e-01
-2.332818210124969482e-01 1.322809606790542603e-02 -8.739901706576347351e-03
4.856031388044357300e-03 1.133401691913604736e-01 -1.382443755865097046e-01
-2.379301786422729492e-01 -6.752215325832366943e-02 -6.267504394054412842e-02
1.947689950466156006e-01 -6.567053496837615967e-02 -1.382063422352075577e-02
1.275959908962249756e-01 2.858444675803184509e-02 1.746674478054046631e-01
5.455692857503890991e-02 -1.785229742527008057e-01 3.918070718646049500e-02
-1.614624261856079102e-01 -1.761367470026016235e-01 2.084893733263015747e-02
1.339570879936218262e-01 -6.712131202220916748e-02 -1.676645576953887939e-01
-2.078489959239959717e-01 -1.209195107221603394e-01 7.113882899284362793e-02
-4.575063474476337433e-03 -1.863396018743515015e-01 6.756877899169921875e-02
5.296463519334793091e-02 -1.677943170070648193e-01 -1.284584403038024902e-01
1.168017834424972534e-02 -1.077972166240215302e-02 -2.311830073595046997e-01
7.312012836337089539e-03 -1.957172006368637085e-01 -8.160146325826644897e-02
2.904153987765312195e-02 2.571864053606987000e-02 -2.165771573781967163e-01
-1.129894033074378967e-01 9.640967845916748047e-02 1.481782644987106323e-01
-1.295734792947769165e-01 -5.838344618678092957e-02 1.946295648813247681e-01
5.487192422151565552e-02 -1.728036850690841675e-01 -1.137228533625602722e-01
-8.113018423318862915e-02 -1.263720542192459106e-01 -2.024776190519332886e-01
-1.650175154209136963e-01 1.166831701993942261e-02 1.712640076875686646e-01
-2.901850640773773193e-02 -1.923537701368331909e-01 -1.142773479223251343e-01
-1.095492392778396606e-02 2.476378530263900757e-02 2.281091511249542236e-01
-1.745311617851257324e-01 -1.242906600236892700e-01 1.162437424063682556e-01
-3.773701190948486328e-02 1.332005262374877930e-01 -9.108587354421615601e-02
-1.532901823520660400e-01 2.930106595158576965e-03 1.838550567626953125e-01
2.033678889274597168e-01 3.326344490051269531e-02 -4.316167905926704407e-02
1.335455477237701416e-01 -1.136780679225921631e-01 -1.258775740861892700e-01
1.331537961959838867e-01 -1.419825404882431030e-01 -3.139413893222808838e-02
-1.940726637840270996e-01 7.293552160263061523e-02 3.119418025016784668e-02
4.373010247945785522e-03 1.233850866556167603e-01 1.591153740882873535e-01
1.056128591299057007e-01 -1.615765243768692017e-01 -3.353735804557800293e-02
1.927656531333923340e-01 6.073764339089393616e-02 5.338502675294876099e-02
1.479729712009429932e-01 -9.487938880920410156e-02 -1.273810863494873047e-01
1.710170507431030273e-01 3.944455832242965698e-02 1.219141036272048950e-01
-2.440644204616546631e-01 -6.600929796695709229e-02 2.342276647686958313e-02
-1.069629006087779999e-02 -6.024542078375816345e-02 -2.349982857704162598e-01
1.048376634716987610e-01 4.408657923340797424e-02 -1.791075617074966431e-01
-4.868716001510620117e-02 -2.026630938053131104e-01 -7.421311736106872559e-02
-4.193297773599624634e-02 -4.854654893279075623e-02 2.224265635013580322e-01
-1.594856679439544678e-01 -6.989406794309616089e-02 -1.841427534818649292e-01
-8.649218827486038208e-02 -1.323954313993453979e-01 -1.964638829231262207e-01
3.410809487104415894e-02 1.169864982366561890e-01 -1.304779648780822754e-01
1.190032884478569031e-01 -1.484392881393432617e-01 -7.022079825401306152e-02
1.529424488544464111e-01 3.393756225705146790e-03 1.508970707654953003e-01
7.477515190839767456e-02 2.769568935036659241e-02 2.082617431879043579e-01
-7.442584633827209473e-02 -1.148190498352050781e-01 1.806904971599578857e-01
7.688128203153610229e-02 -8.254417777061462402e-02 -2.048537880182266235e-01
9.998457133769989014e-02 1.043293029069900513e-01 -1.219645217061042786e-01
1.888293623924255371e-01 7.256798446178436279e-02 -3.097099997103214264e-02
5.883704125881195068e-02 2.526795491576194763e-02 2.151024192571640015e-01
3.777239099144935608e-02 1.597855091094970703e-01 1.890428923070430756e-02
-2.455041110515594482e-01 -3.000975772738456726e-02 9.284605272114276886e-03
8.310081809759140015e-02 1.153472512960433960e-01 1.466252356767654419e-01
9.617144241929054260e-03 -1.816098093986511230e-01 7.340274751186370850e-02
-2.262592315673828125e-02 6.662921607494354248e-02 -1.904765367507934570e-01
-2.752859704196453094e-02 -2.048705071210861206e-01 -1.531569380313158035e-02
-1.804018318653106689e-01 -1.434517800807952881e-01 8.046350628137588501e-02
-2.052952945232391357e-01 4.944630339741706848e-02 7.261526584625244141e-02
6.231010705232620239e-02 -1.585245132446289062e-01 -1.390347182750701904e-01
-4.230900667607784271e-03 1.601641923189163208e-01 3.155248239636421204e-02
-7.865070551633834839e-02 1.434697359800338745e-01 -1.162027008831501007e-02
1.016824468970298767e-01 3.800442069768905640e-02 -1.845752000808715820e-01
6.528827548027038574e-02 1.512291282415390015e-01 7.216951251029968262e-02
-1.022668257355690002e-01 3.777938336133956909e-02 -1.876499652862548828e-01
-8.482900261878967285e-02 5.527583882212638855e-02 -1.822744905948638916e-01
1.012941896915435791e-01 1.209435015916824341e-01 1.235621422529220581e-01
-1.582529246807098389e-01 -1.154070440679788589e-02 1.821386367082595825e-01
-3.676296770572662354e-02 1.560664027929306030e-01 1.306593138724565506e-02
9.344517439603805542e-02 -1.204911917448043823e-01 -1.657364964485168457e-01
1.487996876239776611e-01 1.203491389751434326e-01 6.955183111131191254e-03
-1.072001829743385315e-01 -1.039238460361957550e-02 -2.102067768573760986e-01
-3.058474510908126831e-03 1.441007703542709351e-01 -7.341347634792327881e-02
-1.634469032287597656e-01 6.339174509048461914e-02 -1.083792820572853088e-01
-5.478353425860404968e-02 -1.115548014640808105e-01 1.861736774444580078e-01
8.646160364151000977e-03 3.566864877939224243e-02 -2.136163711547851562e-01
-1.984233260154724121e-01 -8.675695955753326416e-02 -1.391645520925521851e-01
-2.310974597930908203e-01 -7.584539242088794708e-03 7.273885607719421387e-02
-2.052252888679504395e-01 -9.302927553653717041e-02 -1.262664049863815308e-01
-1.929245293140411377e-01 6.976382434368133545e-02 -2.769588306546211243e-02
-4.128217324614524841e-02 -3.838138282299041748e-02 -2.344849556684494019e-01
-2.594624273478984833e-02 2.843752503395080566e-02 -2.166972011327743530e-01
1.328089237213134766e-01 1.212049871683120728e-01 -4.927970096468925476e-02
-8.500703424215316772e-02 1.085146516561508179e-01 1.521352529525756836e-01
-4.835221171379089355e-02 1.535500437021255493e-01 8.436100557446479797e-03
-9.353803098201751709e-02 1.384922266006469727e-01 5.550711229443550110e-02
-8.928264677524566650e-02 1.419536173343658447e-01 2.204092592000961304e-02
-2.136646509170532227e-01 -1.234309673309326172e-01 -7.905130833387374878e-02
1.186507418751716614e-01 -1.196271628141403198e-01 -1.392186284065246582e-01
-1.115354821085929871e-01 -1.842306554317474365e-01 -1.121438443660736084e-01
7.415840029716491699e-02 -1.718989908695220947e-01 3.197610378265380859e-02
-9.539959579706192017e-02 1.049937754869461060e-01 -1.130537837743759155e-01
1.735478639602661133e-01 9.799027442932128906e-02 2.120729163289070129e-02
2.043349444866180420e-01 -2.412563562393188477e-02 3.501952812075614929e-02
-5.035759508609771729e-02 -1.934023499488830566e-01 -1.126680597662925720e-01
-2.050506174564361572e-01 5.045500770211219788e-02 -4.530825838446617126e-02
-1.478498280048370361e-01 6.535319983959197998e-02 1.525386422872543335e-01
1.119151152670383453e-02 1.359799206256866455e-01 -9.585481137037277222e-02
-1.994295120239257812e-01 -1.463224142789840698e-01 3.360523656010627747e-02
-2.037920951843261719e-01 6.210871413350105286e-02 3.492985153570771217e-03
2.079707980155944824e-01 2.849317342042922974e-02 1.602948643267154694e-02
-8.614078164100646973e-02 1.168624311685562134e-01 1.370595246553421021e-01
1.326571106910705566e-01 -7.343119382858276367e-02 1.374577134847640991e-01
-2.406916916370391846e-01 -8.281636238098144531e-02 2.202164568006992340e-02
-1.961629390716552734e-01 2.012562006711959839e-02 1.293314695358276367e-01
-4.847396537661552429e-02 1.527395099401473999e-01 5.145378783345222473e-02
4.170054197311401367e-02 1.076136380434036255e-01 1.743352115154266357e-01
-8.967631310224533081e-02 1.367073059082031250e-01 -2.998276427388191223e-02
5.151516199111938477e-02 -1.879308968782424927e-01 -2.703891508281230927e-02
-7.845744490623474121e-02 2.866386622190475464e-02 -2.043323814868927002e-01
-1.918323710560798645e-02 -2.030429393053054810e-01 -1.183745102025568485e-03
8.137823641300201416e-02 -2.807649597525596619e-02 2.016825228929519653e-01
-1.692858040332794189e-01 4.830812290310859680e-02 -1.210797950625419617e-01
3.310652822256088257e-02 1.564649194478988647e-01 6.925082206726074219e-02
1.627238392829895020e-01 -1.093831658363342285e-01 -5.999024584889411926e-02
-2.408639788627624512e-01 -7.772153243422508240e-03 -7.255050353705883026e-03
-8.564808405935764313e-03 1.943327486515045166e-02 -2.221336364746093750e-01
1.068598628044128418e-01 1.384174376726150513e-01 -3.182762116193771362e-02
-2.376061119139194489e-02 -9.798550605773925781e-02 1.971042454242706299e-01
-1.620357632637023926e-01 8.739878237247467041e-02 9.792374074459075928e-02
-2.325819805264472961e-02 1.253668963909149170e-01 -1.133569180965423584e-01
1.122517809271812439e-01 -1.336808204650878906e-01 8.028218895196914673e-02
1.959489881992340088e-01 5.029416456818580627e-02 -5.056374147534370422e-02
-1.534919142723083496e-01 4.329268261790275574e-02 -1.448342949151992798e-01
-2.215304076671600342e-01 1.363911479711532593e-02 -6.649716198444366455e-02
5.912252515554428101e-02 9.752802550792694092e-02 -1.518377512693405151e-01
-2.284450829029083252e-01 -4.290858656167984009e-02 -9.152632951736450195e-02
7.150501757860183716e-02 -9.523090720176696777e-02 1.694739311933517456e-01
1.673820614814758301e-01 1.035009473562240601e-01 3.252721205353736877e-02
6.899049878120422363e-02 1.425044536590576172e-01 -6.146092340350151062e-02
1.471394598484039307e-01 1.021180152893066406e-01 9.815614670515060425e-02
1.456718146800994873e-01 -4.407140240073204041e-02 1.438429355621337891e-01
-1.323973536491394043e-01 -1.901105642318725586e-01 -6.261198967695236206e-02
-1.241447404026985168e-01 1.222234368324279785e-01 6.794933974742889404e-02
-1.077045351266860962e-01 -1.800225675106048584e-01 -1.251901686191558838e-01
-6.623438000679016113e-02 -1.607356071472167969e-01 -1.731240153312683105e-01
5.102489888668060303e-02 1.500728428363800049e-01 -4.563035070896148682e-02
1.792819052934646606e-02 -3.896099328994750977e-02 2.212722152471542358e-01
1.378142237663269043e-01 -9.164625406265258789e-02 1.119871214032173157e-01
1.213656440377235413e-01 -2.073131501674652100e-02 1.771378219127655029e-01
-5.015243776142597198e-03 -1.573835015296936035e-01 -1.763192862272262573e-01
1.393725350499153137e-02 -1.583492457866668701e-01 1.211087554693222046e-01
2.105107605457305908e-01 7.239131256937980652e-03 7.992583326995372772e-03
4.422957822680473328e-02 -8.604851365089416504e-02 -2.180079221725463867e-01
-1.260126829147338867e-01 1.175438016653060913e-01 -4.186880588531494141e-02
-1.762039959430694580e-01 1.627039909362792969e-02 -1.439650505781173706e-01
-9.434001892805099487e-02 4.052330181002616882e-02 -1.896545141935348511e-01
1.446669399738311768e-01 7.223635911941528320e-02 -1.227878257632255554e-01
1.847498118877410889e-01 3.322087228298187256e-03 -1.111502647399902344e-01
-2.310610711574554443e-01 -8.138807490468025208e-03 -6.408688426017761230e-02
2.052636742591857910e-01 3.188685700297355652e-02 3.456603363156318665e-02
-5.760921910405158997e-02 -1.978378295898437500e-01 3.991295397281646729e-02
-4.449848458170890808e-02 -1.603121161460876465e-01 1.301798224449157715e-01
-4.032244160771369934e-02 1.461338698863983154e-01 -5.042133107781410217e-02
2.021465897560119629e-01 -1.080984529107809067e-02 -6.747122853994369507e-02
5.266426503658294678e-02 -1.844198256731033325e-01 -7.056684792041778564e-02
1.271085143089294434e-01 -1.330315768718719482e-01 5.446793138980865479e-02
-2.421518266201019287e-01 -3.726445138454437256e-02 4.482330009341239929e-02
-6.133181229233741760e-02 3.333616629242897034e-02 2.206496149301528931e-01
-8.196423947811126709e-02 -2.020642012357711792e-01 6.847078911960124969e-03
-2.466174364089965820e-01 -5.518122017383575439e-02 -3.555101808160543442e-03
5.205331370234489441e-03 -1.870837360620498657e-01 -1.163258478045463562e-01
1.627782285213470459e-01 -1.071849018335342407e-01 2.812175080180168152e-02
-2.451905310153961182e-01 -2.788643538951873779e-02 -6.654351949691772461e-03
1.340693831443786621e-01 -1.366496235132217407e-01 2.140797860920429230e-02
1.618511676788330078e-01 1.085431724786758423e-01 -9.652997367084026337e-03
-4.016348347067832947e-02 -2.031172364950180054e-01 -7.038088887929916382e-02
-7.512275129556655884e-03 -8.890262246131896973e-02 -2.279709428548812866e-01
1.078230515122413635e-01 -5.780118703842163086e-02 1.719412058591842651e-01
-1.454775333404541016e-01 2.363375201821327209e-02 1.835319548845291138e-01
-2.109173834323883057e-01 -1.400785893201828003e-01 8.643904700875282288e-03
8.371131867170333862e-02 -1.244879066944122314e-01 1.284049749374389648e-01
1.930718421936035156e-01 -6.174793466925621033e-02 2.627916447818279266e-02
-3.633879870176315308e-02 -1.351773440837860107e-01 -2.024101018905639648e-01
-1.053255870938301086e-01 -6.781257688999176025e-02 2.018690556287765503e-01
-1.847589313983917236e-01 1.221796497702598572e-03 -1.441232264041900635e-01
-9.726427495479583740e-02 1.380177587270736694e-01 2.035783370956778526e-03
1.310176551342010498e-01 3.054409474134445190e-02 -1.679220348596572876e-01
-1.987776458263397217e-01 -1.526413708925247192e-01 6.432503461837768555e-03
8.217165619134902954e-02 1.248461604118347168e-01 -9.777618199586868286e-02
