-3.868075832724571228e-02 4.883517920970916748e-01 -4.078943654894828796e-02
-6.601711362600326538e-02 3.624487519264221191e-01 1.979273185133934021e-02
-9.056732803583145142e-02 3.887656033039093018e-01 -4.127544909715652466e-02
-1.091356649994850159e-01 4.640573859214782715e-01 -2.983530610799789429e-02
6.145623326301574707e-02 4.842126071453094482e-01 3.970829024910926819e-02
-1.057450845837593079e-01 4.117719233036041260e-01 -3.736285120248794556e-02
5.913820117712020874e-02 4.486605226993560791e-01 -5.856527015566825867e-03
-4.381170868873596191e-02 5.041867494583129883e-01 5.889450013637542725e-02
-6.524347513914108276e-02 4.246194660663604736e-01 -5.413060262799263000e-02
1.615403033792972565e-02 3.825364708900451660e-01 4.935450479388237000e-02
-3.591656684875488281e-03 4.235338568687438965e-01 6.647164374589920044e-02
-5.903496593236923218e-02 3.765004873275756836e-01 3.513726964592933655e-02
-2.938904613256454468e-02 4.048338532447814941e-01 5.812122672796249390e-02
-9.500557184219360352e-02 4.431512057781219482e-01 -4.470854997634887695e-02
-2.640634588897228241e-02 4.218944609165191650e-01 -5.303227901458740234e-02
-6.235536187887191772e-02 5.003228783607482910e-01 -3.422989696264266968e-02
3.841227293014526367e-02 5.141775012016296387e-01 1.072191447019577026e-02
3.456886857748031616e-02 3.778024613857269287e-01 3.935280442237854004e-02
-4.858299344778060913e-02 5.165255069732666016e-01 5.218607187271118164e-02
4.529343545436859131e-02 5.076361894607543945e-01 4.443395882844924927e-02
5.451324582099914551e-02 3.825677633285522461e-01 1.495491713285446167e-02
-7.418268173933029175e-02 5.303016304969787598e-01 4.047458525747060776e-03
-3.071209602057933807e-02 3.797945380210876465e-01 -4.832426831126213074e-02
2.520254068076610565e-02 3.587014675140380859e-01 -1.175318192690610886e-02
6.070904433727264404e-03 5.389251708984375000e-01 1.694273203611373901e-02
-5.273512005805969238e-02 4.019082188606262207e-01 5.042694509029388428e-02
4.635950550436973572e-03 4.379703402519226074e-01 -4.390427470207214355e-02
6.936037912964820862e-03 5.279489755630493164e-01 5.131443217396736145e-02
-3.220981359481811523e-02 5.397682785987854004e-01 2.190899103879928589e-04
6.034184992313385010e-02 4.104045629501342773e-01 -2.923442982137203217e-03
6.433770060539245605e-02 4.046844542026519775e-01 9.975681081414222717e-03
5.819232016801834106e-02 3.909430801868438721e-01 2.466954290866851807e-02
-1.038725972175598145e-01 4.494484066963195801e-01 -3.853181749582290649e-02
-1.264518126845359802e-03 4.142396450042724609e-01 6.409080326557159424e-02
6.677658110857009888e-02 4.750528335571289062e-01 2.849964797496795654e-02
9.171402081847190857e-03 3.891882896423339844e-01 -3.953144326806068420e-02
2.559563145041465759e-03 4.584745764732360840e-01 7.113902270793914795e-02
3.718511760234832764e-02 3.645303547382354736e-01 -1.966209150850772858e-03
3.276111185550689697e-02 4.232321679592132568e-01 -3.093464300036430359e-02
1.865024305880069733e-02 4.557878673076629639e-01 6.982961297035217285e-02
2.274926565587520599e-02 4.956457018852233887e-01 -1.844465360045433044e-02
-1.069650426506996155e-01 4.003023803234100342e-01 9.506369940936565399e-03
-3.988476842641830444e-02 5.435267686843872070e-01 2.586118504405021667e-02
-3.431546688079833984e-02 4.142104983329772949e-01 -5.404358357191085815e-02
-1.048227548599243164e-01 3.978804349899291992e-01 -3.335287421941757202e-02
1.413716562092304230e-02 3.610830605030059814e-01 3.313414752483367920e-02
5.218510329723358154e-02 4.688911736011505127e-01 5.717464908957481384e-02
2.291911654174327850e-02 4.806470274925231934e-01 -2.542571723461151123e-02
-4.148548096418380737e-02 3.792096674442291260e-01 -4.901982471346855164e-02
3.227800875902175903e-02 4.872189164161682129e-01 6.398186832666397095e-02
-1.023889631032943726e-01 3.853592872619628906e-01 2.653033006936311722e-03
3.263238817453384399e-03 3.936044871807098389e-01 -4.293512925505638123e-02
-6.470546871423721313e-02 3.520731925964355469e-01 -2.730460092425346375e-02
2.287374250590801239e-02 5.320312976837158203e-01 2.613133192062377930e-02
-5.380256101489067078e-02 3.570605814456939697e-01 2.174937352538108826e-02
-4.562665522098541260e-02 3.680203258991241455e-01 -4.466236382722854614e-02
2.574859745800495148e-02 4.779268503189086914e-01 6.762294471263885498e-02
-5.415013432502746582e-02 3.429640233516693115e-01 -1.191054936498403549e-02
-3.846082091331481934e-02 3.785223364830017090e-01 4.411280900239944458e-02
-7.892646640539169312e-02 4.112460017204284668e-01 -5.115708336234092712e-02
1.991493068635463715e-02 4.700703620910644531e-01 6.952621787786483765e-02
-3.660039603710174561e-02 5.146163105964660645e-01 5.713611096143722534e-02
3.727583587169647217e-02 3.926016986370086670e-01 4.825421422719955444e-02
-1.211965829133987427e-01 4.465102851390838623e-01 -2.390872687101364136e-03
6.181861460208892822e-02 4.434921741485595703e-01 4.952519759535789490e-02
-9.272629022598266602e-02 4.267563521862030029e-01 3.612704947590827942e-02
-1.155211310833692551e-02 5.424013137817382812e-01 1.107976213097572327e-02
-2.305923029780387878e-03 3.820064961910247803e-01 -4.220234602689743042e-02
-1.762202009558677673e-02 5.362039208412170410e-01 -2.931669354438781738e-03
-7.896608859300613403e-02 4.594043791294097900e-01 -4.717998206615447998e-02
-1.673559099435806274e-02 5.009421110153198242e-01 6.564244627952575684e-02
5.562230199575424194e-02 4.689403772354125977e-01 -3.750093281269073486e-03
6.026421487331390381e-02 4.626014828681945801e-01 5.092991143465042114e-02
-1.066610310226678848e-02 3.555623590946197510e-01 -3.231891617178916931e-02
1.683892123401165009e-02 3.994998931884765625e-01 5.770785361528396606e-02
4.146356135606765747e-02 3.806655108928680420e-01 -1.369696389883756638e-02
2.030393294990062714e-02 4.078008234500885010e-01 6.033330038189888000e-02
3.436798602342605591e-02 5.131890773773193359e-01 5.052625760436058044e-02
3.804181516170501709e-02 4.172675609588623047e-01 5.866201221942901611e-02
7.177561521530151367e-02 4.453467428684234619e-01 2.672378718852996826e-02
-8.311913907527923584e-02 4.681352376937866211e-01 -4.354269802570343018e-02
-1.146969348192214966e-01 4.777598083019256592e-01 -1.090662647038698196e-02
-5.468093231320381165e-02 5.057095289230346680e-01 -3.198023512959480286e-02
-1.836428791284561157e-02 3.399221003055572510e-01 6.784567143768072128e-03
6.029174476861953735e-02 4.722388982772827148e-01 4.380107857286930084e-03
-8.786422759294509888e-02 3.631941974163055420e-01 -1.612575352191925049e-02
7.033906877040863037e-04 5.311850309371948242e-01 -1.943023875355720520e-03
1.677075587213039398e-02 4.644774198532104492e-01 -3.394476324319839478e-02
-7.312409579753875732e-02 5.131199359893798828e-01 -2.249534428119659424e-02
-4.453964903950691223e-02 3.520814180374145508e-01 2.065889909863471985e-02
-4.542256146669387817e-02 4.543368220329284668e-01 6.385687738656997681e-02
-3.128015995025634766e-02 5.122880935668945312e-01 -2.747784182429313660e-02
5.912436172366142273e-03 3.623516559600830078e-01 3.647819161415100098e-02
-9.266453236341476440e-02 3.676859438419342041e-01 -1.234144065529108047e-02
1.336735673248767853e-02 3.667500913143157959e-01 -2.854498475790023804e-02
-8.801429718732833862e-02 5.037388205528259277e-01 -2.260022982954978943e-02
-4.464888200163841248e-02 4.152086675167083740e-01 -5.483810976147651672e-02
3.896725177764892578e-02 4.644061625003814697e-01 -2.084130421280860901e-02
-6.806097179651260376e-02 5.235661864280700684e-01 3.638909384608268738e-02
-3.897351026535034180e-02 3.972498476505279541e-01 -5.297432839870452881e-02
1.879129745066165924e-02 3.767995536327362061e-01 4.506959766149520874e-02
1.387268118560314178e-02 4.330143034458160400e-01 6.786372512578964233e-02
-2.604130655527114868e-02 3.397986292839050293e-01 -1.596616208553314209e-02
6.500547379255294800e-02 4.035207927227020264e-01 1.971967890858650208e-02
3.518553823232650757e-02 4.937119185924530029e-01 -1.090097706764936447e-02
-1.039285212755203247e-03 5.400730967521667480e-01 1.239825040102005005e-02
-9.340963512659072876e-02 3.964774012565612793e-01 -4.241045191884040833e-02
-1.146861091256141663e-01 4.211267530918121338e-01 8.914985693991184235e-03
-1.120596230030059814e-01 4.863532781600952148e-01 2.945487853139638901e-03
-2.071554958820343018e-02 5.451138615608215332e-01 1.689235307276248932e-02
5.401080846786499023e-02 4.916546344757080078e-01 8.726989850401878357e-03
-1.193017233163118362e-02 3.968977630138397217e-01 -4.839520901441574097e-02
-4.852703958749771118e-02 4.158508479595184326e-01 5.647327750921249390e-02
-7.187010720372200012e-03 5.419339537620544434e-01 3.514194115996360779e-02
-1.148118600249290466e-01 4.406338334083557129e-01 1.458800397813320160e-02
7.041000574827194214e-02 4.481574594974517822e-01 3.484529629349708557e-02
1.164959184825420380e-02 5.218307971954345703e-01 -5.939700640738010406e-03
1.701228320598602295e-03 5.415968298912048340e-01 2.489912882447242737e-02
5.195755511522293091e-04 5.218216180801391602e-01 5.714929848909378052e-02
-6.939613074064254761e-02 5.198215842247009277e-01 -1.767745614051818848e-02
-1.009206026792526245e-01 4.088954329490661621e-01 2.253067865967750549e-02
-1.006223037838935852e-01 4.462257325649261475e-01 3.266788274049758911e-02
4.219277948141098022e-02 4.753890931606292725e-01 -1.442702580243349075e-02
-1.215327307581901550e-01 4.403538107872009277e-01 -1.194807421416044235e-02
-7.216656953096389771e-02 4.451866447925567627e-01 -5.140297114849090576e-02
-3.224714100360870361e-02 3.611079454421997070e-01 3.368443623185157776e-02
-1.121179945766925812e-02 4.818560481071472168e-01 -3.865688294172286987e-02
8.946051821112632751e-03 4.501154124736785889e-01 7.045648247003555298e-02
-1.140930503606796265e-01 4.645445346832275391e-01 -2.331963926553726196e-02
-3.089191578328609467e-02 4.183749556541442871e-01 6.190660223364830017e-02
-2.544242888689041138e-03 3.634469807147979736e-01 3.842460736632347107e-02
-4.346806928515434265e-02 4.011731743812561035e-01 5.326914787292480469e-02
1.834143139421939850e-02 5.338176488876342773e-01 3.439924865961074829e-02
9.495055302977561951e-03 4.675201177597045898e-01 -3.632252663373947144e-02
2.853481657803058624e-02 3.584229946136474609e-01 1.978906244039535522e-02
2.295539341866970062e-02 4.369501769542694092e-01 -3.592390194535255432e-02
-7.498183101415634155e-02 3.616937100887298584e-01 -3.263984248042106628e-02
-3.037946484982967377e-02 5.451412200927734375e-01 1.595556549727916718e-02
5.986905843019485474e-02 4.539863169193267822e-01 5.198108777403831482e-02
1.960416696965694427e-02 4.464515447616577148e-01 -3.641539439558982849e-02
-6.974132359027862549e-02 4.563718140125274658e-01 -4.974006116390228271e-02
1.300361938774585724e-02 5.372770428657531738e-01 2.818109095096588135e-02
4.398956149816513062e-02 4.975546598434448242e-01 5.390941351652145386e-02
5.499219149351119995e-02 5.002201795578002930e-01 2.661332860589027405e-02
5.040006712079048157e-03 5.395331382751464844e-01 3.360024467110633850e-02
-1.906404271721839905e-03 3.549652397632598877e-01 3.029308095574378967e-02
1.932027004659175873e-02 3.899107873439788818e-01 -3.466009721159934998e-02
-1.367739401757717133e-02 5.448544025421142578e-01 2.477564662694931030e-02
-1.132412441074848175e-02 3.936723470687866211e-01 5.630906671285629272e-02
-8.278883993625640869e-03 5.436226129531860352e-01 1.854832284152507782e-02
1.338233985006809235e-02 4.985521435737609863e-01 -2.199822664260864258e-02
-6.750599294900894165e-02 4.510968625545501709e-01 5.512739717960357666e-02
-1.037043407559394836e-01 4.331212937831878662e-01 -4.065086692571640015e-02
-4.776557907462120056e-02 3.783561289310455322e-01 4.102532193064689636e-02
-9.954788535833358765e-02 3.757498860359191895e-01 -1.185267325490713120e-02
4.253322631120681763e-02 4.172478318214416504e-01 -2.372853457927703857e-02
-1.856433786451816559e-02 3.637304604053497314e-01 3.821928799152374268e-02
-2.968438155949115753e-02 5.010438561439514160e-01 6.356833875179290771e-02
-5.527646839618682861e-02 3.443572819232940674e-01 -1.110091805458068848e-03
-5.994975566864013672e-02 5.281536579132080078e-01 -1.187565457075834274e-02
2.607286907732486725e-02 5.098804831504821777e-01 -6.660859100520610809e-03
-3.158388659358024597e-03 5.344074964523315430e-01 4.691819846630096436e-02
-2.031670883297920227e-02 3.936596810817718506e-01 -4.983349889516830444e-02
-9.498229622840881348e-02 4.956789314746856689e-01 2.997402846813201904e-02
-6.851948797702789307e-02 5.342016220092773438e-01 8.586736395955085754e-03
-2.449327334761619568e-02 5.330307483673095703e-01 -8.559563197195529938e-03
5.187357217073440552e-02 4.919670820236206055e-01 4.965688288211822510e-02
-8.251176029443740845e-02 3.908755779266357422e-01 2.961074560880661011e-02
-7.371564209461212158e-02 5.256357192993164062e-01 -7.703800685703754425e-03
-1.722261309623718262e-03 4.549430310726165771e-01 -4.348936676979064941e-02
3.049969859421253204e-02 5.258258581161499023e-01 3.607322275638580322e-02
-9.650584310293197632e-02 4.509555101394653320e-01 -4.264194890856742859e-02
-5.363371223211288452e-03 4.745794832706451416e-01 7.075072824954986572e-02
-5.063480883836746216e-02 5.131843090057373047e-01 -2.736882492899894714e-02
3.421821445226669312e-02 5.061731934547424316e-01 5.569187551736831665e-02
-8.898769319057464600e-02 4.513590335845947266e-01 4.258367791771888733e-02
-1.192280873656272888e-01 4.419726729393005371e-01 5.327969789505004883e-03
-7.674603164196014404e-02 4.184574782848358154e-01 4.466540738940238953e-02
3.772517293691635132e-02 4.590488970279693604e-01 6.525920331478118896e-02
-1.829965412616729736e-02 4.797729551792144775e-01 -4.111853986978530884e-02
-4.741031676530838013e-03 3.466258645057678223e-01 -2.073457092046737671e-02
-2.415861934423446655e-02 4.492588043212890625e-01 6.848900020122528076e-02
-2.895390614867210388e-03 3.492503166198730469e-01 2.330828458070755005e-02
-7.810185104608535767e-02 3.713908195495605469e-01 -3.895386308431625366e-02
-1.113100796937942505e-01 4.375503063201904297e-01 -3.390365839004516602e-02
-3.925506770610809326e-02 3.647509217262268066e-01 3.468052297830581665e-02
-8.145538717508316040e-02 3.899009227752685547e-01 -4.618882760405540466e-02
-5.723267048597335815e-02 5.034064054489135742e-01 5.395554751157760620e-02
3.915399312973022461e-03 3.514166474342346191e-01 -2.167681977152824402e-02
5.890909582376480103e-02 4.877690970897674561e-01 1.447793189436197281e-02
2.059100195765495300e-03 4.656518995761871338e-01 -3.969080746173858643e-02
-8.697495609521865845e-02 4.356963634490966797e-01 4.220111668109893799e-02
-4.124592617154121399e-02 4.640660285949707031e-01 6.534882634878158569e-02
5.803027749061584473e-02 4.734286367893218994e-01 5.104687809944152832e-02
-1.191102564334869385e-01 4.186380505561828613e-01 -7.713465951383113861e-03
-7.183878868818283081e-02 3.524824976921081543e-01 -2.037138678133487701e-03
-6.492342799901962280e-02 3.845762610435485840e-01 -4.911289364099502563e-02
6.702392548322677612e-02 4.102740883827209473e-01 2.401912957429885864e-02
6.183962523937225342e-02 4.875379800796508789e-01 2.571298182010650635e-02
-8.388757705688476562e-03 3.892986178398132324e-01 -4.602069407701492310e-02
-1.173600461333990097e-02 3.390684425830841064e-01 -7.128529250621795654e-04
-3.412346914410591125e-02 3.428618907928466797e-01 1.094101555645465851e-02
-4.049171507358551025e-02 3.708979487419128418e-01 3.875776752829551697e-02
-2.615867555141448975e-02 4.717404842376708984e-01 -4.522399604320526123e-02
-3.809934854507446289e-02 5.363616943359375000e-01 -5.237506702542304993e-03
-8.774471282958984375e-02 3.709433674812316895e-01 8.275599218904972076e-03
-6.212024390697479248e-02 3.630157709121704102e-01 -3.952455520629882812e-02
4.479600116610527039e-03 5.006310343742370605e-01 -2.491713687777519226e-02
4.850249737501144409e-02 4.587383270263671875e-01 -1.469062175601720810e-02
-8.156916499137878418e-02 4.966216385364532471e-01 -3.117150440812110901e-02
-5.319037660956382751e-02 3.636220097541809082e-01 -4.171914607286453247e-02
-5.664749443531036377e-02 5.389416217803955078e-01 7.456589024513959885e-03
1.856650970876216888e-02 5.115632414817810059e-01 5.943643301725387573e-02
-8.306220918893814087e-02 5.232712626457214355e-01 -3.953166306018829346e-04
4.611976444721221924e-02 4.090247452259063721e-01 -1.965489611029624939e-02
-1.102474480867385864e-01 3.945571184158325195e-01 -1.991649717092514038e-02
-1.032910943031311035e-01 3.870002627372741699e-01 -2.750027179718017578e-02
-2.887665107846260071e-02 5.291915535926818848e-01 -1.342998910695314407e-02
-9.461274743080139160e-02 4.060048162937164307e-01 -4.417648166418075562e-02
3.251787275075912476e-02 4.282293021678924561e-01 6.342254579067230225e-02
1.944643445312976837e-02 5.244481563568115234e-01 2.724033780395984650e-03
4.586102068424224854e-02 4.942801594734191895e-01 -3.439011052250862122e-04
-9.629168361425399780e-02 3.835863173007965088e-01 1.085156761109828949e-02
-9.559714794158935547e-02 3.913244605064392090e-01 1.811040937900543213e-02
4.450218379497528076e-02 5.071389675140380859e-01 1.049869041889905930e-02
-4.135673865675926208e-03 3.845222592353820801e-01 5.226913839578628540e-02
5.127382278442382812e-02 4.423142373561859131e-01 -1.546042319387197495e-02
-4.685163497924804688e-02 4.429252445697784424e-01 -5.341373011469841003e-02
1.621058769524097443e-02 4.914345145225524902e-01 -2.424781769514083862e-02
-3.957437351346015930e-02 5.347359180450439453e-01 4.231954738497734070e-02
3.504415601491928101e-02 4.486834108829498291e-01 6.574955582618713379e-02
2.607260830700397491e-02 3.849168717861175537e-01 -2.902482077479362488e-02
-6.302353739738464355e-02 5.061458349227905273e-01 5.012689903378486633e-02
3.352348506450653076e-02 3.705802857875823975e-01 3.310898691415786743e-02
1.071762107312679291e-02 5.337619185447692871e-01 4.269524663686752319e-02
-1.504219509661197662e-02 3.479267656803131104e-01 -2.675099298357963562e-02
5.135510116815567017e-02 5.017979741096496582e-01 4.143679514527320862e-02
6.165824830532073975e-02 4.246597290039062500e-01 -3.953897394239902496e-03
-2.492681145668029785e-03 4.497377574443817139e-01 7.061620801687240601e-02
-1.998504623770713806e-02 5.190405249595642090e-01 5.838907137513160706e-02
-2.742340788245201111e-02 3.842632770538330078e-01 4.980460554361343384e-02
9.603781625628471375e-03 4.209184050559997559e-01 6.559400260448455811e-02
-1.946646161377429962e-02 3.990368247032165527e-01 5.766110494732856750e-02
-7.053063809871673584e-02 5.152475237846374512e-01 4.093996435403823853e-02
6.235726177692413330e-04 3.916381299495697021e-01 5.571027100086212158e-02
-8.125398308038711548e-03 4.041405320167541504e-01 -4.825160652399063110e-02
-4.570692405104637146e-02 4.708324968814849854e-01 6.388337910175323486e-02
-5.699120461940765381e-02 5.226406455039978027e-01 -1.873913034796714783e-02
1.744445972144603729e-02 5.057933330535888672e-01 -1.542395632714033127e-02
-9.710951149463653564e-02 4.145504236221313477e-01 -4.411209002137184143e-02
-8.471185714006423950e-02 5.197286605834960938e-01 2.163932472467422485e-02
-4.311113059520721436e-02 4.982587099075317383e-01 -3.644298017024993896e-02
4.705799371004104614e-02 4.180766046047210693e-01 5.474532395601272583e-02
-1.027433201670646667e-02 3.468246459960937500e-01 2.070018835365772247e-02
-5.807693302631378174e-02 3.464131355285644531e-01 -2.126632630825042725e-02
-4.514775797724723816e-02 4.535211324691772461e-01 -5.162141472101211548e-02
-6.181685626506805420e-02 4.629391729831695557e-01 5.809957906603813171e-02
3.170685842633247375e-03 4.802625477313995361e-01 7.027460634708404541e-02
5.761310458183288574e-02 4.826789498329162598e-01 4.786039143800735474e-02
5.826799571514129639e-02 4.934839904308319092e-01 3.587798774242401123e-02
3.244531899690628052e-02 3.639071583747863770e-01 -9.318358264863491058e-03
-7.568528503179550171e-02 3.546309471130371094e-01 -1.995568722486495972e-02
-6.513553857803344727e-02 3.582868576049804688e-01 -3.461828455328941345e-02
5.722384899854660034e-03 4.027189016342163086e-01 -4.339025542140007019e-02
-4.671851545572280884e-02 5.429011583328247070e-01 1.815950311720371246e-02
-7.286768406629562378e-03 4.023909568786621094e-01 6.002674251794815063e-02
7.061313092708587646e-02 4.552926123142242432e-01 3.179654479026794434e-02
-1.157921776175498962e-01 4.249225854873657227e-01 -2.761581167578697205e-02
-9.094256162643432617e-02 5.168728232383728027e-01 1.261338591575622559e-02
-1.105043441057205200e-01 3.934090733528137207e-01 -1.120217796415090561e-02
6.380248814821243286e-02 4.039154350757598877e-01 2.806317806243896484e-02
-7.431380450725555420e-02 5.037239193916320801e-01 4.435237497091293335e-02
-7.281869649887084961e-02 3.828186094760894775e-01 -4.668452218174934387e-02
-4.778175801038742065e-02 5.406456589698791504e-01 2.822121605277061462e-02
3.560224920511245728e-02 4.825715422630310059e-01 -1.645479351282119751e-02
6.902746856212615967e-02 4.657294154167175293e-01 2.307450771331787109e-02
-9.633259475231170654e-02 5.063770413398742676e-01 -1.140033919364213943e-02
-9.879541397094726562e-02 4.966405630111694336e-01 -1.962535828351974487e-02
6.785388290882110596e-02 4.128699600696563721e-01 1.692187041044235229e-02
3.846051543951034546e-02 4.275071918964385986e-01 -2.705398201942443848e-02
-3.956988453865051270e-03 4.987674951553344727e-01 -2.906727045774459839e-02
3.842353820800781250e-02 4.692451059818267822e-01 6.456353515386581421e-02
-1.048937663435935974e-01 3.835972249507904053e-01 -9.893218986690044403e-03
-1.080012544989585876e-01 4.227606654167175293e-01 -3.701186552643775940e-02
6.171538680791854858e-02 4.090309739112854004e-01 3.744091838598251343e-02
-3.206340968608856201e-02 5.052834749221801758e-01 -3.187025338411331177e-02
-1.711954548954963684e-02 5.153958201408386230e-01 -2.284638211131095886e-02
-3.731754049658775330e-02 4.048746526241302490e-01 5.632256343960762024e-02
-5.356610193848609924e-02 4.965518116950988770e-01 -3.717027604579925537e-02
4.875209927558898926e-02 4.413127899169921875e-01 5.920875445008277893e-02
5.306904762983322144e-02 4.997152686119079590e-01 1.696388423442840576e-02
-8.436540514230728149e-02 3.768415153026580811e-01 -3.891443461179733276e-02
1.113890297710895538e-02 5.281499624252319336e-01 8.009630255401134491e-04
1.762477494776248932e-02 5.328278541564941406e-01 1.539265830069780350e-02
-1.112004965543746948e-01 4.561035633087158203e-01 -3.048371896147727966e-02
-8.070270717144012451e-02 5.057174563407897949e-01 -2.522447332739830017e-02
-6.064236909151077271e-02 4.544475674629211426e-01 -5.117985233664512634e-02
-4.163575917482376099e-02 3.480015397071838379e-01 -2.996484190225601196e-02
2.669451572000980377e-02 4.433917999267578125e-01 -3.315499052405357361e-02
-9.665919840335845947e-02 4.291057884693145752e-01 -4.502650722861289978e-02
-1.123740244656801224e-02 3.574037849903106689e-01 3.324725478887557983e-02
4.323337972164154053e-02 3.908549249172210693e-01 4.375872015953063965e-02
-4.142740368843078613e-02 3.584020137786865234e-01 -3.923558443784713745e-02
3.980065137147903442e-02 3.660716414451599121e-01 1.790450885891914368e-02
3.597140312194824219e-02 3.663517832756042480e-01 2.521155774593353271e-02
-8.419569581747055054e-02 5.091136693954467773e-01 3.338564932346343994e-02
-7.338067144155502319e-02 3.519768416881561279e-01 -1.235416252166032791e-02
-6.829800456762313843e-02 4.405280649662017822e-01 5.366643145680427551e-02
-1.083772405982017517e-01 4.848292469978332520e-01 -1.794798672199249268e-02
-3.729791194200515747e-02 5.440613031387329102e-01 1.228433474898338318e-02
-1.010820120573043823e-01 3.791688084602355957e-01 -5.248281173408031464e-03
-1.541670132428407669e-02 4.865646362304687500e-01 6.876058131456375122e-02
3.601478040218353271e-02 4.941305518150329590e-01 6.035805866122245789e-02
-1.734428107738494873e-02 3.871036767959594727e-01 -4.787527024745941162e-02
-1.032731831073760986e-01 4.254623055458068848e-01 2.623889595270156860e-02
-1.008300706744194031e-01 4.833260476589202881e-01 2.857353165745735168e-02
1.229626499116420746e-02 4.170169532299041748e-01 -4.170092567801475525e-02
4.266110062599182129e-02 4.002769887447357178e-01 -2.090134844183921814e-02
2.058156765997409821e-02 3.541628420352935791e-01 1.992961764335632324e-02
1.938311569392681122e-02 4.399062991142272949e-01 6.829735636711120605e-02
2.831951715052127838e-02 5.270006656646728516e-01 1.885561272501945496e-02
-9.695802628993988037e-02 3.899883627891540527e-01 -3.719319775700569153e-02
6.265232339501380920e-03 4.129917919635772705e-01 6.358187645673751831e-02
-2.995279058814048767e-02 4.067961275577545166e-01 -5.310183763504028320e-02
-1.052260547876358032e-01 4.977121055126190186e-01 1.007932052016258240e-02
-9.047283232212066650e-02 3.686605989933013916e-01 1.321956515312194824e-04
2.560229972004890442e-03 5.372708439826965332e-01 4.108563810586929321e-02
4.861756414175033569e-02 3.745121061801910400e-01 9.604417718946933746e-03
3.046389110386371613e-02 4.503436088562011719e-01 -2.985194697976112366e-02
-1.149729937314987183e-01 4.068454504013061523e-01 -3.183936700224876404e-03
1.956972666084766388e-02 3.725914955139160156e-01 -2.794976159930229187e-02
-3.828247264027595520e-02 4.939443767070770264e-01 6.320916861295700073e-02
-9.027937054634094238e-02 5.143477320671081543e-01 2.009896934032440186e-02
1.687243022024631500e-02 4.787980020046234131e-01 6.923820823431015015e-02
-5.321525037288665771e-02 3.491407334804534912e-01 -2.889506146311759949e-02
-1.097714528441429138e-01 4.140155613422393799e-01 1.380579080432653427e-02
1.558939926326274872e-02 4.163239002227783203e-01 6.377808749675750732e-02
-6.378443539142608643e-02 4.114830791950225830e-01 4.920297116041183472e-02
5.137203633785247803e-02 4.286980330944061279e-01 -1.631758734583854675e-02
-9.841383993625640869e-02 5.081966519355773926e-01 -2.972443588078022003e-03
-6.031517684459686279e-02 4.531681537628173828e-01 5.845027416944503784e-02
2.681346423923969269e-02 4.302874803543090820e-01 -3.432769328355789185e-02
-4.437304288148880005e-02 5.305656194686889648e-01 -1.231540460139513016e-02
-3.061371482908725739e-02 3.484416007995605469e-01 2.095714583992958069e-02
-2.973072417080402374e-02 4.449492394924163818e-01 -5.167708545923233032e-02
4.362175241112709045e-03 5.086590051651000977e-01 6.340855360031127930e-02
-4.389126598834991455e-02 3.902862370014190674e-01 -5.198274925351142883e-02
4.876579344272613525e-02 3.873443007469177246e-01 3.638866543769836426e-02
5.350983142852783203e-02 4.548868238925933838e-01 5.722099170088768005e-02
-1.018078159540891647e-02 4.931651949882507324e-01 -3.370656818151473999e-02
5.642778426408767700e-02 4.152764678001403809e-01 -9.750087745487689972e-03
-4.622260853648185730e-02 4.782034456729888916e-01 -4.502693191170692444e-02
2.882992289960384369e-02 4.069255590438842773e-01 5.808260291814804077e-02
4.155558347702026367e-02 4.407049715518951416e-01 6.255106627941131592e-02
-9.678423404693603516e-02 4.857703745365142822e-01 -2.942436933517456055e-02
-6.372044980525970459e-02 3.481726646423339844e-01 -1.000149175524711609e-03
-2.456087246537208557e-02 5.387997627258300781e-01 -6.374949589371681213e-04
-6.071820110082626343e-02 4.060733914375305176e-01 -5.387916043400764465e-02
6.798870116472244263e-02 4.524763822555541992e-01 9.848579764366149902e-03
-8.210185170173645020e-02 3.648341894149780273e-01 -3.037051111459732056e-02
-7.267360389232635498e-02 3.933876454830169678e-01 3.741825744509696960e-02
-9.224344789981842041e-02 3.695117831230163574e-01 -2.308581396937370300e-02
-7.003045827150344849e-02 4.665229916572570801e-01 -4.712580516934394836e-02
5.728690326213836670e-02 4.327620565891265869e-01 5.196793377399444580e-02
-2.091328799724578857e-02 4.127129316329956055e-01 6.210667639970779419e-02
-6.898691505193710327e-02 4.620688557624816895e-01 5.479206144809722900e-02
-8.474478125572204590e-02 5.228525996208190918e-01 1.339032221585512161e-02
-4.396031051874160767e-02 3.598801493644714355e-01 2.898603677749633789e-02
-6.994167715311050415e-02 4.707654118537902832e-01 5.403618514537811279e-02
1.427557878196239471e-02 4.793617427349090576e-01 -3.034009411931037903e-02
-6.736150383949279785e-02 4.743333458900451660e-01 -4.509297758340835571e-02
-7.998774945735931396e-02 4.767593741416931152e-01 -4.146623611450195312e-02
3.827228397130966187e-02 5.192276239395141602e-01 3.667566925287246704e-02
-7.744334638118743896e-02 5.140845775604248047e-01 3.621999546885490417e-02
-2.201552316546440125e-02 5.423645377159118652e-01 6.801697425544261932e-03
-4.699116572737693787e-03 4.999884665012359619e-01 6.662366539239883423e-02
-9.080469608306884766e-04 5.216652154922485352e-01 -1.262138504534959793e-02
-8.213812857866287231e-02 4.585126340389251709e-01 4.742814600467681885e-02
1.583250798285007477e-02 4.924404919147491455e-01 6.699963659048080444e-02
4.093798249959945679e-02 4.514594078063964844e-01 -2.262144908308982849e-02
6.631571054458618164e-02 4.471385478973388672e-01 4.778607282787561417e-03
-6.524021923542022705e-02 4.831897020339965820e-01 5.504760518670082092e-02
-9.493418782949447632e-02 5.055539608001708984e-01 2.294925786554813385e-02
3.961242735385894775e-02 3.750320971012115479e-01 3.297324478626251221e-02
6.031834334135055542e-02 4.027080237865447998e-01 6.662872619926929474e-04
-3.143876791000366211e-02 3.923984766006469727e-01 5.283119902014732361e-02
-7.860671728849411011e-02 4.017187952995300293e-01 3.763383999466896057e-02
-3.148635104298591614e-02 4.301751852035522461e-01 6.444710493087768555e-02
-8.270435035228729248e-02 3.829673230648040771e-01 -4.302284866571426392e-02
5.624259263277053833e-02 4.059446454048156738e-01 4.244923219084739685e-02
-8.268605172634124756e-02 4.880164265632629395e-01 -3.556994348764419556e-02
-2.342253550887107849e-02 4.309840500354766846e-01 -5.214525014162063599e-02
6.389007717370986938e-02 4.782360494136810303e-01 1.679699867963790894e-02
-1.589415967464447021e-02 3.506354987621307373e-01 2.588530257344245911e-02
-1.193830519914627075e-01 4.572648108005523682e-01 -1.547453459352254868e-02
2.719082124531269073e-02 4.056320786476135254e-01 -3.319774568080902100e-02
1.019990071654319763e-03 3.426388204097747803e-01 -7.300297729671001434e-03
-7.132314145565032959e-02 3.802572190761566162e-01 3.079006820917129517e-02
-8.140396326780319214e-03 5.080423951148986816e-01 6.401578336954116821e-02
7.065200060606002808e-02 4.255199134349822998e-01 2.316451817750930786e-02
-3.147416189312934875e-02 3.383424282073974609e-01 -8.367800153791904449e-03
-1.639682985842227936e-02 4.481847882270812988e-01 -4.874146357178688049e-02
-1.729265786707401276e-02 4.196210503578186035e-01 -5.131027847528457642e-02
9.663840755820274353e-03 5.345392823219299316e-01 9.629762731492519379e-03
-2.055222354829311371e-02 3.383107185363769531e-01 -7.694953121244907379e-03
2.437611483037471771e-02 4.172409772872924805e-01 -3.578148782253265381e-02
6.944907456636428833e-02 4.400451779365539551e-01 1.086018700152635574e-02
3.550738841295242310e-02 3.999593257904052734e-01 -2.665602043271064758e-02
-1.136993691325187683e-01 4.767922163009643555e-01 9.921224787831306458e-03
-7.942143827676773071e-02 4.335247874259948730e-01 4.662924632430076599e-02
-4.633647203445434570e-02 5.398966073989868164e-01 2.664594911038875580e-03
-1.362650096416473389e-02 4.569544196128845215e-01 7.037991285324096680e-02
-7.717197388410568237e-02 4.843972623348236084e-01 4.827801138162612915e-02
-1.111407652497291565e-01 4.048875272274017334e-01 -2.814868465065956116e-02
4.744246602058410645e-03 5.139460563659667969e-01 -1.631127670407295227e-02
-7.521274685859680176e-02 4.085765480995178223e-01 4.236749932169914246e-02
-7.616761326789855957e-02 3.949627578258514404e-01 -4.933638870716094971e-02
-1.861667633056640625e-02 4.101890623569488525e-01 -5.134192109107971191e-02
-2.049153856933116913e-02 3.009736537933349609e-01 -4.237434267997741699e-02
-4.297204315662384033e-02 3.444654047489166260e-01 5.792327597737312317e-02
-2.840426191687583923e-02 3.405993282794952393e-01 6.330010294914245605e-02
-4.407556354999542236e-02 3.307586610317230225e-01 -3.662017360329627991e-02
7.777716964483261108e-02 3.190578818321228027e-01 1.113058347254991531e-02
1.982179656624794006e-02 2.872337698936462402e-01 6.555134057998657227e-02
7.699309289455413818e-02 2.826415598392486572e-01 2.931227535009384155e-02
-7.438240945339202881e-02 2.768267989158630371e-01 1.142149139195680618e-02
3.504604101181030273e-02 3.417638242244720459e-01 5.477921664714813232e-02
-9.342489391565322876e-02 3.386816680431365967e-01 7.489398121833801270e-04
7.114997506141662598e-02 3.311044573783874512e-01 2.089195139706134796e-02
-9.038551896810531616e-02 2.935294806957244873e-01 4.224159754812717438e-03
-3.202772513031959534e-02 3.206343650817871094e-01 6.802181899547576904e-02
-3.344531357288360596e-02 2.982766032218933105e-01 -4.067436978220939636e-02
5.442498251795768738e-02 2.877244949340820312e-01 -2.173047512769699097e-02
7.697836309671401978e-02 3.221901357173919678e-01 2.484313026070594788e-02
-2.119757235050201416e-02 2.928504943847656250e-01 -4.071642830967903137e-02
9.849094785749912262e-03 3.528198599815368652e-01 -1.786478981375694275e-02
-2.641746774315834045e-02 2.550324797630310059e-01 2.681463025510311127e-03
4.836455732583999634e-02 2.802519500255584717e-01 5.465965718030929565e-02
-1.395276281982660294e-02 2.690748870372772217e-01 -2.816426381468772888e-02
3.039523586630821228e-02 2.632590830326080322e-01 -1.675367355346679688e-02
-7.386372983455657959e-02 3.451941311359405518e-01 -1.708208769559860229e-02
5.387197248637676239e-03 2.548009753227233887e-01 3.348142281174659729e-02
-7.278252393007278442e-02 3.571372330188751221e-01 2.549945935606956482e-02
-9.695564210414886475e-02 3.061470389366149902e-01 3.883539699018001556e-03
-2.954613789916038513e-02 3.074960112571716309e-01 6.814552843570709229e-02
4.184590652585029602e-02 2.579395771026611328e-01 -3.896588459610939026e-04
-2.657714486122131348e-02 2.813529074192047119e-01 5.886213108897209167e-02
1.669381186366081238e-02 2.821011543273925781e-01 -3.461225330829620361e-02
4.220652580261230469e-02 3.497905135154724121e-01 2.962397411465644836e-04
1.105042081326246262e-02 3.518112003803253174e-01 5.422528460621833801e-02
-3.889659419655799866e-02 3.117761611938476562e-01 -4.105342552065849304e-02
-8.793975412845611572e-02 3.253525793552398682e-01 3.778690472245216370e-02
-3.829810768365859985e-02 3.456552624702453613e-01 -2.952554076910018921e-02
1.940021663904190063e-02 3.543331921100616455e-01 -1.127949822694063187e-02
2.970923110842704773e-02 3.425182700157165527e-01 -1.971133425831794739e-02
5.005716159939765930e-02 2.791361510753631592e-01 -2.062237635254859924e-02
-2.020255848765373230e-02 2.733199894428253174e-01 -3.102169930934906006e-02
-9.291603416204452515e-02 3.326031267642974854e-01 2.817585319280624390e-02
-4.671875014901161194e-02 2.614151239395141602e-01 1.592812314629554749e-02
-6.139996275305747986e-02 3.333210051059722900e-01 5.572411045432090759e-02
-3.653392195701599121e-04 3.579820692539215088e-01 -1.451992895454168320e-02
-6.206859275698661804e-02 3.610484600067138672e-01 2.951112762093544006e-02
-3.149731829762458801e-02 3.687891960144042969e-01 5.498479120433330536e-03
7.491517066955566406e-02 3.128928542137145996e-01 -1.574848778545856476e-03
3.418580442667007446e-02 3.464663326740264893e-01 -1.264577824622392654e-02
-5.729703232645988464e-02 3.470176458358764648e-01 -2.398099750280380249e-02
-3.843880444765090942e-02 2.585927248001098633e-01 1.479428261518478394e-03
1.390897762030363083e-02 2.567184269428253174e-01 -1.191900949925184250e-02
-2.047477290034294128e-02 2.945887148380279541e-01 6.682059913873672485e-02
8.186786435544490814e-03 2.936288416385650635e-01 6.868558377027511597e-02
-6.540450453758239746e-02 3.538376986980438232e-01 3.940551355481147766e-02
2.828673645853996277e-02 2.827864885330200195e-01 6.220135092735290527e-02
4.881075769662857056e-02 3.305701017379760742e-01 -1.756044849753379822e-02
-4.106602445244789124e-02 2.625107765197753906e-01 2.893727272748947144e-02
-5.047916248440742493e-02 3.437317013740539551e-01 5.582669004797935486e-02
-3.592410311102867126e-02 3.695178329944610596e-01 1.542695984244346619e-02
-8.553804457187652588e-02 3.353436887264251709e-01 -1.499376911669969559e-02
-3.455114364624023438e-02 3.528851866722106934e-01 5.389484018087387085e-02
6.440336257219314575e-02 2.718577384948730469e-01 -1.683467067778110504e-03
4.428455978631973267e-02 3.425791561603546143e-01 -9.501435793936252594e-03
-2.147550508379936218e-02 3.291117846965789795e-01 -3.921972587704658508e-02
-9.550336003303527832e-02 3.019379973411560059e-01 1.030271872878074646e-02
3.424461558461189270e-02 3.575200438499450684e-01 2.566234208643436432e-02
2.244354784488677979e-02 2.526787817478179932e-01 2.470789849758148193e-02
5.789120122790336609e-02 3.414542973041534424e-01 6.618794985115528107e-03
-5.077422410249710083e-02 3.663225769996643066e-01 5.839980207383632660e-03
-7.505777478218078613e-02 2.941821813583374023e-01 -2.228638902306556702e-02
-5.482753738760948181e-02 2.656404078006744385e-01 1.896576583385467529e-02
-3.588763996958732605e-02 2.898230254650115967e-01 -3.774261847138404846e-02
-5.544601008296012878e-02 3.386411368846893311e-01 -3.033147752285003662e-02
1.131596881896257401e-02 3.392673730850219727e-01 6.400663405656814575e-02
8.006464689970016479e-02 2.850709259510040283e-01 2.116016671061515808e-02
-9.901248663663864136e-02 3.161050379276275635e-01 2.537210471928119659e-03
-9.888571500778198242e-02 3.120684027671813965e-01 1.166194491088390350e-02
2.841670066118240356e-02 3.052380681037902832e-01 6.857587397098541260e-02
2.067804709076881409e-02 2.512363195419311523e-01 1.054166909307241440e-02
6.885636597871780396e-03 2.839964330196380615e-01 -3.701099753379821777e-02
-3.517500683665275574e-02 2.683790922164916992e-01 4.346372187137603760e-02
9.598479606211185455e-03 2.580567896366119385e-01 4.027393460273742676e-02
5.319302529096603394e-02 2.955542802810668945e-01 5.891858413815498352e-02
5.046818032860755920e-02 2.732712030410766602e-01 4.822720214724540710e-02
6.585805118083953857e-02 2.788300514221191406e-01 -7.609813474118709564e-03
-3.768733888864517212e-02 2.889837920665740967e-01 5.992661416530609131e-02
-1.361743453890085220e-02 3.640653192996978760e-01 4.134069010615348816e-02
-7.720252126455307007e-02 3.291162848472595215e-01 4.710737988352775574e-02
-3.612700477242469788e-02 3.122037351131439209e-01 6.706783175468444824e-02
-7.024674862623214722e-02 2.866956889629364014e-01 -2.061617746949195862e-02
4.763494059443473816e-02 2.666265070438385010e-01 4.233114793896675110e-02
-6.875704228878021240e-02 3.333762884140014648e-01 5.166735127568244934e-02
-9.247427806258201599e-03 3.154277801513671875e-01 7.138379663228988647e-02
1.820498146116733551e-03 3.404899835586547852e-01 6.452640891075134277e-02
2.055598050355911255e-02 3.161257505416870117e-01 6.986407935619354248e-02
-8.507724851369857788e-02 3.373197913169860840e-01 3.645612671971321106e-02
-2.570168673992156982e-02 3.692011237144470215e-01 2.622237801551818848e-02
-4.591388627886772156e-02 3.443977832794189453e-01 -2.915586903691291809e-02
-3.700980171561241150e-02 3.608922660350799561e-01 4.406514763832092285e-02
3.471717983484268188e-02 3.015899360179901123e-01 -3.365579620003700256e-02
4.143144004046916962e-03 3.313602507114410400e-01 -3.585491701960563660e-02
-4.555682092905044556e-02 3.104530870914459229e-01 6.403566896915435791e-02
3.241458907723426819e-02 2.538767755031585693e-01 4.570971243083477020e-03
6.314832717180252075e-02 3.178070485591888428e-01 5.169094353914260864e-02
-2.085335552692413330e-02 3.660905361175537109e-01 3.711713477969169617e-02
-7.065224647521972656e-02 3.167921900749206543e-01 -3.076139092445373535e-02
5.458959564566612244e-02 3.456995785236358643e-01 1.280407141894102097e-02
3.042096272110939026e-02 2.583419978618621826e-01 3.723103925585746765e-02
-2.304696291685104370e-02 3.588156104087829590e-01 -1.716168597340583801e-02
-8.138851076364517212e-02 2.828036248683929443e-01 7.237418089061975479e-03
-8.091278374195098877e-03 2.782724201679229736e-01 -3.518043458461761475e-02
-8.381785452365875244e-02 3.518661260604858398e-01 1.129776053130626678e-02
-5.380691215395927429e-02 3.033878505229949951e-01 5.933149531483650208e-02
-2.792270109057426453e-02 3.700231611728668213e-01 1.700866781175136566e-02
1.530093606561422348e-02 3.629319369792938232e-01 3.232264146208763123e-02
-2.450898662209510803e-02 2.663176655769348145e-01 4.552036896347999573e-02
5.199692398309707642e-02 3.353199064731597900e-01 -1.080006267875432968e-02
-5.713102966547012329e-02 3.198784887790679932e-01 5.995216965675354004e-02
-4.824259504675865173e-02 2.617148160934448242e-01 6.291334517300128937e-03
3.088662028312683105e-02 3.527577817440032959e-01 -5.750392563641071320e-03
5.659216269850730896e-02 3.073282539844512939e-01 -2.191628143191337585e-02
4.887514561414718628e-02 3.196102082729339600e-01 6.033775210380554199e-02
2.440081164240837097e-02 3.305343389511108398e-01 -3.055372089147567749e-02
-3.221075609326362610e-02 2.629533708095550537e-01 3.671694546937942505e-02
-1.465018466114997864e-02 2.542820870876312256e-01 2.605628594756126404e-02
4.354368522763252258e-02 3.532132506370544434e-01 1.708826050162315369e-02
-2.447723597288131714e-02 3.505967557430267334e-01 -2.634944766759872437e-02
-2.942452579736709595e-02 2.579977512359619141e-01 2.725207805633544922e-02
3.568631038069725037e-02 2.846527993679046631e-01 -3.010044619441032410e-02
4.928625375032424927e-02 3.159657120704650879e-01 -2.464115992188453674e-02
-3.737916797399520874e-02 3.265152871608734131e-01 -3.903181850910186768e-02
8.129487186670303345e-02 3.021266758441925049e-01 7.263684645295143127e-03
5.242860689759254456e-02 2.615289092063903809e-01 2.837130054831504822e-02
-4.666489083319902420e-03 3.675736188888549805e-01 2.936165034770965576e-02
-6.961417943239212036e-02 3.056875467300415039e-01 5.128331109881401062e-02
-5.645866692066192627e-02 2.887623012065887451e-01 -3.064481914043426514e-02
1.073378045111894608e-02 3.651701807975769043e-01 9.609166532754898071e-03
-6.646238267421722412e-02 2.725457549095153809e-01 1.970538310706615448e-02
-2.160701900720596313e-02 2.547251880168914795e-01 2.242598310112953186e-02
6.565373390913009644e-03 2.761664390563964844e-01 -3.318682312965393066e-02
5.911678448319435120e-02 3.428924381732940674e-01 2.211367152631282806e-02
-2.448536828160285950e-02 3.637583255767822266e-01 -9.187581948935985565e-03
-5.528690293431282043e-02 3.086221218109130859e-01 -3.700329363346099854e-02
4.476660117506980896e-02 3.518502116203308105e-01 2.812675014138221741e-02
-1.896240562200546265e-02 3.684921860694885254e-01 2.972768992185592651e-02
-5.070729926228523254e-02 3.289249241352081299e-01 6.146140024065971375e-02
-4.364737868309020996e-02 3.567848205566406250e-01 4.738232120871543884e-02
-4.058450087904930115e-02 3.671985864639282227e-01 2.029146067798137665e-03
-3.193131461739540100e-02 3.397522866725921631e-01 -3.398656100034713745e-02
5.969488993287086487e-02 2.640954852104187012e-01 2.375974133610725403e-02
-2.495550736784934998e-02 3.137127161026000977e-01 -4.243961349129676819e-02
4.055419936776161194e-02 3.151590526103973389e-01 6.485446542501449585e-02
-9.513992071151733398e-02 3.180138468742370605e-01 -8.447592146694660187e-03
2.529654651880264282e-02 3.612337112426757812e-01 2.450569160282611847e-02
5.055694282054901123e-02 2.979578673839569092e-01 -2.604213729500770569e-02
-7.885089516639709473e-02 3.024341464042663574e-01 -2.336444333195686340e-02
-5.829185247421264648e-02 2.718819975852966309e-01 -1.261710841208696365e-02
-1.450966857373714447e-02 3.206984698772430420e-01 7.064291089773178101e-02
-3.089733794331550598e-02 2.915085852146148682e-01 6.324944645166397095e-02
4.086620733141899109e-02 3.100060820579528809e-01 -3.050541505217552185e-02
-1.353078521788120270e-03 3.365279138088226318e-01 -3.425465151667594910e-02
6.501235067844390869e-02 3.094964921474456787e-01 -1.474287826567888260e-02
8.133296668529510498e-02 3.080140352249145508e-01 2.944239974021911621e-02
-4.607864469289779663e-02 3.215676248073577881e-01 6.413432210683822632e-02
-8.976934105157852173e-02 3.099599182605743408e-01 -1.499625574797391891e-02
8.316404372453689575e-02 3.024675250053405762e-01 2.336312457919120789e-02
-4.512967914342880249e-02 3.680981993675231934e-01 1.087386906147003174e-02
-6.258498132228851318e-02 3.013399541378021240e-01 5.416499078273773193e-02
-6.546033918857574463e-02 3.623771965503692627e-01 9.473457932472229004e-03
7.063198834657669067e-03 3.117621839046478271e-01 -4.069807380437850952e-02
5.789804086089134216e-02 3.307783305644989014e-01 4.851130023598670959e-02
-2.003659959882497787e-03 2.507857382297515869e-01 1.162549387663602829e-02
1.739700511097908020e-02 3.271927833557128906e-01 6.816051900386810303e-02
-2.542467787861824036e-03 3.059369921684265137e-01 7.126653939485549927e-02
-8.157905936241149902e-02 3.482656478881835938e-01 3.009028732776641846e-02
3.259491920471191406e-02 2.911472022533416748e-01 -3.316149860620498657e-02
6.716264039278030396e-02 3.313003480434417725e-01 4.241373389959335327e-03
3.197197988629341125e-02 3.338100314140319824e-01 6.164526194334030151e-02
-8.963251486420631409e-03 3.150893449783325195e-01 -4.218810796737670898e-02
-3.215692937374114990e-02 3.304355144500732422e-01 6.635822355747222900e-02
-1.519630011171102524e-02 2.812270820140838623e-01 -3.655813634395599365e-02
-8.453854918479919434e-02 3.476147651672363281e-01 -2.729653380811214447e-03
3.513116016983985901e-02 3.167032599449157715e-01 -3.165838494896888733e-02
-8.235512673854827881e-02 3.243474364280700684e-01 -2.235209569334983826e-02
7.586195319890975952e-02 2.779825627803802490e-01 2.161140926182270050e-02
-3.488647937774658203e-02 3.542112410068511963e-01 -2.229159325361251831e-02
4.670445248484611511e-02 2.571125626564025879e-01 1.345791574567556381e-02
3.631360828876495361e-02 3.215702176094055176e-01 6.501270085573196411e-02
-4.752486571669578552e-02 2.952322959899902344e-01 -3.676348552107810974e-02
5.369235575199127197e-02 3.268371820449829102e-01 5.452480167150497437e-02
-6.156545504927635193e-02 3.232317864894866943e-01 -3.396917879581451416e-02
-5.410053953528404236e-02 2.657021582126617432e-01 -2.433876506984233856e-03
-2.780505269765853882e-02 3.053598999977111816e-01 -4.230539128184318542e-02
-3.709873184561729431e-02 3.676482141017913818e-01 2.917166799306869507e-02
-5.686128139495849609e-02 3.471234142780303955e-01 5.089978873729705811e-02
-1.655891165137290955e-02 2.544712126255035400e-01 -3.757732920348644257e-03
-2.953880280256271362e-02 3.259246647357940674e-01 -3.996320068836212158e-02
3.038006275892257690e-02 3.581167757511138916e-01 7.417348679155111313e-03
-7.472518086433410645e-02 2.867151498794555664e-01 3.454951941967010498e-02
-8.316500484943389893e-02 3.297344446182250977e-01 4.182364791631698608e-02
-8.526398800313472748e-03 2.938763499259948730e-01 -4.122791066765785217e-02
-5.364866927266120911e-02 3.259164690971374512e-01 -3.592610359191894531e-02
-1.428239606320858002e-02 3.693155944347381592e-01 1.003083586692810059e-02
2.389737963676452637e-02 3.559507131576538086e-01 -5.489896051585674286e-03
6.807987391948699951e-02 3.233109116554260254e-01 -4.155552946031093597e-03
2.740488573908805847e-02 2.705425620079040527e-01 5.386067554354667664e-02
-6.300520896911621094e-02 3.099631667137145996e-01 -3.422234579920768738e-02
3.776568919420242310e-03 3.047049045562744141e-01 -4.151678830385208130e-02
5.940904095768928528e-02 2.640319466590881348e-01 7.781651802361011505e-03
-3.031512722373008728e-03 2.634649574756622314e-01 -2.299862727522850037e-02
7.531496882438659668e-02 2.907142639160156250e-01 3.957921266555786133e-02
-7.424632459878921509e-02 2.816238999366760254e-01 2.778794616460800171e-02
5.763783678412437439e-02 2.690668106079101562e-01 -5.931633524596691132e-03
6.263634562492370605e-02 2.767995297908782959e-01 4.310917109251022339e-02
