5.130398869514465332e-01 -6.640476584434509277e-01 -7.092134654521942139e-02
5.448107719421386719e-01 -7.046454548835754395e-01 1.459106355905532837e-01
2.649350762367248535e-01 -6.674672961235046387e-01 -2.995452880859375000e-01
2.826239466667175293e-01 -6.653695106506347656e-01 -8.974168449640274048e-02
1.450020372867584229e-01 -7.022637724876403809e-01 7.999448478221893311e-02
1.699411869049072266e-01 -7.289488315582275391e-01 -3.699643611907958984e-01
3.675367832183837891e-01 -7.200005650520324707e-01 -4.557852745056152344e-01
3.934434652328491211e-01 -6.605657339096069336e-01 -2.564075291156768799e-01
5.241768360137939453e-01 -7.059507966041564941e-01 -3.216849863529205322e-01
3.188643157482147217e-01 -6.620488762855529785e-01 -2.102867960929870605e-01
2.272548973560333252e-01 -6.722397804260253906e-01 -5.545531958341598511e-02
1.984164565801620483e-01 -6.941043138504028320e-01 1.485980600118637085e-01
3.463052511215209961e-01 -6.734036803245544434e-01 1.558115333318710327e-01
8.649781346321105957e-02 -7.151308059692382812e-01 -1.483850628137588501e-01
5.030872821807861328e-01 -6.674864888191223145e-01 -2.875824570655822754e-01
5.123604536056518555e-01 -6.653293967247009277e-01 -2.180235981941223145e-01
2.891742289066314697e-01 -7.409488558769226074e-01 -1.792070865631103516e-01
4.880122542381286621e-01 -7.227913141250610352e-01 -2.165347337722778320e-01
5.223787426948547363e-01 -6.657998561859130859e-01 -1.922054588794708252e-01
3.530571460723876953e-01 -6.609785556793212891e-01 -2.426412105560302734e-01
2.704381346702575684e-01 -6.765115857124328613e-01 1.126365065574645996e-01
3.792706429958343506e-01 -6.735556721687316895e-01 1.740790158510208130e-01
4.333349764347076416e-01 -6.775915622711181641e-01 2.130195647478103638e-01
1.810689419507980347e-01 -7.002831697463989258e-01 1.470175832509994507e-01
2.480157613754272461e-01 -7.169176936149597168e-01 -5.081098079681396484e-01
2.540509104728698730e-01 -7.288559675216674805e-01 1.777102798223495483e-01
2.857955098152160645e-01 -6.680552959442138672e-01 2.504542469978332520e-03
1.561239212751388550e-01 -7.358688712120056152e-01 -1.899640560150146484e-01
1.094348281621932983e-01 -7.214965820312500000e-01 -3.135185241699218750e-01
2.633073329925537109e-01 -6.693960428237915039e-01 -1.792725175619125366e-02
1.207987070083618164e-01 -6.898972988128662109e-01 -1.844492256641387939e-01
1.351834535598754883e-01 -7.205528020858764648e-01 -3.895935416221618652e-01
2.954470813274383545e-01 -6.800299882888793945e-01 -5.024729371070861816e-01
4.275138974189758301e-01 -6.636699438095092773e-01 4.287762939929962158e-02
4.398005604743957520e-01 -6.604382395744323730e-01 -2.236648201942443848e-01
1.397400945425033569e-01 -7.331093549728393555e-01 -2.221242189407348633e-01
4.148175716400146484e-01 -6.896023750305175781e-01 2.777652144432067871e-01
3.726623356342315674e-01 -7.291294932365417480e-01 -3.577568233013153076e-01
1.575883030891418457e-01 -6.831713318824768066e-01 -3.190770745277404785e-01
2.601851224899291992e-01 -7.405158877372741699e-01 -5.226098001003265381e-03
1.197399199008941650e-01 -7.208583354949951172e-01 1.160073280334472656e-02
1.843210309743881226e-01 -7.262212038040161133e-01 1.228344589471817017e-01
3.570894002914428711e-01 -7.392467260360717773e-01 -4.552061855792999268e-02
3.406810462474822998e-01 -6.677526235580444336e-01 7.592917978763580322e-02
3.394785225391387939e-01 -6.671205759048461914e-01 6.390056014060974121e-02
3.012208938598632812e-01 -7.370827198028564453e-01 9.237922728061676025e-02
2.493854463100433350e-01 -6.970698833465576172e-01 2.288014143705368042e-01
5.380839109420776367e-01 -7.141935825347900391e-01 -1.730290353298187256e-01
4.733555316925048828e-01 -6.655893921852111816e-01 -3.100734651088714600e-01
1.861983537673950195e-01 -7.187004685401916504e-01 -4.675452113151550293e-01
1.709448099136352539e-01 -7.201522588729858398e-01 -4.447512030601501465e-01
5.339620113372802734e-01 -7.102491855621337891e-01 -2.535542249679565430e-01
2.930112183094024658e-01 -7.283715605735778809e-01 -4.229373931884765625e-01
5.656433105468750000e-01 -7.087993621826171875e-01 -8.733924478292465210e-02
3.213763236999511719e-01 -7.268366217613220215e-01 -4.268479347229003906e-01
1.969128549098968506e-01 -6.809003353118896484e-01 -4.051738381385803223e-01
5.547449588775634766e-01 -7.101693153381347656e-01 4.852966964244842529e-02
2.938064932823181152e-01 -7.383250594139099121e-01 6.643731892108917236e-02
1.107500046491622925e-01 -7.278882265090942383e-01 -1.314661800861358643e-01
4.175317287445068359e-01 -7.339816093444824219e-01 2.034392952919006348e-02
2.931420505046844482e-01 -6.690462231636047363e-01 -3.866807222366333008e-01
4.062033593654632568e-01 -7.172282934188842773e-01 -4.402505755424499512e-01
3.123458921909332275e-01 -7.399733066558837891e-01 -1.980063021183013916e-01
2.428461313247680664e-01 -6.683315634727478027e-01 -1.472828984260559082e-01
2.232006192207336426e-01 -7.201585173606872559e-01 -4.830004572868347168e-01
1.017466485500335693e-01 -7.209640145301818848e-01 -2.852682769298553467e-01
3.697137832641601562e-01 -6.598225235939025879e-01 -1.756831407546997070e-01
2.330843806266784668e-01 -7.329310774803161621e-01 1.217025369405746460e-01
1.659084111452102661e-01 -6.881585121154785156e-01 -4.151021242141723633e-01
3.391925394535064697e-01 -7.396145462989807129e-01 -1.620691865682601929e-01
2.164903581142425537e-01 -7.368595004081726074e-01 -2.943998873233795166e-01
1.759643554687500000e-01 -7.381731271743774414e-01 -1.526666879653930664e-01
3.996886610984802246e-01 -7.340709567070007324e-01 6.890629231929779053e-02
2.026575803756713867e-01 -7.002052068710327148e-01 1.812902837991714478e-01
2.129918187856674194e-01 -7.402374744415283203e-01 -6.951813399791717529e-02
5.580229163169860840e-01 -6.818354129791259766e-01 -2.803748846054077148e-01
2.308180034160614014e-01 -7.364007234573364258e-01 7.058352231979370117e-02
4.499182105064392090e-01 -7.064584493637084961e-01 2.740800380706787109e-01
2.393047511577606201e-01 -7.375730276107788086e-01 5.720697343349456787e-02
1.495123058557510376e-01 -7.307071685791015625e-01 9.117886424064636230e-03
3.970440328121185303e-01 -7.033151388168334961e-01 2.995200157165527344e-01
2.203452289104461670e-01 -6.834624409675598145e-01 1.065437048673629761e-01
4.415898025035858154e-01 -6.710006594657897949e-01 1.513495594263076782e-01
4.731479585170745850e-01 -6.708811521530151367e-01 1.357941776514053345e-01
4.755304455757141113e-01 -6.616500616073608398e-01 -2.030160278081893921e-01
3.478891253471374512e-01 -7.064448595046997070e-01 -5.352806448936462402e-01
4.412975609302520752e-01 -7.253388166427612305e-01 -3.016426563262939453e-01
1.924785822629928589e-01 -7.385017871856689453e-01 -4.651708155870437622e-02
3.395903110504150391e-01 -7.401801943778991699e-01 -1.102411225438117981e-01
2.726944088935852051e-01 -7.414185404777526855e-01 -1.611676961183547974e-01
1.289615929126739502e-01 -6.874953508377075195e-01 -2.125251144170761108e-01
1.879402101039886475e-01 -7.385913729667663574e-01 -6.764961779117584229e-02
3.940237760543823242e-01 -6.637977361679077148e-01 4.040749371051788330e-02
1.779556870460510254e-01 -6.860550642013549805e-01 4.103180766105651855e-02
4.616965949535369873e-01 -6.742662787437438965e-01 1.767962425947189331e-01
3.562025129795074463e-01 -6.603375673294067383e-01 -1.318242996931076050e-01
4.835194945335388184e-01 -6.615620851516723633e-01 -1.628385782241821289e-01
3.493042588233947754e-01 -7.374467253684997559e-01 -2.280842810869216919e-01
2.485850155353546143e-01 -7.410722970962524414e-01 -1.798463612794876099e-01
5.563777089118957520e-01 -7.081668376922607422e-01 7.273153960704803467e-02
2.506092786788940430e-01 -6.815254688262939453e-01 -4.850353002548217773e-01
4.364299476146697998e-01 -6.986857652664184570e-01 -4.909686446189880371e-01
5.294299125671386719e-01 -6.658674478530883789e-01 -1.496697813272476196e-01
2.357190251350402832e-01 -6.800863742828369141e-01 -4.582988023757934570e-01
4.009316861629486084e-01 -7.350494861602783203e-01 3.441311419010162354e-02
4.054023921489715576e-01 -7.355030179023742676e-01 -1.371415257453918457e-01
3.153241574764251709e-01 -6.621311902999877930e-01 -1.881790310144424438e-01
3.948449790477752686e-01 -6.627301573753356934e-01 -3.201634883880615234e-01
2.696477174758911133e-01 -6.836685538291931152e-01 1.795417517423629761e-01
2.862349152565002441e-01 -7.416090965270996094e-01 -6.774558126926422119e-02
4.573688507080078125e-01 -6.604842543601989746e-01 -8.224035799503326416e-02
4.210202693939208984e-01 -7.343177795410156250e-01 -1.159775257110595703e-01
5.687640905380249023e-01 -6.734973788261413574e-01 -4.026484489440917969e-02
4.469099342823028564e-01 -6.603298187255859375e-01 -2.057842314243316650e-01
2.805139124393463135e-01 -6.722257733345031738e-01 -4.207552671432495117e-01
1.937259137630462646e-01 -6.749281883239746094e-01 -2.572677731513977051e-01
5.245416760444641113e-01 -6.657842993736267090e-01 -1.803659498691558838e-01
2.609650194644927979e-01 -6.715297698974609375e-01 -3.859749436378479004e-01
5.105944871902465820e-01 -7.184735536575317383e-01 1.000509858131408691e-01
3.276292383670806885e-01 -7.400612235069274902e-01 -1.143208146095275879e-02
5.052663087844848633e-01 -6.894636154174804688e-01 2.278227359056472778e-01
5.492646694183349609e-01 -7.048197984695434570e-01 -2.554334700107574463e-01
3.387230634689331055e-01 -6.626193523406982422e-01 -4.561448842287063599e-02
2.588748931884765625e-01 -7.343210577964782715e-01 1.239059418439865112e-01
3.950167298316955566e-01 -6.664184927940368652e-01 -3.851262331008911133e-01
4.348778724670410156e-01 -6.673040390014648438e-01 1.055603027343750000e-01
3.271049559116363525e-01 -7.315292358398437500e-01 -3.682335615158081055e-01
5.798024535179138184e-01 -6.971942186355590820e-01 -1.824933141469955444e-01
3.816140890121459961e-01 -7.378591299057006836e-01 -7.823269069194793701e-02
4.029235243797302246e-01 -7.229110002517700195e-01 -3.943976163864135742e-01
5.611000061035156250e-01 -7.094145417213439941e-01 -1.241864413022994995e-01
4.758723974227905273e-01 -6.615917682647705078e-01 -6.001135706901550293e-02
3.287549614906311035e-01 -7.339168787002563477e-01 -3.306134939193725586e-01
3.874357342720031738e-01 -7.291586399078369141e-01 1.725213378667831421e-01
4.861968755722045898e-01 -7.163399457931518555e-01 -3.198217749595642090e-01
2.157677412033081055e-01 -7.246657013893127441e-01 -4.489374756813049316e-01
2.081782519817352295e-01 -6.808841228485107422e-01 5.242328345775604248e-02
3.567679524421691895e-01 -7.234694957733154297e-01 2.395562380552291870e-01
3.972993195056915283e-01 -6.594107747077941895e-01 -1.284349262714385986e-01
4.550645947456359863e-01 -7.265796065330505371e-01 1.138836592435836792e-01
4.533587396144866943e-01 -7.303548455238342285e-01 -1.386180371046066284e-01
2.067515999078750610e-01 -6.776298880577087402e-01 -1.259371638298034668e-03
2.394966185092926025e-01 -6.698510646820068359e-01 -8.416488766670227051e-02
2.386937737464904785e-01 -6.728026270866394043e-01 -5.477331578731536865e-03
2.563506662845611572e-01 -6.679878830909729004e-01 -2.897709012031555176e-01
5.217888355255126953e-01 -7.124723792076110840e-01 -2.678069472312927246e-01
3.415686786174774170e-01 -6.632120609283447266e-01 -3.126475811004638672e-01
3.309456706047058105e-01 -7.320857644081115723e-01 1.648422032594680786e-01
4.006893336772918701e-01 -6.657789945602416992e-01 -3.742450475692749023e-01
2.109158486127853394e-01 -6.864148974418640137e-01 1.166832149028778076e-01
4.103610515594482422e-01 -6.836718320846557617e-01 2.532439827919006348e-01
4.863983988761901855e-01 -7.258955240249633789e-01 1.280099153518676758e-02
5.370030403137207031e-01 -6.679639816284179688e-01 -1.865135878324508667e-02
5.784133076667785645e-01 -6.773120760917663574e-01 -1.482498347759246826e-01
2.556170225143432617e-01 -6.792032122611999512e-01 -4.711937308311462402e-01
2.966254055500030518e-01 -7.091298699378967285e-01 -5.406973361968994141e-01
5.739384889602661133e-01 -7.060277462005615234e-01 -4.714930057525634766e-02
3.301638364791870117e-01 -6.670877337455749512e-01 5.300667881965637207e-02
1.906237751245498657e-01 -7.040606141090393066e-01 -5.082076191902160645e-01
5.478405952453613281e-01 -7.069876194000244141e-01 1.197988986968994141e-01
3.663628697395324707e-01 -6.742779016494750977e-01 -4.718803167343139648e-01
4.049426913261413574e-01 -6.816919445991516113e-01 2.422640770673751831e-01
4.570593237876892090e-01 -7.297480702400207520e-01 2.147136628627777100e-02
2.511038780212402344e-01 -6.726890802383422852e-01 2.274464070796966553e-02
4.325375258922576904e-01 -7.287971377372741699e-01 1.205433607101440430e-01
2.699824273586273193e-01 -6.805596947669982910e-01 -4.927657246589660645e-01
3.213839530944824219e-01 -6.698846817016601562e-01 8.950999379158020020e-02
1.938937008380889893e-01 -7.395578026771545410e-01 -1.279536634683609009e-01
5.506613254547119141e-01 -6.800470352172851562e-01 -2.938548922538757324e-01
4.682416319847106934e-01 -6.715878844261169434e-01 -3.887829780578613281e-01
4.303356707096099854e-01 -6.751785278320312500e-01 1.943327039480209351e-01
4.181671440601348877e-01 -6.605359315872192383e-01 -2.491236329078674316e-01
1.440967321395874023e-01 -7.336535453796386719e-01 -7.351957261562347412e-02
5.770173072814941406e-01 -6.768552660942077637e-01 -1.568725705146789551e-02
2.210448980331420898e-01 -7.318736314773559570e-01 1.215504705905914307e-01
3.167355656623840332e-01 -6.623188257217407227e-01 -1.246818006038665771e-01
3.180235028266906738e-01 -7.408268451690673828e-01 -1.360796391963958740e-01
2.709241211414337158e-01 -6.752362847328186035e-01 -4.473033547401428223e-01
4.396899938583374023e-01 -6.622966527938842773e-01 -2.856329381465911865e-01
4.842882156372070312e-01 -6.827346682548522949e-01 -4.303150177001953125e-01
4.948936402797698975e-01 -6.750690937042236328e-01 -3.798913955688476562e-01
4.197328686714172363e-01 -7.237462401390075684e-01 -3.618716001510620117e-01
2.255390286445617676e-01 -6.705889105796813965e-01 -1.303392648696899414e-01
2.237268388271331787e-01 -7.370687723159790039e-01 5.037833750247955322e-02
2.528700828552246094e-01 -7.350357174873352051e-01 1.103506982326507568e-01
5.036191344261169434e-01 -7.237614393234252930e-01 -5.382356047630310059e-02
5.095206499099731445e-01 -7.212842702865600586e-01 4.090401530265808105e-02
1.606632620096206665e-01 -7.050346136093139648e-01 1.232485622167587280e-01
5.771623253822326660e-01 -7.015027999877929688e-01 -1.539035290479660034e-01
9.123431146144866943e-02 -7.195584774017333984e-01 -2.236110568046569824e-01
1.601400524377822876e-01 -7.308623790740966797e-01 -3.298344612121582031e-01
5.255442857742309570e-01 -7.186840176582336426e-01 1.997040212154388428e-02
2.781338095664978027e-01 -7.223716974258422852e-01 -4.776914119720458984e-01
4.711207747459411621e-01 -7.194942831993103027e-01 1.797143667936325073e-01
5.169737339019775391e-01 -7.082909941673278809e-01 1.874171942472457886e-01
2.136283516883850098e-01 -7.347183823585510254e-01 7.737910747528076172e-02
3.143872618675231934e-01 -6.958273649215698242e-01 -5.552368164062500000e-01
5.760798454284667969e-01 -7.006533145904541016e-01 5.576434731483459473e-02
2.904575467109680176e-01 -7.159430980682373047e-01 -5.148455500602722168e-01
3.213948607444763184e-01 -7.331824302673339844e-01 -3.482695519924163818e-01
4.266311526298522949e-01 -7.310982942581176758e-01 8.510032296180725098e-02
2.042255699634552002e-01 -6.732128858566284180e-01 -1.477335840463638306e-01
1.261056363582611084e-01 -6.895012855529785156e-01 -1.252489686012268066e-01
4.152767062187194824e-01 -6.596373915672302246e-01 -9.500804543495178223e-02
3.058629035949707031e-01 -7.357714176177978516e-01 -3.149941861629486084e-01
3.164701163768768311e-01 -6.792853474617004395e-01 -5.041343569755554199e-01
1.746118813753128052e-01 -7.373604774475097656e-01 -6.567832827568054199e-02
2.504545450210571289e-01 -6.773715615272521973e-01 -4.489174485206604004e-01
3.730478286743164062e-01 -6.676775217056274414e-01 9.917795658111572266e-02
1.991866827011108398e-01 -7.290764451026916504e-01 -3.982582688331604004e-01
4.730712771415710449e-01 -6.636260747909545898e-01 -2.719933092594146729e-01
1.893145143985748291e-01 -7.366149425506591797e-01 -2.682284712791442871e-01
5.378280878067016602e-01 -7.166005969047546387e-01 -9.059076011180877686e-02
5.763503313064575195e-01 -6.873134374618530273e-01 -2.284788489341735840e-01
2.116213291883468628e-01 -6.902777552604675293e-01 -4.992497563362121582e-01
3.682834208011627197e-01 -7.101079225540161133e-01 -5.121637582778930664e-01
3.243167102336883545e-01 -7.056903839111328125e-01 2.919403910636901855e-01
4.101601541042327881e-01 -6.726796030998229980e-01 -4.454450011253356934e-01
1.603472381830215454e-01 -7.241503596305847168e-01 -4.042108058929443359e-01
2.620535492897033691e-01 -7.370926737785339355e-01 8.286555111408233643e-02
3.632906973361968994e-01 -7.365994453430175781e-01 -2.272382676601409912e-01
2.351684570312500000e-01 -7.131875753402709961e-01 2.307036668062210083e-01
5.275185108184814453e-01 -6.660853624343872070e-01 -4.324819147586822510e-02
1.722184568643569946e-01 -6.781265139579772949e-01 -1.716506779193878174e-01
4.731135368347167969e-01 -6.985027194023132324e-01 -4.482467770576477051e-01
3.584071695804595947e-01 -6.667485833168029785e-01 7.455001771450042725e-02
4.695047140121459961e-01 -7.111410498619079590e-01 -3.975834250450134277e-01
4.265585243701934814e-01 -7.200063467025756836e-01 -3.914255499839782715e-01
3.606145977973937988e-01 -6.695184707641601562e-01 -4.275165200233459473e-01
1.024324595928192139e-01 -7.250340580940246582e-01 -2.144109159708023071e-01
4.148730039596557617e-01 -6.601333022117614746e-01 -2.334377169609069824e-01
1.501861661672592163e-01 -7.155401110649108887e-01 1.066369861364364624e-01
5.642223358154296875e-01 -6.775655746459960938e-01 5.898292362689971924e-02
3.946202397346496582e-01 -7.362852096557617188e-01 -2.932995557785034180e-04
2.994445562362670898e-01 -7.406803369522094727e-01 -1.035179942846298218e-02
3.632262051105499268e-01 -6.671938300132751465e-01 8.549678325653076172e-02
5.563521385192871094e-01 -6.701242923736572266e-01 -1.248267367482185364e-01
2.833411097526550293e-01 -6.786833405494689941e-01 1.523541361093521118e-01
3.846261799335479736e-01 -7.360712289810180664e-01 -1.930672228336334229e-01
1.333314776420593262e-01 -7.293051481246948242e-01 -2.910716533660888672e-01
2.674792408943176270e-01 -7.410158514976501465e-01 -1.873521506786346436e-01
2.957666218280792236e-01 -7.179518342018127441e-01 -5.034697055816650391e-01
5.124610662460327148e-01 -7.208740711212158203e-01 -1.465925872325897217e-01
4.129170775413513184e-01 -7.099777460098266602e-01 2.851982712745666504e-01
4.187330901622772217e-01 -7.149667739868164062e-01 -4.422360658645629883e-01
2.739779949188232422e-01 -6.891615986824035645e-01 -5.372883081436157227e-01
4.857694208621978760e-01 -6.639637351036071777e-01 7.190987467765808105e-03
2.905923426151275635e-01 -6.653959751129150391e-01 -2.980501651763916016e-01
4.580220580101013184e-01 -6.601497530937194824e-01 -1.439860165119171143e-01
5.099315643310546875e-01 -7.137393951416015625e-01 -2.884435355663299561e-01
3.361106514930725098e-01 -6.610210537910461426e-01 -1.766141802072525024e-01
2.823581695556640625e-01 -7.111409902572631836e-01 2.691134214401245117e-01
2.772494554519653320e-01 -6.694073081016540527e-01 1.441736519336700439e-02
2.455840706825256348e-01 -6.678149700164794922e-01 -1.869164109230041504e-01
4.672842025756835938e-01 -6.647427678108215332e-01 4.681338369846343994e-02
5.549383759498596191e-01 -7.119807600975036621e-01 -6.311088800430297852e-03
5.121646523475646973e-01 -6.644369363784790039e-01 -4.420431703329086304e-02
3.854781985282897949e-01 -6.745043396949768066e-01 1.852114945650100708e-01
5.115004777908325195e-01 -6.661636829376220703e-01 1.374000310897827148e-02
4.116678535938262939e-01 -6.593285799026489258e-01 -1.707189828157424927e-01
3.336437046527862549e-01 -6.631934642791748047e-01 -3.034984469413757324e-01
1.301679760217666626e-01 -6.982280611991882324e-01 -3.982709646224975586e-01
3.307648301124572754e-01 -6.614402532577514648e-01 -2.106176018714904785e-01
4.796386957168579102e-01 -7.265174984931945801e-01 -1.475681960582733154e-01
2.846547663211822510e-01 -7.417284846305847168e-01 -9.035262465476989746e-02
2.303514778614044189e-01 -6.695935130119323730e-01 -1.679189205169677734e-01
4.016186296939849854e-01 -7.346287369728088379e-01 -1.932904720306396484e-01
4.449927210807800293e-01 -7.197246551513671875e-01 2.131178230047225952e-01
3.035294711589813232e-01 -7.411897778511047363e-01 -1.415714919567108154e-01
1.179032325744628906e-01 -7.292531728744506836e-01 -2.172348201274871826e-01
5.389101505279541016e-01 -7.085598707199096680e-01 1.338809579610824585e-01
4.081725478172302246e-01 -6.843813061714172363e-01 -5.066155195236206055e-01
2.100542634725570679e-01 -7.333248257637023926e-01 -3.524856567382812500e-01
4.857928156852722168e-01 -6.641117334365844727e-01 -2.588483393192291260e-01
5.060847401618957520e-01 -6.665270924568176270e-01 -2.640426456928253174e-01
2.441991865634918213e-01 -6.681589484214782715e-01 -2.307246923446655273e-01
1.220899075269699097e-01 -7.078187465667724609e-01 3.545331954956054688e-02
1.444462686777114868e-01 -6.861479282379150391e-01 -3.178719878196716309e-01
3.092491626739501953e-01 -6.791938543319702148e-01 1.830653995275497437e-01
5.697565078735351562e-01 -6.742198467254638672e-01 -2.482829988002777100e-02
2.309950143098831177e-01 -7.397801280021667480e-01 -2.256297022104263306e-01
2.367429137229919434e-01 -7.323936820030212402e-01 -3.781039118766784668e-01
1.440282016992568970e-01 -7.252544760704040527e-01 5.180026590824127197e-02
3.655470609664916992e-01 -6.619247794151306152e-01 -2.921947836875915527e-02
4.067195057868957520e-01 -7.358996272087097168e-01 -7.220917940139770508e-02
1.508176922798156738e-01 -6.832271218299865723e-01 -1.236687973141670227e-01
1.808792948722839355e-01 -7.121752500534057617e-01 -4.880594015121459961e-01
4.472526609897613525e-01 -6.598190069198608398e-01 -1.544399410486221313e-01
1.842567473649978638e-01 -6.766658425331115723e-01 -1.271713674068450928e-01
2.438597530126571655e-01 -7.227355241775512695e-01 2.094525247812271118e-01
5.688004493713378906e-01 -6.977863907814025879e-01 -2.329058945178985596e-01
4.162066280841827393e-01 -6.726410388946533203e-01 1.716631799936294556e-01
9.632694721221923828e-02 -7.011228203773498535e-01 -1.320143491029739380e-01
4.040009379386901855e-01 -7.339162230491638184e-01 -2.096568644046783447e-01
3.498493731021881104e-01 -6.959849596023559570e-01 -5.488055944442749023e-01
4.211092889308929443e-01 -7.211538553237915039e-01 2.246726900339126587e-01
3.503123819828033447e-01 -6.665613651275634766e-01 -3.862309455871582031e-01
5.351175069808959961e-01 -7.126016020774841309e-01 1.023347377777099609e-01
3.080357313156127930e-01 -6.972873806953430176e-01 2.753984332084655762e-01
2.333638370037078857e-01 -7.268474102020263672e-01 1.766923815011978149e-01
4.027787148952484131e-01 -6.761583685874938965e-01 2.030627876520156860e-01
4.777535796165466309e-01 -6.731849908828735352e-01 1.572533994913101196e-01
4.129064083099365234e-01 -7.177898883819580078e-01 2.530747652053833008e-01
4.977983832359313965e-01 -7.179035544395446777e-01 1.445851475000381470e-01
4.756193161010742188e-01 -7.220702767372131348e-01 1.404411941766738892e-01
3.911921083927154541e-01 -7.333793640136718750e-01 1.005075424909591675e-01
1.541822999715805054e-01 -7.356529831886291504e-01 -9.884862601757049561e-02
4.001459479331970215e-01 -6.648019552230834961e-01 6.265005469322204590e-02
4.569721519947052002e-01 -6.667745113372802734e-01 8.994071185588836670e-02
1.445956528186798096e-01 -7.326474785804748535e-01 -4.249121993780136108e-02
2.389472275972366333e-01 -6.728360652923583984e-01 -3.693865537643432617e-01
2.740001678466796875e-01 -6.659312248229980469e-01 -9.935534000396728516e-02
1.688880175352096558e-01 -6.932665705680847168e-01 -4.562145471572875977e-01
3.541789650917053223e-01 -7.280367612838745117e-01 2.029634565114974976e-01
3.422418236732482910e-01 -7.380686402320861816e-01 4.768447577953338623e-02
3.520283102989196777e-01 -6.782658696174621582e-01 -5.002876520156860352e-01
2.703740000724792480e-01 -6.658098101615905762e-01 -2.434746325016021729e-01
3.043779432773590088e-01 -7.129198908805847168e-01 -5.263566970825195312e-01
5.467314124107360840e-01 -6.685655117034912109e-01 -1.473142951726913452e-01
1.029673218727111816e-01 -7.198492288589477539e-01 -3.023285865783691406e-01
4.541517198085784912e-01 -7.132381200790405273e-01 -4.072116017341613770e-01
2.634445726871490479e-01 -7.384968996047973633e-01 5.512161552906036377e-02
5.423332452774047852e-01 -6.693847775459289551e-01 -2.027851641178131104e-01
3.199175596237182617e-01 -6.665715575218200684e-01 2.950562536716461182e-02
8.605462312698364258e-02 -7.160114049911499023e-01 -1.925457119941711426e-01
4.336808323860168457e-01 -6.653960943222045898e-01 7.521544396877288818e-02
2.102368474006652832e-01 -6.744239926338195801e-01 -3.261092901229858398e-01
3.504850268363952637e-01 -7.323299050331115723e-01 -3.356133103370666504e-01
4.619676768779754639e-01 -6.839107275009155273e-01 2.410878986120223999e-01
2.654791176319122314e-01 -6.703605055809020996e-01 9.126827120780944824e-03
5.498098731040954590e-01 -6.979217529296875000e-01 -2.982152104377746582e-01
1.319200694561004639e-01 -7.307541966438293457e-01 -5.604488402605056763e-02
1.413949877023696899e-01 -6.894371509552001953e-01 -3.663320839405059814e-02
2.852898836135864258e-01 -6.670477986335754395e-01 -2.364924550056457520e-02
3.407940864562988281e-01 -6.797969341278076172e-01 2.105060666799545288e-01
3.875997066497802734e-01 -6.597762107849121094e-01 -2.114452570676803589e-01
1.896837800741195679e-01 -7.378178238868713379e-01 -2.974116802215576172e-02
1.094223260879516602e-01 -7.054734230041503906e-01 -1.669657230377197266e-02
2.224671244621276855e-01 -7.409096956253051758e-01 -1.419358402490615845e-01
1.896768063306808472e-01 -7.352713346481323242e-01 3.085723519325256348e-02
4.897647500038146973e-01 -6.940562129020690918e-01 -4.320963621139526367e-01
3.869458138942718506e-01 -6.665422320365905762e-01 8.820171654224395752e-02
5.030572414398193359e-01 -7.129907608032226562e-01 -3.146305382251739502e-01
2.228358387947082520e-01 -6.776023507118225098e-01 -4.130213260650634766e-01
5.239971876144409180e-01 -6.649585962295532227e-01 -9.747945517301559448e-02
1.857155859470367432e-01 -7.264348268508911133e-01 -4.131572842597961426e-01
4.524343013763427734e-01 -7.260078191757202148e-01 -2.640949487686157227e-01
5.762172937393188477e-01 -6.828489303588867188e-01 6.203027069568634033e-02
4.585934579372406006e-01 -6.670748591423034668e-01 -3.510958552360534668e-01
4.466351270675659180e-01 -7.308110594749450684e-01 2.896167337894439697e-02
4.406578838825225830e-01 -6.597170829772949219e-01 -1.692508906126022339e-01
2.204027622938156128e-01 -6.710996031761169434e-01 -2.478138357400894165e-01
2.465954422950744629e-01 -7.327917814254760742e-01 1.344940811395645142e-01
1.024467051029205322e-01 -7.006782889366149902e-01 -3.063935637474060059e-01
2.060829848051071167e-01 -7.401598095893859863e-01 -9.633076190948486328e-02
4.957541227340698242e-01 -6.631656885147094727e-01 -4.109927266836166382e-02
4.799425005912780762e-01 -7.271028757095336914e-01 -1.151805222034454346e-01
4.819740056991577148e-01 -6.625582575798034668e-01 -2.226698994636535645e-01
1.443985700607299805e-01 -6.847755312919616699e-01 -2.819246649742126465e-01
5.359899401664733887e-01 -6.666179895401000977e-01 -1.344863921403884888e-01
5.587617754936218262e-01 -6.923258900642395020e-01 -2.887351512908935547e-01
3.215114176273345947e-01 -6.760779619216918945e-01 -4.830456972122192383e-01
5.452029705047607422e-01 -7.150539159774780273e-01 -5.461375415325164795e-02
1.229795813560485840e-01 -6.978174448013305664e-01 -3.741111159324645996e-01
3.147410750389099121e-01 -6.639534831047058105e-01 -2.995528578758239746e-01
1.655773371458053589e-01 -7.326127886772155762e-01 2.310088276863098145e-02
5.439677238464355469e-01 -6.898761391639709473e-01 1.735039800405502319e-01
5.832741856575012207e-01 -6.963348984718322754e-01 -1.671045720577239990e-01
2.726681530475616455e-01 -6.816383600234985352e-01 1.667243391275405884e-01
4.404749274253845215e-01 -6.661692857742309570e-01 -3.565878868103027344e-01
1.865809112787246704e-01 -6.900084614753723145e-01 9.929604828357696533e-02
1.493632197380065918e-01 -6.851592659950256348e-01 -7.738748937845230103e-02
2.258997857570648193e-01 -7.355845570564270020e-01 -3.253201842308044434e-01
3.205800354480743408e-01 -7.282842397689819336e-01 -4.121519923210144043e-01
2.250646352767944336e-01 -6.743240952491760254e-01 -1.184672862291336060e-02
4.783932566642761230e-01 -7.228937745094299316e-01 -2.474740445613861084e-01
3.076338768005371094e-01 -6.753364205360412598e-01 1.443839520215988159e-01
2.452897280454635620e-01 -7.394105792045593262e-01 -2.463050484657287598e-01
1.900239884853363037e-01 -7.363004088401794434e-01 1.113787293434143066e-02
3.032459020614624023e-01 -6.745715737342834473e-01 -4.633597731590270996e-01
1.117234379053115845e-01 -6.986303925514221191e-01 -5.605544894933700562e-02
2.043255567550659180e-01 -6.862935423851013184e-01 -4.681321382522583008e-01
3.963866829872131348e-01 -6.864412426948547363e-01 2.664238810539245605e-01
2.942745983600616455e-01 -7.374494671821594238e-01 -2.878169417381286621e-01
4.635389149188995361e-01 -6.948450803756713867e-01 2.716342806816101074e-01
2.457287907600402832e-01 -6.709824204444885254e-01 -3.461287617683410645e-01
3.724236488342285156e-01 -7.246454954147338867e-01 -4.106210470199584961e-01
1.292730867862701416e-01 -7.244452238082885742e-01 1.769319176673889160e-02
2.912993431091308594e-01 -6.682064533233642578e-01 1.666733622550964355e-02
5.484306812286376953e-01 -6.772851943969726562e-01 1.005369573831558228e-01
5.567938089370727539e-01 -6.760273575782775879e-01 -2.459542751312255859e-01
3.768429458141326904e-01 -7.184244394302368164e-01 2.647863030433654785e-01
4.493547379970550537e-01 -7.315316796302795410e-01 -7.886495441198348999e-02
1.352820694446563721e-01 -6.900355219841003418e-01 -3.421676754951477051e-01
3.426955640316009521e-01 -6.608437299728393555e-01 -2.018352597951889038e-01
1.947750151157379150e-01 -7.272667288780212402e-01 1.305689066648483276e-01
4.150130450725555420e-01 -6.610861420631408691e-01 -2.704110741615295410e-01
2.640476822853088379e-01 -7.417922616004943848e-01 -1.116297245025634766e-01
2.409926354885101318e-01 -7.310976982116699219e-01 -3.954289555549621582e-01
3.048055171966552734e-01 -7.294217944145202637e-01 1.936740428209304810e-01
1.531798988580703735e-01 -7.358532547950744629e-01 -1.350922882556915283e-01
4.709221720695495605e-01 -6.606971621513366699e-01 -1.353228837251663208e-01
3.400807082653045654e-01 -7.357447743415832520e-01 -2.845111489295959473e-01
4.504305720329284668e-01 -6.646407842636108398e-01 -3.230966031551361084e-01
3.205772042274475098e-01 -6.618225574493408203e-01 -1.649898290634155273e-01
5.655417442321777344e-01 -6.744564175605773926e-01 7.916584610939025879e-03
2.713106870651245117e-01 -7.410898804664611816e-01 -2.563964575529098511e-02
5.585464239120483398e-01 -6.723485589027404785e-01 -1.513898372650146484e-03
2.529166638851165771e-01 -6.858249306678771973e-01 1.754987090826034546e-01
1.461355984210968018e-01 -7.324612736701965332e-01 -2.677097320556640625e-01
5.327902436256408691e-01 -6.944935321807861328e-01 -3.525526523590087891e-01
1.718015372753143311e-01 -7.367628812789916992e-01 -2.226613461971282959e-01
5.289570689201354980e-01 -7.127839326858520508e-01 -2.391215562820434570e-01
3.181374967098236084e-01 -7.133803367614746094e-01 -5.211027860641479492e-01
3.216557502746582031e-01 -7.089027762413024902e-01 -5.370018482208251953e-01
5.582606792449951172e-01 -6.952412128448486328e-01 1.441467553377151489e-01
1.891257166862487793e-01 -6.831151843070983887e-01 3.434836864471435547e-02
5.000129342079162598e-01 -6.678085923194885254e-01 6.731876730918884277e-02
4.832094013690948486e-01 -6.842260360717773438e-01 2.294894605875015259e-01
3.508923649787902832e-01 -6.682612895965576172e-01 9.305436909198760986e-02
3.715763688087463379e-01 -7.341557145118713379e-01 -2.739537954330444336e-01
4.267082214355468750e-01 -6.693822741508483887e-01 -4.057685136795043945e-01
4.323215186595916748e-01 -6.607292890548706055e-01 -2.451516985893249512e-01
2.855356335639953613e-01 -7.266036272048950195e-01 2.112219184637069702e-01
2.698633074760437012e-01 -7.379409670829772949e-01 7.009838521480560303e-02
4.674521982669830322e-01 -7.292882800102233887e-01 -5.658695101737976074e-02
3.390046954154968262e-01 -7.142693400382995605e-01 -5.090945959091186523e-01
2.405962049961090088e-01 -7.411419749259948730e-01 -5.877380818128585815e-02
4.238078594207763672e-01 -7.058368325233459473e-01 2.895218729972839355e-01
5.186534523963928223e-01 -7.203318476676940918e-01 1.000480353832244873e-02
3.228803277015686035e-01 -6.617842912673950195e-01 -1.442336589097976685e-01
4.757947325706481934e-01 -6.700042486190795898e-01 1.234370619058609009e-01
1.437655836343765259e-01 -6.839988827705383301e-01 -2.382086962461471558e-01
4.838621616363525391e-01 -6.614463329315185547e-01 -1.431676894426345825e-01
4.777494370937347412e-01 -6.650881171226501465e-01 -2.943624258041381836e-01
2.847586572170257568e-01 -6.752186417579650879e-01 -4.583534002304077148e-01
5.600608587265014648e-01 -6.826541423797607422e-01 1.126476526260375977e-01
2.469060122966766357e-01 -7.406609058380126953e-01 -2.006056308746337891e-01
3.928177058696746826e-01 -7.252155542373657227e-01 -3.820958137512207031e-01
3.460047245025634766e-01 -7.352170348167419434e-01 1.113603860139846802e-01
5.087056159973144531e-01 -6.853138804435729980e-01 -3.998741507530212402e-01
3.069856464862823486e-01 -7.382488250732421875e-01 6.634938716888427734e-02
2.423894405364990234e-01 -7.392410039901733398e-01 2.126041054725646973e-02
5.056536197662353516e-01 -7.226203680038452148e-01 -1.279753148555755615e-01
3.318914771080017090e-01 -6.743368506431579590e-01 -4.712546467781066895e-01
5.373278260231018066e-01 -6.988515853881835938e-01 -3.282539844512939453e-01
1.256360113620758057e-01 -7.223453521728515625e-01 -3.551885187625885010e-01
3.341413736343383789e-01 -7.366515994071960449e-01 9.033201634883880615e-02
1.349232941865921021e-01 -7.326299548149108887e-01 -2.110893130302429199e-01
1.620045453310012817e-01 -6.882932782173156738e-01 2.179342508316040039e-02
3.158781826496124268e-01 -7.353764176368713379e-01 1.209621578454971313e-01
2.230492830276489258e-01 -6.919638514518737793e-01 1.747475415468215942e-01
4.899021387100219727e-01 -7.049373984336853027e-01 2.417008131742477417e-01
4.007408320903778076e-01 -6.595332622528076172e-01 -1.093169227242469788e-01
4.871251881122589111e-01 -7.247915863990783691e-01 5.079767107963562012e-02
1.266563683748245239e-01 -6.888689398765563965e-01 -1.419066488742828369e-01
2.184949368238449097e-01 -7.345183491706848145e-01 -3.394013643264770508e-01
2.268821299076080322e-01 -7.386786937713623047e-01 -2.576655745506286621e-01
5.446473956108093262e-01 -6.822416782379150391e-01 -3.190369009971618652e-01
2.950613200664520264e-01 -7.388164401054382324e-01 5.443237721920013428e-02
2.352055907249450684e-01 -6.903864145278930664e-01 -5.203823447227478027e-01
2.644728720188140869e-01 -7.367674112319946289e-01 -3.113632500171661377e-01
2.583081126213073730e-01 -7.412990331649780273e-01 -1.701428294181823730e-01
1.174011826515197754e-01 -6.936462521553039551e-01 -3.063162565231323242e-01
2.848823666572570801e-01 -6.658185124397277832e-01 -6.319035589694976807e-02
3.256007730960845947e-01 -7.398705482482910156e-01 1.512080430984497070e-03
2.210391312837600708e-01 -6.771455407142639160e-01 2.894854545593261719e-02
5.038497447967529297e-01 -6.993245482444763184e-01 -3.977615833282470703e-01
1.375192850828170776e-01 -7.035138010978698730e-01 -4.329368472099304199e-01
5.471647977828979492e-01 -6.760770082473754883e-01 -2.777462005615234375e-01
2.386684119701385498e-01 -6.706328988075256348e-01 -3.178333938121795654e-01
1.690026372671127319e-01 -6.897100210189819336e-01 5.617460608482360840e-02
3.778400719165802002e-01 -6.599246263504028320e-01 -1.075390204787254333e-01
3.430384099483489990e-01 -7.141029238700866699e-01 2.839339971542358398e-01
5.198504924774169922e-01 -7.163701653480529785e-01 -2.180229425430297852e-01
3.292129635810852051e-01 -7.035669684410095215e-01 -5.480767488479614258e-01
2.668761610984802246e-01 -7.403719425201416016e-01 -2.161220014095306396e-01
4.364240169525146484e-01 -6.817913055419921875e-01 2.395491749048233032e-01
4.480044245719909668e-01 -6.605439782142639160e-01 -6.212928891181945801e-02
2.839204072952270508e-01 -6.643346548080444336e-01 -2.043798714876174927e-01
5.118502378463745117e-01 -6.641702651977539062e-01 -5.612435191869735718e-02
4.709638357162475586e-01 -7.109839916229248047e-01 2.403093427419662476e-01
3.014530539512634277e-01 -6.698579788208007812e-01 6.402796506881713867e-02
3.546777367591857910e-01 -7.346476912498474121e-01 -2.889115214347839355e-01
2.355644255876541138e-01 -6.745423078536987305e-01 2.026876807212829590e-02
2.292286753654479980e-01 -6.696512699127197266e-01 -1.956107467412948608e-01
4.648519158363342285e-01 -7.264227271080017090e-01 9.156626462936401367e-02
2.866144478321075439e-01 -7.392862439155578613e-01 -2.452883869409561157e-01
2.723392248153686523e-01 -6.653136610984802246e-01 -2.101233303546905518e-01
3.783018589019775391e-01 -7.130389809608459473e-01 2.860137224197387695e-01
3.337464630603790283e-01 -6.622470021247863770e-01 -7.094072550535202026e-02
3.507421612739562988e-01 -6.604111194610595703e-01 -1.755144447088241577e-01
2.914644479751586914e-01 -6.901719570159912109e-01 -5.451701283454895020e-01
1.091569364070892334e-01 -6.939741373062133789e-01 -2.331236302852630615e-01
1.602227389812469482e-01 -7.288683652877807617e-01 5.747801065444946289e-02
4.691153764724731445e-01 -6.797252297401428223e-01 -4.384592175483703613e-01
1.082086712121963501e-01 -7.184216976165771484e-01 -3.338046073913574219e-01
4.178357720375061035e-01 -7.199590206146240234e-01 2.360783666372299194e-01
2.994508147239685059e-01 -7.364932894706726074e-01 -3.049677312374114990e-01
4.860961735248565674e-01 -6.634024977684020996e-01 -9.641706943511962891e-03
3.972198069095611572e-01 -7.209632396697998047e-01 -4.197583794593811035e-01
4.106135964393615723e-01 -7.353911399841308594e-01 -1.074022948741912842e-01
3.674037158489227295e-01 -6.598654985427856445e-01 -1.595902144908905029e-01
4.386695623397827148e-01 -7.055588364601135254e-01 2.828124165534973145e-01
2.379965782165527344e-01 -6.717689633369445801e-01 -3.120728582143783569e-02
1.278507113456726074e-01 -7.119066715240478516e-01 -4.115072488784790039e-01
2.827908694744110107e-01 -7.386488914489746094e-01 5.810542404651641846e-02
3.780248165130615234e-01 -7.322880029678344727e-01 1.362851411104202271e-01
2.930919528007507324e-01 -6.732809543609619141e-01 -4.440823793411254883e-01
1.974859833717346191e-01 -6.783923506736755371e-01 -3.698936104774475098e-01
4.317330718040466309e-01 -6.873745322227478027e-01 -4.962897300720214844e-01
5.914430618286132812e-01 -6.900248527526855469e-01 5.811586976051330566e-03
2.859698832035064697e-01 -6.641365289688110352e-01 -1.703829765319824219e-01
4.129846692085266113e-01 -6.620683670043945312e-01 -2.991856634616851807e-01
1.269962787628173828e-01 -7.270653247833251953e-01 -1.587677001953125000e-02
3.701354861259460449e-01 -7.380831241607666016e-01 -9.390011429786682129e-03
3.871482908725738525e-01 -6.602159142494201660e-01 -2.387727200984954834e-01
4.651067256927490234e-01 -7.295288443565368652e-01 -3.608521074056625366e-02
2.878856658935546875e-01 -7.399305701255798340e-01 2.285668253898620605e-02
4.684363603591918945e-01 -7.137704491615295410e-01 2.283796221017837524e-01
4.862373471260070801e-01 -7.120004296302795410e-01 -3.608320951461791992e-01
5.647137165069580078e-01 -6.753400564193725586e-01 -2.049673497676849365e-01
4.573210477828979492e-01 -6.633327007293701172e-01 -2.893865108489990234e-01
4.457003474235534668e-01 -6.599815487861633301e-01 -9.663884341716766357e-02
5.228784084320068359e-01 -6.674976944923400879e-01 1.737901568412780762e-02
5.231332778930664062e-01 -7.096499204635620117e-01 -2.939608097076416016e-01
2.229273319244384766e-01 -6.832550764083862305e-01 -4.696570634841918945e-01
9.695219993591308594e-02 -7.094884514808654785e-01 -3.175683617591857910e-01
3.360943198204040527e-01 -7.286139130592346191e-01 -3.985422253608703613e-01
1.947637796401977539e-01 -6.913664340972900391e-01 1.253462880849838257e-01
2.127847969532012939e-01 -7.400634884834289551e-01 -1.857499480247497559e-01
3.218428492546081543e-01 -7.370499968528747559e-01 -2.754635512828826904e-01
2.936761081218719482e-01 -7.165379524230957031e-01 2.636948227882385254e-01
1.563702672719955444e-01 -6.957109570503234863e-01 -4.455869197845458984e-01
3.514359593391418457e-01 -6.635266542434692383e-01 -3.284174799919128418e-01
3.513896465301513672e-01 -7.357222437858581543e-01 -2.701750993728637695e-01
2.774013876914978027e-01 -7.331002354621887207e-01 -3.698232173919677734e-01
1.141140609979629517e-01 -7.286939024925231934e-01 -2.020998299121856689e-01
2.489619553089141846e-01 -6.891973018646240234e-01 1.926529854536056519e-01
4.169751405715942383e-01 -6.762573719024658203e-01 2.044283896684646606e-01
3.002163171768188477e-01 -6.665872335433959961e-01 -3.478493392467498779e-01
4.305264651775360107e-01 -6.615009903907775879e-01 -2.726159393787384033e-01
4.276317954063415527e-01 -6.631265282630920410e-01 -3.147408366203308105e-01
4.377292990684509277e-01 -7.118023633956909180e-01 -4.395388960838317871e-01
5.139590501785278320e-01 -7.035214900970458984e-01 -3.603456616401672363e-01
4.140397906303405762e-01 -6.616101264953613281e-01 -2.865686118602752686e-01
1.704012304544448853e-01 -7.228217720985412598e-01 -4.268351793289184570e-01
4.669434130191802979e-01 -7.251355051994323730e-01 1.116110086441040039e-01
3.720257580280303955e-01 -7.383329868316650391e-01 -3.885868191719055176e-02
2.605440914630889893e-01 -7.256281971931457520e-01 2.051641196012496948e-01
1.505083292722702026e-01 -7.288952469825744629e-01 -3.394881784915924072e-01
2.927957475185394287e-01 -6.973672509193420410e-01 2.662526965141296387e-01
3.716447651386260986e-01 -7.377480864524841309e-01 -1.611203551292419434e-01
5.934027433395385742e-01 -6.925694346427917480e-01 -2.717955410480499268e-02
4.038031101226806641e-01 -7.303994297981262207e-01 1.381357461214065552e-01
4.047421216964721680e-01 -6.610531806945800781e-01 -2.856653183698654175e-02
1.065376251935958862e-01 -7.014629840850830078e-01 -3.341286778450012207e-01
2.421048581600189209e-01 -6.682276129722595215e-01 -1.723767071962356567e-01
4.212290048599243164e-01 -6.800008416175842285e-01 2.312928587198257446e-01
4.981264770030975342e-01 -7.198454737663269043e-01 -2.379662096500396729e-01
3.699357807636260986e-01 -6.613723039627075195e-01 -4.345141351222991943e-02
3.171070814132690430e-01 -6.716361045837402344e-01 -4.399932622909545898e-01
5.410911440849304199e-01 -6.700416803359985352e-01 -2.220634520053863525e-01
2.124478816986083984e-01 -6.864575147628784180e-01 -4.795725345611572266e-01
5.171911716461181641e-01 -6.792653203010559082e-01 -3.661326169967651367e-01
2.959927320480346680e-01 -7.377698421478271484e-01 7.867260277271270752e-02
4.105733931064605713e-01 -6.642718315124511719e-01 -3.462129831314086914e-01
4.948072433471679688e-01 -6.665035486221313477e-01 5.111965537071228027e-02
1.762544065713882446e-01 -6.919428110122680664e-01 9.226882457733154297e-02
4.620656967163085938e-01 -7.239601016044616699e-01 1.417283862829208374e-01
3.133570551872253418e-01 -7.216832637786865234e-01 -4.746156930923461914e-01
3.322626650333404541e-01 -6.827499270439147949e-01 -5.239644050598144531e-01
2.447726130485534668e-01 -6.684251427650451660e-01 -1.238765865564346313e-01
3.682240545749664307e-01 -7.372450232505798340e-01 -1.942119598388671875e-01
9.896780550479888916e-02 -6.980648636817932129e-01 -2.119404375553131104e-01
3.344013392925262451e-01 -7.111907005310058594e-01 -5.247683525085449219e-01
2.804370224475860596e-01 -6.677298545837402344e-01 -3.429118990898132324e-01
3.073411583900451660e-01 -6.703760623931884766e-01 8.024410903453826904e-02
3.942529559135437012e-01 -7.192734479904174805e-01 -4.371809363365173340e-01
2.757044732570648193e-01 -7.417925596237182617e-01 -1.093479245901107788e-01
3.262617886066436768e-01 -7.160039544105529785e-01 -5.055204033851623535e-01
4.299238324165344238e-01 -7.280012965202331543e-01 -2.819968760013580322e-01
1.656679362058639526e-01 -6.862486600875854492e-01 -3.952060341835021973e-01
2.689970731735229492e-01 -7.393713593482971191e-01 3.599227964878082275e-02
3.035230338573455811e-01 -6.908484697341918945e-01 -5.485400557518005371e-01
3.390146791934967041e-01 -7.225972414016723633e-01 -4.551956653594970703e-01
1.502030193805694580e-01 -6.863734722137451172e-01 -4.854891449213027954e-02
3.978494405746459961e-01 -6.752601861953735352e-01 -4.700615406036376953e-01
1.208548545837402344e-01 -7.000381946563720703e-01 -4.092693328857421875e-03
3.399088680744171143e-01 -6.615197062492370605e-01 -9.191253781318664551e-02
2.368423938751220703e-01 -7.224245667457580566e-01 -4.734684824943542480e-01
1.948654502630233765e-01 -7.393450140953063965e-01 -1.732605397701263428e-01
5.089258551597595215e-01 -6.633417606353759766e-01 -1.194640696048736572e-01
4.285001754760742188e-01 -7.338539361953735352e-01 -6.547860056161880493e-02
2.406892180442810059e-01 -7.413901090621948242e-01 -8.237596601247787476e-02
4.256479144096374512e-01 -7.312679886817932129e-01 -2.222387492656707764e-01
2.270037233829498291e-01 -7.336454987525939941e-01 -3.572394847869873047e-01
4.068447649478912354e-01 -7.353963851928710938e-01 -5.431488156318664551e-03
5.332223176956176758e-01 -6.774352192878723145e-01 -3.234600424766540527e-01
1.678666919469833374e-01 -6.837614774703979492e-01 -2.225044369697570801e-02
4.872112870216369629e-01 -6.629967689514160156e-01 -2.554665505886077881e-02
3.945808410644531250e-01 -7.352019548416137695e-01 4.626391828060150146e-02
1.315419077873229980e-01 -6.964927315711975098e-01 6.439194083213806152e-03
2.264335453510284424e-01 -7.407908439636230469e-01 -6.655804812908172607e-02
1.310569047927856445e-01 -6.911274194717407227e-01 -5.819571763277053833e-02
4.669390320777893066e-01 -6.635046005249023438e-01 1.926071941852569580e-02
4.576799869537353516e-01 -7.078747749328613281e-01 -4.349506497383117676e-01
3.801869750022888184e-01 -6.605538129806518555e-01 -2.515007853507995605e-01
3.288735747337341309e-01 -6.905102133750915527e-01 2.649692893028259277e-01
3.169564604759216309e-01 -6.653315424919128418e-01 -3.403603434562683105e-01
2.322840094566345215e-01 -6.749328374862670898e-01 -3.921098709106445312e-01
4.285916090011596680e-01 -6.602834463119506836e-01 -2.300411164760589600e-01
3.106074035167694092e-01 -7.230073213577270508e-01 2.416438013315200806e-01
5.180989503860473633e-01 -7.193325161933898926e-01 -1.597220003604888916e-01
5.703716874122619629e-01 -6.754184961318969727e-01 -1.741203814744949341e-01
3.718669116497039795e-01 -7.362017631530761719e-01 6.135055422782897949e-02
5.696990489959716797e-01 -7.059715390205383301e-01 -1.336484551429748535e-01
1.575506627559661865e-01 -6.821410059928894043e-01 -2.912564873695373535e-01
4.138924181461334229e-01 -7.352197766304016113e-01 -8.794939517974853516e-02
2.009295821189880371e-01 -6.733880043029785156e-01 -1.859024167060852051e-01
2.138227522373199463e-01 -6.746279597282409668e-01 -4.151096194982528687e-02
4.329607188701629639e-01 -7.180077433586120605e-01 2.374282628297805786e-01
5.102507472038269043e-01 -6.754271984100341797e-01 1.478247493505477905e-01
5.329977273941040039e-01 -6.702049374580383301e-01 -2.530072331428527832e-01
2.062550932168960571e-01 -7.030023932456970215e-01 1.937509924173355103e-01
