2.104555517435073853e-01 -8.423759043216705322e-02 -8.316747099161148071e-02
2.363814711570739746e-01 -7.754161208868026733e-02 -1.121309921145439148e-01
1.400824785232543945e-01 -7.819483429193496704e-02 5.500649660825729370e-02
3.946488350629806519e-02 -3.503117710351943970e-03 4.571650642901659012e-03
2.816047668457031250e-01 -4.514273628592491150e-02 1.656588725745677948e-02
7.117131352424621582e-02 -5.409189313650131226e-02 9.963402152061462402e-02
1.623295694589614868e-01 -3.813375160098075867e-02 1.367876529693603516e-01
2.158261239528656006e-01 -8.772979676723480225e-02 5.167861655354499817e-02
1.878918409347534180e-01 -8.756151050329208374e-02 2.669246867299079895e-02
2.440298795700073242e-01 -9.258669614791870117e-02 8.840726688504219055e-03
6.501165777444839478e-02 -2.301493659615516663e-02 -9.030553698539733887e-02
7.402230799198150635e-02 -5.812947079539299011e-02 -5.902462452650070190e-02
8.908289670944213867e-02 -5.939572304487228394e-02 1.001269519329071045e-01
6.857871264219284058e-02 -8.443698287010192871e-03 8.713505417108535767e-02
2.030213177204132080e-02 -4.085958003997802734e-02 6.100820749998092651e-02
1.275995075702667236e-01 -7.805404812097549438e-02 -1.014475803822278976e-02
2.524849176406860352e-01 -3.331757336854934692e-02 -8.954468183219432831e-03
9.750720858573913574e-02 -3.874353319406509399e-02 -1.160112842917442322e-01
2.135166823863983154e-01 -4.428048431873321533e-02 -1.248210743069648743e-01
2.156855463981628418e-01 -9.083981812000274658e-02 -2.930298633873462677e-02
2.432415336370468140e-01 -4.183471575379371643e-02 -9.844593703746795654e-02
1.947340369224548340e-02 -4.334653913974761963e-02 1.500639226287603378e-02
1.787006258964538574e-01 -6.667169928550720215e-02 -1.242357566952705383e-01
1.863240748643875122e-01 -8.817263692617416382e-02 -1.020248699933290482e-02
1.394888758659362793e-02 -3.937739506363868713e-02 4.357353597879409790e-02
2.522965669631958008e-01 -4.916308820247650146e-02 -1.089624464511871338e-01
3.282539546489715576e-02 -4.492198303341865540e-02 -3.429057821631431580e-02
2.108837068080902100e-01 -9.053194522857666016e-02 1.383296307176351547e-02
1.212744563817977905e-01 -4.026309028267860413e-02 -1.256504058837890625e-01
5.957889556884765625e-02 -5.328290909528732300e-02 -5.491003394126892090e-02
6.226648390293121338e-02 -6.091646477580070496e-02 2.386693470180034637e-02
2.205690741539001465e-01 -9.170815348625183105e-02 -1.354834903031587601e-02
1.702883839607238770e-01 -1.583078876137733459e-02 5.585939809679985046e-02
1.634910106658935547e-01 -5.137757584452629089e-02 1.406848281621932983e-01
1.295113712549209595e-01 -8.265621960163116455e-03 4.652579128742218018e-02
2.825686335563659668e-01 -9.213381260633468628e-02 -1.305984612554311752e-02
2.016590535640716553e-01 -7.740499824285507202e-02 -1.065806970000267029e-01
2.336836457252502441e-01 -3.984974697232246399e-02 -1.016496643424034119e-01
2.691156268119812012e-01 -3.949494287371635437e-02 -2.872934378683567047e-02
7.593973726034164429e-02 -6.297327578067779541e-03 -3.921386972069740295e-02
1.821630448102951050e-01 -1.649557426571846008e-02 -2.970018796622753143e-02
1.848115622997283936e-01 -8.299501985311508179e-02 6.743328273296356201e-02
2.792022526264190674e-01 -4.621573165059089661e-02 3.489846736192703247e-02
3.539276123046875000e-02 -1.426910236477851868e-02 9.760671108961105347e-02
1.221602708101272583e-01 -7.062032073736190796e-02 -7.114134728908538818e-02
2.133631110191345215e-01 -5.519802123308181763e-02 -1.344246864318847656e-01
2.856551110744476318e-02 -5.298107862472534180e-03 -2.925909357145428658e-03
2.958868145942687988e-01 -5.507888644933700562e-02 3.377899155020713806e-02
1.187054216861724854e-01 -5.847234278917312622e-03 -4.415556322783231735e-04
5.414760857820510864e-02 -5.758333951234817505e-02 3.902854770421981812e-02
1.033704578876495361e-01 -1.013192906975746155e-02 -5.968891084194183350e-02
1.831096410751342773e-01 -4.531432688236236572e-02 -1.341301053762435913e-01
1.609933823347091675e-01 -1.465723663568496704e-02 -4.990739375352859497e-02
2.031817734241485596e-01 -7.880489528179168701e-02 9.391114115715026855e-02
1.100092753767967224e-01 -6.676692515611648560e-03 -2.985292859375476837e-02
9.992095082998275757e-02 -2.816224470734596252e-02 1.361289918422698975e-01
1.900291591882705688e-01 -3.579723834991455078e-02 -1.190588101744651794e-01
2.281386107206344604e-01 -2.652916871011257172e-02 -2.285460196435451508e-02
2.937670946121215820e-01 -9.068161249160766602e-02 -9.577077813446521759e-03
1.887242645025253296e-01 -7.064243406057357788e-02 1.159218028187751770e-01
2.550015449523925781e-01 -3.620419278740882874e-02 3.334617242217063904e-02
2.605491876602172852e-01 -7.815479487180709839e-02 -1.072182729840278625e-01
5.206353217363357544e-02 -1.621085777878761292e-02 -7.097084820270538330e-02
2.632735371589660645e-01 -5.588862299919128418e-02 -1.112724468111991882e-01
1.137711107730865479e-01 -5.883254110813140869e-03 3.884918987751007080e-02
2.109160721302032471e-01 -6.960002332925796509e-02 -1.259706318378448486e-01
2.832857966423034668e-01 -8.106115460395812988e-02 6.124912574887275696e-02
2.632631361484527588e-01 -9.313778579235076904e-02 -1.041985303163528442e-02
1.922413408756256104e-01 -1.758335903286933899e-02 -6.014120765030384064e-03
2.996092736721038818e-01 -8.871366828680038452e-02 -4.012948647141456604e-02
2.349597811698913574e-01 -3.578451648354530334e-02 7.439820468425750732e-02
4.477498680353164673e-02 -3.762282431125640869e-03 -6.139159202575683594e-03
9.817903488874435425e-02 -3.894723951816558838e-03 4.649179987609386444e-03
1.480405181646347046e-01 -9.984854608774185181e-03 -1.434014271944761276e-02
2.976994216442108154e-01 -5.217806249856948853e-02 5.632464773952960968e-03
2.349376082420349121e-01 -2.868275903165340424e-02 1.983445137739181519e-02
2.302230596542358398e-01 -9.237797558307647705e-02 -5.067759193480014801e-03
6.127750128507614136e-02 -5.598181858658790588e-02 -4.479289054870605469e-02
1.202428787946701050e-01 -5.143615230917930603e-02 1.370783746242523193e-01
1.654756218194961548e-01 -8.506517112255096436e-02 -1.356576103717088699e-02
7.448449730873107910e-03 -1.199168339371681213e-02 -6.206915713846683502e-03
2.387485206127166748e-01 -2.960574254393577576e-02 -2.645128406584262848e-02
1.828734725713729858e-01 -4.885771870613098145e-02 1.369857937097549438e-01
2.335604280233383179e-01 -8.909407258033752441e-02 4.656107723712921143e-02
2.960151433944702148e-01 -8.404240012168884277e-02 -7.197320461273193359e-02
1.478069573640823364e-01 -1.656430959701538086e-02 8.910880237817764282e-02
1.871896684169769287e-01 -8.744166791439056396e-02 -3.314571455121040344e-02
6.768450140953063965e-03 -1.168351992964744568e-02 5.397590622305870056e-02
1.190500110387802124e-01 -7.161130011081695557e-02 7.466545701026916504e-02
1.413903832435607910e-01 -8.047969639301300049e-02 -2.088219299912452698e-02
8.321116864681243896e-02 -6.482675671577453613e-02 -3.606103733181953430e-02
8.257565647363662720e-02 -5.355644971132278442e-02 1.129545345902442932e-01
6.634555757045745850e-02 -6.149201840162277222e-02 4.129270091652870178e-02
2.230537533760070801e-01 -4.216611385345458984e-02 -1.158629357814788818e-01
6.759351491928100586e-02 -2.548269927501678467e-03 5.471661686897277832e-03
3.068189322948455811e-02 -4.788141325116157532e-02 -5.595519207417964935e-03
2.282576560974121094e-01 -9.198908507823944092e-02 -2.495845779776573181e-02
3.406262397766113281e-02 -5.040081590414047241e-02 2.157382108271121979e-02
3.072098493576049805e-01 -7.932400703430175781e-02 3.444536775350570679e-02
1.978386193513870239e-01 -2.305283024907112122e-02 6.468159705400466919e-02
2.451200634241104126e-01 -3.677191585302352905e-02 -7.503442466259002686e-02
1.694179922342300415e-01 -1.936431415379047394e-02 8.201967179775238037e-02
2.775545418262481689e-01 -9.095435589551925659e-02 1.862589828670024872e-02
2.718346714973449707e-01 -7.382058352231979370e-02 -1.090648695826530457e-01
1.985380947589874268e-01 -8.828726410865783691e-02 3.297318890690803528e-02
1.507931053638458252e-01 -2.117924578487873077e-02 -9.336619824171066284e-02
2.057369798421859741e-01 -8.344623446464538574e-02 7.465211302042007446e-02
2.380002290010452271e-01 -9.157043695449829102e-02 2.342831343412399292e-02
2.037937045097351074e-01 -3.468403592705726624e-02 -1.093834340572357178e-01
1.880561560392379761e-01 -8.120857179164886475e-02 -8.462601900100708008e-02
1.091194152832031250e-01 -9.020201861858367920e-03 -5.073366314172744751e-02
2.432968914508819580e-01 -8.955204486846923828e-02 4.382233694195747375e-02
1.434617936611175537e-01 -7.348352670669555664e-02 8.981034904718399048e-02
1.035998314619064331e-01 -4.272382706403732300e-03 2.009940892457962036e-02
2.610648572444915771e-01 -4.363133758306503296e-02 6.377423554658889771e-02
1.905565410852432251e-01 -1.989485323429107666e-02 5.349130555987358093e-02
1.494282782077789307e-01 -8.169937133789062500e-02 3.184349089860916138e-02
1.945122778415679932e-01 -6.135071069002151489e-02 1.299800127744674683e-01
2.682070434093475342e-02 -4.883911460638046265e-03 4.049054905772209167e-02
1.648641377687454224e-01 -1.580674201250076294e-02 6.472846120595932007e-02
1.382282227277755737e-01 -6.716328114271163940e-02 1.111346483230590820e-01
1.731550842523574829e-01 -3.546056151390075684e-02 -1.236627474427223206e-01
1.104451268911361694e-01 -7.306446135044097900e-02 4.508719220757484436e-02
7.408708333969116211e-04 -2.651808783411979675e-02 5.277687311172485352e-02
2.360415458679199219e-01 -3.088987991213798523e-02 4.257670417428016663e-02
2.456454634666442871e-01 -7.975370436906814575e-02 -1.063558459281921387e-01
1.824122965335845947e-01 -8.760225772857666016e-02 8.337346836924552917e-03
5.105849355459213257e-02 -2.784930169582366943e-03 4.907352384179830551e-03
2.367191016674041748e-02 -4.556776955723762512e-02 2.521763369441032410e-02
1.423947662115097046e-01 -9.131263941526412964e-03 2.988691069185733795e-02
2.157665789127349854e-01 -3.594757616519927979e-02 9.906063228845596313e-02
3.011972308158874512e-01 -8.856669068336486816e-02 2.390701323747634888e-03
2.054555565118789673e-01 -3.295709937810897827e-02 1.003882586956024170e-01
5.546817183494567871e-02 -7.145892828702926636e-03 7.937806099653244019e-02
2.688332498073577881e-01 -4.468207806348800659e-02 -7.356267422437667847e-02
4.232805222272872925e-02 -2.020707540214061737e-02 -7.112890481948852539e-02
2.102361917495727539e-01 -2.400892414152622223e-02 4.698661714792251587e-02
1.318970918655395508e-01 -7.562931627035140991e-03 2.742956951260566711e-02
1.811109632253646851e-01 -8.518052846193313599e-02 4.674923047423362732e-02
1.794011294841766357e-01 -1.887910813093185425e-02 6.548957526683807373e-02
2.872188091278076172e-01 -9.051222354173660278e-02 1.108764391392469406e-02
1.954195499420166016e-01 -2.078522183001041412e-02 -4.959745332598686218e-02
2.052821516990661621e-01 -9.002985060214996338e-02 -2.463026344776153564e-02
3.147714138031005859e-01 -7.217158377170562744e-02 2.360550686717033386e-02
2.849769592285156250e-01 -4.553854465484619141e-02 -2.261689305305480957e-02
9.950795769691467285e-02 -6.248103082180023193e-02 9.878005832433700562e-02
1.014146357774734497e-01 -5.016565322875976562e-03 4.463184252381324768e-02
1.267786175012588501e-01 -1.103875786066055298e-02 -5.495602637529373169e-02
6.934592127799987793e-02 -4.377618432044982910e-03 -2.299197763204574585e-02
2.829532325267791748e-01 -4.732518643140792847e-02 -5.490847676992416382e-02
2.226282209157943726e-01 -2.966467663645744324e-02 -7.012870162725448608e-02
1.178853660821914673e-01 -7.617858052253723145e-02 7.357332855463027954e-03
1.877789199352264404e-01 -3.261552006006240845e-02 1.144567281007766724e-01
2.691678404808044434e-01 -8.939114212989807129e-02 -6.460412591695785522e-02
2.438963502645492554e-01 -3.184450417757034302e-02 -3.874555230140686035e-02
2.815693318843841553e-01 -4.402507841587066650e-02 -3.670390928164124489e-03
2.099640667438507080e-02 -5.429290235042572021e-03 1.877317950129508972e-02
2.842537760734558105e-01 -9.169594943523406982e-02 -1.814833143725991249e-03
2.476765960454940796e-01 -9.160830080509185791e-02 2.494971267879009247e-02
1.503719389438629150e-01 -4.399093613028526306e-02 1.429091095924377441e-01
1.156896352767944336e-03 -1.412313058972358704e-02 5.473253317177295685e-03
2.475859522819519043e-01 -3.466327488422393799e-02 4.252126812934875488e-02
2.039028108119964600e-01 -9.011803567409515381e-02 6.631447002291679382e-03
1.399156004190444946e-01 -7.034913450479507446e-02 1.008772775530815125e-01
1.734678894281387329e-01 -2.470055036246776581e-02 1.018806174397468567e-01
2.500538527965545654e-02 -4.528419673442840576e-02 4.474652186036109924e-02
1.906554251909255981e-01 -2.575001120567321777e-02 8.923772722482681274e-02
3.163987398147583008e-01 -7.819484174251556396e-02 -5.254568159580230713e-02
1.157053858041763306e-01 -1.102156937122344971e-02 8.425909280776977539e-02
2.875156402587890625e-01 -6.851875036954879761e-02 7.120917737483978271e-02
1.178038567304611206e-01 -7.604388892650604248e-02 1.768986508250236511e-02
2.727711796760559082e-01 -4.041313752532005310e-02 -1.170611381530761719e-02
2.695115208625793457e-01 -4.093125835061073303e-02 -4.630966857075691223e-02
5.288944393396377563e-02 -5.271982401609420776e-03 -2.625787258148193359e-02
1.365609318017959595e-01 -6.453539431095123291e-02 -1.075567007064819336e-01
6.882847100496292114e-02 -6.164230033755302429e-02 -2.147011458873748779e-02
5.545412003993988037e-02 -2.381987869739532471e-03 1.607322134077548981e-02
1.889342218637466431e-01 -7.465104013681411743e-02 -1.098494902253150940e-01
2.753213644027709961e-01 -6.740813702344894409e-02 8.457424491643905640e-02
4.913690686225891113e-02 -2.555232495069503784e-03 2.485601417720317841e-02
1.811223626136779785e-01 -2.368379011750221252e-02 -8.559611439704895020e-02
8.924291282892227173e-02 -5.690156295895576477e-02 -8.530402928590774536e-02
6.609029322862625122e-02 -4.911433532834053040e-02 -7.875222712755203247e-02
6.188886612653732300e-02 -5.113065615296363831e-02 -6.707421690225601196e-02
1.989983320236206055e-01 -2.058632485568523407e-02 4.019680619239807129e-02
2.083470523357391357e-01 -8.773820102214813232e-02 -5.894646421074867249e-02
1.377636790275573730e-01 -1.148458197712898254e-02 -4.954980313777923584e-02
2.300323098897933960e-01 -6.581784784793853760e-02 -1.292839199304580688e-01
7.491019368171691895e-02 -6.062702089548110962e-02 -4.706507548689842224e-02
2.633118927478790283e-01 -3.809260576963424683e-02 -3.923378884792327881e-02
5.323501676321029663e-02 -5.787222087383270264e-02 1.097378879785537720e-02
1.737480312585830688e-01 -1.801463402807712555e-02 -6.031206995248794556e-02
1.724402308464050293e-01 -2.513057552278041840e-02 -9.733080863952636719e-02
5.941461771726608276e-02 -7.085021585226058960e-03 -4.108697548508644104e-02
1.280497461557388306e-01 -1.694368384778499603e-02 -8.510086685419082642e-02
2.045322656631469727e-01 -2.089961245656013489e-02 -2.585464902222156525e-02
2.888203263282775879e-01 -9.142826497554779053e-02 -2.132890932261943817e-02
2.855151891708374023e-02 -3.218778222799301147e-02 -5.833941325545310974e-02
2.923497557640075684e-01 -8.313116431236267090e-02 4.630492255091667175e-02
2.714978456497192383e-01 -8.310164511203765869e-02 6.461969017982482910e-02
2.912944257259368896e-01 -4.989584535360336304e-02 1.772773638367652893e-02
7.485996931791305542e-02 -5.196385830640792847e-02 -8.226123452186584473e-02
2.254365831613540649e-01 -2.543085440993309021e-02 -6.294637918472290039e-03
4.130642861127853394e-02 -4.996777698397636414e-02 -2.984343655407428741e-02
4.983276873826980591e-02 -5.327411368489265442e-02 6.705946475267410278e-02
8.250316232442855835e-02 -4.909079521894454956e-02 -9.666839987039566040e-02
4.016535729169845581e-02 -1.470236480236053467e-02 -5.907816439867019653e-02
6.262391060590744019e-02 -3.245594725012779236e-02 -9.459225833415985107e-02
-5.418138504028320312e-01 -4.942297935485839844e-02 -1.357824075967073441e-02
-4.015481173992156982e-01 -1.287467218935489655e-02 -7.263655215501785278e-02
-4.761065840721130371e-01 -6.189135462045669556e-02 -1.075309328734874725e-02
-5.317960977554321289e-01 3.728229552507400513e-02 5.305564962327480316e-03
-4.721615016460418701e-01 2.752879075706005096e-02 -6.030879169702529907e-02
-4.513934552669525146e-01 -5.129566416144371033e-04 8.000586926937103271e-02
-4.910883605480194092e-01 -5.836415290832519531e-02 -3.693820908665657043e-02
-4.566861391067504883e-01 -6.133107841014862061e-02 -2.095368504524230957e-02
-4.512749910354614258e-01 -3.653805702924728394e-02 6.061903387308120728e-02
-3.915289342403411865e-01 2.176634594798088074e-02 -4.408673197031021118e-02
-5.386180877685546875e-01 -3.052105382084846497e-02 5.043502524495124817e-02
-3.906690478324890137e-01 2.461211942136287689e-02 4.030828550457954407e-02
-4.995983839035034180e-01 -5.983515083789825439e-02 -3.248477121815085411e-03
-4.647254645824432373e-01 -4.713825881481170654e-02 -6.703197211027145386e-02
-5.766019821166992188e-01 -2.169828489422798157e-02 -1.538953650742769241e-02
-3.623520731925964355e-01 -2.363026887178421021e-02 -2.529473975300788879e-02
-5.351462364196777344e-01 2.637552656233310699e-02 -3.659902513027191162e-02
-4.231905639171600342e-01 -4.613731056451797485e-02 3.668370097875595093e-02
-3.713054060935974121e-01 -3.473268449306488037e-02 -2.083632163703441620e-03
-3.592141866683959961e-01 -1.954932883381843567e-02 6.500720046460628510e-03
-4.855922460556030273e-01 4.237331449985504150e-02 -2.500378713011741638e-02
-3.990604579448699951e-01 3.681261092424392700e-02 1.243524998426437378e-02
-5.074057579040527344e-01 -5.848071724176406860e-02 -2.159811183810234070e-02
-3.778741955757141113e-01 -3.634390234947204590e-02 1.217069197446107864e-02
-4.192480742931365967e-01 -4.954127222299575806e-02 2.597233653068542480e-02
-4.341948628425598145e-01 -5.914681404829025269e-02 -1.090989727526903152e-02
-4.388760626316070557e-01 3.839294612407684326e-02 4.676966741681098938e-02
-3.580499887466430664e-01 8.614376187324523926e-03 -3.787419293075799942e-03
-5.044036507606506348e-01 4.223486781120300293e-02 -1.391479186713695526e-02
-5.533095002174377441e-01 2.531545422971248627e-02 -1.457910705357789993e-02
-4.535936415195465088e-01 -2.235238999128341675e-02 -8.516796678304672241e-02
-5.139185190200805664e-01 -2.515742555260658264e-02 6.669486314058303833e-02
-5.730788707733154297e-01 -1.697458326816558838e-02 -3.002664446830749512e-02
-5.524135828018188477e-01 2.614481188356876373e-02 2.511478960514068604e-02
-5.270666480064392090e-01 -1.594209857285022736e-02 6.741552799940109253e-02
-4.046821594238281250e-01 -2.427733037620782852e-03 -7.261373102664947510e-02
-3.623475134372711182e-01 5.956389009952545166e-03 -2.879455313086509705e-02
-5.511114597320556641e-01 -9.042981080710887909e-03 -5.727085471153259277e-02
-5.212400555610656738e-01 3.543269634246826172e-02 3.952688351273536682e-02
-4.383879899978637695e-01 4.273881763219833374e-02 -2.203556522727012634e-02
-5.216672420501708984e-01 2.606503665447235107e-03 7.230815291404724121e-02
-3.645854592323303223e-01 1.556934230029582977e-02 1.117757335305213928e-02
-5.145090818405151367e-01 -5.385618656873703003e-02 1.899301260709762573e-02
-5.720630884170532227e-01 8.636180311441421509e-03 2.398367598652839661e-02
-5.707946419715881348e-01 -1.310548931360244751e-02 3.364880010485649109e-02
-3.754427134990692139e-01 -1.368974987417459488e-02 -5.385436862707138062e-02
-4.565742015838623047e-01 4.579081386327743530e-02 2.678364142775535583e-02
-5.551175475120544434e-01 -3.820943459868431091e-02 2.153533697128295898e-02
-4.912090897560119629e-01 2.521925233304500580e-02 -6.053112819790840149e-02
-5.116305947303771973e-01 -4.112946987152099609e-02 4.991532117128372192e-02
-4.414318501949310303e-01 -4.419273883104324341e-02 -6.815186887979507446e-02
-4.541762471199035645e-01 -3.788207843899726868e-02 -7.684762030839920044e-02
-5.269038081169128418e-01 -3.441474586725234985e-02 5.254634469747543335e-02
-4.259128570556640625e-01 -5.545747280120849609e-02 9.899310767650604248e-03
-4.660944640636444092e-01 4.648051410913467407e-02 2.355343848466873169e-02
-4.334059357643127441e-01 4.405020177364349365e-02 2.356819063425064087e-02
-4.690133929252624512e-01 4.400063306093215942e-02 3.622455522418022156e-02
-4.426993429660797119e-01 -6.008359789848327637e-02 -2.125009894371032715e-02
-4.800549745559692383e-01 -5.463165789842605591e-02 -5.208724364638328552e-02
-3.711096644401550293e-01 -2.859103493392467499e-02 1.853068172931671143e-02
-5.646001100540161133e-01 1.759912446141242981e-02 2.349596843123435974e-02
-4.424901902675628662e-01 -3.513327240943908691e-02 -7.750949263572692871e-02
-4.197660684585571289e-01 4.283980280160903931e-02 5.533918738365173340e-05
-4.485589861869812012e-01 -9.757537394762039185e-03 -8.566721528768539429e-02
-5.326809883117675781e-01 3.660292178392410278e-02 1.638289913535118103e-02
-4.942301511764526367e-01 4.383249580860137939e-02 -1.382923405617475510e-02
-4.146961867809295654e-01 -6.585023365914821625e-03 6.972296535968780518e-02
-5.445269942283630371e-01 1.720866560935974121e-02 -4.387411847710609436e-02
-3.889158666133880615e-01 3.314876556396484375e-02 3.194470889866352081e-03
-4.146549105644226074e-01 3.706964105367660522e-02 3.584591299295425415e-02
-5.317910909652709961e-01 -3.017528541386127472e-02 -6.501567363739013672e-02
-4.992508888244628906e-01 8.963000029325485229e-03 7.723861932754516602e-02
-3.556331992149353027e-01 -1.367926597595214844e-02 -1.548689231276512146e-02
-5.184592008590698242e-01 2.611299790441989899e-02 5.880776792764663696e-02
-5.632054805755615234e-01 4.848642274737358093e-03 4.291402921080589294e-02
-5.677421689033508301e-01 -2.933056466281414032e-02 -2.739716693758964539e-02
-5.134736895561218262e-01 4.149047285318374634e-02 2.208686247467994690e-02
-5.794129967689514160e-01 -1.640165410935878754e-02 8.894657716155052185e-03
-3.845949172973632812e-01 2.992994152009487152e-02 1.599641144275665283e-02
-3.705334067344665527e-01 -3.442448750138282776e-02 -1.580515503883361816e-02
-5.339965820312500000e-01 3.069001995027065277e-02 3.980625793337821960e-02
-4.608857035636901855e-01 4.697595536708831787e-02 -4.291743505746126175e-03
-4.321659207344055176e-01 -6.606054957956075668e-03 -8.267137408256530762e-02
-4.301492571830749512e-01 -5.479881912469863892e-02 -4.167464375495910645e-02
-3.908114731311798096e-01 -4.660801589488983154e-02 -7.264299318194389343e-03
-4.917781352996826172e-01 -4.560296982526779175e-02 -6.620609015226364136e-02
-4.671502709388732910e-01 2.214630879461765289e-02 -6.753060966730117798e-02
-5.629537105560302734e-01 8.399334736168384552e-03 -3.491003438830375671e-02
-4.828166663646697998e-01 4.677065461874008179e-02 2.743282355368137360e-03
-5.545831918716430664e-01 3.907493315637111664e-03 -4.868008568882942200e-02
-4.750383496284484863e-01 4.397676885128021240e-02 -2.162289619445800781e-02
-5.092069506645202637e-01 -4.557611793279647827e-02 -6.043914705514907837e-02
-4.221101105213165283e-01 4.193264991044998169e-02 2.377479150891304016e-02
-4.769864976406097412e-01 -4.977323114871978760e-02 -6.241844967007637024e-02
-4.243710935115814209e-01 -4.239995032548904419e-02 -6.505552679300308228e-02
-5.466358065605163574e-01 2.596593834459781647e-02 -2.449948713183403015e-02
-4.848161637783050537e-01 4.609239846467971802e-02 2.015309780836105347e-02
-3.668474256992340088e-01 -1.117462106049060822e-02 -4.401670023798942566e-02
-4.751422107219696045e-01 -1.543688401579856873e-02 7.826030999422073364e-02
-5.342293977737426758e-01 3.188618272542953491e-02 -2.338341251015663147e-02
-4.468140304088592529e-01 2.632061578333377838e-02 6.731813400983810425e-02
-3.904759585857391357e-01 1.451436243951320648e-02 -5.307366698980331421e-02
-4.475131630897521973e-01 4.266596585512161255e-02 3.782573342323303223e-02
-4.150066971778869629e-01 1.315653510391712189e-02 6.708266586065292358e-02
-4.301404058933258057e-01 -5.740220099687576294e-02 -2.898684144020080566e-02
-4.398300647735595703e-01 -2.843540161848068237e-02 6.649231165647506714e-02
-5.462628602981567383e-01 -4.761860519647598267e-02 -4.717837087810039520e-03
-4.842312633991241455e-01 5.824527703225612640e-03 -7.969061285257339478e-02
-4.619930386543273926e-01 8.510265499353408813e-03 -7.960452139377593994e-02
-3.945875465869903564e-01 -4.760497063398361206e-02 -2.428398653864860535e-02
-4.352414309978485107e-01 4.547557979822158813e-02 1.188926398754119873e-02
-5.013625621795654297e-01 4.444029927253723145e-02 -7.040682248771190643e-05
-5.180899500846862793e-01 -3.255132585763931274e-02 5.856173858046531677e-02
-4.157797098159790039e-01 -9.190378710627555847e-03 -7.849915325641632080e-02
-4.855360984802246094e-01 1.805554702877998352e-02 7.512887567281723022e-02
-3.979038596153259277e-01 3.596830368041992188e-02 -9.339661337435245514e-03
-4.732215106487274170e-01 3.736889362335205078e-02 5.381747707724571228e-02
-3.785393834114074707e-01 2.251957543194293976e-03 -5.351916700601577759e-02
-5.805985927581787109e-01 -8.763286285102367401e-03 -1.002409867942333221e-02
-5.124244689941406250e-01 4.225608706474304199e-02 -1.457567210309207439e-03
-4.544469118118286133e-01 -5.955345183610916138e-02 -3.433578461408615112e-02
-4.714744091033935547e-01 -4.593074321746826172e-02 4.920497909188270569e-02
-3.945617079734802246e-01 6.822054274380207062e-03 5.848160758614540100e-02
-5.623552203178405762e-01 -3.119912557303905487e-02 2.586423978209495544e-02
-5.359863638877868652e-01 -5.051831156015396118e-02 6.966445595026016235e-03
-5.109035968780517578e-01 3.550941497087478638e-02 -3.371581807732582092e-02
-4.516280889511108398e-01 4.286843538284301758e-02 -2.595092728734016418e-02
-4.741937816143035889e-01 1.298701018095016479e-02 7.853303104639053345e-02
-4.358670711517333984e-01 3.124604932963848114e-03 7.691949605941772461e-02
-4.280697703361511230e-01 -6.929990835487842560e-03 7.440775632858276367e-02
-4.326123893260955811e-01 -5.378744006156921387e-02 2.203243225812911987e-02
-5.080066323280334473e-01 -5.760937929153442383e-02 6.221774034202098846e-03
-5.364422798156738281e-01 -4.647734761238098145e-02 2.321112155914306641e-02
-3.692124485969543457e-01 -1.002322975546121597e-02 3.539854288101196289e-02
-5.219922661781311035e-01 -2.654123865067958832e-02 -7.213015109300613403e-02
-5.587272644042968750e-01 2.460396848618984222e-02 4.386970307677984238e-03
-3.773334622383117676e-01 2.441817335784435272e-02 2.041802182793617249e-02
-5.406025648117065430e-01 -4.074096679687500000e-02 3.333450108766555786e-02
-3.847926855087280273e-01 -4.305385053157806396e-02 -2.298944443464279175e-02
-5.288004279136657715e-01 -2.462690696120262146e-02 6.135347485542297363e-02
-5.697593688964843750e-01 -6.960542406886816025e-03 -3.647512197494506836e-02
-5.350338220596313477e-01 1.682798378169536591e-03 -6.462714821100234985e-02
-3.983612656593322754e-01 1.232996396720409393e-02 -6.051914021372795105e-02
-4.112192094326019287e-01 -1.772523298859596252e-02 -7.648982852697372437e-02
-3.749415576457977295e-01 2.545464970171451569e-02 3.757236059755086899e-03
-4.773750901222229004e-01 4.099362343549728394e-02 -3.194626793265342712e-02
-4.145404398441314697e-01 -4.534220695495605469e-02 -5.542515590786933899e-02
-5.263183712959289551e-01 -5.459684133529663086e-02 -3.503229003399610519e-03
-3.988209664821624756e-01 -4.255039989948272705e-02 2.606114745140075684e-02
-3.999240994453430176e-01 -4.729758203029632568e-02 1.292244717478752136e-02
-5.068874955177307129e-01 8.165374398231506348e-03 -7.310505211353302002e-02
-4.947472810745239258e-01 -3.042916581034660339e-02 -7.920224964618682861e-02
-3.697110414505004883e-01 2.101477980613708496e-02 -9.454131126403808594e-03
-5.717943906784057617e-01 2.012837678194046021e-03 -2.768230065703392029e-02
-4.166376590728759766e-01 2.319343015551567078e-02 6.055866926908493042e-02
-3.732805252075195312e-01 -3.207727521657943726e-02 -3.458252176642417908e-02
-4.811444282531738281e-01 4.554367065429687500e-02 -1.145589817315340042e-02
-3.976588547229766846e-01 -1.686937361955642700e-02 5.733402445912361145e-02
-3.673904538154602051e-01 1.971742697060108185e-02 9.973088745027780533e-04
-4.816483855247497559e-01 -5.642908811569213867e-02 2.417115122079849243e-02
-3.837777674198150635e-01 -9.146193042397499084e-05 5.180261656641960144e-02
-4.594665467739105225e-01 -5.907303094863891602e-02 1.312451530247926712e-02
-4.594477713108062744e-01 4.183620959520339966e-02 4.298736527562141418e-02
-3.689021468162536621e-01 1.432676054537296295e-02 2.578071877360343933e-02
-4.695722758769989014e-01 -5.601245164871215820e-02 2.618592232465744019e-02
-4.725769758224487305e-01 2.648882381618022919e-02 6.923314929008483887e-02
-5.162548422813415527e-01 -5.723799020051956177e-02 -1.263246871531009674e-02
-5.018681287765502930e-01 -1.671744138002395630e-02 7.480888813734054565e-02
-3.635089993476867676e-01 5.782091058790683746e-03 2.507729455828666687e-02
-5.383945703506469727e-01 -1.848816499114036560e-02 -6.603021174669265747e-02
-3.564083874225616455e-01 3.716631792485713959e-03 -1.288473792374134064e-02
-4.284304976463317871e-01 -2.216548472642898560e-02 6.810862571001052856e-02
-3.740056753158569336e-01 -2.756566368043422699e-02 -4.335253685712814331e-02
-3.637662529945373535e-01 -1.759748533368110657e-02 -3.652458265423774719e-02
-5.212329626083374023e-01 4.038865864276885986e-02 2.803227864205837250e-03
-4.848803281784057617e-01 -7.965564727783203125e-03 8.006320148706436157e-02
-4.456780552864074707e-01 1.726276427507400513e-02 -7.166299223899841309e-02
-3.995568156242370605e-01 2.485694922506809235e-02 4.808024317026138306e-02
-4.885407090187072754e-01 -6.050164997577667236e-02 1.808000262826681137e-03
-5.065619945526123047e-01 -5.278231203556060791e-02 2.759198471903800964e-02
-4.641220271587371826e-01 3.298411518335342407e-02 -5.184139683842658997e-02
-5.521366000175476074e-01 -2.445157151669263840e-03 5.577662214636802673e-02
-5.183224081993103027e-01 2.754270471632480621e-02 -4.651982709765434265e-02
-4.157993495464324951e-01 -5.323373526334762573e-02 9.089224971830844879e-03
-5.317524671554565430e-01 -4.085795581340789795e-02 4.013394191861152649e-02
-5.287640094757080078e-01 -1.708777993917465210e-02 -7.163625210523605347e-02
-4.992375075817108154e-01 -4.673563688993453979e-02 4.434954747557640076e-02
-3.954282999038696289e-01 3.022849373519420624e-02 -2.982385084033012390e-02
-5.016752481460571289e-01 -3.703058138489723206e-02 5.848170071840286255e-02
-5.479952096939086914e-01 3.036902286112308502e-02 -8.667303482070565224e-04
-5.466813445091247559e-01 -3.549332916736602783e-02 -4.873516410589218140e-02
-5.012640357017517090e-01 3.360746800899505615e-02 -4.318282008171081543e-02
-4.716009795665740967e-01 -1.567321456968784332e-02 -8.636913448572158813e-02
-3.970227241516113281e-01 3.200349956750869751e-02 3.163885325193405151e-02
-4.614326953887939453e-01 -1.461157295852899551e-02 -8.659260720014572144e-02
-3.973466753959655762e-01 3.407963365316390991e-02 -1.897419244050979614e-02
-3.897171318531036377e-01 -4.185955971479415894e-02 1.638533920049667358e-02
-4.546349346637725830e-01 -4.910175502300262451e-02 -6.328841298818588257e-02
-4.556809365749359131e-01 1.292066834867000580e-02 7.781043648719787598e-02
-4.088374078273773193e-01 -5.250865221023559570e-02 1.351097133010625839e-03
-5.532874464988708496e-01 -2.743118815124034882e-02 4.241595417261123657e-02
-5.082370638847351074e-01 1.873132959008216858e-02 -6.336893886327743530e-02
-3.865278959274291992e-01 -2.685160934925079346e-02 4.078556597232818604e-02
-3.773269057273864746e-01 1.158636063337326050e-02 -4.445464536547660828e-02
-4.894595444202423096e-01 -6.038878113031387329e-02 -2.593551948666572571e-02
-5.061169266700744629e-01 3.972498327493667603e-02 3.801012784242630005e-02
-4.045299887657165527e-01 3.888926655054092407e-02 -9.321107063442468643e-04
-5.198806524276733398e-01 -4.477307945489883423e-02 -5.622199922800064087e-02
-4.720157980918884277e-01 4.680459201335906982e-02 -5.131890997290611267e-03
-5.378458499908447266e-01 3.381451219320297241e-02 -9.014172479510307312e-03
-4.673403203487396240e-01 -6.135734915733337402e-02 -2.497752383351325989e-02
-5.699465274810791016e-01 -2.979285269975662231e-02 1.244808826595544815e-02
-5.790260434150695801e-01 1.990104094147682190e-03 -4.342463798820972443e-03
-5.233018398284912109e-01 3.892077505588531494e-02 2.232541888952255249e-02
-3.946757316589355469e-01 -2.712788805365562439e-02 4.721216857433319092e-02
-3.577282428741455078e-01 4.518882371485233307e-03 1.066380925476551056e-02
-4.697698652744293213e-01 -6.133108586072921753e-02 1.390883699059486389e-04
-4.505477249622344971e-01 -5.462000519037246704e-02 2.731940522789955139e-02
-4.105912744998931885e-01 -4.480203241109848022e-02 3.136279806494712830e-02
-4.176099300384521484e-01 3.600912541151046753e-02 -3.315686061978340149e-02
-4.556144177913665771e-01 3.714688867330551147e-02 5.352931842207908630e-02
-3.767307102680206299e-01 2.814520150423049927e-03 4.480232670903205872e-02
-5.523949265480041504e-01 -1.907428540289402008e-02 5.062784254550933838e-02
-3.823977410793304443e-01 -3.231325745582580566e-02 2.868324518203735352e-02
-4.161336719989776611e-01 -3.426146879792213440e-02 5.215132981538772583e-02
-5.662971735000610352e-01 1.175925694406032562e-02 3.185336664319038391e-02
-4.435099959373474121e-01 2.565480954945087433e-02 -6.176385655999183655e-02
-5.630180835723876953e-01 -1.556442212313413620e-02 -4.561125859618186951e-02
-4.268998503684997559e-01 -2.252727001905441284e-02 -8.060737699270248413e-02
-4.034485816955566406e-01 -4.715030547231435776e-03 6.473796814680099487e-02
-3.831182718276977539e-01 -3.853976726531982422e-02 -3.722919151186943054e-02
-4.893665909767150879e-01 4.557459801435470581e-02 -5.486634559929370880e-03
-5.044318437576293945e-01 -2.548382431268692017e-02 6.902924925088882446e-02
-3.870165646076202393e-01 -1.744467765092849731e-02 -6.306557357311248779e-02
-5.663043856620788574e-01 1.258985325694084167e-02 -2.295492962002754211e-02
-5.202480554580688477e-01 -4.670909047126770020e-02 3.571356460452079773e-02
-4.456434249877929688e-01 9.677177295088768005e-03 -7.783345878124237061e-02
-4.143952131271362305e-01 1.949039846658706665e-02 -6.113665178418159485e-02
-4.383965730667114258e-01 -1.576574891805648804e-02 -8.441055566072463989e-02
-5.250146389007568359e-01 3.515749424695968628e-02 -2.309829369187355042e-02
-4.103693068027496338e-01 -4.947900027036666870e-02 1.824168488383293152e-02
-5.323491096496582031e-01 -4.513883590698242188e-02 -4.647840559482574463e-02
-4.270724058151245117e-01 3.832472860813140869e-02 4.135354235768318176e-02
-5.185896754264831543e-01 -5.502008646726608276e-02 -2.962118759751319885e-02
-4.055145680904388428e-01 3.725600242614746094e-02 2.452341467142105103e-02
-5.509970188140869141e-01 2.053385972976684570e-02 -3.143919259309768677e-02
-4.441299736499786377e-01 -5.141393095254898071e-02 -5.694459006190299988e-02
-4.882379770278930664e-01 -4.506655037403106689e-02 4.955058917403221130e-02
-5.551704168319702148e-01 1.981567591428756714e-02 3.680599108338356018e-02
-4.178723990917205811e-01 3.962992876768112183e-02 -2.075894922018051147e-02
-5.112423300743103027e-01 -5.342195183038711548e-02 -4.285793006420135498e-02
-4.384783804416656494e-01 3.648403286933898926e-02 -4.145625233650207520e-02
-3.708168268203735352e-01 1.656812056899070740e-02 -2.767587080597877502e-02
-4.092889726161956787e-01 2.404984273016452789e-02 -5.270784720778465271e-02
-4.499818682670593262e-01 4.614313691854476929e-02 -8.274910971522331238e-03
-5.192644000053405762e-01 1.683575846254825592e-02 6.738579273223876953e-02
-4.304513037204742432e-01 1.994788460433483124e-02 -6.602662801742553711e-02
-5.494006276130676270e-01 -4.452566802501678467e-02 9.796787984669208527e-03
-5.014794468879699707e-01 -6.925244815647602081e-04 7.838281989097595215e-02
-5.291081070899963379e-01 1.697662472724914551e-02 -5.547220259904861450e-02
-4.685176312923431396e-01 -4.092263430356979370e-02 -7.451755553483963013e-02
-4.099642932415008545e-01 3.094237856566905975e-02 -4.069705680012702942e-02
-4.865188598632812500e-01 -1.399227045476436615e-02 -8.491898328065872192e-02
-4.892748296260833740e-01 -2.526978962123394012e-02 7.180484384298324585e-02
-5.631092190742492676e-01 -2.622038871049880981e-02 -3.970897570252418518e-02
-4.385676383972167969e-01 1.289417035877704620e-02 7.496875524520874023e-02
-4.933883547782897949e-01 -5.445262789726257324e-02 2.781958878040313721e-02
-4.042352735996246338e-01 -5.168966203927993774e-02 -2.022056281566619873e-02
-5.324515104293823242e-01 -5.204795300960540771e-02 -2.268858999013900757e-02
-3.645603060722351074e-01 -2.767307311296463013e-02 3.325310070067644119e-03
-4.341736733913421631e-01 -4.812825471162796021e-02 -6.007093191146850586e-02
-5.677033662796020508e-01 -4.493040964007377625e-03 3.997169435024261475e-02
-4.914486408233642578e-01 -5.534505937248468399e-03 -8.308200538158416748e-02
-3.938819169998168945e-01 -4.513724148273468018e-02 -3.511138260364532471e-02
-4.021222889423370361e-01 -2.837891504168510437e-02 -6.779212504625320435e-02
-4.121139347553253174e-01 -5.260212719440460205e-02 -3.224107623100280762e-02
-5.453236103057861328e-01 -1.454335171729326248e-03 -5.945754796266555786e-02
-4.466688334941864014e-01 4.642249643802642822e-02 1.656385511159896851e-02
-3.853695690631866455e-01 2.990264631807804108e-02 -1.450739521533250809e-02
-4.767737686634063721e-01 -3.407153859734535217e-02 -7.973945885896682739e-02
-3.619968593120574951e-01 -6.374668795615434647e-03 -3.630368784070014954e-02
-4.987507760524749756e-01 3.898067027330398560e-02 -3.071432933211326599e-02
-4.631411135196685791e-01 -1.449508219957351685e-02 7.838771492242813110e-02
-5.432736873626708984e-01 -4.485876113176345825e-02 -3.468203544616699219e-02
-5.064559578895568848e-01 2.562869153916835785e-02 6.429763138294219971e-02
-5.509307384490966797e-01 -2.552303485572338104e-02 -5.394477397203445435e-02
-5.191679000854492188e-01 3.170636296272277832e-02 -3.766233846545219421e-02
-4.852333068847656250e-01 4.190352745354175568e-03 8.037363737821578979e-02
-5.681409239768981934e-01 1.652101799845695496e-02 -5.484394729137420654e-03
-3.819035291671752930e-01 2.368749678134918213e-02 -2.959060296416282654e-02
-4.812742769718170166e-01 4.164185374975204468e-02 4.255883395671844482e-02
-5.717589855194091797e-01 -2.279142290353775024e-02 2.293216437101364136e-02
-4.236412942409515381e-01 2.423228509724140167e-02 -5.871037393808364868e-02
-4.720182120800018311e-01 -2.790788002312183380e-02 7.075355201959609985e-02
-5.135100483894348145e-01 3.862774372100830078e-02 -2.183078601956367493e-02
-4.403712153434753418e-01 4.505331814289093018e-02 -1.060002576559782028e-02
-5.324991345405578613e-01 -3.994289040565490723e-02 -5.499818921089172363e-02
-4.584256112575531006e-01 -6.160078197717666626e-02 -8.551665581762790680e-03
-5.694953203201293945e-01 -3.250330686569213867e-02 1.128674717620015144e-03
-4.414975345134735107e-01 -5.467919260263442993e-02 -4.811958968639373779e-02
-5.578098893165588379e-01 -3.429234400391578674e-02 -3.691178187727928162e-02
-4.369936883449554443e-01 -5.903360992670059204e-02 -1.419169944711029530e-03
-4.347416162490844727e-01 -3.917152434587478638e-02 5.329507961869239807e-02
-4.310270845890045166e-01 3.938533365726470947e-03 -7.875471562147140503e-02
-5.621472001075744629e-01 -1.808551140129566193e-02 4.197457805275917053e-02
-5.462141036987304688e-01 3.111689724028110504e-02 1.539703551679849625e-02
-4.624420106410980225e-01 -5.091781169176101685e-02 3.903894126415252686e-02
5.388160049915313721e-02 -7.445387542247772217e-02 2.527412176132202148e-01
9.076866507530212402e-02 -4.781303927302360535e-02 2.516162395477294922e-01
9.307432174682617188e-02 -7.106103748083114624e-02 2.578881680965423584e-01
1.184959560632705688e-01 -4.610067605972290039e-02 2.283953279256820679e-01
8.030870556831359863e-02 -7.249647378921508789e-02 2.587503790855407715e-01
3.599998354911804199e-02 -6.889275461435317993e-02 2.187787294387817383e-01
5.108932405710220337e-02 -7.421347498893737793e-02 2.754230797290802002e-01
-2.824202552437782288e-02 -5.461584031581878662e-02 2.317300438880920410e-01
7.738588750362396240e-02 -5.717583000659942627e-02 2.815294265747070312e-01
5.856900662183761597e-02 -6.850811094045639038e-02 2.188108861446380615e-01
-4.489289596676826477e-02 -6.720321625471115112e-02 2.325319051742553711e-01
9.809683263301849365e-02 -6.220274418592453003e-02 2.802982926368713379e-01
3.704632073640823364e-02 -4.945284128189086914e-02 2.093409299850463867e-01
-1.808615401387214661e-02 -7.673923671245574951e-02 2.675235271453857422e-01
3.826541453599929810e-02 -6.082450598478317261e-02 2.913878858089447021e-01
1.179254353046417236e-01 -6.277693063020706177e-02 2.151844650506973267e-01
1.072958260774612427e-01 -6.855223327875137329e-02 2.381183356046676636e-01
1.115214824676513672e-01 -4.984563589096069336e-02 2.557946145534515381e-01
9.313559532165527344e-02 -6.662122905254364014e-02 2.193042933940887451e-01
6.037380546331405640e-02 -5.135824531316757202e-02 2.690026164054870605e-01
1.390324532985687256e-01 -4.812585562467575073e-02 2.178483158349990845e-01
2.254243940114974976e-02 -5.285374075174331665e-02 2.063411176204681396e-01
3.108062967658042908e-02 -4.768890142440795898e-02 2.236181497573852539e-01
1.491392217576503754e-02 -7.139814645051956177e-02 2.947869300842285156e-01
2.333014644682407379e-02 -7.454690337181091309e-02 2.855737209320068359e-01
8.824567496776580811e-02 -7.131771743297576904e-02 2.459951192140579224e-01
2.922704815864562988e-02 -5.362388864159584045e-02 2.755905389785766602e-01
6.870561838150024414e-02 -7.332772016525268555e-02 2.507951855659484863e-01
3.318983316421508789e-02 -7.442712038755416870e-02 2.830814719200134277e-01
1.139176785945892334e-01 -4.679179936647415161e-02 2.392464280128479004e-01
1.231908351182937622e-01 -6.410598754882812500e-02 2.650070786476135254e-01
1.105129159986972809e-02 -7.658350467681884766e-02 2.733973860740661621e-01
9.335421025753021240e-03 -5.393158644437789917e-02 2.735821306705474854e-01
1.039967536926269531e-01 -6.962098926305770874e-02 2.473540455102920532e-01
-4.000899568200111389e-02 -5.931188538670539856e-02 2.279490977525711060e-01
5.453749746084213257e-02 -4.686529934406280518e-02 2.440881431102752686e-01
1.045050024986267090e-01 -6.741994619369506836e-02 2.709355950355529785e-01
1.955284550786018372e-02 -4.827087000012397766e-02 2.329656183719635010e-01
1.440236344933509827e-02 -7.407831400632858276e-02 2.395586818456649780e-01
5.533191561698913574e-02 -4.610281810164451599e-02 2.327526956796646118e-01
1.196977645158767700e-01 -6.729254871606826782e-02 2.459368854761123657e-01
-3.777539357542991638e-02 -7.307345420122146606e-02 2.894709408283233643e-01
8.966001868247985840e-02 -5.313283577561378479e-02 2.710601091384887695e-01
-3.170471265912055969e-02 -7.560281455516815186e-02 2.817720770835876465e-01
8.236210048198699951e-02 -4.657950252294540405e-02 2.095598876476287842e-01
1.652594655752182007e-03 -7.271769642829895020e-02 2.937410771846771240e-01
-5.276929959654808044e-02 -7.229831814765930176e-02 2.850515842437744141e-01
-6.080936267971992493e-02 -6.180302053689956665e-02 2.677455246448516846e-01
-2.221034094691276550e-02 -7.474820315837860107e-02 2.481236904859542847e-01
-5.980267748236656189e-02 -6.030602753162384033e-02 2.525822818279266357e-01
6.223506480455398560e-02 -4.582255333662033081e-02 2.243083864450454712e-01
5.583843588829040527e-02 -5.096234008669853210e-02 2.010114341974258423e-01
1.263768672943115234e-01 -4.990704730153083801e-02 2.502463459968566895e-01
-4.679359868168830872e-02 -5.705572292208671570e-02 2.490168660879135132e-01
1.024804189801216125e-01 -4.895473644137382507e-02 2.016621083021163940e-01
-6.077693030238151550e-02 -7.322033494710922241e-02 2.727214395999908447e-01
1.267510652542114258e-01 -4.846156388521194458e-02 2.077778577804565430e-01
6.873185932636260986e-02 -6.968668848276138306e-02 2.250424325466156006e-01
5.018582940101623535e-02 -5.175022035837173462e-02 2.703972756862640381e-01
4.695736989378929138e-02 -6.878086179494857788e-02 2.187324911355972290e-01
-4.642463847994804382e-02 -7.509361952543258667e-02 2.647926211357116699e-01
9.843438863754272461e-02 -6.889159977436065674e-02 2.329532951116561890e-01
1.115857064723968506e-01 -6.581494212150573730e-02 2.238279134035110474e-01
-3.411162272095680237e-02 -7.617405056953430176e-02 2.720072567462921143e-01
2.457956597208976746e-02 -7.471239566802978516e-02 2.440780699253082275e-01
3.744372725486755371e-02 -6.078900396823883057e-02 2.028898000717163086e-01
1.336454041302204132e-02 -4.920246079564094543e-02 2.253995388746261597e-01
5.442306026816368103e-02 -4.922850802540779114e-02 2.599760890007019043e-01
4.391834884881973267e-02 -7.381325960159301758e-02 2.415362894535064697e-01
1.379743218421936035e-03 -5.860051512718200684e-02 2.088273763656616211e-01
1.391659528017044067e-01 -6.253647059202194214e-02 2.306417822837829590e-01
9.058436751365661621e-02 -4.956408962607383728e-02 2.001065909862518311e-01
1.016385108232498169e-01 -5.405848845839500427e-02 2.704174518585205078e-01
-1.805724576115608215e-02 -6.428189575672149658e-02 2.933702170848846436e-01
-2.459492534399032593e-03 -5.097328126430511475e-02 2.268112152814865112e-01
8.171836286783218384e-02 -4.597037285566329956e-02 2.391353249549865723e-01
6.296771764755249023e-02 -4.742624610662460327e-02 2.502014636993408203e-01
1.292947977781295776e-01 -5.579899996519088745e-02 2.628673017024993896e-01
1.421634852886199951e-01 -5.122476443648338318e-02 2.453034818172454834e-01
7.756675779819488525e-02 -7.098779082298278809e-02 2.348609417676925659e-01
-3.112711012363433838e-03 -7.444411516189575195e-02 2.425993084907531738e-01
-4.893725737929344177e-02 -6.011755019426345825e-02 2.725001275539398193e-01
-5.400160327553749084e-02 -6.224198266863822937e-02 2.359689623117446899e-01
5.758558213710784912e-02 -4.735232144594192505e-02 2.109851092100143433e-01
7.322348654270172119e-03 -7.582320272922515869e-02 2.825010716915130615e-01
-2.427836880087852478e-02 -6.975616514682769775e-02 2.296292483806610107e-01
9.021876752376556396e-02 -6.313271075487136841e-02 2.081041485071182251e-01
1.132960766553878784e-01 -5.294886976480484009e-02 1.995081603527069092e-01
6.897906959056854248e-02 -4.633530974388122559e-02 2.419552654027938843e-01
9.855578094720840454e-02 -5.028063431382179260e-02 2.607871890068054199e-01
3.335293382406234741e-03 -7.648891210556030273e-02 2.585627436637878418e-01
8.363009989261627197e-02 -6.425673514604568481e-02 2.851201295852661133e-01
1.514528095722198486e-01 -5.579939112067222595e-02 2.187538743019104004e-01
4.069998860359191895e-02 -4.815298318862915039e-02 2.511447072029113770e-01
4.718882590532302856e-02 -5.681247636675834656e-02 2.842981517314910889e-01
4.505413398146629333e-02 -4.664426296949386597e-02 2.355626225471496582e-01
1.202228814363479614e-01 -6.644098460674285889e-02 2.347157150506973267e-01
-3.283397480845451355e-02 -6.107246503233909607e-02 2.839757800102233887e-01
-2.138024196028709412e-02 -5.323441699147224426e-02 2.538501620292663574e-01
6.271072477102279663e-02 -6.843688338994979858e-02 2.888100445270538330e-01
3.212948143482208252e-02 -7.197321951389312744e-02 2.298187166452407837e-01
1.354968100786209106e-01 -4.755627363920211792e-02 2.291567623615264893e-01
-6.379771977663040161e-03 -5.524176359176635742e-02 2.744190692901611328e-01
1.340009868144989014e-01 -6.391585618257522583e-02 2.528443634510040283e-01
4.816522076725959778e-02 -6.770998239517211914e-02 2.930147945880889893e-01
1.431179940700531006e-01 -5.701807141304016113e-02 2.548338174819946289e-01
1.538907438516616821e-01 -5.321608483791351318e-02 2.382880300283432007e-01
-1.058139279484748840e-02 -5.138541385531425476e-02 2.444691061973571777e-01
7.101997733116149902e-02 -7.316545397043228149e-02 2.663854658603668213e-01
-1.612709462642669678e-02 -5.878385156393051147e-02 2.831624746322631836e-01
