1.279128342866897583e-02 7.094035744667053223e-01 7.289696484804153442e-03
3.248096629977226257e-02 7.003227472305297852e-01 2.045971155166625977e-02
1.149794459342956543e-02 7.892360091209411621e-01 3.090254962444305420e-02
1.428166683763265610e-02 7.140187025070190430e-01 1.727927476167678833e-03
1.138105429708957672e-02 7.802827954292297363e-01 3.755439072847366333e-02
2.302760630846023560e-02 6.931666731834411621e-01 3.563161939382553101e-02
2.471758984029293060e-02 8.062245845794677734e-01 1.477237232029438019e-02
2.395120821893215179e-02 8.167933821678161621e-01 3.890905156731605530e-02
9.425403550267219543e-03 7.509437203407287598e-01 3.147485852241516113e-02
1.549587026238441467e-02 7.601818442344665527e-01 4.976619780063629150e-02
3.601788729429244995e-02 7.598892450332641602e-01 3.175486624240875244e-02
1.672986336052417755e-02 6.872978806495666504e-01 1.159932930022478104e-02
3.036161698400974274e-02 7.230750918388366699e-01 4.372248798608779907e-02
1.223460771143436432e-02 7.656056880950927734e-01 7.691454142332077026e-03
9.550075046718120575e-03 7.313320040702819824e-01 2.607572078704833984e-02
3.541203588247299194e-02 7.640823125839233398e-01 1.814486086368560791e-02
2.038416638970375061e-02 8.052097558975219727e-01 4.744148626923561096e-02
2.556295320391654968e-02 7.175436615943908691e-01 -4.461321979761123657e-03
2.201209403574466705e-02 7.511249780654907227e-01 -4.750976338982582092e-03
2.183458209037780762e-02 8.186520934104919434e-01 3.037885576486587524e-02
1.402305904775857925e-02 7.107096314430236816e-01 3.556407243013381958e-02
2.178573794662952423e-02 6.853685975074768066e-01 2.896489575505256653e-02
2.974813804030418396e-02 8.084351420402526855e-01 3.496018052101135254e-02
9.596082381904125214e-03 7.704300284385681152e-01 2.457517199218273163e-02
1.703611575067043304e-02 7.891144752502441406e-01 4.940983653068542480e-02
1.481007039546966553e-02 8.061186671257019043e-01 3.262110054492950439e-02
3.370050340890884399e-02 7.143313884735107422e-01 1.168429385870695114e-02
1.931382529437541962e-02 7.858628034591674805e-01 4.430834203958511353e-03
1.470004115253686905e-02 6.921650767326354980e-01 1.846568286418914795e-02
2.629167400300502777e-02 8.120640516281127930e-01 2.180994674563407898e-02
1.819769293069839478e-02 7.672839164733886719e-01 -5.612205713987350464e-04
2.733005769550800323e-02 8.101348280906677246e-01 4.193973913788795471e-02
3.631668537855148315e-02 7.513225078582763672e-01 2.267503924667835236e-02
3.303418681025505066e-02 7.892761826515197754e-01 3.901012241840362549e-02
2.447547204792499542e-02 8.001934885978698730e-01 1.073412038385868073e-02
1.031752582639455795e-02 7.183567285537719727e-01 1.945694349706172943e-02
3.209241479635238647e-02 7.005922794342041016e-01 1.325317472219467163e-02
1.305335666984319687e-02 7.879206538200378418e-01 4.130846261978149414e-02
2.051892131567001343e-02 7.473471164703369141e-01 5.305558815598487854e-02
3.410451114177703857e-02 7.216210365295410156e-01 1.070144400000572205e-02
2.591056562960147858e-02 7.909344434738159180e-01 6.954947486519813538e-03
3.403620049357414246e-02 7.723740339279174805e-01 1.466827653348445892e-02
2.752645127475261688e-02 7.779591083526611328e-01 3.418654203414916992e-03
3.320176154375076294e-02 7.215284109115600586e-01 3.686826676130294800e-02
2.427215315401554108e-02 7.358583807945251465e-01 -5.636082962155342102e-03
2.949025481939315796e-02 6.887966394424438477e-01 1.546349842101335526e-02
2.827221341431140900e-02 7.568997144699096680e-01 -9.024981409311294556e-04
3.250806778669357300e-02 7.975891828536987305e-01 2.875574119389057159e-02
3.502141311764717102e-02 7.795091271400451660e-01 2.797784097492694855e-02
3.508439660072326660e-02 7.306042909622192383e-01 3.302032127976417542e-02
1.067290734499692917e-02 7.589812278747558594e-01 3.837325423955917358e-02
1.448288094252347946e-02 7.535448074340820312e-01 4.783721268177032471e-02
3.304426744580268860e-02 7.442206740379333496e-01 5.496809259057044983e-03
2.705873921513557434e-02 7.426863312721252441e-01 -3.706932067871093750e-03
2.057456411421298981e-02 6.986533999443054199e-01 -1.370513811707496643e-03
3.144352883100509644e-02 7.673361301422119141e-01 4.838682711124420166e-02
1.668942533433437347e-02 7.314978837966918945e-01 -3.468722105026245117e-03
3.273215517401695251e-02 7.042858600616455078e-01 2.662578783929347992e-02
1.229003537446260452e-02 7.195093035697937012e-01 5.502497777342796326e-03
3.026717156171798706e-02 7.928603291511535645e-01 1.385799888521432877e-02
2.504143491387367249e-02 7.084616422653198242e-01 4.328484833240509033e-02
3.518153354525566101e-02 7.404789924621582031e-01 3.586167097091674805e-02
1.132725737988948822e-02 7.372085452079772949e-01 3.804863616824150085e-02
9.998016059398651123e-03 7.400886416435241699e-01 1.166093442589044571e-02
1.080600731074810028e-02 7.203160524368286133e-01 2.888053283095359802e-02
3.499150648713111877e-02 7.184588313102722168e-01 2.076467871665954590e-02
3.442773967981338501e-02 7.741394639015197754e-01 3.904166445136070251e-02
3.259058669209480286e-02 7.289652228355407715e-01 4.394039511680603027e-03
1.103767752647399902e-02 7.276253104209899902e-01 8.253602311015129089e-03
2.740209735929965973e-02 7.875453233718872070e-01 5.148378759622573853e-02
1.225167047232389450e-02 7.422954440116882324e-01 3.879396244883537292e-03
2.320463769137859344e-02 7.719036936759948730e-01 5.479365587234497070e-02
1.603179425001144409e-02 8.018693327903747559e-01 4.293654859066009521e-02
1.673566736280918121e-02 6.946563124656677246e-01 4.336100071668624878e-03
1.497581414878368378e-02 7.977110147476196289e-01 1.618883758783340454e-02
2.487302199006080627e-02 6.816092133522033691e-01 1.088365726172924042e-02
3.598602116107940674e-02 7.660261392593383789e-01 2.697462588548660278e-02
2.649163827300071716e-02 7.307100296020507812e-01 4.971796646714210510e-02
2.110779657959938049e-02 7.233349680900573730e-01 4.845285415649414062e-02
1.271862350404262543e-02 7.011621594429016113e-01 2.062540501356124878e-02
1.764113828539848328e-02 7.595899105072021484e-01 -1.762237399816513062e-03
1.267457194626331329e-02 7.949508428573608398e-01 3.476164489984512329e-02
2.747201733291149139e-02 7.674635648727416992e-01 4.491787403821945190e-04
9.872199967503547668e-03 7.641831040382385254e-01 3.382071852684020996e-02
1.330428756773471832e-02 7.239301204681396484e-01 3.957585617899894714e-02
2.657727152109146118e-02 7.175855040550231934e-01 4.593715816736221313e-02
3.062180429697036743e-02 7.084932327270507812e-01 3.574080765247344971e-03
3.536956384778022766e-02 7.243767380714416504e-01 2.649114280939102173e-02
3.084909915924072266e-02 7.957583665847778320e-01 4.343634843826293945e-02
3.989279642701148987e-02 8.648306727409362793e-01 4.569698870182037354e-02
4.047575592994689941e-02 9.258087873458862305e-01 2.768854610621929169e-02
1.898494362831115723e-02 9.695152044296264648e-01 1.556541770696640015e-02
4.005379229784011841e-02 9.077472090721130371e-01 4.719286412000656128e-02
9.218253195285797119e-03 8.941265344619750977e-01 1.123097632080316544e-02
1.112342067062854767e-02 8.892800807952880859e-01 3.615883737802505493e-02
3.678444400429725647e-02 8.355651497840881348e-01 4.257667809724807739e-02
3.792560100555419922e-02 8.436890244483947754e-01 1.436630636453628540e-02
1.611547172069549561e-02 8.292119503021240234e-01 3.120696917176246643e-02
4.011870920658111572e-02 9.092305898666381836e-01 1.729982718825340271e-02
3.887814283370971680e-02 8.371019959449768066e-01 3.446724638342857361e-02
1.442245673388242722e-02 8.719549775123596191e-01 4.368928074836730957e-02
1.053256727755069733e-02 8.602681159973144531e-01 2.378589473664760590e-02
1.649395748972892761e-02 8.669214248657226562e-01 -5.491614341735839844e-03
1.647823676466941833e-02 8.913217186927795410e-01 4.986131191253662109e-02
3.424669802188873291e-02 9.335743188858032227e-01 5.354543030261993408e-02
1.012781262397766113e-02 9.207223057746887207e-01 2.856460213661193848e-02
3.308660537004470825e-02 8.579004406929016113e-01 1.728534698486328125e-06
2.168526500463485718e-02 9.657998681068420410e-01 4.241254925727844238e-02
1.359526719897985458e-02 8.988477587699890137e-01 4.410775750875473022e-02
1.807861030101776123e-02 8.361113667488098145e-01 3.464594483375549316e-04
3.616601973772048950e-02 9.007753133773803711e-01 4.300260916352272034e-03
4.157000780105590820e-02 9.075286388397216797e-01 2.584136091172695160e-02
2.083701267838478088e-02 9.474515914916992188e-01 5.792807787656784058e-04
4.004805535078048706e-02 9.319636821746826172e-01 3.341903164982795715e-02
2.127267606556415558e-02 9.358013868331909180e-01 5.290523171424865723e-02
1.929062977433204651e-02 8.245195150375366211e-01 3.686189651489257812e-02
3.910408541560173035e-02 9.393903017044067383e-01 3.453143686056137085e-02
1.012504007667303085e-02 9.255664348602294922e-01 1.381622068583965302e-02
3.779080510139465332e-02 9.474620819091796875e-01 3.567767143249511719e-02
1.504491455852985382e-02 8.569653630256652832e-01 4.172889888286590576e-02
1.430615875869989395e-02 9.253603219985961914e-01 -2.923514693975448608e-04
1.098067127168178558e-02 9.326493144035339355e-01 2.867597900331020355e-02
3.247158974409103394e-02 9.053547978401184082e-01 -1.512372866272926331e-03
1.402717549353837967e-02 8.845628499984741211e-01 -3.818806260824203491e-03
3.197799995541572571e-02 9.025610089302062988e-01 5.920788645744323730e-02
2.502823248505592346e-02 8.857455253601074219e-01 5.860617011785507202e-02
3.541938960552215576e-02 8.593676686286926270e-01 5.328295007348060608e-02
1.875533536076545715e-02 9.572690725326538086e-01 4.279345273971557617e-02
2.345858700573444366e-02 9.105404615402221680e-01 5.776412785053253174e-02
2.802137285470962524e-02 8.057733774185180664e-01 2.036046981811523438e-02
2.342479676008224487e-02 8.962383866310119629e-01 5.803637951612472534e-02
2.305505797266960144e-02 8.467180132865905762e-01 5.119286850094795227e-02
4.036655649542808533e-02 8.486340045928955078e-01 2.573808841407299042e-02
1.285037770867347717e-02 8.412517309188842773e-01 1.187314186245203018e-02
2.980204857885837555e-02 8.688801527023315430e-01 -5.080100148916244507e-03
4.053173214197158813e-02 9.214812517166137695e-01 4.056787490844726562e-02
3.927728906273841858e-02 9.240067601203918457e-01 1.842496916651725769e-02
1.534626260399818420e-02 9.508644342422485352e-01 3.810016065835952759e-02
2.316860109567642212e-02 8.212750554084777832e-01 3.551527857780456543e-03
1.989593356847763062e-02 9.258882403373718262e-01 -5.082620307803153992e-03
1.531671267002820969e-02 9.013899564743041992e-01 -5.187558010220527649e-03
1.372704748064279556e-02 8.369932770729064941e-01 2.672008052468299866e-02
1.010979246348142624e-02 8.650498986244201660e-01 1.292391680181026459e-02
3.184148296713829041e-02 9.705260396003723145e-01 2.851963415741920471e-02
4.003543779253959656e-02 8.519172668457031250e-01 4.006543755531311035e-02
1.520218979567289352e-02 8.447709083557128906e-01 3.774820268154144287e-02
4.105214029550552368e-02 8.793491721153259277e-01 4.414688795804977417e-02
1.070934347808361053e-02 8.555445075035095215e-01 1.770896837115287781e-02
3.456299006938934326e-02 9.587075710296630859e-01 2.181113697588443756e-02
9.252743795514106750e-03 9.050680398941040039e-01 2.575571835041046143e-02
1.577466540038585663e-02 9.128971695899963379e-01 -4.504993557929992676e-03
3.928976505994796753e-02 8.804357647895812988e-01 1.156382728368043900e-02
3.953568264842033386e-02 8.572745323181152344e-01 1.581678912043571472e-02
9.143965318799018860e-03 9.122682213783264160e-01 1.690760254859924316e-02
1.746427826583385468e-02 8.744141459465026855e-01 4.999086633324623108e-02
3.024501353502273560e-02 8.456727266311645508e-01 5.326418578624725342e-02
1.363080926239490509e-02 9.120466709136962891e-01 4.367880895733833313e-02
1.193753257393836975e-02 8.624714016914367676e-01 3.880698233842849731e-03
2.817080169916152954e-02 8.290743827819824219e-01 4.759589582681655884e-02
1.329260785132646561e-02 9.232937693595886230e-01 4.130567237734794617e-02
2.206678688526153564e-02 8.726091384887695312e-01 -8.729416877031326294e-03
2.801020443439483643e-02 9.239662289619445801e-01 5.821745097637176514e-02
1.812564954161643982e-02 8.486543893814086914e-01 4.558335989713668823e-02
3.607908636331558228e-02 8.462848067283630371e-01 4.882227629423141479e-02
3.522552549839019775e-02 8.414302468299865723e-01 7.513640448451042175e-03
2.464665099978446960e-02 8.212422728538513184e-01 4.229561239480972290e-02
2.278542518615722656e-02 9.443668127059936523e-01 5.223887413740158081e-02
1.136374939233064651e-02 8.526259660720825195e-01 2.477252483367919922e-02
1.550500560551881790e-02 9.341886043548583984e-01 4.450519382953643799e-02
2.947857603430747986e-02 9.398260712623596191e-01 1.741200685501098633e-03
3.329733386635780334e-02 8.161781430244445801e-01 1.749528571963310242e-02
1.780577749013900757e-02 8.186075091361999512e-01 1.370244100689888000e-02
2.376554161310195923e-02 8.371194601058959961e-01 4.877609014511108398e-02
3.948200121521949768e-02 9.312234520912170410e-01 4.117890074849128723e-02
3.272894024848937988e-02 9.137900471687316895e-01 -5.440413951873779297e-05
1.013228483498096466e-02 9.020084142684936523e-01 3.210013359785079956e-02
4.190453886985778809e-02 9.029218554496765137e-01 3.760812059044837952e-02
3.595393523573875427e-02 8.829005360603332520e-01 5.588311329483985901e-02
3.848404809832572937e-02 9.276739358901977539e-01 4.712468385696411133e-02
4.185563325881958008e-02 8.665454387664794922e-01 3.062722459435462952e-02
3.078088723123073578e-02 8.097805380821228027e-01 3.183636069297790527e-02
2.662000246345996857e-02 8.315724730491638184e-01 -2.997163683176040649e-04
1.155174616724252701e-02 8.483205437660217285e-01 1.567978411912918091e-02
1.060569565743207932e-02 9.135818481445312500e-01 6.258627399802207947e-03
3.451188281178474426e-02 8.160624504089355469e-01 2.584027871489524841e-02
3.591161966323852539e-02 8.743603229522705078e-01 5.515965819358825684e-02
1.362510677427053452e-02 9.396441578865051270e-01 3.780897706747055054e-02
3.847035765647888184e-02 9.060801267623901367e-01 1.072016637772321701e-02
1.256104558706283569e-02 9.320885539054870605e-01 3.679583221673965454e-02
2.936047129333019257e-02 8.655536174774169922e-01 5.755705013871192932e-02
1.148424390703439713e-02 9.416641592979431152e-01 1.772380061447620392e-02
4.222520440816879272e-02 8.788138628005981445e-01 3.462159633636474609e-02
2.305062487721443176e-02 8.742185235023498535e-01 5.638648569583892822e-02
3.539501130580902100e-02 9.451755881309509277e-01 1.447607204318046570e-02
1.931143552064895630e-02 8.648412227630615234e-01 5.119782313704490662e-02
3.656414151191711426e-02 8.819526433944702148e-01 4.320090636610984802e-03
1.021478511393070221e-02 9.043585658073425293e-01 6.215998902916908264e-03
1.419790927320718765e-02 9.582425951957702637e-01 2.073757909238338470e-02
1.025293208658695221e-02 8.693541884422302246e-01 2.732797153294086456e-02
3.772457689046859741e-02 8.287660479545593262e-01 2.885893918573856354e-02
1.219046022742986679e-02 8.578765392303466797e-01 3.293356671929359436e-02
3.268888592720031738e-02 8.216828703880310059e-01 1.110480446368455887e-02
3.413166105747222900e-02 8.710612058639526367e-01 2.117101103067398071e-04
9.111441671848297119e-03 8.797173500061035156e-01 1.840437017381191254e-02
3.648955002427101135e-02 9.223670959472656250e-01 5.298173427581787109e-02
2.524546161293983459e-02 9.078419208526611328e-01 -7.444649934768676758e-03
3.761635720729827881e-02 9.466049075126647949e-01 2.533495798707008362e-02
1.171962637454271317e-02 8.759911656379699707e-01 3.651956841349601746e-02
2.898012846708297729e-02 9.680476188659667969e-01 4.293769970536231995e-02
3.309096395969390869e-02 8.157621622085571289e-01 3.522985801100730896e-02
2.846883423626422882e-02 8.096555471420288086e-01 1.396822743117809296e-02
9.384309872984886169e-03 8.832272887229919434e-01 2.552945353090763092e-02
2.719751745462417603e-02 9.341323971748352051e-01 5.650576204061508179e-02
4.132892563939094543e-02 8.581845164299011230e-01 3.295679762959480286e-02
3.688125684857368469e-02 8.902834653854370117e-01 5.129931494593620300e-03
3.253888711333274841e-02 8.300535082817077637e-01 6.452510133385658264e-03
3.958908468484878540e-02 8.971740007400512695e-01 1.316838152706623077e-02
2.597781457006931305e-02 9.776930212974548340e-01 2.377804182469844818e-02
3.070530667901039124e-02 9.570425152778625488e-01 1.045668683946132660e-02
1.663092896342277527e-02 9.056006669998168945e-01 5.021720379590988159e-02
1.244640164077281952e-02 9.371523261070251465e-01 8.055660873651504517e-03
3.501465544104576111e-02 8.523079752922058105e-01 4.246322438120841980e-03
3.399660438299179077e-02 9.621056318283081055e-01 3.858896344900131226e-02
9.831879287958145142e-03 8.802559375762939453e-01 8.546220138669013977e-03
1.732187531888484955e-02 8.186579942703247070e-01 2.208006195724010468e-02
4.230523854494094849e-02 8.869065642356872559e-01 3.499384969472885132e-02
1.233095675706863403e-02 8.423653841018676758e-01 2.065311372280120850e-02
1.056467648595571518e-02 9.328854680061340332e-01 1.631663925945758820e-02
2.821823582053184509e-02 9.000726938247680664e-01 -6.412878632545471191e-03
3.699772804975509644e-02 8.286237120628356934e-01 3.623479232192039490e-02
1.701726764440536499e-02 9.683973789215087891e-01 2.609248645603656769e-02
4.036878794431686401e-02 8.718392848968505859e-01 4.565188288688659668e-02
3.931303322315216064e-02 8.402863740921020508e-01 2.426431328058242798e-02
2.682692557573318481e-02 9.321091175079345703e-01 -2.599958330392837524e-03
1.616948097944259644e-02 8.316092491149902344e-01 5.949437618255615234e-03
9.963952004909515381e-03 9.264684915542602539e-01 2.285084500908851624e-02
4.098682105541229248e-02 8.584831953048706055e-01 2.385081909596920013e-02
1.693837530910968781e-02 9.422620534896850586e-01 4.526139050722122192e-02
2.347351238131523132e-02 8.571342229843139648e-01 5.400604009628295898e-02
1.578277349472045898e-02 9.595705866813659668e-01 1.302471011877059937e-02
8.929429575800895691e-03 8.906739354133605957e-01 2.175353467464447021e-02
1.957583986222743988e-02 9.711588025093078613e-01 3.396489098668098450e-02
1.977591589093208313e-02 8.828507065773010254e-01 5.406988412141799927e-02
3.071434423327445984e-02 9.483247995376586914e-01 6.296729668974876404e-03
3.378332033753395081e-02 9.234400391578674316e-01 3.418376669287681580e-03
3.667234629392623901e-02 9.451690316200256348e-01 4.438575729727745056e-02
2.969443798065185547e-02 8.437153100967407227e-01 -1.471033319830894470e-03
1.439421810209751129e-02 9.504699110984802246e-01 9.761450812220573425e-03
3.758063167333602905e-02 8.908321857452392578e-01 5.396127328276634216e-02
4.120904952287673950e-02 9.133887290954589844e-01 3.976342082023620605e-02
3.071153536438941956e-02 -4.544010460376739502e-01 3.469286859035491943e-02
9.577602148056030273e-03 -4.525012075901031494e-01 1.635310500860214233e-01
-4.524167627096176147e-02 -2.886739075183868408e-01 1.203083544969558716e-01
-5.117474868893623352e-02 -2.842934727668762207e-01 -7.612767815589904785e-02
-4.662074148654937744e-02 -3.684528470039367676e-01 6.716139614582061768e-02
3.959652408957481384e-02 -2.662884294986724854e-01 -4.044322296977043152e-02
2.668516896665096283e-02 -4.567965269088745117e-01 8.152969926595687866e-02
1.836260035634040833e-02 -4.719310104846954346e-01 3.734276816248893738e-02
-4.028600081801414490e-02 -4.110576212406158447e-01 -5.273937247693538666e-03
-3.609793633222579956e-02 -4.084226489067077637e-01 1.050730273127555847e-01
2.365794777870178223e-02 -3.564436137676239014e-01 2.412645816802978516e-01
-1.121392473578453064e-02 -4.464735388755798340e-01 -1.522900760173797607e-01
-6.250731647014617920e-03 -2.658991217613220215e-01 -2.719326019287109375e-01
-3.808314353227615356e-02 -2.761734127998352051e-01 1.634839922189712524e-01
-4.542642831802368164e-02 -2.513698339462280273e-01 -1.157537177205085754e-01
-3.349575400352478027e-02 -3.214065730571746826e-01 -2.384733855724334717e-01
-3.287007659673690796e-02 -3.464577496051788330e-01 -2.313252836465835571e-01
2.305736951529979706e-02 -3.786363601684570312e-01 -2.319977730512619019e-01
3.868727758526802063e-02 -3.618015050888061523e-01 1.676103472709655762e-01
3.227040404453873634e-03 -3.442151248455047607e-01 -2.865299284458160400e-01
-4.039623215794563293e-02 -3.384528458118438721e-01 -1.954484730958938599e-01
4.491274058818817139e-02 -3.997582793235778809e-01 4.299025237560272217e-02
4.415978491306304932e-02 -2.919384241104125977e-01 2.331603318452835083e-02
-1.712557510472834110e-03 -2.772906124591827393e-01 -2.785527110099792480e-01
9.819220751523971558e-03 -2.678133249282836914e-01 2.300213277339935303e-01
2.808573283255100250e-02 -3.814896345138549805e-01 2.173931002616882324e-01
-3.725101426243782043e-02 -2.135332226753234863e-01 -8.476360887289047241e-02
4.400289431214332581e-02 -4.022451043128967285e-01 6.114531308412551880e-02
-3.403059393167495728e-02 -4.180078208446502686e-01 9.706107527017593384e-02
-2.875422872602939606e-02 -4.079796969890594482e-01 -1.749467104673385620e-01
-2.542580477893352509e-02 -1.917749941349029541e-01 1.524398382753133774e-02
-4.638999328017234802e-02 -3.253413736820220947e-01 1.177434176206588745e-01
4.736956954002380371e-02 -3.717284500598907471e-01 4.460250958800315857e-02
3.906674683094024658e-02 -2.675036191940307617e-01 -6.485269218683242798e-02
6.222842261195182800e-03 -1.901737153530120850e-01 -6.391304731369018555e-02
4.407119750976562500e-02 -3.309811949729919434e-01 -1.078544035553932190e-01
-2.806345559656620026e-02 -4.431497454643249512e-01 4.639308154582977295e-02
7.573663257062435150e-03 -2.081834971904754639e-01 1.158581897616386414e-01
1.621543802320957184e-02 -4.509578347206115723e-01 1.561090052127838135e-01
3.667841106653213501e-02 -2.565255165100097656e-01 4.695345461368560791e-02
2.006545104086399078e-02 -2.380519062280654907e-01 1.494116485118865967e-01
3.657547757029533386e-02 -2.574127316474914551e-01 5.434191972017288208e-02
2.542104758322238922e-02 -2.240845263004302979e-01 -8.662833273410797119e-02
3.724505007266998291e-02 -2.604425251483917236e-01 -7.203785330057144165e-02
8.165197446942329407e-03 -4.633554220199584961e-01 1.301972121000289917e-01
-3.511356189846992493e-02 -3.944359123706817627e-01 1.458185911178588867e-01
-4.343162104487419128e-02 -3.687890172004699707e-01 1.116287112236022949e-01
-2.499266341328620911e-02 -3.102149665355682373e-01 -2.676062285900115967e-01
-3.068438358604907990e-02 -2.539519071578979492e-01 1.761343330144882202e-01
-1.163289509713649750e-02 -4.259971380233764648e-01 2.010111063718795776e-01
3.385688737034797668e-02 -2.628797888755798340e-01 1.119720935821533203e-01
3.229994326829910278e-02 -3.720039725303649902e-01 -1.968290060758590698e-01
-1.217554416507482529e-02 -1.906002014875411987e-01 -1.216627210378646851e-01
4.209122806787490845e-02 -3.116787970066070557e-01 1.158519610762596130e-01
-2.405865304172039032e-02 -4.534450173377990723e-01 4.890520125627517700e-03
3.110145032405853271e-02 -3.852466046810150146e-01 -1.931035369634628296e-01
1.714141853153705597e-02 -2.347752451896667480e-01 -1.851997077465057373e-01
4.454981535673141479e-02 -3.436209261417388916e-01 1.101756766438484192e-01
3.126358613371849060e-02 -3.131932020187377930e-01 -2.075559794902801514e-01
1.988689042627811432e-02 -3.881847262382507324e-01 2.390165776014328003e-01
-2.827501483261585236e-02 -4.384169578552246094e-01 7.642260193824768066e-02
-2.012393251061439514e-02 -2.101867496967315674e-01 1.272202879190444946e-01
1.323359459638595581e-02 -4.127505421638488770e-01 2.297166734933853149e-01
3.879664093255996704e-02 -2.962464094161987305e-01 1.303990483283996582e-01
2.013529092073440552e-02 -4.681957960128784180e-01 -4.014666005969047546e-02
-3.606121987104415894e-02 -2.934269309043884277e-01 -2.256267666816711426e-01
3.005630522966384888e-02 -2.527834475040435791e-01 -1.414707601070404053e-01
-4.623159021139144897e-02 -2.656292915344238281e-01 -1.325630098581314087e-01
-3.240567073225975037e-02 -3.975034058094024658e-01 -1.743221431970596313e-01
4.846576601266860962e-03 -4.706497490406036377e-01 -8.136732876300811768e-02
-4.243702813982963562e-02 -3.436969816684722900e-01 1.465197205543518066e-01
-5.031363293528556824e-02 -3.364906609058380127e-01 -8.977174758911132812e-02
-3.167451918125152588e-02 -2.727248966693878174e-01 -2.342571616172790527e-01
4.481418430805206299e-02 -3.053076565265655518e-01 5.935038626194000244e-02
3.565603494644165039e-02 -3.670523166656494141e-01 -1.798444539308547974e-01
-1.310601131990551949e-03 -3.387700915336608887e-01 -2.901538014411926270e-01
-5.001218616962432861e-02 -2.815501093864440918e-01 -9.872905164957046509e-02
-3.223785664886236191e-03 -3.315549492835998535e-01 -2.917772829532623291e-01
-5.199633166193962097e-02 -3.104641139507293701e-01 -7.209767401218414307e-02
-2.336082048714160919e-02 -2.120842337608337402e-01 -1.741003692150115967e-01
1.429288648068904877e-03 -2.940211594104766846e-01 2.615206539630889893e-01
-4.537499509751796722e-03 -2.699965238571166992e-01 2.436024695634841919e-01
-2.562288939952850342e-02 -4.410985708236694336e-01 9.289038926362991333e-02
3.300518169999122620e-02 -2.483442574739456177e-01 -9.405846148729324341e-02
3.653477877378463745e-02 -4.325258433818817139e-01 8.330300450325012207e-02
2.248924411833286285e-02 -3.460641801357269287e-01 2.453202456235885620e-01
4.104507714509963989e-02 -2.847439646720886230e-01 7.795704156160354614e-02
4.130966216325759888e-02 -4.095758795738220215e-01 -7.259527593851089478e-02
-3.994855657219886780e-02 -3.850876390933990479e-01 -1.408401876688003540e-01
3.460836783051490784e-02 -4.058999717235565186e-01 -1.474656462669372559e-01
2.241996489465236664e-02 -4.238246679306030273e-01 -1.805724501609802246e-01
4.532026872038841248e-02 -3.665714561939239502e-01 9.653946757316589355e-02
2.086078748106956482e-02 -3.156464099884033203e-01 -2.532528042793273926e-01
-4.892418161034584045e-02 -3.149197101593017578e-01 -1.286116689443588257e-01
3.942820802330970764e-02 -4.276404380798339844e-01 5.262196436524391174e-02
4.347658157348632812e-02 -2.903166413307189941e-01 4.231642186641693115e-02
4.117570072412490845e-02 -3.327179551124572754e-01 -1.420348286628723145e-01
2.093352563679218292e-02 -4.353795945644378662e-01 -1.631383001804351807e-01
-3.268647938966751099e-02 -2.079043239355087280e-01 5.321386083960533142e-02
-2.868296578526496887e-02 -4.439683556556701660e-01 1.501565519720315933e-02
1.947632618248462677e-02 -2.149560898542404175e-01 7.499910891056060791e-02
-4.287602752447128296e-02 -2.960184812545776367e-01 -1.860709786415100098e-01
-3.948828205466270447e-02 -3.378241956233978271e-01 1.711061447858810425e-01
2.847190760076045990e-02 -2.259210348129272461e-01 -2.497598528861999512e-02
1.577071845531463623e-02 -4.674603641033172607e-01 -7.419094443321228027e-02
-2.457472262904047966e-03 -2.187706828117370605e-01 1.646932512521743774e-01
-3.258834127336740494e-03 -4.426875710487365723e-01 -1.768165379762649536e-01
4.351498559117317200e-02 -3.944119215011596680e-01 9.128990024328231812e-02
-5.013694614171981812e-02 -3.043089210987091064e-01 6.935869157314300537e-02
-1.835876260884106159e-03 -3.482134044170379639e-01 2.747481167316436768e-01
-3.527782484889030457e-02 -2.265882194042205811e-01 -1.535640060901641846e-01
-4.757522791624069214e-02 -2.464902102947235107e-01 -4.190282896161079407e-02
-2.260055392980575562e-02 -4.382553994655609131e-01 1.280336081981658936e-01
4.075315594673156738e-02 -3.044763505458831787e-01 1.217862814664840698e-01
1.102656405419111252e-02 -4.430772960186004639e-01 1.845386624336242676e-01
-1.683649048209190369e-02 -3.731150031089782715e-01 -2.608645558357238770e-01
3.053182363510131836e-02 -3.565796613693237305e-01 -2.132975757122039795e-01
9.738957509398460388e-03 -2.080038487911224365e-01 1.068017333745956421e-01
-4.702923819422721863e-02 -2.627746462821960449e-01 -1.175108030438423157e-01
1.068051811307668686e-02 -4.496214687824249268e-01 -1.551238745450973511e-01
4.505848884582519531e-02 -3.136232793331146240e-01 7.306180149316787720e-02
2.611153572797775269e-02 -4.368073046207427979e-01 -1.371506005525588989e-01
-5.040601640939712524e-02 -3.456761240959167480e-01 3.621213883161544800e-02
6.592129357159137726e-03 -1.931762695312500000e-01 -8.920888602733612061e-02
1.591610535979270935e-02 -2.953004837036132812e-01 2.431365400552749634e-01
4.219440370798110962e-02 -2.897867262363433838e-01 7.182142883539199829e-02
-2.861382625997066498e-02 -2.542138695716857910e-01 -2.291875481605529785e-01
4.780404269695281982e-02 -3.576708734035491943e-01 -3.543308377265930176e-02
3.172414749860763550e-02 -4.136489629745483398e-01 -1.537191569805145264e-01
-4.524913802742958069e-02 -2.640119791030883789e-01 -1.413118839263916016e-01
-2.645632810890674591e-02 -2.943753898143768311e-01 -2.612062394618988037e-01
3.698495030403137207e-02 -4.276427626609802246e-01 -7.531860470771789551e-02
3.372911363840103149e-02 -2.539098262786865234e-01 8.573456853628158569e-02
-4.250361397862434387e-02 -2.265165448188781738e-01 9.236269630491733551e-03
-1.723509840667247772e-02 -4.454743266105651855e-01 -1.333708912134170532e-01
-3.668128699064254761e-02 -3.838249742984771729e-01 -1.703058481216430664e-01
-2.053817920386791229e-02 -3.219921588897705078e-01 -2.772681713104248047e-01
4.369600117206573486e-02 -4.022447466850280762e-01 6.856068968772888184e-02
-1.578334905207157135e-02 -4.654749631881713867e-01 -1.695851236581802368e-02
1.210180670022964478e-02 -3.850901722908020020e-01 2.551005780696868896e-01
-3.267898783087730408e-02 -4.172084927558898926e-01 1.137534305453300476e-01
-3.178827464580535889e-02 -4.087678492069244385e-01 1.426516026258468628e-01
-4.306887090206146240e-02 -2.526059150695800781e-01 -1.453287303447723389e-01
-7.699930109083652496e-03 -4.735819399356842041e-01 -5.941416136920452118e-03
3.353640064597129822e-02 -3.330737650394439697e-01 1.983940154314041138e-01
1.570216566324234009e-02 -2.027569711208343506e-01 3.472778946161270142e-02
-2.449992299079895020e-02 -3.917611539363861084e-01 -2.206611484289169312e-01
-2.749861776828765869e-02 -4.079560637474060059e-01 1.714233756065368652e-01
-4.566092416644096375e-02 -3.844303786754608154e-01 -5.189927667379379272e-02
3.018116112798452377e-04 -3.582581579685211182e-01 -2.828998565673828125e-01
-4.397061467170715332e-02 -3.521291911602020264e-01 -1.556082367897033691e-01
-5.028155446052551270e-02 -2.887453138828277588e-01 -1.015737652778625488e-01
-5.244863033294677734e-02 -3.249006271362304688e-01 -2.133488655090332031e-03
2.568817883729934692e-02 -2.588340342044830322e-01 1.639847755432128906e-01
-4.771160334348678589e-02 -3.571224212646484375e-01 7.216823101043701172e-02
-1.796001568436622620e-02 -2.418575286865234375e-01 -2.399906218051910400e-01
2.824470773339271545e-02 -4.515870809555053711e-01 9.416665136814117432e-02
3.493264317512512207e-02 -3.843040466308593750e-01 -1.718351840972900391e-01
3.423078730702400208e-02 -3.118369877338409424e-01 -1.888449341058731079e-01
4.662173986434936523e-02 -3.719516992568969727e-01 -5.459218844771385193e-02
-1.331394817680120468e-02 -2.545658648014068604e-01 -2.594750821590423584e-01
-3.479165583848953247e-02 -4.284417033195495605e-01 -2.503653988242149353e-02
-4.789466783404350281e-02 -2.724151909351348877e-01 7.239463180303573608e-02
3.578053787350654602e-02 -4.303364157676696777e-01 1.013315096497535706e-01
-3.937210515141487122e-02 -2.834391593933105469e-01 1.615321040153503418e-01
3.706363728269934654e-03 -4.781413972377777100e-01 -2.589538227766752243e-03
-5.071048438549041748e-02 -2.678949236869812012e-01 -2.152628451585769653e-02
-1.191531401127576828e-02 -4.212824702262878418e-01 2.081783264875411987e-01
-5.014052242040634155e-02 -3.091218769550323486e-01 -1.117781102657318115e-01
-3.852284327149391174e-02 -2.191736996173858643e-01 4.151082783937454224e-02
-3.606694191694259644e-02 -4.250282049179077148e-01 -1.712136715650558472e-02
-4.879255220293998718e-02 -3.139134943485260010e-01 9.092377126216888428e-02
3.874659165740013123e-02 -2.940882146358489990e-01 -1.356228440999984741e-01
2.414946211501955986e-03 -1.858605742454528809e-01 -4.605187568813562393e-03
-4.984251782298088074e-02 -2.670651078224182129e-01 -7.266418635845184326e-02
4.777842015027999878e-02 -3.723747432231903076e-01 1.715566217899322510e-02
1.827875338494777679e-02 -2.408438622951507568e-01 -1.922143399715423584e-01
1.460536103695631027e-02 -4.595841765403747559e-01 1.332304924726486206e-01
1.094985753297805786e-03 -2.071344852447509766e-01 1.289925128221511841e-01
3.241084888577461243e-02 -3.664519190788269043e-01 2.046811580657958984e-01
1.584710925817489624e-02 -2.066309154033660889e-01 -9.880310297012329102e-02
-6.033945828676223755e-03 -4.734505712985992432e-01 -3.242411091923713684e-02
3.966185823082923889e-02 -3.870751261711120605e-01 -1.327170282602310181e-01
-4.420242458581924438e-02 -2.336694002151489258e-01 1.540015358477830887e-02
-4.613497480750083923e-02 -3.773618340492248535e-01 4.989442601799964905e-02
4.794047027826309204e-02 -3.697777092456817627e-01 9.724621661007404327e-03
-3.133004903793334961e-02 -2.195013910531997681e-01 1.063795462250709534e-01
2.050343342125415802e-02 -2.186157107353210449e-01 8.352209627628326416e-02
2.537464722990989685e-02 -3.125990033149719238e-01 2.261932492256164551e-01
-2.143026562407612801e-03 -3.664178252220153809e-01 -2.789306342601776123e-01
-2.898736484348773956e-02 -2.901289761066436768e-01 -2.523719966411590576e-01
1.443773414939641953e-02 -2.058436870574951172e-01 -1.070830449461936951e-01
3.153891488909721375e-02 -3.471661210060119629e-01 -2.106084674596786499e-01
-5.108773708343505859e-02 -3.239361643791198730e-01 -8.770260214805603027e-02
9.961177594959735870e-03 -2.395971864461898804e-01 -2.204294800758361816e-01
-3.294528275728225708e-02 -4.316056370735168457e-01 4.187633097171783447e-02
4.194584861397743225e-02 -2.767488360404968262e-01 7.537054829299449921e-03
-2.673813886940479279e-02 -1.950463205575942993e-01 3.111650794744491577e-02
-2.616299688816070557e-02 -4.451127648353576660e-01 6.369836628437042236e-02
-4.079218581318855286e-02 -2.847451567649841309e-01 1.531423181295394897e-01
-4.952804744243621826e-02 -3.354649245738983154e-01 -1.059690639376640320e-01
1.259293407201766968e-02 -1.994813531637191772e-01 4.380594938993453979e-02
-2.629742491990327835e-03 -2.468765676021575928e-01 -2.516725659370422363e-01
9.402154013514518738e-03 -4.772496521472930908e-01 -1.162100303918123245e-02
4.313364624977111816e-02 -3.984462916851043701e-01 -7.250327616930007935e-02
1.927246525883674622e-02 -4.468053877353668213e-01 -1.408234834671020508e-01
4.494468495249748230e-02 -3.903129696846008301e-01 7.328836619853973389e-02
1.551842410117387772e-02 -3.251674473285675049e-01 -2.697020173072814941e-01
-1.235157251358032227e-02 -3.621981143951416016e-01 2.615279555320739746e-01
3.075220435857772827e-02 -2.336463034152984619e-01 2.361523360013961792e-02
-8.665875531733036041e-03 -1.824450790882110596e-01 5.136731080710887909e-03
1.643810234963893890e-02 -4.630874395370483398e-01 -9.391222149133682251e-02
-4.041758552193641663e-02 -3.113853931427001953e-01 -2.041999101638793945e-01
1.241443771868944168e-02 -3.026125133037567139e-01 -2.719881236553192139e-01
-4.559504240751266479e-02 -3.697290122509002686e-01 -1.075965985655784607e-01
1.043168269097805023e-02 -2.767546176910400391e-01 -2.619172334671020508e-01
2.985577797517180443e-03 -1.948321312665939331e-01 7.453267276287078857e-02
-1.905249617993831635e-02 -4.448637366294860840e-01 1.278111487627029419e-01
3.224213840439915657e-03 -3.705466389656066895e-01 2.688746452331542969e-01
-2.109537459909915924e-02 -3.770481646060943604e-01 2.334484010934829712e-01
1.049204263836145401e-02 -4.763481616973876953e-01 4.288845509290695190e-02
-4.265001043677330017e-03 -3.818168342113494873e-01 2.609964311122894287e-01
-1.149713713675737381e-02 -4.654873609542846680e-01 -6.841958314180374146e-02
1.009012293070554733e-02 -2.001585662364959717e-01 -1.091722771525382996e-01
-9.185049682855606079e-03 -4.206030964851379395e-01 2.150207161903381348e-01
2.029446884989738464e-02 -4.559680223464965820e-01 1.269050687551498413e-01
-1.383010763674974442e-02 -3.697559237480163574e-01 2.555177807807922363e-01
-4.842539504170417786e-02 -2.510594725608825684e-01 -1.885103061795234680e-02
-1.313567161560058594e-02 -3.764391541481018066e-01 2.529674172401428223e-01
3.347223624587059021e-02 -3.363835513591766357e-01 -2.006449103355407715e-01
4.447354376316070557e-02 -3.010286092758178711e-01 -5.947934463620185852e-02
-5.279511213302612305e-03 -3.972161412239074707e-01 2.482934147119522095e-01
-2.843394130468368530e-02 -1.941771209239959717e-01 -2.623016480356454849e-03
-2.225244604051113129e-02 -3.144998252391815186e-01 -2.741502523422241211e-01
4.163760319352149963e-02 -3.822286128997802734e-01 -1.186399757862091064e-01
-4.545634239912033081e-02 -2.580681145191192627e-01 -1.293851435184478760e-01
3.753580525517463684e-02 -2.670947015285491943e-01 7.864105701446533203e-02
3.587926551699638367e-02 -4.385425448417663574e-01 6.270477175712585449e-02
-2.694741636514663696e-02 -4.209186434745788574e-01 1.482364237308502197e-01
3.041129186749458313e-02 -4.554414451122283936e-01 2.498578652739524841e-02
-3.501950576901435852e-02 -3.308588266372680664e-01 1.988522857427597046e-01
-5.166382342576980591e-02 -2.840670943260192871e-01 1.162121165543794632e-02
2.272649854421615601e-02 -3.333886563777923584e-01 -2.491375207901000977e-01
1.367586012929677963e-02 -3.754298985004425049e-01 2.580465376377105713e-01
3.960452973842620850e-02 -3.921647667884826660e-01 -1.268018335103988647e-01
-5.036076903343200684e-02 -3.502438664436340332e-01 -5.677032098174095154e-02
-5.215631052851676941e-02 -2.900466918945312500e-01 4.121369682252407074e-03
-3.033848851919174194e-02 -2.118741571903228760e-01 8.826281875371932983e-02
-2.141158469021320343e-02 -4.313914179801940918e-01 -1.569686681032180786e-01
-3.237393125891685486e-02 -1.996385306119918823e-01 -4.022869840264320374e-02
3.956936299800872803e-03 -2.077068835496902466e-01 -1.662608832120895386e-01
4.127481579780578613e-02 -3.664558231830596924e-01 1.446884125471115112e-01
1.430596131831407547e-02 -1.981170922517776489e-01 -3.536832332611083984e-02
1.213671546429395676e-02 -1.987497508525848389e-01 -8.256797492504119873e-02
1.770254224538803101e-02 -3.176306188106536865e-01 2.516496777534484863e-01
-3.289165347814559937e-02 -4.288881421089172363e-01 6.299354135990142822e-02
6.296840496361255646e-03 -1.985836476087570190e-01 8.060745894908905029e-02
-4.520273208618164062e-02 -3.882864713668823242e-01 -4.013340547680854797e-02
-5.262088030576705933e-02 -2.975084781646728516e-01 -3.520499542355537415e-02
1.772725768387317657e-02 -4.037529826164245605e-01 -2.238328456878662109e-01
3.685177536681294441e-03 -1.916428059339523315e-01 -9.696272760629653931e-02
4.226628318428993225e-02 -4.076862931251525879e-01 -6.208528205752372742e-02
-2.549568563699722290e-02 -3.665056526660919189e-01 -2.445677071809768677e-01
1.785307750105857849e-02 -4.579252004623413086e-01 -1.099393442273139954e-01
-1.033864566124975681e-03 -3.206060230731964111e-01 -2.919058799743652344e-01
-2.185548469424247742e-02 -4.373908042907714844e-01 1.354389339685440063e-01
-3.685405850410461426e-02 -2.367690652608871460e-01 1.139364838600158691e-01
-3.645488619804382324e-02 -2.460530996322631836e-01 -1.843056231737136841e-01
-3.986207023262977600e-02 -4.107753634452819824e-01 2.926455065608024597e-02
-3.029172122478485107e-02 -4.320228099822998047e-01 -8.980453014373779297e-02
-8.806151337921619415e-03 -3.611725568771362305e-01 -2.795948982238769531e-01
-2.314492315053939819e-02 -2.001511156558990479e-01 8.232795447111129761e-02
4.203792661428451538e-02 -3.685380816459655762e-01 1.364068239927291870e-01
-5.281766504049301147e-02 -3.087297379970550537e-01 -2.788618952035903931e-02
4.409031197428703308e-02 -4.078152179718017578e-01 -3.176935482770204544e-03
-5.166188254952430725e-02 -2.790014147758483887e-01 -3.834722563624382019e-02
4.121508821845054626e-02 -2.869990468025207520e-01 -9.009876102209091187e-02
-3.007816895842552185e-02 -2.450656890869140625e-01 1.659959107637405396e-01
1.980871148407459259e-02 -2.158904075622558594e-01 -1.097526773810386658e-01
-1.915360987186431885e-02 -3.919118940830230713e-01 -2.366755902767181396e-01
-5.212927609682083130e-02 -2.868069708347320557e-01 -4.145348072052001953e-02
-2.637693099677562714e-02 -4.210624098777770996e-01 -1.582851260900497437e-01
2.933495864272117615e-02 -3.251238167285919189e-01 -2.213464230298995972e-01
4.892215132713317871e-03 -1.902946382761001587e-01 -7.813536375761032104e-02
-5.052564293146133423e-02 -3.229747116565704346e-01 6.159426271915435791e-02
2.188588865101337433e-02 -2.518500089645385742e-01 1.701793819665908813e-01
-2.591349929571151733e-02 -4.480576813220977783e-01 -4.335414990782737732e-02
-4.754423350095748901e-02 -3.143659532070159912e-01 -1.454712599515914917e-01
-1.761757209897041321e-02 -3.287189006805419922e-01 -2.815238833427429199e-01
-2.063648076727986336e-03 -4.401310682296752930e-01 1.911675631999969482e-01
2.671608142554759979e-02 -4.301681220531463623e-01 -1.496398746967315674e-01
-3.734214976429939270e-02 -3.996500372886657715e-01 -1.315390169620513916e-01
1.059186272323131561e-02 -3.409041762351989746e-01 -2.785311937332153320e-01
-4.442574828863143921e-02 -3.547818660736083984e-01 -1.479026377201080322e-01
-4.045045375823974609e-02 -3.541694879531860352e-01 -1.825753897428512573e-01
-3.310185670852661133e-02 -2.438203096389770508e-01 -1.985986828804016113e-01
-5.000846832990646362e-02 -2.619174122810363770e-01 -3.096676245331764221e-02
-5.104042589664459229e-02 -3.480775654315948486e-01 -4.912092350423336029e-03
-1.523271668702363968e-02 -4.483197033405303955e-01 1.360664218664169312e-01
8.292848244309425354e-03 -2.591903209686279297e-01 -2.504662871360778809e-01
-3.880015388131141663e-02 -3.739875853061676025e-01 -1.703382432460784912e-01
-4.550087079405784607e-02 -3.472723662853240967e-01 -1.457450687885284424e-01
-1.659078337252140045e-02 -4.648361802101135254e-01 9.651930071413516998e-03
3.162499144673347473e-02 -3.942824006080627441e-01 1.923552602529525757e-01
2.724473737180233002e-02 -4.170483350753784180e-01 1.864122897386550903e-01
-4.831163212656974792e-02 -3.609454035758972168e-01 -8.085378259420394897e-02
2.970389649271965027e-02 -3.121197819709777832e-01 2.076357454061508179e-01
3.671431541442871094e-02 -4.166032373905181885e-01 1.281311213970184326e-01
-4.934384673833847046e-02 -2.574248909950256348e-01 -1.179983559995889664e-02
2.623214945197105408e-02 -3.823602795600891113e-01 -2.176137715578079224e-01
4.679353535175323486e-02 -3.748952746391296387e-01 -4.510335251688957214e-02
4.285604134202003479e-02 -3.322263360023498535e-01 1.258219927549362183e-01
2.607926726341247559e-02 -3.744348883628845215e-01 -2.239409685134887695e-01
3.632302582263946533e-02 -2.509002983570098877e-01 -2.319767326116561890e-02
3.976293280720710754e-02 -3.161043524742126465e-01 -1.477083861827850342e-01
-2.668534591794013977e-02 -4.059364199638366699e-01 1.791188716888427734e-01
-1.156298629939556122e-02 -1.834793090820312500e-01 1.729806885123252869e-02
-3.202023357152938843e-02 -4.363596737384796143e-01 -8.647829294204711914e-03
-3.942927345633506775e-03 -2.226057350635528564e-01 -2.154005616903305054e-01
4.554368928074836731e-02 -3.919932544231414795e-01 -3.720980510115623474e-02
-4.321640357375144958e-02 -2.410839498043060303e-01 -1.181274056434631348e-01
-1.246522646397352219e-02 -4.134153425693511963e-01 -2.213502079248428345e-01
-3.804749250411987305e-02 -3.362770378589630127e-01 1.807888597249984741e-01
-7.232860662043094635e-05 -4.705975055694580078e-01 9.376265853643417358e-02
-1.919873058795928955e-02 -3.813671469688415527e-01 -2.482799738645553589e-01
-9.319675154983997345e-03 -2.254365533590316772e-01 -2.223161607980728149e-01
4.445351660251617432e-02 -4.037182927131652832e-01 -2.070088125765323639e-02
3.989676758646965027e-02 -3.501921594142913818e-01 -1.545334160327911377e-01
-4.881058260798454285e-02 -3.014153540134429932e-01 8.801004290580749512e-02
-5.248485878109931946e-02 -2.920435667037963867e-01 -2.398638427257537842e-02
-4.288788139820098877e-02 -2.613003849983215332e-01 -1.602258384227752686e-01
-8.568406105041503906e-03 -4.474201798439025879e-01 1.623786985874176025e-01
4.350630566477775574e-02 -3.045437932014465332e-01 -8.816223591566085815e-02
-4.145674034953117371e-02 -2.795554399490356445e-01 -1.884918510913848877e-01
2.475958131253719330e-02 -4.652509093284606934e-01 1.997326314449310303e-02
-2.721613831818103790e-02 -3.897496759891510010e-01 -2.129809707403182983e-01
2.594158984720706940e-02 -3.126660883426666260e-01 -2.333253324031829834e-01
-1.737503521144390106e-02 -2.242645919322967529e-01 -2.138521671295166016e-01
1.639841590076684952e-03 -1.855596452951431274e-01 -4.771681129932403564e-02
4.010905325412750244e-02 -3.426937758922576904e-01 -1.533550918102264404e-01
-4.818739742040634155e-02 -2.665930986404418945e-01 -1.069626659154891968e-01
4.017927125096321106e-02 -3.195789754390716553e-01 1.440719366073608398e-01
3.626153245568275452e-02 -2.504495382308959961e-01 -1.574588008224964142e-02
-6.728238426148891449e-03 -1.830365359783172607e-01 1.201215665787458420e-02
3.462365269660949707e-02 -2.488947361707687378e-01 -6.715480238199234009e-02
-3.517332673072814941e-02 -3.489505350589752197e-01 1.924864202737808228e-01
3.410587459802627563e-02 -3.710294067859649658e-01 -1.871820092201232910e-01
6.609110161662101746e-03 -2.474969327449798584e-01 2.084650546312332153e-01
-4.520759731531143188e-02 -2.346909642219543457e-01 -3.212758526206016541e-02
2.456022053956985474e-02 -3.998964130878448486e-01 -2.071023583412170410e-01
-4.941825568675994873e-02 -2.878976166248321533e-01 -1.153939366340637207e-01
1.121349446475505829e-02 -2.131797075271606445e-01 -1.564655900001525879e-01
2.359146066009998322e-02 -2.413526475429534912e-01 1.379619091749191284e-01
4.552368074655532837e-03 -3.109212517738342285e-01 -2.868197858333587646e-01
4.832768440246582031e-02 -3.566640317440032959e-01 1.021312829107046127e-02
1.341634895652532578e-02 -4.730635583400726318e-01 -4.525208100676536560e-02
8.033555932343006134e-03 -4.702335596084594727e-01 9.905000030994415283e-02
-1.619229279458522797e-02 -4.015595316886901855e-01 -2.312602549791336060e-01
-2.842322364449501038e-02 -4.313172399997711182e-01 -1.120260581374168396e-01
-2.110748738050460815e-02 -1.858353167772293091e-01 -2.623858302831649780e-02
3.524981439113616943e-02 -2.478312849998474121e-01 -3.936665505170822144e-02
-2.232300117611885071e-02 -4.224129617214202881e-01 1.703202128410339355e-01
-5.235489457845687866e-02 -2.896746695041656494e-01 -3.210926428437232971e-02
4.811049252748489380e-02 -3.645012378692626953e-01 -5.916045978665351868e-03
-3.243197128176689148e-02 -2.283854186534881592e-01 1.229672729969024658e-01
-2.840464562177658081e-02 -3.582570254802703857e-01 -2.411948740482330322e-01
-5.005599558353424072e-02 -2.635847032070159912e-01 -4.753743857145309448e-02
-3.539187461137771606e-02 -2.854043841361999512e-01 1.853484958410263062e-01
1.661102846264839172e-02 -4.393597841262817383e-01 1.826384365558624268e-01
-2.261759713292121887e-02 -4.320671260356903076e-01 -1.490468382835388184e-01
3.432904556393623352e-02 -2.444508671760559082e-01 1.782158017158508301e-02
1.103776227682828903e-02 -4.421939849853515625e-01 -1.732189506292343140e-01
-2.395298518240451813e-02 -3.208896815776824951e-01 2.419304996728897095e-01
3.397133573889732361e-02 -4.138561487197875977e-01 -1.383942067623138428e-01
2.593122050166130066e-02 -3.442668914794921875e-01 -2.364999353885650635e-01
-5.069702118635177612e-02 -3.502515256404876709e-01 -4.046777635812759399e-02
-3.054045513272285461e-02 -3.814592659473419189e-01 -2.093570530414581299e-01
-3.881602734327316284e-02 -2.162389010190963745e-01 -7.490365207195281982e-02
-3.766511008143424988e-02 -3.268167078495025635e-01 -2.171604037284851074e-01
