6.933282315731048584e-02 -8.953791856765747070e-01 1.136281341314315796e-01
3.256932273507118225e-02 -8.952860236167907715e-01 8.691865205764770508e-02
-1.116545200347900391e-01 -9.752451777458190918e-01 1.337823420763015747e-01
3.347919881343841553e-02 -9.156466722488403320e-01 -1.461715996265411377e-02
-8.109880983829498291e-02 -9.538553357124328613e-01 -2.513840794563293457e-02
1.417061686515808105e-02 -9.068124294281005859e-01 2.116745412349700928e-01
-1.152076497673988342e-01 -9.825468659400939941e-01 5.195027589797973633e-02
-1.989088580012321472e-02 -9.253044128417968750e-01 -2.325163036584854126e-02
4.001249372959136963e-02 -9.849790930747985840e-01 1.403684169054031372e-01
7.569228112697601318e-02 -8.964335918426513672e-01 1.296227574348449707e-01
6.017882376909255981e-03 -9.968358278274536133e-01 1.065510064363479614e-01
-1.036386843770742416e-02 -9.936564564704895020e-01 1.294977962970733643e-01
-1.180794686079025269e-01 -9.473981261253356934e-01 4.935875907540321350e-02
1.431628018617630005e-01 -9.496474266052246094e-01 6.399014592170715332e-02
8.801560103893280029e-02 -9.041923880577087402e-01 1.679608523845672607e-01
6.107966974377632141e-02 -9.937347173690795898e-01 5.564068257808685303e-02
8.833312243223190308e-02 -9.858475923538208008e-01 5.361661314964294434e-02
2.649543806910514832e-02 -9.882738590240478516e-01 -5.570606142282485962e-02
-1.374125760048627853e-02 -9.485067129135131836e-01 -6.496686488389968872e-02
-2.301169186830520630e-02 -1.003350973129272461e+00 1.003913581371307373e-02
-1.934284344315528870e-03 -9.019426703453063965e-01 1.925332844257354736e-01
-9.513159841299057007e-02 -9.791477322578430176e-01 1.477455496788024902e-01
4.930370673537254333e-02 -9.967862367630004883e-01 4.764002561569213867e-02
1.428686529397964478e-01 -9.466153979301452637e-01 3.392007574439048767e-02
-8.946450799703598022e-02 -9.218993186950683594e-01 7.582306861877441406e-02
3.947647288441658020e-02 -9.665751457214355469e-01 -7.693416625261306763e-02
-1.497152727097272873e-02 -9.339826107025146484e-01 -4.406434297561645508e-02
-1.219165921211242676e-01 -9.671329259872436523e-01 1.299393326044082642e-01
-8.435261249542236328e-02 -9.959684610366821289e-01 7.145583629608154297e-02
1.533571630716323853e-02 -9.911758899688720703e-01 -5.141774564981460571e-02
-7.614652812480926514e-02 -9.132764935493469238e-01 1.088191270828247070e-01
1.131288632750511169e-01 -9.690797924995422363e-01 -1.321544498205184937e-02
-5.624569952487945557e-02 -1.001988410949707031e+00 4.081436246633529663e-02
5.692516639828681946e-02 -8.944039344787597656e-01 1.100537031888961792e-01
4.921066388487815857e-02 -9.100611209869384766e-01 3.172345459461212158e-03
-9.899370372295379639e-02 -9.465875029563903809e-01 1.882751286029815674e-01
-5.789869278669357300e-02 -9.389781355857849121e-01 -2.592690289020538330e-02
8.638536930084228516e-02 -9.156774282455444336e-01 -2.743527293205261230e-03
8.129901252686977386e-04 -9.597612619400024414e-01 -7.657092064619064331e-02
-8.105302602052688599e-02 -9.866810441017150879e-01 1.367039829492568970e-01
3.499610722064971924e-02 -9.111518859863281250e-01 2.179107069969177246e-01
-7.747206091880798340e-02 -9.966845512390136719e-01 8.226285874843597412e-02
1.009842753410339355e-01 -9.240152239799499512e-01 -1.416514813899993896e-02
-5.734229087829589844e-02 -9.874177575111389160e-01 1.496920287609100342e-01
-1.228130608797073364e-01 -9.740864038467407227e-01 1.037051081657409668e-01
4.923414066433906555e-02 -8.949840068817138672e-01 9.128749370574951172e-02
-4.958773031830787659e-02 -9.044581055641174316e-01 1.321539878845214844e-01
-1.287560760974884033e-01 -9.525908827781677246e-01 9.972404688596725464e-02
2.600870653986930847e-02 -9.981014132499694824e-01 -1.724737137556076050e-02
2.232616022229194641e-02 -9.115781784057617188e-01 -1.706331968307495117e-04
2.638561651110649109e-02 -9.664591550827026367e-01 1.992005109786987305e-01
-2.602875977754592896e-02 -9.893103241920471191e-01 1.493059247732162476e-01
5.545636638998985291e-02 -9.851072430610656738e-01 -4.819592088460922241e-02
-4.280963167548179626e-02 -9.710509181022644043e-01 1.975065916776657104e-01
1.189521849155426025e-01 -9.364744424819946289e-01 1.616118252277374268e-01
3.535557538270950317e-02 -9.260688424110412598e-01 -4.036436975002288818e-02
-2.583250030875205994e-02 -9.821201562881469727e-01 1.729322075843811035e-01
4.611827805638313293e-02 -9.794509410858154297e-01 1.553335785865783691e-01
-2.946695312857627869e-02 -1.003932714462280273e+00 4.313544183969497681e-02
1.334663629531860352e-01 -9.180040359497070312e-01 1.144632846117019653e-01
3.189145773649215698e-02 -9.004188179969787598e-01 1.908944249153137207e-01
-1.219400763511657715e-01 -9.738205075263977051e-01 4.645312950015068054e-02
1.284367442131042480e-01 -9.212417006492614746e-01 2.881323918700218201e-02
-4.555692896246910095e-02 -9.628583192825317383e-01 2.107831537723541260e-01
1.250613927841186523e-01 -9.423052072525024414e-01 1.458699405193328857e-01
-3.791467100381851196e-02 -9.879902005195617676e-01 -5.054879933595657349e-02
1.997878029942512512e-02 -1.000541210174560547e+00 6.318841129541397095e-02
7.791211828589439392e-04 -9.695390462875366211e-01 2.006811648607254028e-01
9.710779786109924316e-02 -9.778695702552795410e-01 9.447361528873443604e-02
1.462951153516769409e-01 -9.338925480842590332e-01 6.788374483585357666e-02
7.212810963392257690e-02 -9.634486436843872070e-01 1.767002940177917480e-01
-8.465676754713058472e-02 -9.241712689399719238e-01 5.058008432388305664e-02
-3.554745763540267944e-02 -9.815500378608703613e-01 -6.039910763502120972e-02
-5.171018093824386597e-02 -1.002373814582824707e+00 3.036615625023841858e-02
3.417473286390304565e-02 -9.057164192199707031e-01 2.013664692640304565e-02
1.519908383488655090e-02 -9.171286821365356445e-01 2.288081645965576172e-01
1.114201620221138000e-01 -9.047583341598510742e-01 8.839129656553268433e-02
-1.061880737543106079e-01 -9.748686552047729492e-01 1.447331905364990234e-01
3.021384775638580322e-02 -9.521929621696472168e-01 -7.493858784437179565e-02
-1.277643889188766479e-01 -9.639333486557006836e-01 6.274171918630599976e-02
1.285560876131057739e-01 -9.128413796424865723e-01 7.773547619581222534e-02
7.423248142004013062e-02 -9.903529286384582520e-01 7.867500185966491699e-03
-6.656340509653091431e-02 -9.738053679466247559e-01 1.836090683937072754e-01
1.142383813858032227e-01 -9.072640538215637207e-01 1.297685503959655762e-01
-2.942324429750442505e-02 -9.004045724868774414e-01 1.491306871175765991e-01
6.132914125919342041e-02 -9.195105433464050293e-01 2.166440188884735107e-01
-7.326016575098037720e-02 -9.725666642189025879e-01 -4.053470492362976074e-02
-8.894281834363937378e-02 -9.184878468513488770e-01 1.330714523792266846e-01
-7.531692273914813995e-03 -9.082581400871276855e-01 2.114983201026916504e-01
1.163468137383460999e-01 -9.268183112144470215e-01 -4.888102412223815918e-03
-3.095708787441253662e-02 -9.015980958938598633e-01 1.613517701625823975e-01
-6.837600469589233398e-02 -9.422631263732910156e-01 -2.213075757026672363e-02
-9.117914736270904541e-02 -9.633809924125671387e-01 -2.049968391656875610e-02
-5.962058156728744507e-02 -9.619207382202148438e-01 -5.061148852109909058e-02
1.020889282226562500e-01 -9.603580832481384277e-01 1.500222682952880859e-01
1.289952844381332397e-01 -9.585604071617126465e-01 1.050353050231933594e-03
-9.842932224273681641e-02 -9.860092401504516602e-01 9.227827191352844238e-03
7.334500551223754883e-03 -9.760023355484008789e-01 -7.514125853776931763e-02
1.127077490091323853e-01 -9.666346311569213867e-01 1.121850460767745972e-01
7.743428647518157959e-02 -9.697215557098388672e-01 1.561306416988372803e-01
-4.972606897354125977e-02 -9.507904052734375000e-01 -4.913527518510818481e-02
7.445735484361648560e-02 -9.652519822120666504e-01 -6.363739818334579468e-02
4.523937031626701355e-02 -9.008038640022277832e-01 1.889538764953613281e-01
9.103681147098541260e-02 -9.081339240074157715e-01 2.767729386687278748e-02
8.535259962081909180e-02 -9.203755259513854980e-01 2.003256976604461670e-01
-9.052667766809463501e-02 -9.803838133811950684e-01 -1.559922099113464355e-02
-1.957146450877189636e-02 -9.708175659179687500e-01 2.002046406269073486e-01
-9.913737326860427856e-02 -9.542737603187561035e-01 -2.332463860511779785e-03
1.361484974622726440e-01 -9.532940387725830078e-01 1.417264342308044434e-02
4.207326844334602356e-02 -9.876627922058105469e-01 1.274213343858718872e-01
-1.194208208471536636e-02 -9.867165088653564453e-01 1.575329899787902832e-01
1.035651564598083496e-01 -9.669096469879150391e-01 1.291669458150863647e-01
6.861609965562820435e-02 -9.024519324302673340e-01 4.050763323903083801e-02
1.174894124269485474e-01 -9.180892705917358398e-01 1.581245660781860352e-01
1.390512585639953613e-01 -9.316404461860656738e-01 1.186169162392616272e-01
-5.859871208667755127e-02 -9.069676399230957031e-01 1.246348842978477478e-01
-6.375351548194885254e-02 -9.298104643821716309e-01 1.937672495841979980e-04
7.029950618743896484e-03 -8.974325656890869141e-01 8.005465567111968994e-02
1.140720397233963013e-01 -9.628998637199401855e-01 -2.446580678224563599e-02
1.029202640056610107e-01 -9.027072191238403320e-01 8.077444881200790405e-02
2.621054183691740036e-03 -8.997008800506591797e-01 6.491794437170028687e-02
-5.809444934129714966e-02 -9.987627863883972168e-01 9.087609499692916870e-02
5.624739080667495728e-02 -9.038883447647094727e-01 2.916825935244560242e-02
1.299070864915847778e-01 -9.594816565513610840e-01 9.301047027111053467e-02
-4.791045561432838440e-03 -9.888135194778442383e-01 1.485271155834197998e-01
1.037395298480987549e-01 -9.799769520759582520e-01 2.178823202848434448e-02
7.735046744346618652e-02 -9.877223968505859375e-01 7.397739589214324951e-02
4.445464815944433212e-03 -1.003134131431579590e+00 4.170208796858787537e-02
2.621959522366523743e-02 -1.001066923141479492e+00 2.703113481402397156e-02
-4.704551026225090027e-02 -9.394239187240600586e-01 -3.530368953943252563e-02
-2.075111865997314453e-02 -1.003965854644775391e+00 2.213093265891075134e-02
-1.161217242479324341e-01 -9.769102931022644043e-01 1.170303523540496826e-01
-7.143075019121170044e-02 -9.166580438613891602e-01 1.803840845823287964e-01
4.052376002073287964e-02 -9.964401721954345703e-01 7.475161552429199219e-02
-7.701857388019561768e-02 -9.291936755180358887e-01 1.853742823004722595e-02
7.579959928989410400e-02 -9.048500061035156250e-01 3.200399875640869141e-02
3.816875070333480835e-02 -9.715772867202758789e-01 1.824811100959777832e-01
1.165422871708869934e-01 -9.731343984603881836e-01 5.752744525671005249e-02
-1.771213114261627197e-02 -8.986200094223022461e-01 1.535122841596603394e-01
-4.715083539485931396e-02 -9.352009892463684082e-01 2.282278239727020264e-01
9.648797661066055298e-02 -9.000582098960876465e-01 1.037541702389717102e-01
1.184669286012649536e-01 -9.681788682937622070e-01 8.936191350221633911e-02
-1.832861825823783875e-02 -9.019039869308471680e-01 6.996697187423706055e-02
2.861193940043449402e-02 -9.263530969619750977e-01 2.325800061225891113e-01
5.352748930454254150e-02 -9.106319546699523926e-01 2.105067968368530273e-01
5.958129838109016418e-02 -9.727043509483337402e-01 1.648231595754623413e-01
9.047297388315200806e-02 -9.602739214897155762e-01 1.650548279285430908e-01
-8.957099169492721558e-02 -9.201869964599609375e-01 1.512206196784973145e-01
7.733277976512908936e-02 -8.977512717247009277e-01 8.258847892284393311e-02
-1.437972951680421829e-02 -9.490738511085510254e-01 2.304159700870513916e-01
8.815465122461318970e-02 -9.006000161170959473e-01 6.969529390335083008e-02
8.005301654338836670e-02 -9.359834790229797363e-01 2.056123614311218262e-01
8.691013604402542114e-02 -9.119072556495666504e-01 1.891606450080871582e-01
1.683135889470577240e-02 -1.001754164695739746e+00 4.892764613032341003e-02
-4.778369143605232239e-02 -9.228917956352233887e-01 3.778465092182159424e-03
-3.125341609120368958e-02 -9.434506893157958984e-01 -5.131701380014419556e-02
-7.999476790428161621e-02 -9.466597437858581543e-01 -1.703672111034393311e-02
1.158491224050521851e-01 -9.116198420524597168e-01 1.464934498071670532e-01
7.391654700040817261e-02 -9.526466727256774902e-01 1.944763958454132080e-01
6.336759775876998901e-02 -9.906132817268371582e-01 8.260168135166168213e-02
5.716823786497116089e-02 -8.962483406066894531e-01 7.979534566402435303e-02
-8.273397386074066162e-02 -9.208877086639404297e-01 6.315127015113830566e-02
1.517921313643455505e-02 -9.984109997749328613e-01 -2.293300628662109375e-02
2.397663518786430359e-02 -9.189518094062805176e-01 -2.264142781496047974e-02
7.869114726781845093e-02 -9.037219882011413574e-01 1.769011616706848145e-01
-6.367937475442886353e-02 -9.535194635391235352e-01 2.146435081958770752e-01
-1.051394268870353699e-01 -9.396642446517944336e-01 3.685163334012031555e-02
-4.361039400100708008e-02 -9.073444604873657227e-01 6.799391657114028931e-02
5.861971527338027954e-02 -9.951799511909484863e-01 3.126577287912368774e-02
-1.399635802954435349e-02 -9.117521047592163086e-01 1.484327018260955811e-02
7.761790603399276733e-02 -9.443342089653015137e-01 -5.795636028051376343e-02
1.262747868895530701e-02 -1.000274181365966797e+00 7.555098831653594971e-02
-4.333062469959259033e-02 -1.000055432319641113e+00 9.039901196956634521e-02
4.228523746132850647e-02 -8.973090052604675293e-01 6.671882420778274536e-02
4.221816547214984894e-03 -9.447648525238037109e-01 2.327812016010284424e-01
1.136301383376121521e-01 -9.478550553321838379e-01 -3.222443908452987671e-02
8.436723798513412476e-02 -9.036037325859069824e-01 4.452693834900856018e-02
7.605596631765365601e-02 -9.009109735488891602e-01 5.420239269733428955e-02
-2.245441451668739319e-02 -9.007683396339416504e-01 1.686434447765350342e-01
1.155516356229782104e-01 -9.122010469436645508e-01 4.005731642246246338e-02
1.444285660982131958e-01 -9.461896419525146484e-01 4.595996439456939697e-02
-4.649586975574493408e-02 -9.820691347122192383e-01 -5.426902323961257935e-02
-6.557855010032653809e-02 -9.927727580070495605e-01 1.226365864276885986e-01
-1.277094781398773193e-01 -9.698094725608825684e-01 7.858966290950775146e-02
3.001084178686141968e-02 -9.892208576202392578e-01 1.302995830774307251e-01
6.177640333771705627e-02 -8.998980522155761719e-01 5.257093161344528198e-02
-5.573351681232452393e-02 -9.469071030616760254e-01 -4.017867892980575562e-02
-3.768580034375190735e-02 -9.015936255455017090e-01 1.267131865024566650e-01
-4.598917812108993530e-02 -1.001638531684875488e+00 7.313507050275802612e-02
-8.618811517953872681e-02 -9.408436417579650879e-01 1.182489097118377686e-03
8.556289598345756531e-03 -8.986721634864807129e-01 1.802565753459930420e-01
5.421747453510761261e-03 -9.896556138992309570e-01 1.420063674449920654e-01
-1.234090793877840042e-02 -9.977717995643615723e-01 1.080862358212471008e-01
6.368417292833328247e-02 -9.575392007827758789e-01 -7.032144814729690552e-02
-5.871727317571640015e-02 -9.459457397460937500e-01 2.217510342597961426e-01
5.997826531529426575e-02 -9.930388331413269043e-01 -6.402425467967987061e-03
-4.799037054181098938e-02 -9.188970923423767090e-01 1.729443669319152832e-02
8.625023066997528076e-02 -9.627245664596557617e-01 -5.673555284738540649e-02
1.342224031686782837e-01 -9.519948959350585938e-01 1.054859459400177002e-01
4.096589982509613037e-02 -9.986617565155029297e-01 1.832754909992218018e-02
1.182236522436141968e-02 -9.268621206283569336e-01 -3.899747878313064575e-02
1.422119438648223877e-01 -9.264413714408874512e-01 9.716805070638656616e-02
-9.057134389877319336e-02 -9.928828477859497070e-01 8.829527348279953003e-02
1.156772486865520477e-02 -1.001694202423095703e+00 2.051167190074920654e-03
-1.145681217312812805e-01 -9.677062034606933594e-01 1.466355174779891968e-01
-1.277320981025695801e-01 -9.552427530288696289e-01 7.131974399089813232e-02
4.185284674167633057e-02 -9.971348047256469727e-01 -4.544407129287719727e-03
9.221044182777404785e-02 -8.994780182838439941e-01 9.284551441669464111e-02
1.218733265995979309e-01 -9.087508916854858398e-01 9.696076065301895142e-02
3.145268186926841736e-03 -9.038182497024536133e-01 3.942286968231201172e-02
5.675267055630683899e-02 -8.942657709121704102e-01 1.221586465835571289e-01
-1.055774465203285217e-01 -9.640395045280456543e-01 3.649517893791198730e-04
5.110148712992668152e-02 -9.139614105224609375e-01 -9.398266673088073730e-03
1.589931547641754150e-02 -9.940847158432006836e-01 1.163538843393325806e-01
3.231437876820564270e-02 -8.940647840499877930e-01 1.430412381887435913e-01
1.237227991223335266e-01 -9.679446816444396973e-01 6.777772307395935059e-02
-1.619852706789970398e-02 -1.004123806953430176e+00 3.378237411379814148e-02
-2.345414087176322937e-02 -9.863691926002502441e-01 1.597203910350799561e-01
-2.473857626318931580e-02 -9.117159843444824219e-01 2.128204405307769775e-01
7.465551793575286865e-02 -9.305561780929565430e-01 -4.192727059125900269e-02
7.241440564393997192e-02 -9.800006151199340820e-01 1.271838098764419556e-01
-1.254968047142028809e-01 -9.727780818939208984e-01 9.209530800580978394e-02
9.885170310735702515e-02 -9.058086276054382324e-01 4.772125557065010071e-02
-1.246823817491531372e-01 -9.508200287818908691e-01 1.323976814746856689e-01
3.289268538355827332e-02 -9.589436054229736328e-01 2.096602320671081543e-01
7.208846509456634521e-02 -9.916257262229919434e-01 2.257616072893142700e-02
2.590601891279220581e-02 -1.000874280929565430e+00 1.526353508234024048e-02
8.316652849316596985e-03 -9.882615208625793457e-01 -5.929578095674514771e-02
-4.298392683267593384e-02 -9.062094092369079590e-01 1.763194203376770020e-01
6.657716631889343262e-02 -9.912323951721191406e-01 6.954927742481231689e-02
-4.669669084250926971e-03 -8.988176584243774414e-01 7.913552969694137573e-02
1.037181466817855835e-01 -9.081194996833801270e-01 1.586553901433944702e-01
-5.873655527830123901e-02 -9.168149828910827637e-01 3.887128457427024841e-02
2.531607449054718018e-02 -9.863761663436889648e-01 1.450892984867095947e-01
-2.341426908969879150e-02 -9.170150756835937500e-01 2.233461737632751465e-01
-3.460368141531944275e-02 -9.938272833824157715e-01 -3.886858373880386353e-02
2.113328874111175537e-02 -8.944815993309020996e-01 1.466007232666015625e-01
-8.040949702262878418e-02 -9.677325487136840820e-01 1.870189607143402100e-01
5.827986635267734528e-03 -1.002877235412597656e+00 1.497314870357513428e-02
-3.152261301875114441e-02 -1.002459645271301270e+00 7.129490375518798828e-02
1.005200669169425964e-02 -8.960398435592651367e-01 1.602945625782012939e-01
3.444714471697807312e-02 -8.990803956985473633e-01 5.460914596915245056e-02
7.719260454177856445e-02 -9.120369553565979004e-01 3.931231796741485596e-03
-3.939568623900413513e-02 -9.151785969734191895e-01 2.118918001651763916e-01
4.529154673218727112e-02 -9.486414194107055664e-01 2.174770236015319824e-01
8.741715550422668457e-02 -9.848992228507995605e-01 6.950468569993972778e-02
4.549217224121093750e-02 -9.765933156013488770e-01 -6.866862624883651733e-02
-6.705706566572189331e-02 -9.331910014152526855e-01 2.157675623893737793e-01
7.888442277908325195e-02 -9.846321940422058105e-01 9.363791346549987793e-02
-3.210617974400520325e-02 -9.505517482757568359e-01 2.274773120880126953e-01
6.241250038146972656e-02 -9.906358718872070312e-01 -1.923051476478576660e-02
7.740843296051025391e-02 -9.752491116523742676e-01 1.389011591672897339e-01
-7.222532480955123901e-02 -9.992581605911254883e-01 3.599540516734123230e-02
8.605688065290451050e-02 -9.399721622467041016e-01 -4.948810487985610962e-02
-1.162133216857910156e-01 -9.733091592788696289e-01 2.531909197568893433e-02
-9.797331877052783966e-03 -9.663488864898681641e-01 2.081452608108520508e-01
-8.116859942674636841e-02 -9.597243666648864746e-01 1.978516578674316406e-01
3.298918530344963074e-02 -1.000037670135498047e+00 3.649704158306121826e-02
2.433702349662780762e-03 -9.989503622055053711e-01 -2.475684881210327148e-02
-1.296706199645996094e-01 -9.631214737892150879e-01 9.659173339605331421e-02
-6.461495161056518555e-02 -9.114731550216674805e-01 8.199127018451690674e-02
5.136797428131103516e-01 -8.215647935867309570e-02 -2.073716372251510620e-02
5.130721926689147949e-01 -8.930265903472900391e-05 -2.100687474012374878e-02
5.242751240730285645e-01 -6.018109619617462158e-02 2.019245550036430359e-02
4.963662922382354736e-01 1.943342089653015137e-01 -1.142703928053379059e-02
5.148447155952453613e-01 2.076096534729003906e-01 1.626182720065116882e-02
5.216240286827087402e-01 2.464181333780288696e-01 1.519269403070211411e-02
4.927389025688171387e-01 -2.515412569046020508e-01 -5.973334424197673798e-03
5.352442264556884766e-01 -2.824759483337402344e-02 -1.787558011710643768e-02
5.485044121742248535e-01 -1.017467398196458817e-02 1.900108903646469116e-02
5.470320582389831543e-01 8.394850790500640869e-02 1.985200680792331696e-02
5.363168716430664062e-01 7.483630627393722534e-02 2.138523012399673462e-02
5.259463787078857422e-01 1.913297325372695923e-01 -1.473365258425474167e-02
5.058411359786987305e-01 3.507177159190177917e-02 1.816565915942192078e-02
5.310425758361816406e-01 2.587701007723808289e-02 -1.876085437834262848e-02
5.239068269729614258e-01 1.466046273708343506e-01 2.004711329936981201e-02
5.565844774246215820e-01 1.098162159323692322e-01 -6.868892814964056015e-03
5.120926499366760254e-01 -1.643986999988555908e-01 1.509673893451690674e-02
5.477086305618286133e-01 1.906336396932601929e-01 -8.372870273888111115e-03
5.387552976608276367e-01 -1.990869492292404175e-01 -1.106962841004133224e-02
5.576758980751037598e-01 6.033119186758995056e-02 -7.275576703250408173e-03
5.592461228370666504e-01 -1.127002015709877014e-01 6.133086979389190674e-03
4.809344410896301270e-01 -1.386200636625289917e-01 -9.685582481324672699e-03
5.279382467269897461e-01 2.230461984872817993e-01 -1.249344740062952042e-02
5.625357031822204590e-01 3.749008849263191223e-02 1.220373716205358505e-02
4.980044960975646973e-01 2.536405622959136963e-01 -2.067485824227333069e-03
4.868776202201843262e-01 -1.642721742391586304e-01 4.616294056177139282e-03
5.238953232765197754e-01 -1.606924831867218018e-02 -2.020168118178844452e-02
5.202348828315734863e-01 2.656442523002624512e-01 1.334421522915363312e-02
5.568372011184692383e-01 2.120250612497329712e-01 9.187358431518077850e-03
5.120915174484252930e-01 2.497193217277526855e-01 -1.063682604581117630e-02
5.432125926017761230e-01 -6.867559254169464111e-02 1.876768842339515686e-02
5.386473536491394043e-01 1.642743945121765137e-01 -1.335657201707363129e-02
5.388985276222229004e-01 -8.131384104490280151e-02 -1.612461917102336884e-02
5.078433752059936523e-01 1.039015352725982666e-01 1.801202073693275452e-02
4.965120255947113037e-01 1.386028826236724854e-01 1.270970702171325684e-02
4.846008121967315674e-01 1.950568705797195435e-02 -1.509349420666694641e-02
5.024544000625610352e-01 2.509332001209259033e-01 7.552157621830701828e-03
5.462608337402343750e-01 1.582307368516921997e-01 1.857337728142738342e-02
5.029072761535644531e-01 -7.694043219089508057e-02 1.610795035958290100e-02
4.819621443748474121e-01 5.517930909991264343e-02 -1.200288534164428711e-02
5.450755357742309570e-01 2.669060230255126953e-01 1.137925684452056885e-02
4.812379479408264160e-01 4.861932247877120972e-04 5.325715988874435425e-03
4.939363896846771240e-01 2.291474640369415283e-01 -3.674682462587952614e-03
5.165482163429260254e-01 -1.954912245273590088e-01 -1.718653738498687744e-02
5.298569202423095703e-01 2.445842772722244263e-01 -1.052255555987358093e-02
5.021857023239135742e-01 1.347332745790481567e-01 -1.705028861761093140e-02
5.357055664062500000e-01 1.987924277782440186e-01 -1.241001766175031662e-02
5.581206083297729492e-01 -3.282155469059944153e-02 1.417157985270023346e-02
5.073671340942382812e-01 -2.290842980146408081e-01 -1.529754139482975006e-02
5.221114754676818848e-01 -2.709667086601257324e-01 7.008612621575593948e-03
5.492212176322937012e-01 -1.245175153017044067e-01 1.435038819909095764e-02
5.535262823104858398e-01 1.986582279205322266e-01 -4.042329266667366028e-03
5.607894062995910645e-01 1.054061129689216614e-01 1.326544769108295441e-02
5.628357529640197754e-01 1.443155109882354736e-01 3.425780916586518288e-03
4.864128828048706055e-01 -2.072977572679519653e-01 -1.437703729607164860e-03
5.144510269165039062e-01 5.690334737300872803e-02 -2.026766352355480194e-02
5.182957649230957031e-01 -2.061108499765396118e-01 1.343539822846651077e-02
5.383900403976440430e-01 1.892136782407760620e-01 1.873192563652992249e-02
4.783860743045806885e-01 4.017573595046997070e-02 -8.149275556206703186e-03
5.206760168075561523e-01 1.720200330018997192e-01 -1.623845845460891724e-02
5.541166663169860840e-01 -9.924022108316421509e-02 -7.538063451647758484e-03
5.025143623352050781e-01 2.744496464729309082e-01 -8.097438840195536613e-04
5.567105412483215332e-01 -1.457034498453140259e-01 4.010018892586231232e-03
5.533422827720642090e-01 1.342719942331314087e-01 1.702881604433059692e-02
5.110846757888793945e-01 -2.743545472621917725e-01 5.431771744042634964e-03
4.960476458072662354e-01 7.351274043321609497e-02 -1.807886362075805664e-02
4.834541678428649902e-01 -1.747982203960418701e-01 -9.231511503458023071e-03
5.333523154258728027e-01 6.228932738304138184e-02 2.156475372612476349e-02
5.027260184288024902e-01 -1.355256736278533936e-01 -1.938757859170436859e-02
5.355260968208312988e-01 1.213836520910263062e-01 -1.585388742387294769e-02
4.806773662567138672e-01 -1.017386838793754578e-01 2.457624068483710289e-03
5.000571608543395996e-01 -2.600782513618469238e-01 3.184185829013586044e-03
4.849033057689666748e-01 -5.484437942504882812e-02 -1.584783755242824554e-02
5.429828166961669922e-01 -2.413102686405181885e-01 1.263495651073753834e-04
5.519070625305175781e-01 -1.871598511934280396e-02 -1.123206224292516708e-02
5.571449995040893555e-01 1.454565823078155518e-01 1.464041415601968765e-02
5.331565737724304199e-01 -2.416593432426452637e-01 9.336804971098899841e-03
5.314146876335144043e-01 1.090124547481536865e-01 2.117406576871871948e-02
5.024071335792541504e-01 -2.159198522567749023e-01 9.284661151468753815e-03
5.298902988433837891e-01 -5.837813019752502441e-02 -1.895307190716266632e-02
5.118358731269836426e-01 -8.337534964084625244e-02 1.811937056481838226e-02
5.567319393157958984e-01 1.323056127876043320e-02 1.621514931321144104e-02
5.610760450363159180e-01 1.602085977792739868e-01 1.149040763266384602e-03
5.546053647994995117e-01 -1.364595144987106323e-01 9.820932522416114807e-03
4.808078706264495850e-01 8.112426102161407471e-02 -8.981530554592609406e-03
5.004056692123413086e-01 -1.634969860315322876e-01 1.204825378954410553e-02
4.867944717407226562e-01 -1.481836885213851929e-01 5.699757486581802368e-03
5.026108622550964355e-01 -2.829754650592803955e-01 -4.444549849722534418e-04
4.869955778121948242e-01 1.660357266664505005e-01 2.909981412813067436e-03
5.114347934722900391e-01 -2.257894724607467651e-01 1.096151117235422134e-02
5.467014312744140625e-01 -4.975231364369392395e-02 -1.354254595935344696e-02
4.776024222373962402e-01 1.336152572184801102e-02 -8.152876980602741241e-03
5.222352743148803711e-01 1.627461910247802734e-01 1.940499991178512573e-02
5.133154392242431641e-01 -2.385424375534057617e-01 -1.463550329208374023e-02
4.897807240486145020e-01 1.853288412094116211e-01 -7.730870041996240616e-03
5.600895285606384277e-01 1.345959454774856567e-01 -2.530551515519618988e-03
5.176624655723571777e-01 2.793170511722564697e-01 -7.768889423459768295e-03
5.641390085220336914e-01 -3.294500336050987244e-02 4.608672112226486206e-03
4.764326512813568115e-01 -3.735166415572166443e-02 -4.572745878249406815e-03
4.952996969223022461e-01 -2.315934449434280396e-01 4.257889464497566223e-03
5.547679662704467773e-01 2.163666486740112305e-01 -8.814855245873332024e-04
4.925348460674285889e-01 -6.845735758543014526e-02 1.230031903833150864e-02
5.291308164596557617e-01 2.059629559516906738e-01 1.827856525778770447e-02
5.427989959716796875e-01 3.605510666966438293e-02 -1.535926759243011475e-02
5.039698481559753418e-01 -3.599109500646591187e-02 -2.083886414766311646e-02
5.117906332015991211e-01 2.343922257423400879e-01 -1.205745898187160492e-02
5.223720669746398926e-01 -4.104992374777793884e-02 2.045699022710323334e-02
4.908787310123443604e-01 -1.377955526113510132e-01 9.013270959258079529e-03
5.458533167839050293e-01 -2.235669791698455811e-01 -1.527091138996183872e-03
5.193974375724792480e-01 -1.470648646354675293e-01 -1.887847855687141418e-02
4.952576160430908203e-01 -8.906126022338867188e-02 -1.917350664734840393e-02
4.776042103767395020e-01 -9.309855848550796509e-02 -6.522222887724637985e-03
5.204908251762390137e-01 -2.643547356128692627e-01 -1.132245082408189774e-02
4.983699619770050049e-01 -1.932334005832672119e-01 -1.635575480759143829e-02
5.114889740943908691e-01 1.218407973647117615e-02 1.950601488351821899e-02
4.997194111347198486e-01 -2.465825080871582031e-01 4.991868510842323303e-03
4.818428754806518555e-01 1.247349455952644348e-01 -3.464336972683668137e-03
5.442630052566528320e-01 -1.851871013641357422e-01 -9.034601040184497833e-03
5.297415852546691895e-01 -2.749815583229064941e-01 -6.321312859654426575e-03
5.251008272171020508e-01 -4.899829626083374023e-03 -2.000629156827926636e-02
5.194217562675476074e-01 -1.255125552415847778e-01 -1.949315518140792847e-02
5.473759770393371582e-01 1.133931428194046021e-01 1.940767280757427216e-02
5.177678465843200684e-01 2.966841757297515869e-01 8.727000094950199127e-03
5.223925113677978516e-01 4.943489283323287964e-02 -1.985679753124713898e-02
5.073428153991699219e-01 1.671746671199798584e-01 1.602957583963871002e-02
5.075625777244567871e-01 -2.581762373447418213e-01 -1.266163587570190430e-02
4.854114353656768799e-01 6.577261537313461304e-02 8.039807900786399841e-03
4.905411303043365479e-01 -8.696852624416351318e-02 1.080001238733530045e-02
5.318729877471923828e-01 9.792837500572204590e-02 2.132095955312252045e-02
4.805715978145599365e-01 5.250886827707290649e-02 3.454844001680612564e-03
5.509526729583740234e-01 2.553426921367645264e-01 8.583579212427139282e-03
5.070095062255859375e-01 5.730730667710304260e-02 1.838452555239200592e-02
4.973688125610351562e-01 2.408111691474914551e-01 -5.580720026046037674e-03
5.189902782440185547e-01 -2.827821373939514160e-01 5.032202694565057755e-03
5.487148165702819824e-01 -1.562331765890121460e-01 -8.217951282858848572e-03
4.975955784320831299e-01 7.457833737134933472e-02 1.496944762766361237e-02
4.847427308559417725e-01 -1.993983238935470581e-02 -1.574601605534553528e-02
5.486524105072021484e-01 6.739480793476104736e-02 1.955013722181320190e-02
4.969033002853393555e-01 -7.438214123249053955e-02 -1.969651319086551666e-02
5.008839964866638184e-01 -2.709397673606872559e-01 -9.085221216082572937e-03
5.086430311203002930e-01 1.943503618240356445e-01 -1.472610887140035629e-02
5.263227224349975586e-01 -1.358567029237747192e-01 -1.814393699169158936e-02
5.345429778099060059e-01 1.396336704492568970e-01 -1.547538023442029953e-02
5.027169585227966309e-01 -2.093363553285598755e-01 -1.617513969540596008e-02
5.227853655815124512e-01 -2.903238236904144287e-01 -6.152467336505651474e-03
5.366253256797790527e-01 -1.676086485385894775e-01 -1.399104762822389603e-02
5.215883851051330566e-01 7.522456347942352295e-02 2.098858170211315155e-02
4.903676509857177734e-01 -9.494190104305744171e-03 -1.808182336390018463e-02
4.896786212921142578e-01 1.290411204099655151e-01 -1.321014109998941422e-02
5.631968975067138672e-01 2.187114208936691284e-02 -1.787766115739941597e-03
5.468899607658386230e-01 -1.140407770872116089e-01 -1.171710994094610214e-02
4.958064258098602295e-01 -1.073103770613670349e-01 -1.897387579083442688e-02
5.320444703102111816e-01 -2.236265093088150024e-01 -1.200869027525186539e-02
5.367252230644226074e-01 2.137242704629898071e-01 1.773169636726379395e-02
5.410632491111755371e-01 2.403656095266342163e-01 -7.644308265298604965e-03
5.473403930664062500e-01 2.790836393833160400e-01 4.559486638754606247e-03
5.457820296287536621e-01 2.373748086392879486e-02 -1.429140381515026093e-02
5.061641335487365723e-01 1.957543939352035522e-01 1.425285078585147858e-02
5.557341575622558594e-01 -6.253514438867568970e-02 1.444715354591608047e-02
5.547429323196411133e-01 -1.650350838899612427e-01 2.348836045712232590e-03
4.849174022674560547e-01 1.083487942814826965e-01 5.781059153378009796e-03
5.249977111816406250e-01 -2.340040504932403564e-01 1.133884023874998093e-02
4.924746155738830566e-01 -1.715274006128311157e-01 -1.583518274128437042e-02
5.188443660736083984e-01 2.819024920463562012e-01 1.126811187714338303e-02
5.270437002182006836e-01 -2.082330435514450073e-01 -1.470131613314151764e-02
5.519810914993286133e-01 2.294019758701324463e-01 1.198460720479488373e-02
4.905558824539184570e-01 -2.410449981689453125e-01 -4.077403340488672256e-03
5.252026319503784180e-01 2.173329889774322510e-01 1.745659857988357544e-02
5.135186314582824707e-01 -1.799937337636947632e-01 -1.812266744673252106e-02
5.473988056182861328e-01 -2.080995589494705200e-01 -3.189807990565896034e-03
5.497314929962158203e-01 -1.509395688772201538e-01 1.207737904042005539e-02
4.993932843208312988e-01 -2.389185428619384766e-01 -1.311282720416784286e-02
4.780699312686920166e-01 -7.878789305686950684e-02 -9.109495207667350769e-03
5.585474371910095215e-01 -8.317752182483673096e-02 -4.015070851892232895e-03
4.921740293502807617e-01 6.179895251989364624e-03 -1.848487555980682373e-02
5.173578858375549316e-01 -1.839310824871063232e-01 1.478461083024740219e-02
5.137761235237121582e-01 3.217949718236923218e-02 -2.067781798541545868e-02
5.217702388763427734e-01 -4.027106985449790955e-02 -2.043686062097549438e-02
4.856687486171722412e-01 -1.333662215620279312e-02 9.078213013708591461e-03
5.250465869903564453e-01 5.032243207097053528e-02 2.140804938971996307e-02
5.371029376983642578e-01 -1.302742362022399902e-01 -1.541346032172441483e-02
5.168119668960571289e-01 1.292090117931365967e-01 -1.823414117097854614e-02
5.314134359359741211e-01 3.146410882472991943e-01 6.933056283742189407e-04
5.319638252258300781e-01 -1.459040641784667969e-01 1.711166277527809143e-02
4.989277124404907227e-01 1.512958109378814697e-01 1.337082870304584503e-02
5.646407604217529297e-01 5.362999066710472107e-02 9.486557682976126671e-04
5.059091448783874512e-01 2.311586588621139526e-02 1.819299906492233276e-02
4.837082922458648682e-01 -1.886418610811233521e-01 -6.604768801480531693e-03
5.507874488830566406e-01 5.048002675175666809e-02 1.895411126315593719e-02
4.806219637393951416e-01 -1.524221897125244141e-01 -6.653713528066873550e-03
5.084791779518127441e-01 6.957490742206573486e-02 -1.992850005626678467e-02
4.966138005256652832e-01 2.173348367214202881e-01 7.293139584362506866e-03
4.951792061328887939e-01 2.074743807315826416e-01 -9.322218596935272217e-03
5.600342154502868652e-01 6.124498322606086731e-02 1.451217476278543472e-02
5.176115036010742188e-01 -1.049039065837860107e-01 -2.012937702238559723e-02
4.882349967956542969e-01 -2.224685996770858765e-01 -1.835569273680448532e-03
5.341213941574096680e-01 2.704268693923950195e-01 1.378571055829524994e-02
4.915713965892791748e-01 -1.404656320810317993e-01 -1.688622310757637024e-02
5.578505992889404297e-01 9.020410478115081787e-02 1.571480184793472290e-02
4.862605929374694824e-01 1.046502143144607544e-01 -1.266010291874408722e-02
5.462535619735717773e-01 -6.445796042680740356e-02 -1.349232532083988190e-02
4.847882688045501709e-01 -3.743955865502357483e-02 -1.583585888147354126e-02
4.990136027336120605e-01 -1.359020452946424484e-02 1.583909988403320312e-02
5.243684649467468262e-01 2.585185170173645020e-01 -1.002544909715652466e-02
4.909987747669219971e-01 2.000982500612735748e-02 1.236446853727102280e-02
4.805729389190673828e-01 3.288698941469192505e-02 4.108632914721965790e-03
5.117485523223876953e-01 -6.648276746273040771e-02 1.851490139961242676e-02
5.520787239074707031e-01 -1.766604632139205933e-01 6.634619552642107010e-03
5.422232151031494141e-01 -1.730798780918121338e-01 1.354412641376256943e-02
5.035392045974731445e-01 1.174751203507184982e-03 1.744304783642292023e-02
5.178542137145996094e-01 -2.512702941894531250e-01 -1.314377877861261368e-02
5.199339985847473145e-01 3.149679899215698242e-01 1.195523509522899985e-04
5.520246028900146484e-01 1.302985548973083496e-01 -9.101710282266139984e-03
5.288680791854858398e-01 -3.140490874648094177e-02 2.091977000236511230e-02
4.768536686897277832e-01 -6.065674871206283569e-02 -6.618634331971406937e-03
5.188848376274108887e-01 -1.211075037717819214e-01 1.794500276446342468e-02
5.302976369857788086e-01 2.116438597440719604e-01 -1.285172998905181885e-02
5.335258245468139648e-01 -2.061866521835327148e-01 1.295983698219060898e-02
5.194665193557739258e-01 -1.603977680206298828e-01 -1.841123588383197784e-02
5.449661016464233398e-01 -8.408548682928085327e-02 1.781946793198585510e-02
4.916971623897552490e-01 1.899319887161254883e-01 5.873823072761297226e-03
5.626571774482727051e-01 -1.496503967791795731e-02 -1.844282494857907295e-03
5.464411377906799316e-01 -1.745239645242691040e-01 -8.433366194367408752e-03
5.178715586662292480e-01 2.347152531147003174e-01 1.532129757106304169e-02
5.175766944885253906e-01 3.047158122062683105e-01 -3.078202484175562859e-03
4.869543015956878662e-01 9.153985977172851562e-02 8.444799110293388367e-03
5.456397533416748047e-01 1.252303421497344971e-01 1.957531832158565521e-02
5.318675637245178223e-01 1.299717277288436890e-01 2.080851979553699493e-02
5.197466611862182617e-01 -1.386374235153198242e-01 1.732111535966396332e-02
5.127121806144714355e-01 8.889023959636688232e-02 -1.955862157046794891e-02
4.992511570453643799e-01 8.917614072561264038e-02 -1.829251088201999664e-02
5.310138463973999023e-01 -2.357991337776184082e-01 -1.129336189478635788e-02
5.563808679580688477e-01 1.869733035564422607e-01 -2.488639671355485916e-03
4.880946874618530273e-01 -1.542090475559234619e-01 -1.481563877314329147e-02
5.357947349548339844e-01 6.017258390784263611e-02 -1.722420193254947662e-02
5.302128791809082031e-01 -2.203827649354934692e-01 1.219161879271268845e-02
5.005976557731628418e-01 -9.090308845043182373e-02 1.500506978482007980e-02
5.061274170875549316e-01 -2.932744622230529785e-01 -4.703840240836143494e-03
5.329979062080383301e-01 -1.164554208517074585e-01 -1.712378859519958496e-02
4.830023348331451416e-01 -3.141051903367042542e-02 6.871215533465147018e-03
5.452561974525451660e-01 -4.825766757130622864e-02 1.893994212150573730e-02
5.541548132896423340e-01 1.711505055427551270e-01 -5.649989005178213120e-03
5.440365672111511230e-01 1.701035909354686737e-02 2.038491517305374146e-02
5.548779368400573730e-01 9.645234793424606323e-02 -8.482539094984531403e-03
5.189962983131408691e-01 -2.259823530912399292e-01 -1.507581118494272232e-02
5.402110815048217773e-01 7.787391543388366699e-02 -1.563029363751411438e-02
5.167036652565002441e-01 -1.111846137791872025e-02 2.024742029607295990e-02
4.815689623355865479e-01 -1.259732246398925781e-01 -1.150625478476285934e-02
5.103434324264526367e-01 2.886647880077362061e-01 6.528830155730247498e-03
5.392002463340759277e-01 -1.120850443840026855e-01 1.785229519009590149e-02
5.313877463340759277e-01 -1.210286021232604980e-01 1.829414255917072296e-02
5.479236245155334473e-01 2.560147643089294434e-01 -1.889903796836733818e-03
5.347595214843750000e-01 -1.503559201955795288e-01 -1.544335950165987015e-02
5.038134455680847168e-01 2.653122544288635254e-01 6.240015849471092224e-03
5.317085981369018555e-01 -2.628815472126007080e-01 6.526935845613479614e-03
5.539710521697998047e-01 3.315293788909912109e-02 1.773544214665889740e-02
5.230887532234191895e-01 1.422162503004074097e-01 -1.732952333986759186e-02
5.318689346313476562e-01 -6.920201331377029419e-02 -1.837255619466304779e-02
5.458390712738037109e-01 1.034156233072280884e-01 -1.298856362700462341e-02
5.391249656677246094e-01 1.455243676900863647e-01 2.010271511971950531e-02
5.018711686134338379e-01 -1.191921439021825790e-02 -2.057011798024177551e-02
5.033993124961853027e-01 5.482297018170356750e-02 -1.984862983226776123e-02
5.180439352989196777e-01 9.843450039625167847e-02 2.027326263487339020e-02
5.575489997863769531e-01 -9.720151871442794800e-02 1.084537710994482040e-02
5.325109958648681641e-01 -7.379939407110214233e-02 1.989206112921237946e-02
5.141872167587280273e-01 -3.150907903909683228e-02 -2.105857245624065399e-02
5.490490794181823730e-01 5.076340399682521820e-03 -1.286557596176862717e-02
5.050027370452880859e-01 1.220828741788864136e-01 1.674922183156013489e-02
5.245895981788635254e-01 -9.113430231809616089e-02 1.938004605472087860e-02
5.316059589385986328e-01 2.992359101772308350e-01 1.018465403467416763e-02
4.891901314258575439e-01 1.635975837707519531e-01 -9.983426891267299652e-03
5.000150203704833984e-01 1.834934204816818237e-01 -1.371338311582803726e-02
5.628761053085327148e-01 8.655461668968200684e-02 -1.325180637650191784e-03
5.028660297393798828e-01 -1.261874139308929443e-01 1.455873344093561172e-02
5.091193914413452148e-01 1.592452526092529297e-01 -1.678070984780788422e-02
5.172435641288757324e-01 2.096702903509140015e-01 -1.422122213989496231e-02
5.645142793655395508e-01 9.891819953918457031e-02 2.864775713533163071e-03
4.976955056190490723e-01 4.546744376420974731e-02 -1.916693896055221558e-02
5.511326193809509277e-01 1.688584536314010620e-01 1.669017970561981201e-02
5.391444563865661621e-01 -1.291771233081817627e-01 1.706008426845073700e-02
5.391860008239746094e-01 1.761881262063980103e-01 1.915567554533481598e-02
5.354322791099548340e-01 2.664723694324493408e-01 -7.066044025123119354e-03
5.169024467468261719e-01 -2.608756721019744873e-01 8.239850401878356934e-03
5.437465310096740723e-01 3.065852820873260498e-02 2.054198086261749268e-02
5.492780804634094238e-01 -1.973055303096771240e-01 -2.628155518323183060e-03
5.294375419616699219e-01 1.785621345043182373e-01 -1.486895978450775146e-02
4.954933822154998779e-01 -1.976376473903656006e-01 7.731655612587928772e-03
5.187925696372985840e-01 1.136526018381118774e-01 -1.867135986685752869e-02
5.568727254867553711e-01 -1.342681497335433960e-01 -1.136947539635002613e-03
5.631231069564819336e-01 -8.343774825334548950e-04 1.058400981128215790e-02
5.586668848991394043e-01 1.997779309749603271e-01 7.984467782080173492e-03
5.079425573348999023e-01 -3.764354810118675232e-02 1.823431253433227539e-02
5.165570378303527832e-01 3.982901200652122498e-02 2.047340758144855499e-02
5.124883055686950684e-01 -2.153756916522979736e-01 -1.630898751318454742e-02
5.427252650260925293e-01 -1.594221889972686768e-01 1.441043522208929062e-02
5.617562532424926758e-01 -4.839169606566429138e-02 9.809243492782115936e-03
1.588531211018562317e-02 -5.835862830281257629e-02 1.562403514981269836e-02
-2.346141077578067780e-02 -2.498652786016464233e-03 2.729833126068115234e-02
-5.338603630661964417e-02 6.134052202105522156e-02 1.309097371995449066e-02
1.748838461935520172e-02 1.296745389699935913e-01 1.695493981242179871e-02
3.247309103608131409e-02 1.979702338576316833e-02 2.440850809216499329e-02
-1.992908865213394165e-02 1.402334123849868774e-01 -1.177335716784000397e-02
-5.263751372694969177e-02 2.234417945146560669e-02 3.492110408842563629e-04
5.086503922939300537e-02 4.492439329624176025e-04 1.390870660543441772e-02
-3.303501289337873459e-04 7.136300206184387207e-03 2.885213680565357208e-02
4.629801958799362183e-03 5.183967947959899902e-02 -1.835447922348976135e-02
-9.414046071469783783e-03 2.828674763441085815e-02 2.868718467652797699e-02
-4.872043058276176453e-02 1.799492910504341125e-02 1.953624747693538666e-02
2.171241305768489838e-02 1.412016004323959351e-01 -1.672123186290264130e-02
3.542406484484672546e-02 -1.251881197094917297e-02 2.119749039411544800e-02
4.458502307534217834e-02 2.910653501749038696e-02 -1.104853115975856781e-02
1.240463834255933762e-02 -4.713774845004081726e-02 2.186432480812072754e-02
3.358569368720054626e-02 1.155938804149627686e-01 -1.748587377369403839e-02
2.881302870810031891e-02 5.800865590572357178e-03 2.492416650056838989e-02
3.932713065296411514e-03 4.000395908951759338e-02 2.828980796039104462e-02
-4.455957561731338501e-02 6.118876487016677856e-02 -7.816437631845474243e-03
-2.574419416487216949e-02 1.499203145503997803e-01 -4.219352733343839645e-03
-3.994841128587722778e-02 -3.520440682768821716e-02 1.730076037347316742e-02
-2.116038091480731964e-02 2.259973064064979553e-02 2.783971838653087616e-02
-3.824080526828765869e-02 1.070482134819030762e-01 1.416736096143722534e-02
-2.653320878744125366e-02 1.278996318578720093e-01 -1.150720007717609406e-02
5.084720905870199203e-03 7.072960585355758667e-02 -1.933488063514232635e-02
-1.627373322844505310e-02 7.674030959606170654e-02 -1.726331375539302826e-02
-3.439651057124137878e-02 2.620801329612731934e-03 2.516495995223522186e-02
2.303118258714675903e-02 1.482974141836166382e-01 1.144071482121944427e-02
8.646394126117229462e-04 1.027962341904640198e-01 2.254090830683708191e-02
4.471549298614263535e-03 1.200297623872756958e-01 1.963364891707897186e-02
-2.990009449422359467e-02 1.103467643260955811e-01 -1.247614435851573944e-02
-4.693780466914176941e-02 4.541136696934700012e-02 -5.964467767626047134e-03
-2.160589024424552917e-02 7.782191783189773560e-02 2.408037520945072174e-02
4.683798179030418396e-02 -1.393616572022438049e-02 1.358019933104515076e-02
-5.440302938222885132e-02 5.380326882004737854e-02 1.069507561624050140e-04
1.789093017578125000e-02 1.925391331315040588e-02 -1.492559351027011871e-02
3.671706188470125198e-03 1.955430954694747925e-03 -1.293700933456420898e-02
-4.423607140779495239e-03 1.563682407140731812e-01 9.345741011202335358e-03
3.895417600870132446e-02 1.604796200990676880e-01 -3.649889025837182999e-03
-1.112794131040573120e-02 -2.679708227515220642e-02 2.685229852795600891e-02
2.748526260256767273e-02 1.678294539451599121e-01 1.013207016512751579e-03
-1.467082928866147995e-02 -5.638595297932624817e-02 2.043971046805381775e-02
3.806744515895843506e-02 5.562517046928405762e-02 2.225071936845779419e-02
-1.192554552108049393e-02 -1.282848045229911804e-02 2.797030843794345856e-02
5.281552672386169434e-02 4.988465458154678345e-03 -1.186095178127288818e-03
-6.234365515410900116e-03 -4.983352497220039368e-02 -3.439076244831085205e-04
1.400396693497896194e-03 8.215169608592987061e-02 -1.945528574287891388e-02
1.133842580020427704e-02 -9.489413350820541382e-03 -1.083810254931449890e-02
-3.140218928456306458e-02 -3.077081218361854553e-02 -7.994244806468486786e-04
-3.715877607464790344e-02 4.005895555019378662e-02 -1.022947765886783600e-02
4.824258014559745789e-02 1.146315187215805054e-01 1.173032075166702271e-02
5.709837004542350769e-02 8.192919939756393433e-02 -9.831665083765983582e-03
-3.752142190933227539e-02 2.745241485536098480e-02 2.432342804968357086e-02
2.438132651150226593e-03 -3.974411264061927795e-02 -3.987541887909173965e-03
-2.246065437793731689e-02 1.026829630136489868e-01 -1.548142731189727783e-02
-1.567482203245162964e-02 5.961474403738975525e-02 2.661484479904174805e-02
2.077805250883102417e-02 6.872890889644622803e-02 2.505352534353733063e-02
3.595581278204917908e-02 7.404556125402450562e-02 2.159151434898376465e-02
-4.408132657408714294e-02 -2.102917805314064026e-02 3.335529705509543419e-03
4.076991230249404907e-02 3.939291462302207947e-02 2.191217988729476929e-02
6.457814481109380722e-03 -3.783479705452919006e-02 2.484881691634654999e-02
-4.060265421867370605e-02 1.173347979784011841e-01 9.031940251588821411e-03
1.344804279506206512e-02 1.136891990900039673e-01 2.036696858704090118e-02
2.596364170312881470e-02 -2.473721280694007874e-02 2.282664738595485687e-02
-5.192125961184501648e-02 -8.879017084836959839e-03 9.949331171810626984e-03
-4.032313078641891479e-02 7.607835531234741211e-02 -9.927513077855110168e-03
4.179275408387184143e-02 -6.749670952558517456e-03 -4.946749191731214523e-03
6.461317092180252075e-02 6.994570791721343994e-02 3.006333485245704651e-03
6.229493394494056702e-02 4.398738220334053040e-02 7.652488537132740021e-03
1.907629892230033875e-02 1.360242813825607300e-02 2.716526016592979431e-02
1.665966771543025970e-02 2.458211407065391541e-02 2.756495587527751923e-02
