-2.168855369091033936e-01 4.813624024391174316e-01 2.698531746864318848e-01
-5.576285719871520996e-02 4.973106384277343750e-01 2.690839469432830811e-01
-2.265995740890502930e-01 3.965023756027221680e-01 2.389858067035675049e-01
-1.567600518465042114e-01 2.154639065265655518e-01 1.099436506628990173e-01
-2.512161135673522949e-01 6.201277375221252441e-01 -5.408339202404022217e-02
-9.624831378459930420e-03 3.947927355766296387e-01 -9.134122729301452637e-02
-1.769881099462509155e-01 6.801489591598510742e-01 2.311696261167526245e-01
-6.635602563619613647e-02 2.507889270782470703e-01 3.636723011732101440e-02
-2.031073868274688721e-01 7.199700474739074707e-01 -8.108319342136383057e-02
-1.660553365945816040e-01 6.111844778060913086e-01 2.882212400436401367e-01
-2.756161689758300781e-01 4.899816215038299561e-01 5.423818901181221008e-02
-2.431773394346237183e-01 2.858301103115081787e-01 -1.560059282928705215e-02
-8.553820848464965820e-02 2.380861937999725342e-01 -6.698678433895111084e-02
-1.443786919116973877e-01 5.637314319610595703e-01 3.132529854774475098e-01
-1.038508862257003784e-02 3.647086620330810547e-01 1.689850166440010071e-02
-2.629099190235137939e-01 5.022799372673034668e-01 1.508125215768814087e-01
-1.844834834337234497e-01 7.576241493225097656e-01 6.717865169048309326e-02
-2.623024582862854004e-02 3.609077930450439453e-01 -1.235322728753089905e-01
5.637094378471374512e-03 4.353432059288024902e-01 -1.268114615231752396e-02
2.246931195259094238e-03 4.936156570911407471e-01 1.154470965266227722e-01
-1.314770728349685669e-01 7.035461068153381348e-01 2.362913489341735840e-01
9.733200073242187500e-03 4.644264280796051025e-01 7.637608330696821213e-03
-4.617125540971755981e-02 4.808632433414459229e-01 -2.395545840263366699e-01
-1.285668760538101196e-01 7.627667784690856934e-01 -1.258103549480438232e-01
-2.447396665811538696e-01 3.582956790924072266e-01 -1.305135786533355713e-01
-2.644543647766113281e-01 3.879874944686889648e-01 -6.920544803142547607e-02
-1.065474078059196472e-01 2.899918854236602783e-01 2.165565043687820435e-01
-2.274348139762878418e-01 2.531778514385223389e-01 1.456798333674669266e-02
-1.696188151836395264e-01 2.364268004894256592e-01 1.543389260768890381e-01
-4.819162935018539429e-02 4.336957931518554688e-01 2.426470369100570679e-01
-2.327438294887542725e-01 6.864565610885620117e-01 3.502254188060760498e-02
-1.750391125679016113e-01 4.817306697368621826e-01 -2.767139375209808350e-01
-1.290751993656158447e-01 2.074187994003295898e-01 6.619499623775482178e-02
-9.689520299434661865e-02 5.932167172431945801e-01 2.961193323135375977e-01
-1.397182345390319824e-01 3.906385600566864014e-01 3.010186851024627686e-01
-1.647955179214477539e-02 6.778802275657653809e-01 -9.625959396362304688e-02
-2.796521782875061035e-02 6.970329880714416504e-01 1.227729916572570801e-01
-2.420417368412017822e-01 3.084450364112854004e-01 -8.281032741069793701e-02
-2.662093043327331543e-01 3.699293136596679688e-01 -3.292192146182060242e-02
-6.812053173780441284e-02 6.418596506118774414e-01 2.513586878776550293e-01
-6.528880447149276733e-02 3.239713907241821289e-01 1.970715373754501343e-01
-2.485949099063873291e-01 3.817843198776245117e-01 -1.344285011291503906e-01
-6.082389503717422485e-02 6.288998723030090332e-01 -2.334239482879638672e-01
-1.399571597576141357e-01 3.642264604568481445e-01 2.888556420803070068e-01
-2.298023402690887451e-01 3.714938163757324219e-01 -1.783962994813919067e-01
-2.669254690408706665e-02 6.396926641464233398e-01 1.803571432828903198e-01
-2.698420286178588867e-01 4.037598967552185059e-01 9.372638165950775146e-02
-2.738433331251144409e-02 4.144200980663299561e-01 -1.776536703109741211e-01
9.113445878028869629e-03 5.147060751914978027e-01 -7.187236100435256958e-02
-3.989040851593017578e-03 5.941245555877685547e-01 1.333342939615249634e-01
-2.134227752685546875e-01 4.831801056861877441e-01 -2.340916544198989868e-01
-1.717787086963653564e-01 2.190051674842834473e-01 -7.817333936691284180e-02
-2.252319753170013428e-01 4.489525556564331055e-01 -2.125289738178253174e-01
-5.448681116104125977e-02 4.068233370780944824e-01 -2.278187572956085205e-01
-6.046362966299057007e-02 2.621124982833862305e-01 5.945928394794464111e-02
-2.345355153083801270e-01 3.122498989105224609e-01 -1.160724684596061707e-01
-2.425817102193832397e-01 3.262958526611328125e-01 1.506410390138626099e-01
-6.445039063692092896e-02 7.116626501083374023e-01 -1.714232116937637329e-01
-1.048698648810386658e-01 3.813372254371643066e-01 -2.632762491703033447e-01
-2.640875577926635742e-01 4.136449694633483887e-01 -8.893532305955886841e-02
-2.604029774665832520e-01 3.552522063255310059e-01 -5.701006203889846802e-02
-6.649750471115112305e-02 5.261114835739135742e-01 2.831838130950927734e-01
-2.563470304012298584e-01 6.078976988792419434e-01 8.668998628854751587e-02
-1.407053321599960327e-01 4.041716754436492920e-01 3.060990869998931885e-01
-2.506200969219207764e-01 6.324992775917053223e-01 7.479883730411529541e-02
-2.349653244018554688e-01 5.571346282958984375e-01 -1.758300960063934326e-01
1.243449747562408447e-02 5.476816296577453613e-01 -3.362321108579635620e-02
-6.924748420715332031e-03 6.551033854484558105e-01 8.976455777883529663e-02
-3.434315323829650879e-03 6.678888797760009766e-01 3.767804242670536041e-03
-9.747413545846939087e-02 2.199036777019500732e-01 -1.845596358180046082e-02
-7.606138288974761963e-02 7.760002613067626953e-01 -6.306990236043930054e-02
-2.542409896850585938e-01 3.465191125869750977e-01 -8.117896318435668945e-02
-8.652846515178680420e-02 7.631117105484008789e-01 1.367025524377822876e-01
-1.180939897894859314e-01 2.099824249744415283e-01 5.702247098088264465e-02
-1.072774231433868408e-01 6.765887141227722168e-01 2.570838630199432373e-01
-2.076471745967864990e-01 6.332536339759826660e-01 -1.883061677217483521e-01
-1.173435151576995850e-02 6.808312535285949707e-01 7.148491591215133667e-02
-3.168195486068725586e-03 3.929671645164489746e-01 2.799654938280582428e-02
-1.228863000869750977e-02 4.738131165504455566e-01 1.701400876045227051e-01
-3.066621720790863037e-02 6.889187097549438477e-01 1.435222774744033813e-01
-1.320772320032119751e-01 6.111731529235839844e-01 2.986610531806945801e-01
-2.316136062145233154e-01 4.672777652740478516e-01 -2.013845294713973999e-01
-6.576478481292724609e-02 6.617000102996826172e-01 2.360595315694808960e-01
-3.435271233320236206e-02 6.982406973838806152e-01 -1.298636943101882935e-01
-2.231565117835998535e-01 5.950173139572143555e-01 -1.833882182836532593e-01
-9.227237850427627563e-02 2.232105433940887451e-01 2.821018919348716736e-02
-2.236262559890747070e-01 6.141507625579833984e-01 -1.688169986009597778e-01
-1.582591384649276733e-01 3.964810073375701904e-01 3.014195561408996582e-01
-5.718979984521865845e-02 7.407065033912658691e-01 -1.156603321433067322e-01
-2.486471980810165405e-01 4.685626626014709473e-01 2.054736316204071045e-01
-1.433284729719161987e-01 3.477801382541656494e-01 -2.517274320125579834e-01
-2.177293002605438232e-01 5.556904077529907227e-01 2.553076148033142090e-01
-1.721666902303695679e-01 7.053287029266357422e-01 -1.739537566900253296e-01
-2.266366779804229736e-01 6.354848146438598633e-01 1.851185560226440430e-01
-2.666987776756286621e-01 5.052158832550048828e-01 1.302080154418945312e-01
1.249502599239349365e-02 4.965734481811523438e-01 -2.209653146564960480e-03
-2.197156846523284912e-01 4.145094752311706543e-01 2.565187513828277588e-01
-5.632527172565460205e-02 5.006516575813293457e-01 -2.555937469005584717e-01
-2.408396899700164795e-01 6.674540042877197266e-01 1.942119561135768890e-02
-1.999568790197372437e-01 2.221895754337310791e-01 4.594621434807777405e-02
-1.120621711015701294e-02 3.784347772598266602e-01 -7.286274433135986328e-02
-2.675522565841674805e-01 3.632710576057434082e-01 7.744389120489358902e-03
-1.548911631107330322e-01 2.084722816944122314e-01 -5.594173073768615723e-02
-2.144780755043029785e-02 6.522313356399536133e-01 -1.454899162054061890e-01
-2.720684409141540527e-01 4.069848060607910156e-01 7.446003705263137817e-02
-1.052536815404891968e-01 3.462284803390502930e-01 -2.433364391326904297e-01
-4.883041232824325562e-02 2.782560586929321289e-01 -3.708462044596672058e-02
-1.672919243574142456e-01 7.755643129348754883e-01 4.628608375787734985e-02
-1.327258348464965820e-01 2.475086450576782227e-01 -1.513323187828063965e-01
-7.161863148212432861e-03 4.991148710250854492e-01 -1.526442468166351318e-01
-2.604683637619018555e-01 6.038430929183959961e-01 3.484551608562469482e-02
-2.341741174459457397e-01 5.648455619812011719e-01 2.187729477882385254e-01
-8.329228311777114868e-02 2.910729050636291504e-01 -1.717208325862884521e-01
-5.234267562627792358e-02 6.447320580482482910e-01 2.287286520004272461e-01
-2.457457780838012695e-01 3.233807981014251709e-01 1.347231119871139526e-01
-7.569577544927597046e-02 3.122287392616271973e-01 -1.861276477575302124e-01
-1.946531683206558228e-01 5.277899503707885742e-01 -2.546751499176025391e-01
-2.007692307233810425e-01 4.736007750034332275e-01 -2.514455020427703857e-01
-3.660976886749267578e-03 4.624279439449310303e-01 1.309506297111511230e-01
-1.667190492153167725e-01 2.905538678169250488e-01 -1.993577629327774048e-01
-1.672579944133758545e-01 4.652613103389739990e-01 3.138716518878936768e-01
-1.753090769052505493e-01 2.062061727046966553e-01 3.604934364557266235e-02
-3.181286901235580444e-02 4.241973757743835449e-01 2.041793465614318848e-01
-1.848016679286956787e-02 3.736767768859863281e-01 1.151696890592575073e-01
-1.495171934366226196e-01 6.061375737190246582e-01 2.979414463043212891e-01
-1.300536245107650757e-01 7.838319540023803711e-01 -6.875173747539520264e-02
-1.377300024032592773e-01 2.746459245681762695e-01 2.164409160614013672e-01
-2.491057515144348145e-01 5.186239480972290039e-01 1.972754895687103271e-01
9.166598320007324219e-04 4.377764761447906494e-01 -7.935460656881332397e-02
-2.418534755706787109e-01 6.386334300041198730e-01 -7.774528861045837402e-02
-3.809816390275955200e-02 7.339284420013427734e-01 8.562678098678588867e-02
-1.349976509809494019e-01 7.918963432312011719e-01 -1.798786222934722900e-02
-1.208457201719284058e-01 5.786262154579162598e-01 3.092212080955505371e-01
-2.593011260032653809e-01 3.677614927291870117e-01 1.268267631530761719e-01
-2.235670685768127441e-01 3.240337371826171875e-01 -1.573154926300048828e-01
-5.088430643081665039e-02 2.735522985458374023e-01 4.000630974769592285e-02
-7.145084440708160400e-03 6.649729013442993164e-01 7.317635416984558105e-02
-3.427489101886749268e-02 4.754285812377929688e-01 2.288016676902770996e-01
-5.693516880273818970e-02 3.686963319778442383e-01 -2.082302272319793701e-01
-8.986890316009521484e-05 6.503065824508666992e-01 3.852194920182228088e-02
4.525676369667053223e-03 5.619910359382629395e-01 1.043880656361579895e-01
-1.247183084487915039e-01 3.121320009231567383e-01 -2.253029048442840576e-01
7.619261741638183594e-03 4.611674249172210693e-01 4.969298839569091797e-02
-2.254708856344223022e-02 7.002719044685363770e-01 -8.330567926168441772e-02
-1.293039768934249878e-01 4.135690927505493164e-01 -2.818293571472167969e-01
-1.923345029354095459e-01 7.347302436828613281e-01 -8.168382942676544189e-02
3.270521759986877441e-03 5.131011009216308594e-01 1.149034202098846436e-01
-2.117780447006225586e-01 4.582426249980926514e-01 -2.357601970434188843e-01
-2.232335507869720459e-02 5.278998017311096191e-01 2.072508037090301514e-01
-2.493572384119033813e-01 4.118609726428985596e-01 1.927016377449035645e-01
-1.163446903228759766e-01 7.673562765121459961e-01 -1.195833906531333923e-01
-3.889200091361999512e-02 3.515523076057434082e-01 -1.539032012224197388e-01
-2.141122519969940186e-01 2.517549991607666016e-01 1.117898151278495789e-01
-2.245006710290908813e-01 7.025450468063354492e-01 -3.516525961458683014e-03
-9.029841423034667969e-02 2.577423155307769775e-01 -1.298085302114486694e-01
-4.259347915649414062e-03 4.760637283325195312e-01 -1.346284300088882446e-01
-1.834208667278289795e-01 6.913074254989624023e-01 -1.743661016225814819e-01
-2.726654112339019775e-01 4.501906931400299072e-01 9.656550735235214233e-02
-4.020432382822036743e-02 3.352592885494232178e-01 -1.371939629316329956e-01
-2.673982977867126465e-01 5.692684650421142578e-01 5.724537186324596405e-03
-6.267099082469940186e-02 2.620323598384857178e-01 7.337610423564910889e-02
-5.841095745563507080e-02 4.373039007186889648e-01 2.603989839553833008e-01
-2.309154570102691650e-01 6.200118660926818848e-01 1.885439604520797729e-01
-2.384911775588989258e-01 5.935117006301879883e-01 -1.437631845474243164e-01
8.053690195083618164e-03 4.579235911369323730e-01 -3.329915925860404968e-02
-1.331816613674163818e-02 6.532377004623413086e-01 1.245993450284004211e-01
-5.212843418121337891e-03 6.513751745223999023e-01 -7.774416357278823853e-02
-1.163925081491470337e-01 2.986104488372802734e-01 -2.099558562040328979e-01
-2.442509829998016357e-01 6.550397276878356934e-01 6.033949926495552063e-02
-6.619244813919067383e-04 6.248793005943298340e-01 -8.555298298597335815e-02
-1.645967066287994385e-01 5.651295185089111328e-01 3.062365353107452393e-01
-5.753069370985031128e-02 2.623554170131683350e-01 -1.804314926266670227e-02
-1.676599681377410889e-01 7.614010572433471680e-01 1.133354380726814270e-01
-2.057488262653350830e-01 2.569011449813842773e-01 1.451527625322341919e-01
-2.534126043319702148e-01 6.240419745445251465e-01 -2.317006140947341919e-02
-1.083819568157196045e-01 7.906522750854492188e-01 -4.620926827192306519e-02
-2.025503069162368774e-01 6.055721640586853027e-01 -2.158972173929214478e-01
5.823105573654174805e-03 5.416382551193237305e-01 1.009285524487495422e-01
1.071242988109588623e-02 4.871855974197387695e-01 -3.744474425911903381e-02
2.720788121223449707e-03 5.911592245101928711e-01 1.008587703108787537e-01
-1.020750999450683594e-01 6.460112333297729492e-01 -2.521271109580993652e-01
-1.767855286598205566e-01 2.224076390266418457e-01 1.143536642193794250e-01
-1.879447400569915771e-01 5.409210920333862305e-01 2.962162494659423828e-01
-2.562089264392852783e-02 4.408029913902282715e-01 -1.876171976327896118e-01
-2.709377408027648926e-01 3.837158381938934326e-01 6.851884536445140839e-03
-6.191810965538024902e-02 7.729194164276123047e-01 -2.272043749690055847e-02
-2.706439793109893799e-01 4.835434257984161377e-01 -6.162598729133605957e-02
-1.503620296716690063e-01 2.193403840065002441e-01 1.225348114967346191e-01
-9.176702797412872314e-02 6.259298920631408691e-01 -2.588476240634918213e-01
-4.180309176445007324e-02 4.980010688304901123e-01 2.469969093799591064e-01
-1.831066608428955078e-02 6.177533268928527832e-01 -1.623758673667907715e-01
-1.731340736150741577e-01 7.682101726531982422e-01 6.741947680711746216e-02
1.416057348251342773e-04 4.091009497642517090e-01 -2.990355715155601501e-02
-1.504986733198165894e-02 6.961731910705566406e-01 5.352559685707092285e-02
-1.122155040502548218e-02 5.071352720260620117e-01 -1.674130260944366455e-01
-2.630203962326049805e-01 3.506890833377838135e-01 7.393104583024978638e-02
-2.766003310680389404e-01 4.669203162193298340e-01 9.491273202002048492e-03
-2.690587341785430908e-01 4.598043560981750488e-01 1.239489763975143433e-01
-2.080111205577850342e-02 3.355831503868103027e-01 3.433359786868095398e-02
-2.268979549407958984e-01 6.792591810226440430e-01 1.179141774773597717e-01
-2.219127714633941650e-01 3.369230628013610840e-01 -1.717521399259567261e-01
-1.541645526885986328e-01 4.851594567298889160e-01 -2.887701690196990967e-01
-8.213548362255096436e-02 6.078237891197204590e-01 -2.613598108291625977e-01
-1.175605505704879761e-02 3.610812723636627197e-01 -1.948115229606628418e-02
-4.426527023315429688e-02 2.825688719749450684e-01 1.522332429885864258e-03
-1.519484221935272217e-01 2.029174268245697021e-01 5.490922927856445312e-02
-4.054386913776397705e-02 5.722929835319519043e-01 2.398088574409484863e-01
-1.982322037220001221e-01 3.979304730892181396e-01 -2.403676211833953857e-01
-2.246189564466476440e-01 3.589126467704772949e-01 2.234283685684204102e-01
-2.737890481948852539e-01 5.010218024253845215e-01 -2.420748397707939148e-02
-8.460655808448791504e-03 4.624044299125671387e-01 1.515316218137741089e-01
-2.410420924425125122e-01 6.611672639846801758e-01 7.226250320672988892e-02
-1.319163441658020020e-01 5.463836193084716797e-01 3.176230192184448242e-01
-1.853312551975250244e-01 2.468607127666473389e-01 1.594186276197433472e-01
-2.590239048004150391e-01 3.901115059852600098e-01 -9.962361305952072144e-02
-2.735495567321777344e-02 7.290542125701904297e-01 -2.560784108936786652e-03
-2.343599051237106323e-01 2.873615324497222900e-01 -7.708016037940979004e-02
-2.179213613271713257e-02 5.169010758399963379e-01 -1.968882232904434204e-01
1.789748668670654297e-03 6.351124048233032227e-01 5.612326040863990784e-02
-8.694441616535186768e-02 3.229456245899200439e-01 -2.109015882015228271e-01
-2.521648406982421875e-01 3.524776399135589600e-01 -9.771350771188735962e-02
-1.224444806575775146e-01 7.929838895797729492e-01 5.791773647069931030e-02
-8.329269289970397949e-02 4.125134944915771484e-01 2.814575731754302979e-01
-2.753147184848785400e-01 4.251683950424194336e-01 8.287165313959121704e-03
-1.626063138246536255e-01 6.449975371360778809e-01 2.713174819946289062e-01
-2.067777216434478760e-01 5.897344946861267090e-01 2.578646242618560791e-01
-9.047557413578033447e-02 5.073069334030151367e-01 3.055078983306884766e-01
-2.175643295049667358e-02 3.803481757640838623e-01 -1.305545121431350708e-01
-8.482954651117324829e-02 4.353712499141693115e-01 -2.717797458171844482e-01
-1.674312204122543335e-01 2.986232340335845947e-01 2.384357303380966187e-01
-4.804789274930953979e-02 6.810123920440673828e-01 1.936093568801879883e-01
-9.247083961963653564e-02 4.908795654773712158e-01 -2.858326137065887451e-01
-2.321875542402267456e-01 6.028610467910766602e-01 1.997736543416976929e-01
-2.561809420585632324e-01 3.399320244789123535e-01 1.075791716575622559e-01
-4.517390578985214233e-02 3.352319896221160889e-01 1.631374806165695190e-01
-1.875832676887512207e-01 7.558848857879638672e-01 -1.848526298999786377e-02
-1.937898993492126465e-01 3.635081946849822998e-01 -2.304578423500061035e-01
-7.341968268156051636e-02 2.452316880226135254e-01 -4.261945933103561401e-02
-1.878470331430435181e-01 2.141342461109161377e-01 5.299433693289756775e-02
-1.511659175157546997e-01 6.013656258583068848e-01 -2.683863937854766846e-01
-2.766380012035369873e-01 4.512658119201660156e-01 1.872261986136436462e-02
-2.019226253032684326e-01 3.204759657382965088e-01 2.298104315996170044e-01
-1.685269623994827271e-01 3.551322519779205322e-01 -2.468718886375427246e-01
-7.156772166490554810e-02 2.432377338409423828e-01 -4.527349956333637238e-03
-1.984256505966186523e-01 2.474678456783294678e-01 -1.043268367648124695e-01
6.521910429000854492e-03 6.188504099845886230e-01 -2.368710190057754517e-02
-1.554345041513442993e-01 3.278682827949523926e-01 2.658052742481231689e-01
-1.971983313560485840e-01 3.299022912979125977e-01 2.425700128078460693e-01
-1.395327299833297729e-01 6.606630086898803711e-01 -2.410147190093994141e-01
1.054529845714569092e-02 5.923513770103454590e-01 2.709815278649330139e-03
-4.238247126340866089e-02 4.652847647666931152e-01 -2.303458750247955322e-01
1.601204276084899902e-03 5.033633708953857422e-01 -1.169070079922676086e-01
-2.650109529495239258e-01 3.640598952770233154e-01 8.253271132707595825e-02
-2.634322047233581543e-01 4.586121737957000732e-01 -1.044043377041816711e-01
-1.052273362874984741e-01 5.738708972930908203e-01 3.057601153850555420e-01
-2.559960186481475830e-01 3.212415575981140137e-01 6.445246934890747070e-02
-5.966843664646148682e-02 3.472141325473785400e-01 2.094215601682662964e-01
-2.629449665546417236e-01 5.586403012275695801e-01 1.151954084634780884e-01
-4.106829315423965454e-02 2.890149354934692383e-01 2.350717410445213318e-02
-2.269604653120040894e-01 2.754356265068054199e-01 1.235705688595771790e-01
-2.465436160564422607e-01 4.459535479545593262e-01 2.093442678451538086e-01
-2.048681080341339111e-01 5.154452919960021973e-01 -2.437752187252044678e-01
-2.233451306819915771e-01 3.494147658348083496e-01 -1.780717670917510986e-01
-1.659332662820816040e-01 7.760804891586303711e-01 -1.644947752356529236e-02
-3.217599540948867798e-02 3.791152238845825195e-01 1.730615049600601196e-01
-1.139294505119323730e-01 4.471240341663360596e-01 -2.883268594741821289e-01
-1.237133964896202087e-01 7.954014539718627930e-01 -4.015018232166767120e-03
-1.227950751781463623e-01 2.294199168682098389e-01 1.346199661493301392e-01
-2.345531731843948364e-01 2.815935313701629639e-01 -6.330646574497222900e-02
-2.196029424667358398e-01 2.607280313968658447e-01 -7.591991871595382690e-02
7.418394088745117188e-03 5.370756387710571289e-01 -8.652497828006744385e-02
-2.076280713081359863e-01 6.607030630111694336e-01 2.038462609052658081e-01
-1.183306872844696045e-01 6.411889791488647461e-01 2.830075621604919434e-01
-2.939522266387939453e-03 5.057107806205749512e-01 1.434597969055175781e-01
-2.136085033416748047e-01 7.209891676902770996e-01 5.556531250476837158e-02
-1.613058745861053467e-01 6.829709410667419434e-01 -2.095224559307098389e-01
-6.803571432828903198e-02 4.799736142158508301e-01 2.828734517097473145e-01
-6.758883595466613770e-03 5.204325914382934570e-01 -1.538293957710266113e-01
-2.508922219276428223e-01 3.011920452117919922e-01 2.608092874288558960e-02
-2.123305946588516235e-01 3.734514713287353516e-01 -2.113383114337921143e-01
-2.345560193061828613e-01 6.578861474990844727e-01 1.253676563501358032e-01
-3.675431013107299805e-03 4.171190559864044189e-01 9.054081141948699951e-02
-1.530900001525878906e-01 7.673185467720031738e-01 1.235602349042892456e-01
-2.244008481502532959e-01 2.757719159126281738e-01 -9.179501235485076904e-02
-4.282295703887939453e-02 3.011079728603363037e-01 9.393863379955291748e-02
-6.703779101371765137e-02 7.406926155090332031e-01 -1.336913108825683594e-01
-4.466058313846588135e-02 7.193968296051025391e-01 1.389027237892150879e-01
-1.142623573541641235e-01 5.043468475341796875e-01 -2.936708331108093262e-01
-5.199263989925384521e-02 5.229483246803283691e-01 2.644638717174530029e-01
-6.114002317190170288e-02 4.743121862411499023e-01 -2.583475708961486816e-01
-2.192899286746978760e-01 7.006943225860595703e-01 -5.837810039520263672e-02
-7.888539135456085205e-02 2.700758874416351318e-01 -1.317355632781982422e-01
-5.778573453426361084e-02 7.276799082756042480e-01 1.558067053556442261e-01
-1.719636470079421997e-01 4.536000192165374756e-01 -2.768350541591644287e-01
-6.237193942070007324e-02 6.000323891639709473e-01 -2.476893365383148193e-01
-1.610662043094635010e-01 2.417950630187988281e-01 -1.384503096342086792e-01
-1.949361860752105713e-01 4.573041498661041260e-01 -2.571486234664916992e-01
-2.579884529113769531e-01 3.727959692478179932e-01 -9.088820219039916992e-02
-2.090894728899002075e-01 3.559979796409606934e-01 2.458787411451339722e-01
-1.974339932203292847e-01 7.433961033821105957e-01 -2.313030511140823364e-02
-2.703242897987365723e-01 4.344301223754882812e-01 -6.019963324069976807e-02
-7.538996636867523193e-03 5.383810400962829590e-01 1.629104167222976685e-01
-5.922566354274749756e-02 3.354579210281372070e-01 -1.833196729421615601e-01
-1.151264011859893799e-01 3.540854454040527344e-01 2.760481536388397217e-01
-1.642731428146362305e-01 7.184121608734130859e-01 -1.671473979949951172e-01
-1.389847695827484131e-01 3.269749283790588379e-01 2.655677497386932373e-01
4.403710365295410156e-03 4.908199012279510498e-01 -9.732950478792190552e-02
1.257583498954772949e-02 5.041984915733337402e-01 2.246917784214019775e-02
-1.565213501453399658e-01 7.702006101608276367e-01 -7.620490342378616333e-02
-2.815439552068710327e-02 5.308538079261779785e-01 -2.109272181987762451e-01
1.046365499496459961e-02 4.965549111366271973e-01 -4.995463043451309204e-02
-1.648673415184020996e-02 6.956946849822998047e-01 6.747567653656005859e-02
-1.269707530736923218e-01 7.913542985916137695e-01 -3.669377416372299194e-02
-1.863822340965270996e-02 6.733179688453674316e-01 -1.123093441128730774e-01
-2.042124569416046143e-01 4.702890515327453613e-01 2.859928011894226074e-01
-2.068613469600677490e-01 6.228498220443725586e-01 -1.975951641798019409e-01
-2.555272877216339111e-01 3.162144422531127930e-01 4.663710668683052063e-02
-2.281348109245300293e-01 4.910375475883483887e-01 -2.079360038042068481e-01
-6.880278885364532471e-02 2.503896355628967285e-01 5.605393648147583008e-02
-1.319580525159835815e-02 5.673338770866394043e-01 1.769647896289825439e-01
-2.382900565862655640e-01 3.084461688995361328e-01 1.416460126638412476e-01
-7.463727146387100220e-02 3.507856726646423340e-01 -2.201440036296844482e-01
-8.643324673175811768e-02 7.484350800514221191e-01 1.645312756299972534e-01
-8.435659110546112061e-03 4.049269556999206543e-01 1.044891774654388428e-01
-1.840461790561676025e-01 6.786881089210510254e-01 -1.870966404676437378e-01
-1.743449270725250244e-01 7.478276491165161133e-01 1.350567787885665894e-01
6.533235311508178711e-03 5.577302575111389160e-01 -8.847535401582717896e-02
-1.535700708627700806e-01 6.992011070251464844e-01 -2.001791745424270630e-01
-2.861851453781127930e-02 3.181017637252807617e-01 4.677760228514671326e-02
-1.429582536220550537e-01 4.182614088058471680e-01 3.105358779430389404e-01
-1.249700039625167847e-02 6.903953552246093750e-01 -4.054894298315048218e-02
-9.145838022232055664e-02 3.754052817821502686e-01 -2.521795630455017090e-01
-5.900118499994277954e-02 7.705917954444885254e-01 3.651633113622665405e-02
-2.411357760429382324e-01 5.584676861763000488e-01 2.041383087635040283e-01
-1.502279788255691528e-01 2.695987224578857422e-01 -1.828185468912124634e-01
-1.345620751380920410e-01 6.016983985900878906e-01 -2.741552293300628662e-01
-5.697779357433319092e-02 6.599450707435607910e-01 2.255661636590957642e-01
-2.325118482112884521e-01 4.332531988620758057e-01 -1.955580115318298340e-01
-2.628741860389709473e-01 5.870415568351745605e-01 6.700909882783889771e-02
-2.364312559366226196e-01 2.705974578857421875e-01 -8.663230575621128082e-03
-1.834732294082641602e-02 4.718357026576995850e-01 -1.805252432823181152e-01
-9.682226181030273438e-02 7.391868829727172852e-01 1.872052997350692749e-01
-1.739003956317901611e-01 2.101681530475616455e-01 -3.988330811262130737e-02
-2.761870622634887695e-01 4.578883349895477295e-01 5.313606187701225281e-02
-9.912482649087905884e-02 4.846192598342895508e-01 3.101377487182617188e-01
-1.921802014112472534e-01 7.116582393646240234e-01 1.685071289539337158e-01
-1.969888061285018921e-01 2.188028693199157715e-01 2.905718050897121429e-03
-3.853508830070495605e-02 6.296989321708679199e-01 2.134888321161270142e-01
-2.395898997783660889e-01 6.603599190711975098e-01 -4.245587438344955444e-02
-6.425760686397552490e-02 4.260800778865814209e-01 -2.492682039737701416e-01
-5.285546183586120605e-02 3.701187372207641602e-01 2.153412848711013794e-01
-6.768967956304550171e-02 7.657760977745056152e-01 -7.831291854381561279e-02
-1.834193021059036255e-01 7.399404644966125488e-01 -9.553695470094680786e-02
-1.665428578853607178e-01 6.784767508506774902e-01 2.427906095981597900e-01
-1.315012872219085693e-01 7.943092584609985352e-01 2.527087926864624023e-02
-1.066995561122894287e-01 3.866949677467346191e-01 2.887884676456451416e-01
-2.018723785877227783e-01 4.378068149089813232e-01 -2.464442551136016846e-01
-8.530662953853607178e-02 5.989481210708618164e-01 2.866399586200714111e-01
2.632454037666320801e-03 4.612418413162231445e-01 -9.063524007797241211e-02
-1.903762370347976685e-01 6.982694268226623535e-01 -1.536122262477874756e-01
-1.176863908767700195e-03 5.991143584251403809e-01 1.171611621975898743e-01
-2.459026426076889038e-01 5.488218069076538086e-01 -1.486936360597610474e-01
1.300430297851562500e-02 5.357440710067749023e-01 2.886280789971351624e-02
-4.412192851305007935e-02 7.517529129981994629e-01 -3.621776029467582703e-02
-2.216434627771377563e-01 4.980062842369079590e-01 -2.195870429277420044e-01
-1.875195205211639404e-01 6.236994266510009766e-01 -2.263330966234207153e-01
-2.743968367576599121e-01 4.961857199668884277e-01 7.049325853586196899e-02
-2.533818185329437256e-01 3.955619037151336670e-01 1.724831759929656982e-01
2.132564783096313477e-03 4.348711669445037842e-01 6.969086080789566040e-02
-1.173444762825965881e-01 7.961483001708984375e-01 2.649085223674774170e-02
-7.460193336009979248e-02 2.804433107376098633e-01 -1.412533223628997803e-01
-1.501085162162780762e-01 5.757771730422973633e-01 -2.780490815639495850e-01
-1.599118560552597046e-01 7.426073551177978516e-01 1.687264740467071533e-01
-1.145530268549919128e-01 6.169977784156799316e-01 -2.691687941551208496e-01
-3.614208102226257324e-02 3.143589496612548828e-01 9.241883456707000732e-02
-2.147794365882873535e-01 6.739350557327270508e-01 -1.287808120250701904e-01
-1.450472325086593628e-02 3.918886482715606689e-01 1.202415898442268372e-01
-2.758401334285736084e-01 4.300541579723358154e-01 2.742776647210121155e-02
-2.070216089487075806e-02 4.448490440845489502e-01 1.847001165151596069e-01
-3.632865101099014282e-02 7.136269807815551758e-01 -1.114150807261466980e-01
-2.500148415565490723e-01 6.141119003295898438e-01 -7.302787154912948608e-02
-6.566656380891799927e-02 2.726628780364990234e-01 -1.035535857081413269e-01
-2.552565336227416992e-01 4.411242902278900146e-01 -1.351680904626846313e-01
-1.766955703496932983e-01 3.437150120735168457e-01 2.684015631675720215e-01
-1.381393969058990479e-01 7.318944931030273438e-01 -1.718870103359222412e-01
-1.790027916431427002e-01 6.568022370338439941e-01 -2.134833335876464844e-01
-2.628931999206542969e-01 5.922826528549194336e-01 4.403870180249214172e-02
-1.903409659862518311e-01 6.687459945678710938e-01 2.253373116254806519e-01
-2.666192054748535156e-01 4.615659415721893311e-01 1.379036605358123779e-01
-1.397772133350372314e-02 3.797080218791961670e-01 -9.339013695716857910e-02
-2.240616679191589355e-01 2.576277256011962891e-01 8.854845911264419556e-02
-1.016067564487457275e-01 7.562004923820495605e-01 1.628895252943038940e-01
-1.830940544605255127e-01 3.011077940464019775e-01 -1.970862746238708496e-01
-2.598091959953308105e-03 6.610176563262939453e-01 -2.994601428508758545e-02
-6.020849943161010742e-02 2.795357704162597656e-01 1.154346540570259094e-01
-2.055807113647460938e-01 2.384581565856933594e-01 -6.316173821687698364e-02
-1.276452988386154175e-01 7.427495718002319336e-01 -1.610973030328750610e-01
-1.019133776426315308e-01 2.300797402858734131e-01 -8.415694534778594971e-02
-2.701277136802673340e-01 5.137602686882019043e-01 -5.229819566011428833e-02
-1.112578958272933960e-01 7.797554731369018555e-01 1.139841303229331970e-01
-6.924629956483840942e-02 4.155819714069366455e-01 2.670192718505859375e-01
5.280196666717529297e-03 5.909761190414428711e-01 8.383261412382125854e-02
-1.190936639904975891e-01 3.427904546260833740e-01 -2.468118965625762939e-01
-1.886253952980041504e-01 3.982176184654235840e-01 -2.505965530872344971e-01
-7.460437715053558350e-03 6.727336645126342773e-01 5.656806007027626038e-02
-2.140723913908004761e-01 4.215145707130432129e-01 -2.262468934059143066e-01
-9.240475296974182129e-02 3.873658776283264160e-01 -2.589739859104156494e-01
-2.277893275022506714e-01 5.705037713050842285e-01 -1.866931319236755371e-01
-2.747442126274108887e-01 4.246885776519775391e-01 -5.953568033874034882e-03
-2.678847312927246094e-01 3.789085745811462402e-01 8.018219470977783203e-02
-2.078836858272552490e-01 2.476116716861724854e-01 -8.168785274028778076e-02
-3.426163643598556519e-02 3.255119919776916504e-01 1.081861108541488647e-01
-1.471471488475799561e-01 7.641951441764831543e-01 -1.074816435575485229e-01
-2.337627559900283813e-01 6.740982532501220703e-01 9.065020829439163208e-02
-1.687670052051544189e-01 5.564164519309997559e-01 -2.726607620716094971e-01
9.642913937568664551e-03 4.667751491069793701e-01 -2.051132544875144958e-02
-1.742965281009674072e-01 2.708662748336791992e-01 2.049362212419509888e-01
-6.459321081638336182e-02 3.526270985603332520e-01 -2.079213708639144897e-01
-2.197913825511932373e-01 5.687770843505859375e-01 2.466028034687042236e-01
-6.907858699560165405e-02 6.889536380767822266e-01 2.183478772640228271e-01
-1.816084086894989014e-01 2.654590904712677002e-01 1.923706084489822388e-01
-2.655372023582458496e-01 3.523916006088256836e-01 1.645969599485397339e-02
-7.346184551715850830e-02 4.560645222663879395e-01 -2.675749659538269043e-01
-8.970220386981964111e-02 2.296945154666900635e-01 6.386544555425643921e-02
-1.219718307256698608e-01 3.994879722595214844e-01 3.011555075645446777e-01
-8.729740977287292480e-03 6.322053074836730957e-01 -1.189960911870002747e-01
-2.189692258834838867e-01 6.736747026443481445e-01 1.589857041835784912e-01
-2.342055439949035645e-01 2.720678448677062988e-01 -3.697062656283378601e-02
-2.099910676479339600e-01 3.191394209861755371e-01 2.177830785512924194e-01
-2.596653997898101807e-01 5.817360877990722656e-01 1.085309609770774841e-01
-1.433868408203125000e-01 2.536352276802062988e-01 -1.621706485748291016e-01
-1.587786674499511719e-01 2.636391818523406982e-01 -1.725468933582305908e-01
-2.291102260351181030e-01 3.206586539745330811e-01 -1.409545093774795532e-01
-7.793428003787994385e-02 5.158666968345642090e-01 -2.770140767097473145e-01
-2.530998289585113525e-01 3.486875295639038086e-01 1.357088387012481689e-01
-1.382488012313842773e-01 5.875861048698425293e-01 -2.784229218959808350e-01
-7.994510233402252197e-02 6.808971762657165527e-01 2.367246448993682861e-01
1.344777643680572510e-02 5.224135518074035645e-01 -6.175952963531017303e-03
-1.703603565692901611e-01 4.383358955383300781e-01 -2.755101621150970459e-01
-2.296353578567504883e-01 6.739106178283691406e-01 -7.175217568874359131e-02
-1.211940348148345947e-01 5.943722724914550781e-01 -2.783933579921722412e-01
-2.211997509002685547e-01 6.797023415565490723e-01 -9.805896878242492676e-02
-2.762188911437988281e-01 4.502074420452117920e-01 1.805904321372509003e-03
-1.398455649614334106e-01 7.460700273513793945e-01 -1.496149599552154541e-01
-3.735587000846862793e-03 3.991546034812927246e-01 -5.333355069160461426e-02
-1.922919452190399170e-01 2.802770733833312988e-01 2.007138878107070923e-01
-8.258232474327087402e-02 5.743736028671264648e-01 -2.723626196384429932e-01
-2.007752656936645508e-01 4.953349828720092773e-01 -2.511436045169830322e-01
-2.546221613883972168e-01 4.564428925514221191e-01 1.867534220218658447e-01
-2.192872464656829834e-01 7.084771394729614258e-01 -2.908077090978622437e-02
1.150305569171905518e-02 5.146353244781494141e-01 -4.691746085882186890e-02
-2.357552349567413330e-01 6.734520792961120605e-01 -3.057099506258964539e-02
-2.706325948238372803e-01 5.263779759407043457e-01 -3.689822927117347717e-02
-6.878405064344406128e-02 7.746328115463256836e-01 -4.734125360846519470e-02
-1.135307550430297852e-02 6.389963626861572266e-01 1.312181055545806885e-01
-1.283392459154129028e-01 2.041170895099639893e-01 -1.365563552826642990e-02
-1.101912036538124084e-01 2.211603224277496338e-01 -7.045660167932510376e-02
-2.550937235355377197e-01 4.847620725631713867e-01 -1.373840123414993286e-01
-2.166487723588943481e-01 3.406904041767120361e-01 2.247685939073562622e-01
-2.295344322919845581e-02 3.610789775848388672e-01 -1.098629012703895569e-01
1.006065309047698975e-02 5.083672404289245605e-01 6.453405320644378662e-02
9.717509150505065918e-03 5.973397493362426758e-01 -1.667852699756622314e-02
-2.315964102745056152e-01 6.354498863220214844e-01 1.702696830034255981e-01
-2.227966040372848511e-01 3.646210134029388428e-01 -1.887292265892028809e-01
-9.160391986370086670e-02 2.491272538900375366e-01 -1.141295507550239563e-01
-2.135896384716033936e-01 5.931873321533203125e-01 2.453762143850326538e-01
-4.044504463672637939e-02 6.444966793060302734e-01 2.081396728754043579e-01
-1.263947635889053345e-01 2.128718495368957520e-01 8.842614293098449707e-02
-2.721733152866363525e-01 3.950129151344299316e-01 -8.535031229257583618e-04
-1.791568398475646973e-01 2.325880229473114014e-01 1.376469582319259644e-01
-2.571492195129394531e-01 6.154963970184326172e-01 3.972910344600677490e-04
-3.854954987764358521e-02 7.285149097442626953e-01 1.017021760344505310e-01
-1.979872137308120728e-01 2.441371083259582520e-01 1.345803886651992798e-01
-2.283589243888854980e-01 6.827406883239746094e-01 -5.662766098976135254e-02
1.608103513717651367e-03 5.827348828315734863e-01 1.122026145458221436e-01
-2.087636291980743408e-01 2.845144867897033691e-01 1.827659159898757935e-01
-1.908641159534454346e-01 4.369461238384246826e-01 -2.585600316524505615e-01
-2.669854760169982910e-01 3.619653582572937012e-01 4.984036833047866821e-02
-2.608207613229751587e-02 4.456378519535064697e-01 2.000215351581573486e-01
-4.532118141651153564e-02 5.438612103462219238e-01 -2.398405969142913818e-01
-1.888758689165115356e-01 5.525841712951660156e-01 -2.555914521217346191e-01
-2.473977208137512207e-02 3.849260210990905762e-01 1.546622961759567261e-01
-2.098310738801956177e-02 3.417369425296783447e-01 6.387022882699966431e-02
1.043666899204254150e-02 5.522552728652954102e-01 6.207348406314849854e-02
1.092198491096496582e-02 4.804514646530151367e-01 -2.182643860578536987e-02
-2.278953492641448975e-01 6.708730459213256836e-01 1.309552490711212158e-01
-2.748571634292602539e-01 4.751307368278503418e-01 -2.358878776431083679e-02
-2.761376202106475830e-01 4.913820922374725342e-01 1.786867529153823853e-02
-2.276576757431030273e-01 6.592169404029846191e-01 1.518889218568801880e-01
-2.753036618232727051e-01 4.965261220932006836e-01 -3.138975240290164948e-03
-8.986359834671020508e-02 3.484553694725036621e-01 -2.341527044773101807e-01
-1.658461242914199829e-02 6.379071474075317383e-01 -1.428873538970947266e-01
4.713818430900573730e-03 6.318042278289794922e-01 1.605307310819625854e-02
-8.927018940448760986e-02 6.866146326065063477e-01 -2.183559983968734741e-01
-2.399367094039916992e-02 3.308312594890594482e-01 5.321779474616050720e-02
-1.394390314817428589e-02 4.150932431221008301e-01 -1.350613385438919067e-01
-2.767329216003417969e-01 4.627843797206878662e-01 3.517150878906250000e-02
-3.473072499036788940e-02 4.564043581485748291e-01 2.245468050241470337e-01
-2.337152957916259766e-01 4.841463863849639893e-01 2.407356649637222290e-01
-1.971436440944671631e-01 2.236424684524536133e-01 7.193066924810409546e-02
-1.774072051048278809e-01 6.415214538574218750e-01 -2.265975326299667358e-01
-1.902847886085510254e-01 4.810667932033538818e-01 -2.633270025253295898e-01
-1.345925033092498779e-02 5.938426256179809570e-01 1.686883419752120972e-01
-2.637329101562500000e-01 3.739972114562988281e-01 -5.930171161890029907e-02
-1.582086831331253052e-01 2.046503424644470215e-01 -3.362985327839851379e-02
-2.493759989738464355e-01 6.299340128898620605e-01 9.388243407011032104e-02
-1.450213044881820679e-01 5.479421019554138184e-01 -2.869005799293518066e-01
-1.386310756206512451e-01 5.910398364067077637e-01 3.059875667095184326e-01
6.730690598487854004e-03 4.445776045322418213e-01 -2.318148687481880188e-02
-2.054387181997299194e-01 3.278530836105346680e-01 -1.930657923221588135e-01
-7.539978623390197754e-02 3.056377172470092773e-01 1.945219188928604126e-01
-1.810529828071594238e-02 3.644480109214782715e-01 9.795179218053817749e-02
-1.155017614364624023e-01 2.417908310890197754e-01 1.540134996175765991e-01
-1.020371168851852417e-01 2.518833279609680176e-01 1.566057354211807251e-01
-2.031992375850677490e-02 3.351802229881286621e-01 -1.186736393719911575e-02
-2.688440084457397461e-01 4.080122113227844238e-01 -5.600704997777938843e-02
2.239495515823364258e-03 4.590446949005126953e-01 9.591555595397949219e-02
-2.434209287166595459e-01 2.845160067081451416e-01 4.809311777353286743e-02
-1.120757758617401123e-01 6.610755324363708496e-01 2.695561945438385010e-01
-8.217370510101318359e-02 7.188871502876281738e-01 2.017109394073486328e-01
-2.091843634843826294e-02 7.046396732330322266e-01 -6.337402760982513428e-02
-9.465673565864562988e-02 4.111950397491455078e-01 -2.704811096191406250e-01
-2.290334403514862061e-01 4.156568944454193115e-01 2.412079572677612305e-01
-1.874530464410781860e-01 5.008885860443115234e-01 3.020347058773040771e-01
-2.398353219032287598e-01 5.695488452911376953e-01 -1.560677140951156616e-01
-8.445169776678085327e-02 2.649964690208435059e-01 1.508194357156753540e-01
-1.553022563457489014e-01 2.692128121852874756e-01 2.104573994874954224e-01
-1.854529082775115967e-01 6.984250545501708984e-01 1.997879594564437866e-01
-2.462069094181060791e-01 4.675075709819793701e-01 -1.660893410444259644e-01
-6.680965423583984375e-03 4.194675683975219727e-01 -1.061652377247810364e-01
-9.342268854379653931e-02 2.892251610755920410e-01 2.014941424131393433e-01
-2.048764526844024658e-01 5.550889968872070312e-01 2.743173539638519287e-01
-2.586663961410522461e-01 4.821988344192504883e-01 -1.242607608437538147e-01
-3.491382300853729248e-02 4.162006080150604248e-01 -1.968815475702285767e-01
-2.500683665275573730e-01 3.202554583549499512e-01 -6.317704170942306519e-02
-2.656342983245849609e-01 4.471079707145690918e-01 -9.218581765890121460e-02
-1.192286238074302673e-01 2.063605487346649170e-01 2.058837749063968658e-02
-2.723873555660247803e-01 5.059796571731567383e-01 8.743309974670410156e-02
-2.087762504816055298e-01 7.266211509704589844e-01 6.844850629568099976e-02
-2.464239299297332764e-01 5.796455144882202148e-01 1.743580251932144165e-01
-2.021376341581344604e-01 6.990686058998107910e-01 1.660784929990768433e-01
-2.069186270236968994e-01 3.539373278617858887e-01 -2.087510675191879272e-01
1.179917156696319580e-02 5.013857483863830566e-01 3.728508576750755310e-02
-4.091426730155944824e-03 3.897519707679748535e-01 -2.618062123656272888e-02
-2.411151528358459473e-01 6.658020615577697754e-01 2.982266247272491455e-03
-2.115297317504882812e-02 3.491128087043762207e-01 -7.774788886308670044e-02
-2.668397426605224609e-01 3.624975383281707764e-01 -6.243976764380931854e-03
-1.263519078493118286e-01 7.293201088905334473e-01 -1.801534295082092285e-01
-2.483938634395599365e-01 3.157199323177337646e-01 1.095321625471115112e-01
-1.625600457191467285e-02 5.578885674476623535e-01 1.881316155195236206e-01
-2.439908683300018311e-01 5.335881114006042480e-01 2.071029245853424072e-01
-2.486157715320587158e-01 5.917784571647644043e-01 1.553677618503570557e-01
-2.217884361743927002e-01 4.622631072998046875e-01 2.618518471717834473e-01
-1.155497133731842041e-01 4.625927209854125977e-01 3.154046535491943359e-01
-2.148638069629669189e-01 6.862366795539855957e-01 1.515621095895767212e-01
-2.537592351436614990e-01 6.294097900390625000e-01 2.480780519545078278e-02
-9.082718193531036377e-02 5.407627820968627930e-01 -2.833508551120758057e-01
-2.217391431331634521e-01 5.334289669990539551e-01 -2.130357921123504639e-01
-2.508410811424255371e-01 4.409177601337432861e-01 -1.498402804136276245e-01
-2.236951142549514771e-02 6.844817996025085449e-01 1.207997053861618042e-01
-7.750291377305984497e-02 3.696478009223937988e-01 2.535722851753234863e-01
-1.139680966734886169e-01 3.154434859752655029e-01 2.472485899925231934e-01
-1.030104234814643860e-01 5.060323476791381836e-01 3.131344914436340332e-01
-2.490735948085784912e-01 5.695809721946716309e-01 -1.252242326736450195e-01
-5.698759853839874268e-02 5.445537567138671875e-01 -2.550710141658782959e-01
-3.009463101625442505e-02 5.737019777297973633e-01 -2.083335071802139282e-01
9.900361299514770508e-03 5.307752490043640137e-01 -6.707456707954406738e-02
-2.132962644100189209e-01 7.141791582107543945e-01 9.158006310462951660e-02
-9.671335667371749878e-02 3.045995235443115234e-01 2.226507067680358887e-01
-2.494945228099822998e-01 3.034912943840026855e-01 6.980863958597183228e-02
-1.204324737191200256e-01 2.875524759292602539e-01 2.240756452083587646e-01
-1.776051670312881470e-01 7.682029604911804199e-01 1.106742396950721741e-02
8.431255817413330078e-03 4.569354951381683350e-01 2.580033428966999054e-02
-2.348403334617614746e-01 6.248544454574584961e-01 -1.265320628881454468e-01
-1.857269406318664551e-01 7.601805925369262695e-01 2.632089145481586456e-02
-2.572981715202331543e-01 3.990253806114196777e-01 -1.125298067927360535e-01
-5.644956231117248535e-02 7.662141323089599609e-01 -3.447926789522171021e-02
-2.411437779664993286e-01 3.330507874488830566e-01 1.631749272346496582e-01
-2.381643056869506836e-01 5.116571784019470215e-01 -1.828486770391464233e-01
-1.003389135003089905e-01 3.466705381870269775e-01 2.615795135498046875e-01
-2.715537846088409424e-01 5.285927653312683105e-01 7.406350225210189819e-02
-2.821578085422515869e-02 3.230015635490417480e-01 6.373424082994461060e-02
-2.701932191848754883e-01 5.537174344062805176e-01 2.232699468731880188e-02
-7.811534404754638672e-02 3.374538421630859375e-01 -2.136879712343215942e-01
-1.518240720033645630e-01 2.554062008857727051e-01 1.924058794975280762e-01
-2.857454866170883179e-02 7.238345146179199219e-01 -5.240432173013687134e-02
-1.904633939266204834e-01 2.136634588241577148e-01 1.462649833410978317e-02
-4.591549187898635864e-02 4.318976998329162598e-01 -2.254925966262817383e-01
4.724398255348205566e-03 4.980029165744781494e-01 1.024739816784858704e-01
-1.494471728801727295e-02 4.842326641082763672e-01 1.818608045578002930e-01
-2.265470325946807861e-01 6.857484579086303711e-01 1.034278199076652527e-01
-9.107472002506256104e-02 7.093028426170349121e-01 -1.979885846376419067e-01
1.113952696323394775e-02 4.785323739051818848e-01 8.186718448996543884e-03
-2.156420201063156128e-01 3.493145406246185303e-01 -1.922348141670227051e-01
-9.229196608066558838e-02 6.916500926017761230e-01 2.373722940683364868e-01
-2.044873237609863281e-01 7.109619379043579102e-01 1.376709192991256714e-01
-2.317278236150741577e-01 5.026811361312866211e-01 2.430464923381805420e-01
-6.740179657936096191e-02 6.280587315559387207e-01 2.578767240047454834e-01
-1.137431710958480835e-02 6.823952794075012207e-01 -5.631274729967117310e-02
-1.244914382696151733e-01 6.682352423667907715e-01 -2.395249307155609131e-01
-1.709024459123611450e-01 2.237440049648284912e-01 -9.270972758531570435e-02
-9.936593472957611084e-02 7.625108361244201660e-01 1.495740264654159546e-01
2.467930316925048828e-04 4.136914908885955811e-01 -4.332001879811286926e-02
4.974231123924255371e-03 4.391170442104339600e-01 -4.077818617224693298e-02
-9.951591491699218750e-04 5.726341605186462402e-01 1.296368688344955444e-01
-2.720265388488769531e-01 5.121644735336303711e-01 -3.579691797494888306e-02
-1.153537631034851074e-02 5.562504529953002930e-01 -1.667236387729644775e-01
-8.962574601173400879e-02 7.835721969604492188e-01 8.144050091505050659e-02
-2.441648542881011963e-01 5.920373797416687012e-01 -1.256381124258041382e-01
-1.175644993782043457e-02 4.074414372444152832e-01 1.249176561832427979e-01
-4.847186803817749023e-02 7.553049325942993164e-01 6.115322560071945190e-02
-2.354554533958435059e-01 5.889702439308166504e-01 2.012677937746047974e-01
-3.934290260076522827e-02 3.494935929775238037e-01 1.634830385446548462e-01
-1.069014221429824829e-01 2.188800871372222900e-01 -5.305072665214538574e-02
-3.101711720228195190e-02 3.402110934257507324e-01 -1.115093752741813660e-01
-1.373474001884460449e-01 2.065085470676422119e-01 -4.562903940677642822e-02
8.566305041313171387e-03 5.954986214637756348e-01 -4.288335889577865601e-02
-2.653303146362304688e-01 5.043986439704895020e-01 -8.865527063608169556e-02
-1.335188746452331543e-03 4.162678122520446777e-01 7.076055556535720825e-02
-1.616728603839874268e-01 4.153835773468017578e-01 3.065916001796722412e-01
-5.583632737398147583e-02 4.388726949691772461e-01 -2.430471181869506836e-01
-2.707317173480987549e-01 4.680857062339782715e-01 1.131473705172538757e-01
-2.819672226905822754e-03 4.303143620491027832e-01 -9.593077003955841064e-02
-2.746724486351013184e-01 5.093823671340942383e-01 4.945071041584014893e-02
-2.155739665031433105e-01 3.129385411739349365e-01 2.030274569988250732e-01
-8.366396278142929077e-02 5.591874122619628906e-01 2.958664298057556152e-01
-2.391748130321502686e-02 7.207081913948059082e-01 -2.264147624373435974e-02
-8.379852026700973511e-02 4.964354336261749268e-01 3.000294864177703857e-01
