5.803506355732679367e-03 6.245987415313720703e-01 -3.805059567093849182e-02
-2.289559692144393921e-03 5.800384879112243652e-01 -1.852889731526374817e-02
1.319888886064291000e-02 4.870231747627258301e-01 -3.522440046072006226e-02
1.986308768391609192e-02 4.555218815803527832e-01 -1.289070490747690201e-02
3.403574228286743164e-04 5.745868086814880371e-01 2.508743479847908020e-02
3.899313043802976608e-03 4.105577170848846436e-01 -7.960570044815540314e-03
-1.090165227651596069e-03 5.087952017784118652e-01 2.139950916171073914e-02
4.713364876806735992e-03 5.679225921630859375e-01 -3.921727836132049561e-02
2.342122420668601990e-02 5.976517200469970703e-01 -1.466721948236227036e-02
-2.928382717072963715e-03 5.846292972564697266e-01 -1.226700376719236374e-02
1.087956223636865616e-02 6.512554287910461426e-01 -3.775288537144660950e-02
3.953490406274795532e-03 5.098847150802612305e-01 -3.508660197257995605e-02
6.845101714134216309e-03 4.016565680503845215e-01 -9.735189378261566162e-03
2.961105201393365860e-03 5.117526650428771973e-01 3.289593383669853210e-02
1.563756912946701050e-02 6.936714649200439453e-01 1.001845020800828934e-02
-3.870083019137382507e-04 4.729727208614349365e-01 1.980145461857318878e-02
1.475077122449874878e-02 6.602810621261596680e-01 -3.408286720514297485e-02
1.791989058256149292e-02 6.224005818367004395e-01 -3.422272577881813049e-02
4.327605478465557098e-03 4.032208919525146484e-01 -2.518872264772653580e-03
1.790572330355644226e-02 6.589685082435607910e-01 -2.873171493411064148e-02
1.974822953343391418e-02 5.737884640693664551e-01 2.755455300211906433e-02
1.193813793361186981e-02 5.470372438430786133e-01 3.874495252966880798e-02
1.684391871094703674e-02 4.347648322582244873e-01 -1.648953370749950409e-02
1.963109150528907776e-02 4.859166741371154785e-01 2.499508671462535858e-02
-3.408361226320266724e-03 5.687595009803771973e-01 -8.633216843008995056e-03
1.807614229619503021e-02 4.514100551605224609e-01 2.287429012358188629e-02
6.506617181003093719e-03 6.663846969604492188e-01 2.101339772343635559e-02
2.102742716670036316e-02 6.399697065353393555e-01 1.290260627865791321e-02
-2.382323145866394043e-03 5.727053284645080566e-01 1.332273520529270172e-02
1.277765724807977676e-02 7.129253149032592773e-01 -1.618530228734016418e-02
-3.690598532557487488e-04 4.414315223693847656e-01 6.038049235939979553e-03
-2.441275864839553833e-03 5.171592831611633301e-01 1.476401183754205704e-02
-2.193393185734748840e-03 5.400385260581970215e-01 -1.981548033654689789e-02
1.276743318885564804e-02 6.274185776710510254e-01 3.147487714886665344e-02
-1.298195682466030121e-03 4.557941257953643799e-01 -3.205499611794948578e-03
2.689404413104057312e-03 4.143149852752685547e-01 1.059179380536079407e-02
2.390568144619464874e-03 5.855430364608764648e-01 -3.515278175473213196e-02
3.357055131345987320e-03 5.750198364257812500e-01 3.203426301479339600e-02
-2.355764620006084442e-03 6.102221608161926270e-01 3.071805695071816444e-03
-3.400672227144241333e-03 5.403255820274353027e-01 7.093728519976139069e-03
1.791696622967720032e-02 4.376829862594604492e-01 1.880962587893009186e-02
1.618269830942153931e-02 4.298133552074432373e-01 2.167689055204391479e-02
-2.053884789347648621e-03 5.013499259948730469e-01 1.564933545887470245e-02
-8.869916200637817383e-04 6.413234472274780273e-01 -1.186776999384164810e-02
2.112878859043121338e-02 6.234287023544311523e-01 -2.470259554684162140e-02
1.201199367642402649e-02 5.838776230812072754e-01 3.684236109256744385e-02
-3.103252500295639038e-03 5.036476850509643555e-01 -6.409443914890289307e-03
8.786771446466445923e-03 6.566379666328430176e-01 -3.641209751367568970e-02
-3.433050587773323059e-03 5.536338686943054199e-01 -9.864949621260166168e-03
1.937125995755195618e-02 6.849870681762695312e-01 -7.978303357958793640e-03
2.432776987552642822e-02 5.581169128417968750e-01 5.053807981312274933e-04
3.005703445523977280e-03 6.554926633834838867e-01 1.709806732833385468e-02
2.052174881100654602e-02 5.561994314193725586e-01 2.616492845118045807e-02
4.854294471442699432e-03 4.594806432723999023e-01 3.135178983211517334e-02
-8.663004264235496521e-04 6.342008113861083984e-01 -1.616002805531024933e-02
2.140250056982040405e-03 6.801207661628723145e-01 -9.407501784153282642e-04
2.156187966465950012e-02 4.863408207893371582e-01 -1.491998136043548584e-02
3.139789681881666183e-03 5.776045322418212891e-01 -3.679417818784713745e-02
5.553541705012321472e-04 4.394378066062927246e-01 1.391908805817365646e-02
1.930857636034488678e-02 5.878182053565979004e-01 2.757305651903152466e-02
2.648505382239818573e-03 5.546000003814697266e-01 -3.580873459577560425e-02
2.474108710885047913e-03 5.964071750640869141e-01 2.813588082790374756e-02
8.390958420932292938e-03 5.276906490325927734e-01 3.882534056901931763e-02
-7.727816700935363770e-04 5.018498301506042480e-01 -2.240061573684215546e-02
1.930036023259162903e-02 5.855846405029296875e-01 -3.316300734877586365e-02
1.261970773339271545e-02 5.520170331001281738e-01 -4.160124436020851135e-02
8.670007809996604919e-04 4.289781451225280762e-01 8.998160250484943390e-03
2.157581225037574768e-02 6.083998680114746094e-01 1.777019724249839783e-02
1.471156254410743713e-02 6.834821105003356934e-01 1.622997038066387177e-02
4.807075485587120056e-03 6.817598342895507812e-01 -2.456176653504371643e-02
2.452773042023181915e-03 5.244084596633911133e-01 3.220643848180770874e-02
-5.375193431973457336e-04 6.507789492607116699e-01 -5.287812557071447372e-03
2.295003458857536316e-02 5.356552600860595703e-01 -1.730384491384029388e-02
1.541031338274478912e-02 4.065259099006652832e-01 1.019377820193767548e-02
1.876461319625377655e-02 4.760342836380004883e-01 2.611932903528213501e-02
2.250966429710388184e-02 6.142303347587585449e-01 1.172444876283407211e-02
-3.040811978280544281e-03 5.787361860275268555e-01 -1.212263386696577072e-02
5.259186960756778717e-03 4.130603075027465820e-01 -1.366243790835142136e-02
2.427934482693672180e-02 5.532897710800170898e-01 -4.894112236797809601e-03
3.906348720192909241e-04 5.568642020225524902e-01 -3.057139180600643158e-02
2.135053277015686035e-02 6.573863625526428223e-01 -1.303158793598413467e-02
5.231164395809173584e-04 6.460589170455932617e-01 1.068968605250120163e-02
1.320485677570104599e-02 5.027623176574707031e-01 3.754685074090957642e-02
5.654532462358474731e-03 3.980739712715148926e-01 1.018315739929676056e-02
2.430438995361328125e-02 5.520763397216796875e-01 6.361610721796751022e-04
8.851425722241401672e-03 7.159225940704345703e-01 -5.438951775431632996e-03
2.077088132500648499e-02 5.337529778480529785e-01 2.536143921315670013e-02
2.425861917436122894e-02 5.618320703506469727e-01 -6.478161551058292389e-03
2.044700458645820618e-02 5.165547132492065430e-01 2.561598457396030426e-02
9.641448035836219788e-03 6.154320240020751953e-01 -4.135430231690406799e-02
4.214286338537931442e-03 6.598760485649108887e-01 -2.988710068166255951e-02
-2.418225631117820740e-04 4.718585014343261719e-01 -1.833862997591495514e-02
-1.708512194454669952e-03 6.119404435157775879e-01 9.144613519310951233e-03
-3.143393434584140778e-03 5.098611712455749512e-01 -8.070824667811393738e-03
6.711137481033802032e-03 4.723718762397766113e-01 3.501859307289123535e-02
-6.507085636258125305e-04 5.984660387039184570e-01 1.835338957607746124e-02
-2.623524516820907593e-03 4.826551079750061035e-01 -2.482051728293299675e-03
2.015810459852218628e-02 5.787374973297119141e-01 -3.096906282007694244e-02
2.386830747127532959e-04 6.383736133575439453e-01 1.216233242303133011e-02
1.464199647307395935e-02 7.111327648162841797e-01 -1.461342442780733109e-03
5.060806870460510254e-04 6.430500149726867676e-01 -2.180019952356815338e-02
2.399438992142677307e-02 5.830776691436767578e-01 5.089998245239257812e-03
1.506516896188259125e-02 4.866420626640319824e-01 3.465880826115608215e-02
2.092842571437358856e-02 4.743213951587677002e-01 1.698727346956729889e-02
3.331406041979789734e-04 4.320554137229919434e-01 7.141765672713518143e-05
-1.305194571614265442e-03 4.864239096641540527e-01 1.775536872446537018e-02
-3.611446358263492584e-03 5.257765054702758789e-01 1.201370963826775551e-03
-9.584175422787666321e-04 5.703924894332885742e-01 2.091742120683193207e-02
-3.500876016914844513e-03 5.159733295440673828e-01 -1.989063806831836700e-03
1.791736483573913574e-02 4.891099035739898682e-01 3.006707876920700073e-02
2.589615527540445328e-03 5.309826135635375977e-01 -3.462513908743858337e-02
2.356230467557907104e-02 5.204270482063293457e-01 -8.845185860991477966e-03
6.058777216821908951e-03 5.617548227310180664e-01 -4.060871526598930359e-02
4.029711708426475525e-04 5.534479618072509766e-01 2.677833102643489838e-02
6.494001485407352448e-03 5.987731218338012695e-01 -4.055290669202804565e-02
3.798505757004022598e-03 6.663893461227416992e-01 -2.711082063615322113e-02
2.179050631821155548e-02 6.558219194412231445e-01 -6.146860308945178986e-03
5.599025171250104904e-03 6.450291872024536133e-01 -3.522861376404762268e-02
2.328544110059738159e-02 5.602039098739624023e-01 1.376355066895484924e-02
1.009291782975196838e-02 3.897707462310791016e-01 1.271447166800498962e-03
2.228721231222152710e-02 5.731413364410400391e-01 -2.317793667316436768e-02
2.307773754000663757e-02 5.374016165733337402e-01 1.479236315935850143e-02
2.849712502211332321e-03 4.104477763175964355e-01 6.573243066668510437e-03
2.113606408238410950e-02 4.597139656543731689e-01 8.299383334815502167e-03
2.534862142056226730e-03 4.200598597526550293e-01 -8.671698160469532013e-03
6.455276161432266235e-04 6.648479700088500977e-01 -1.054590009152889252e-02
2.303389832377433777e-02 5.477797985076904297e-01 -1.809384301304817200e-02
2.239435911178588867e-03 6.780579090118408203e-01 -1.488827262073755264e-02
1.624881289899349213e-02 7.055999636650085449e-01 -1.094030030071735382e-02
-1.360945403575897217e-03 4.719546735286712646e-01 1.404119376093149185e-02
2.065537497401237488e-02 6.314612627029418945e-01 -2.536416426301002502e-02
1.887621358036994934e-03 5.020096898078918457e-01 -3.041427023708820343e-02
2.045413851737976074e-02 5.500027537345886230e-01 -2.934202924370765686e-02
1.859101280570030212e-02 5.040686130523681641e-01 2.991547062993049622e-02
1.813120208680629730e-03 4.424160122871398926e-01 2.096193470060825348e-02
-1.576254144310951233e-03 6.065498590469360352e-01 1.173493079841136932e-02
-3.084538504481315613e-03 5.933391451835632324e-01 -5.198072642087936401e-03
3.271349705755710602e-03 6.756032705307006836e-01 -2.204355411231517792e-02
2.217874303460121155e-02 5.024906396865844727e-01 1.628343760967254639e-02
1.680815592408180237e-02 4.405742287635803223e-01 2.355411462485790253e-02
2.420019358396530151e-02 5.870615243911743164e-01 -2.199305687099695206e-03
2.188753895461559296e-02 5.729384422302246094e-01 2.056424878537654877e-02
-3.529490903019905090e-03 5.460747480392456055e-01 -8.411983028054237366e-03
1.880443282425403595e-02 6.856806278228759766e-01 2.182302763685584068e-03
6.243452895432710648e-03 5.434913635253906250e-01 3.730397671461105347e-02
-8.057728409767150879e-04 4.922169148921966553e-01 2.103705517947673798e-02
-3.268459811806678772e-03 5.192168951034545898e-01 -8.821691386401653290e-03
2.339472621679306030e-02 6.066415309906005859e-01 -1.322046294808387756e-02
1.687753200531005859e-02 7.032114863395690918e-01 -5.948946811258792877e-03
1.111562550067901611e-02 4.252060949802398682e-01 2.771065384149551392e-02
9.708190336823463440e-03 6.028828620910644531e-01 -4.205158725380897522e-02
4.635266959667205811e-04 6.544047594070434570e-01 -1.699674502015113831e-02
2.424099110066890717e-02 5.445766448974609375e-01 -3.573625115677714348e-03
9.594880975782871246e-03 4.818823933601379395e-01 3.720149025321006775e-02
2.105042338371276855e-02 4.610480964183807373e-01 -7.017221301794052124e-03
2.428967133164405823e-02 5.759211182594299316e-01 -8.823035750538110733e-05
1.888811960816383362e-02 5.263187289237976074e-01 -3.166824951767921448e-02
-3.035041503608226776e-03 4.973199069499969482e-01 -4.364870488643646240e-03
-2.458862029016017914e-03 4.870638847351074219e-01 -8.339134044945240021e-03
2.058664523065090179e-02 4.496597349643707275e-01 -1.756356563419103622e-03
1.603690907359123230e-03 4.863786101341247559e-01 2.837959304451942444e-02
1.859312877058982849e-02 4.593707621097564697e-01 2.324413880705833435e-02
2.255697548389434814e-02 4.979884028434753418e-01 1.247388031333684921e-02
-3.717383369803428650e-04 6.065096259117126465e-01 1.800568029284477234e-02
2.154125459492206573e-02 5.988429188728332520e-01 1.937882043421268463e-02
2.399392053484916687e-02 5.366866588592529297e-01 5.550727248191833496e-03
1.734692044556140900e-02 4.252861142158508301e-01 1.516580861061811447e-02
-9.359437972307205200e-04 4.490773081779479980e-01 5.130471661686897278e-03
-2.991969697177410126e-03 5.874892473220825195e-01 4.413098096847534180e-03
3.203880507498979568e-03 4.554807841777801514e-01 2.779957465827465057e-02
3.190528601408004761e-03 6.276952028274536133e-01 -3.345565497875213623e-02
2.419612929224967957e-02 5.441712737083435059e-01 2.749117324128746986e-03
2.212250232696533203e-02 5.439171195030212402e-01 -2.267630025744438171e-02
1.908770576119422913e-02 5.217807292938232422e-01 2.977035194635391235e-02
-3.426611423492431641e-03 5.110775232315063477e-01 -1.489592250436544418e-04
-1.851627603173255920e-03 6.185377836227416992e-01 -1.346749905496835709e-02
3.812165465205907822e-03 4.051997959613800049e-01 8.086297661066055298e-03
2.142309024930000305e-02 4.791740775108337402e-01 -1.328643504530191422e-02
1.563541032373905182e-02 4.816946685314178467e-01 -3.167203813791275024e-02
2.038515359163284302e-02 4.992191195487976074e-01 -2.352575398981571198e-02
1.893956214189529419e-04 4.359941780567169189e-01 8.253502659499645233e-03
1.723018288612365723e-02 5.447643995285034180e-01 -3.641251102089881897e-02
9.264739230275154114e-03 4.883084893226623535e-01 3.765504062175750732e-02
1.383720152080059052e-02 4.002875089645385742e-01 -4.136818461120128632e-03
2.137413434684276581e-02 5.911757349967956543e-01 2.098692953586578369e-02
1.144152879714965820e-02 5.421358942985534668e-01 -4.158902913331985474e-02
2.183102816343307495e-02 5.445382595062255859e-01 2.159129083156585693e-02
2.330876514315605164e-02 6.046501398086547852e-01 7.956505753099918365e-03
1.906766742467880249e-02 6.562106013298034668e-01 1.570257171988487244e-02
1.567873172461986542e-03 6.258293390274047852e-01 2.083402127027511597e-02
4.921434447169303894e-04 5.686504244804382324e-01 2.606167644262313843e-02
2.419248223304748535e-03 4.297564625740051270e-01 1.869184710085391998e-02
1.938437670469284058e-02 6.790724992752075195e-01 -1.540570240467786789e-02
1.864775642752647400e-02 6.718088388442993164e-01 1.139614917337894440e-02
1.266506593674421310e-02 4.398279786109924316e-01 3.028449043631553650e-02
1.620011404156684875e-02 6.096864938735961914e-01 3.090469539165496826e-02
5.280666518956422806e-03 6.947633624076843262e-01 -1.947394758462905884e-02
1.224863715469837189e-02 5.280152559280395508e-01 -4.038624837994575500e-02
4.768968094140291214e-03 6.244718432426452637e-01 2.811182476580142975e-02
5.228857509791851044e-03 4.636431634426116943e-01 -2.980028092861175537e-02
1.776419021189212799e-02 6.414445638656616211e-01 -3.227435797452926636e-02
-6.525013595819473267e-04 6.468747258186340332e-01 -1.032891776412725449e-02
-1.413259655237197876e-03 5.285454392433166504e-01 2.080927230417728424e-02
1.890723221004009247e-02 6.627482771873474121e-01 -2.479476854205131531e-02
5.750864278525114059e-03 7.056412696838378906e-01 -4.327309317886829376e-03
-1.803888007998466492e-04 6.538021564483642578e-01 -1.064844988286495209e-02
-3.076986409723758698e-03 5.348780751228332520e-01 1.061427220702171326e-02
1.034907996654510498e-03 5.292508006095886230e-01 2.904195711016654968e-02
2.403102442622184753e-02 5.482179522514343262e-01 -9.161247871816158295e-03
-2.561696805059909821e-03 5.494256019592285156e-01 1.432331185787916183e-02
1.090030465275049210e-02 6.900688409805297852e-01 1.621686667203903198e-02
-1.699494197964668274e-03 5.959421396255493164e-01 -2.033064141869544983e-02
2.266721613705158234e-02 4.924702346324920654e-01 -8.184120990335941315e-03
-2.093190327286720276e-03 5.076966881752014160e-01 -1.683041267096996307e-02
1.526905782520771027e-02 5.158076286315917969e-01 3.620849177241325378e-02
2.264551818370819092e-02 6.400768756866455078e-01 -2.788076642900705338e-03
1.388113014400005341e-02 4.985182881355285645e-01 -3.627933561801910400e-02
-5.251411348581314087e-04 5.800178050994873047e-01 2.157577127218246460e-02
-3.531538881361484528e-03 5.585470199584960938e-01 3.616534871980547905e-03
1.979174092411994934e-02 6.462377309799194336e-01 1.621526479721069336e-02
1.714015007019042969e-02 6.353864669799804688e-01 -3.432224318385124207e-02
1.584681123495101929e-02 5.163480639457702637e-01 -3.618001565337181091e-02
4.148434381932020187e-03 4.816320836544036865e-01 3.298483043909072876e-02
1.736921444535255432e-02 5.714285373687744141e-01 3.266848251223564148e-02
6.412112154066562653e-03 5.539459586143493652e-01 3.712622821331024170e-02
-5.865637212991714478e-04 6.409870386123657227e-01 5.501097999513149261e-03
1.625610142946243286e-02 5.942195057868957520e-01 -3.863383829593658447e-02
1.826934888958930969e-02 6.304235458374023438e-01 2.410122193396091461e-02
1.781529933214187622e-02 4.682950377464294434e-01 2.737172320485115051e-02
1.997109875082969666e-02 4.413985013961791992e-01 -3.024113830178976059e-04
1.776790246367454529e-03 4.514270424842834473e-01 -1.988778449594974518e-02
2.324691042304039001e-02 5.016182065010070801e-01 -4.663201980292797089e-03
7.608563639223575592e-03 6.324871778488159180e-01 2.993503957986831665e-02
2.153117954730987549e-02 6.515950560569763184e-01 -1.473665982484817505e-02
2.381960488855838776e-02 5.900292396545410156e-01 -1.153908576816320419e-02
1.710760965943336487e-02 4.146579504013061523e-01 1.637478359043598175e-03
2.204187214374542236e-02 6.428927183151245117e-01 4.999584518373012543e-03
8.136201649904251099e-04 6.129168272018432617e-01 -2.903794497251510620e-02
-2.617994323372840881e-04 5.162004232406616211e-01 2.496355585753917694e-02
-2.082484774291515350e-03 4.814990460872650146e-01 -9.987264871597290039e-03
2.035035565495491028e-02 4.786470830440521240e-01 -1.885772682726383209e-02
2.207470685243606567e-02 5.792691707611083984e-01 -2.411804907023906708e-02
-1.925719901919364929e-03 5.561952590942382812e-01 -2.169589139521121979e-02
-1.453171484172344208e-03 6.313546299934387207e-01 2.056288998574018478e-03
-2.091377973556518555e-05 5.261447429656982422e-01 -2.788513712584972382e-02
-2.125056460499763489e-03 5.951912999153137207e-01 1.086287945508956909e-02
2.089479938149452209e-02 4.540768563747406006e-01 6.028836593031883240e-03
1.939244940876960754e-02 5.637834072113037109e-01 -3.282652795314788818e-02
5.557766649872064590e-03 5.671117901802062988e-01 3.564156219363212585e-02
1.812585070729255676e-02 5.379835367202758789e-01 -3.432779014110565186e-02
9.270142763853073120e-04 4.756895005702972412e-01 -2.353081665933132172e-02
4.341248422861099243e-03 5.197471976280212402e-01 -3.656445443630218506e-02
1.544892974197864532e-02 5.287988781929016113e-01 3.629475459456443787e-02
2.346427738666534424e-02 6.198040843009948730e-01 -2.801028545945882797e-03
-9.121568873524665833e-04 4.872496724128723145e-01 -1.908061094582080841e-02
2.653869334608316422e-03 6.445813775062561035e-01 -2.938194014132022858e-02
2.205410972237586975e-02 6.259804964065551758e-01 1.147150807082653046e-02
2.144007571041584015e-02 5.656211972236633301e-01 2.273998036980628967e-02
2.272272109985351562e-02 5.836142301559448242e-01 1.563054509460926056e-02
-2.567183226346969604e-03 5.657336115837097168e-01 1.293886546045541763e-02
1.915655471384525299e-02 4.879683256149291992e-01 -2.534259296953678131e-02
9.057186543941497803e-04 4.559675157070159912e-01 2.136673592031002045e-02
1.263925991952419281e-02 5.970576405525207520e-01 3.542154654860496521e-02
2.376998588442802429e-02 5.649638175964355469e-01 9.658424183726310730e-03
2.372220531105995178e-02 5.402286052703857422e-01 9.644157253205776215e-03
1.994002982974052429e-02 4.513810276985168457e-01 1.426718849688768387e-02
1.776380464434623718e-02 4.965166747570037842e-01 -3.035133145749568939e-02
2.261015027761459351e-02 6.346387863159179688e-01 3.412938909605145454e-03
5.814813543111085892e-03 4.872373640537261963e-01 -3.453043103218078613e-02
1.165424380451440811e-02 4.621548354625701904e-01 -3.178582340478897095e-02
2.031477168202400208e-02 6.645014286041259766e-01 -1.760023087263107300e-02
7.889638654887676239e-03 5.614638924598693848e-01 3.781729191541671753e-02
2.310822159051895142e-02 5.000398159027099609e-01 6.934209726750850677e-03
6.302724592387676239e-03 4.319320321083068848e-01 2.781098522245883942e-02
1.442795246839523315e-02 5.373274683952331543e-01 -3.955021500587463379e-02
2.391854301095008850e-02 6.029437780380249023e-01 -4.529670346528291702e-03
4.712193273007869720e-03 6.045986413955688477e-01 -3.823145106434822083e-02
1.863178238272666931e-02 6.763473749160766602e-01 -2.104791253805160522e-02
-3.036240115761756897e-03 4.941714704036712646e-01 -4.003604408353567123e-05
1.893751695752143860e-02 5.517879128456115723e-01 3.041304647922515869e-02
1.019810326397418976e-03 4.343056678771972656e-01 -9.578727185726165771e-03
1.036945078521966934e-02 6.146724224090576172e-01 3.379359096288681030e-02
1.983980648219585419e-02 6.402781009674072266e-01 -2.681353315711021423e-02
1.134695485234260559e-04 6.190358400344848633e-01 1.726443134248256683e-02
4.549127537757158279e-03 6.996843814849853516e-01 -7.007434032857418060e-03
1.846659183502197266e-02 5.106296539306640625e-01 3.065933287143707275e-02
8.517600595951080322e-03 6.946703791618347168e-01 1.297824177891016006e-02
-2.283372916281223297e-03 4.862695932388305664e-01 1.073457580059766769e-02
1.199397630989551544e-02 6.583744287490844727e-01 2.574704214930534363e-02
9.582061320543289185e-03 5.061290264129638672e-01 -3.884956613183021545e-02
1.633936539292335510e-02 4.660895764827728271e-01 -2.736316435039043427e-02
-3.278541378676891327e-03 5.131292343139648438e-01 5.908370949327945709e-03
7.428417913615703583e-03 6.821043491363525391e-01 1.698991842567920685e-02
7.320577278733253479e-04 6.339699625968933105e-01 -2.520464919507503510e-02
1.860181801021099091e-02 4.465962648391723633e-01 1.939579658210277557e-02
2.261912450194358826e-03 6.569710969924926758e-01 -2.507186122238636017e-02
2.337004989385604858e-03 4.151352941989898682e-01 -2.423612168058753014e-03
1.430372241884469986e-02 4.806827306747436523e-01 3.495564311742782593e-02
7.936894893646240234e-03 5.124722719192504883e-01 3.839216008782386780e-02
6.732083857059478760e-04 6.566791534423828125e-01 6.379259750247001648e-03
1.947067305445671082e-02 4.382667243480682373e-01 9.113359265029430389e-03
4.372363910079002380e-03 4.872282147407531738e-01 3.379902988672256470e-02
3.435644321143627167e-03 6.847410202026367188e-01 -1.778491027653217316e-02
1.990248635411262512e-02 5.439210534095764160e-01 2.811120450496673584e-02
2.056010998785495758e-02 5.416606068611145020e-01 -2.845221571624279022e-02
2.004479989409446716e-03 6.681642532348632812e-01 7.991296239197254181e-03
6.193567998707294464e-03 4.464536607265472412e-01 -2.695782855153083801e-02
-4.379078745841979980e-05 6.525107026100158691e-01 2.986171515658497810e-03
1.223366521298885345e-02 6.966932415962219238e-01 -2.640518732368946075e-02
2.260982617735862732e-02 5.978308320045471191e-01 -2.049075253307819366e-02
1.155299879610538483e-02 6.693230867385864258e-01 2.304146252572536469e-02
2.295048348605632782e-02 5.296910405158996582e-01 1.507081929594278336e-02
1.923898234963417053e-02 6.126294732093811035e-01 2.479474619030952454e-02
2.182769402861595154e-02 6.073476076126098633e-01 -2.362606488168239594e-02
2.340942993760108948e-02 5.317515730857849121e-01 -1.324854232370853424e-02
1.946317031979560852e-02 6.286358833312988281e-01 -2.980182133615016937e-02
1.243721693754196167e-03 4.233588278293609619e-01 -1.096941530704498291e-03
1.667014509439468384e-02 6.733598709106445312e-01 -2.802611328661441803e-02
-3.274004906415939331e-03 5.370193719863891602e-01 -1.137389522045850754e-02
1.336012780666351318e-02 4.497097432613372803e-01 -2.772626094520092010e-02
1.483315229415893555e-02 4.378808736801147461e-01 -2.236058376729488373e-02
5.077736917883157730e-03 5.873657464981079102e-01 3.348886966705322266e-02
2.093750424683094025e-02 6.681140661239624023e-01 -5.112208425998687744e-03
1.958360522985458374e-02 6.820222139358520508e-01 -1.828120206482708454e-03
-2.343719825148582458e-03 4.929915964603424072e-01 -1.165170874446630478e-02
1.775595918297767639e-02 5.571333765983581543e-01 3.264505043625831604e-02
1.854795031249523163e-02 4.300020933151245117e-01 -5.111378617584705353e-03
2.153190225362777710e-02 6.564450263977050781e-01 1.276968978345394135e-03
1.772085204720497131e-03 5.485664606094360352e-01 -3.385372459888458252e-02
1.959807053208351135e-02 6.021981239318847656e-01 2.529450319707393646e-02
-2.555648796260356903e-03 5.349422693252563477e-01 -1.727700047194957733e-02
2.290887385606765747e-02 6.307000517845153809e-01 -1.000348851084709167e-02
-1.165077090263366699e-03 6.027991771697998047e-01 -2.231124974787235260e-02
1.860536821186542511e-02 5.518652796745300293e-01 -3.418131172657012939e-02
-5.425140261650085449e-05 5.661837458610534668e-01 -2.924158424139022827e-02
-9.027523919939994812e-04 5.916070938110351562e-01 1.842748187482357025e-02
-2.734340727329254150e-03 5.446652173995971680e-01 -1.658003963530063629e-02
1.325557008385658264e-02 3.952677547931671143e-01 5.575787276029586792e-03
3.197571728378534317e-03 6.464285254478454590e-01 2.028478868305683136e-02
1.992240361869335175e-02 4.451740384101867676e-01 1.051923912018537521e-02
8.001457899808883667e-05 4.489988088607788086e-01 1.533368695527315140e-02
1.718308962881565094e-02 5.413564443588256836e-01 3.391898795962333679e-02
1.021033246070146561e-02 3.903896212577819824e-01 8.248400874435901642e-03
4.285110626369714737e-03 6.911138892173767090e-01 4.476261325180530548e-03
1.147253904491662979e-02 7.170268893241882324e-01 -1.217650342732667923e-02
-4.036140814423561096e-02 1.107458621263504028e-01 -1.326133906841278076e-01
1.398494187742471695e-02 5.112999677658081055e-02 5.639962852001190186e-02
2.517920918762683868e-02 8.800118416547775269e-02 2.962730824947357178e-02
7.599197793751955032e-03 7.832837104797363281e-02 -1.682288646697998047e-01
-2.415600791573524475e-02 4.975236579775810242e-02 7.629290223121643066e-03
1.773946359753608704e-02 3.366152197122573853e-02 5.267150700092315674e-02
2.220080792903900146e-02 6.125749647617340088e-02 -1.411347687244415283e-01
-2.030269801616668701e-02 1.802092790603637695e-02 -4.392553120851516724e-03
-2.539457567036151886e-02 2.530012279748916626e-03 -1.230342984199523926e-01
1.027423143386840820e-02 -2.140073105692863464e-02 -1.398354172706604004e-01
1.179313845932483673e-02 3.940958529710769653e-03 -1.588746309280395508e-01
2.259238250553607941e-02 9.801664948463439941e-02 2.742347866296768188e-02
-3.772748261690139771e-02 5.191545188426971436e-02 -5.864648520946502686e-02
-5.820741411298513412e-03 1.624290496110916138e-01 -3.589798882603645325e-02
3.304336965084075928e-02 -2.715772017836570740e-02 -5.374192818999290466e-02
1.709050498902797699e-02 -4.452180117368698120e-03 -1.456432342529296875e-01
6.218810100108385086e-03 9.578984975814819336e-02 -1.617356240749359131e-01
2.165684010833501816e-03 6.064548343420028687e-02 5.512534826993942261e-02
6.927438545972108841e-03 1.836376637220382690e-02 -1.709649562835693359e-01
7.967093260958790779e-04 1.511944085359573364e-01 -1.027079373598098755e-01
2.931014820933341980e-02 -3.536115959286689758e-02 -4.931965470314025879e-02
9.880347177386283875e-03 7.436025887727737427e-02 5.554264038801193237e-02
-2.091687358915805817e-02 1.046273857355117798e-01 2.158167958259582520e-02
8.497722446918487549e-03 3.033045865595340729e-02 -1.722632646560668945e-01
-5.627325270324945450e-03 1.627971529960632324e-01 -8.178754150867462158e-02
-1.539310161024332047e-02 9.521375596523284912e-02 3.397222608327865601e-02
-3.356323018670082092e-02 6.212861463427543640e-02 -2.209571748971939087e-02
-1.602005027234554291e-02 1.303652971982955933e-01 1.632829755544662476e-02
-1.894559897482395172e-02 1.668255925178527832e-01 -6.365949660539627075e-02
3.796208277344703674e-02 5.408998578786849976e-02 -4.386913031339645386e-03
-3.511543199419975281e-02 9.069089591503143311e-02 -1.612097620964050293e-01
3.437389805912971497e-02 6.251083314418792725e-02 1.443259418010711670e-02
2.688172459602355957e-02 1.094619706273078918e-01 -1.716178655624389648e-02
-8.669993840157985687e-03 -3.309730067849159241e-02 -8.235891908407211304e-02
4.085614904761314392e-02 2.532665431499481201e-02 -3.028380125761032104e-02
9.269067086279392242e-03 9.557643532752990723e-02 4.835037142038345337e-02
-2.028669044375419617e-02 1.555883735418319702e-01 -2.236723899841308594e-02
-8.575359359383583069e-03 1.428763568401336670e-02 -1.747927218675613403e-01
1.058713439851999283e-02 3.073446080088615417e-02 5.286088585853576660e-02
3.012103401124477386e-02 7.075774669647216797e-02 -1.045158281922340393e-01
4.006330296397209167e-02 4.299463331699371338e-02 -4.280605912208557129e-02
2.199401706457138062e-02 -1.459495350718498230e-02 -1.275315135717391968e-01
-1.015106495469808578e-02 1.147130578756332397e-01 3.360735625028610229e-02
1.727456785738468170e-02 1.123180836439132690e-01 2.492914348840713501e-02
2.201830409467220306e-02 5.887823924422264099e-02 4.974264651536941528e-02
1.448282692581415176e-02 8.011249452829360962e-02 5.175121873617172241e-02
-2.322382107377052307e-02 6.445150822401046753e-03 -3.326462954282760620e-02
3.267688304185867310e-02 6.156145408749580383e-02 -9.792774915695190430e-02
-2.926805615425109863e-02 5.537997186183929443e-02 -1.708627641201019287e-01
2.001439407467842102e-02 1.207266747951507568e-01 1.805968582630157471e-03
3.298780322074890137e-02 -2.698514237999916077e-02 -3.346370905637741089e-02
-1.950938813388347626e-02 2.712114527821540833e-02 6.772868335247039795e-03
-1.644002459943294525e-02 -1.536374166607856750e-02 -1.231964230537414551e-01
-2.219841070473194122e-02 1.488558501005172729e-01 -1.355829536914825439e-01
-1.519606448709964752e-02 -2.099704369902610779e-02 -1.093514114618301392e-01
-3.347284346818923950e-02 1.271853744983673096e-01 -1.468101143836975098e-01
3.737796097993850708e-02 4.328173026442527771e-02 8.265033364295959473e-03
-2.070074714720249176e-02 1.188082844018936157e-01 1.620508730411529541e-02
-2.303157560527324677e-02 5.758015438914299011e-02 -1.819070577621459961e-01
3.070557303726673126e-02 7.281255722045898438e-02 2.341564744710922241e-02
-1.867280900478363037e-02 -1.514305546879768372e-02 -6.392766535282135010e-02
-2.734019048511981964e-02 5.015950649976730347e-03 -1.135303229093551636e-01
6.700125057250261307e-03 1.487962156534194946e-01 -8.372119814157485962e-02
-1.514214277267456055e-02 1.263265907764434814e-01 2.060506492853164673e-02
-2.885068207979202271e-02 9.875659644603729248e-02 2.710171043872833252e-03
-1.485032308846712112e-02 1.100338697433471680e-01 3.019704669713973999e-02
3.224369511008262634e-02 4.817873984575271606e-02 3.017149865627288818e-02
-3.500372916460037231e-02 6.181895732879638672e-02 -2.974536642432212830e-02
-3.968159109354019165e-02 1.275849938392639160e-01 -6.462228298187255859e-02
3.523993864655494690e-02 3.783816844224929810e-02 2.086555957794189453e-02
1.617698743939399719e-02 3.858163952827453613e-03 4.001912474632263184e-02
-3.728058561682701111e-02 1.431168913841247559e-01 -8.272030949592590332e-02
3.204128146171569824e-02 4.053428769111633301e-03 -1.076021343469619751e-01
-3.284498676657676697e-02 7.013583183288574219e-02 -1.491006463766098022e-02
-3.416427876800298691e-03 7.977721840143203735e-02 -1.818067431449890137e-01
1.454805489629507065e-02 -2.027654275298118591e-02 -1.360829323530197144e-01
-2.252214215695858002e-02 1.211659982800483704e-02 -1.539963036775588989e-01
1.577590242959558964e-03 1.574436575174331665e-01 -3.602851927280426025e-02
2.551938965916633606e-02 1.676413416862487793e-02 -1.351945698261260986e-01
8.974403142929077148e-03 1.171278804540634155e-01 3.317256271839141846e-02
3.341677039861679077e-02 8.098061382770538330e-02 -2.414412796497344971e-03
1.472255680710077286e-04 1.417282521724700928e-01 -1.251446604728698730e-01
3.896111994981765747e-02 1.955820992588996887e-02 -7.025706768035888672e-02
2.888618037104606628e-02 6.087841093540191650e-02 -1.172385811805725098e-01
-4.260486457496881485e-03 1.307332366704940796e-01 2.530203014612197876e-02
3.219882398843765259e-02 3.966965526342391968e-02 -1.109427064657211304e-01
-7.964633405208587646e-03 -2.552502229809761047e-02 -1.255920827388763428e-01
-2.986362390220165253e-02 1.441778987646102905e-01 -3.008947148919105530e-02
2.882810309529304504e-02 1.022455245256423950e-01 -6.171815097332000732e-02
-3.680873289704322815e-02 1.027107238769531250e-01 -2.924320846796035767e-02
3.821440786123275757e-02 3.307355940341949463e-02 -7.596346735954284668e-02
1.513065863400697708e-02 -2.538168057799339294e-02 -1.290638893842697144e-01
-2.599542401731014252e-02 1.869133859872817993e-02 -1.514762043952941895e-01
3.014729358255863190e-02 1.454565674066543579e-03 -1.140206381678581238e-01
2.754211891442537308e-03 1.574717760086059570e-01 -5.188655108213424683e-02
-1.703979447484016418e-02 2.009046077728271484e-02 8.048415184020996094e-03
-2.869089879095554352e-02 8.641615509986877441e-03 -7.222644239664077759e-02
1.432713959366083145e-02 -2.692949399352073669e-02 7.622867822647094727e-03
-4.944174550473690033e-03 6.919351220130920410e-02 -1.853327453136444092e-01
3.634741157293319702e-02 4.123482853174209595e-03 -8.458360284566879272e-02
3.025957755744457245e-02 5.605901405215263367e-02 -1.137179434299468994e-01
3.381404280662536621e-02 8.568109571933746338e-02 -2.324983105063438416e-02
-3.492590412497520447e-02 4.715441912412643433e-02 -1.464112401008605957e-01
-4.204475507140159607e-02 7.097922265529632568e-02 -1.092521399259567261e-01
2.030004002153873444e-02 1.285908520221710205e-01 -4.891450703144073486e-02
3.961570933461189270e-02 4.897703602910041809e-02 -4.119993001222610474e-02
8.588013239204883575e-03 -4.598789289593696594e-02 -7.866566628217697144e-02
5.065890494734048843e-03 1.212657615542411804e-02 4.121685773134231567e-02
3.403287380933761597e-02 1.792101562023162842e-02 2.288555353879928589e-02
2.600596286356449127e-03 -1.039579138159751892e-02 1.911135017871856689e-02
-1.297998707741498947e-02 -2.022282406687736511e-02 -4.036796838045120239e-02
3.048200719058513641e-02 5.127039551734924316e-02 3.475192934274673462e-02
2.978041395545005798e-02 6.580036133527755737e-02 3.129020333290100098e-02
-3.848968818783760071e-02 1.384042948484420776e-01 -9.975475817918777466e-02
2.811530791223049164e-02 8.932281285524368286e-02 -9.521299600601196289e-02
3.165435791015625000e-02 2.548363804817199707e-02 -1.147469952702522278e-01
3.114916570484638214e-02 4.444937407970428467e-02 -1.144145727157592773e-01
9.182256646454334259e-03 1.327730268239974976e-01 -1.142561733722686768e-01
-2.073767222464084625e-02 1.259951293468475342e-02 -1.237282902002334595e-02
-1.263927761465311050e-02 2.902159839868545532e-02 2.574811875820159912e-02
9.455908089876174927e-03 -3.039101138710975647e-02 -1.293502748012542725e-03
-8.175311610102653503e-03 9.824723005294799805e-02 4.249869287014007568e-02
-2.895295992493629456e-02 2.899745479226112366e-02 -2.892442420125007629e-02
-2.558975480496883392e-02 3.450723737478256226e-02 -1.677858829498291016e-01
-2.671012096107006073e-02 2.949429303407669067e-02 -1.609651446342468262e-01
2.993703819811344147e-02 9.810644388198852539e-02 -1.090656593441963196e-02
-1.690784655511379242e-02 4.112326353788375854e-02 2.299159765243530273e-02
-2.234227256849408150e-03 1.458581238985061646e-01 5.496673285961151123e-03
2.916281484067440033e-02 1.043367013335227966e-01 -3.423581272363662720e-02
-3.684928268194198608e-02 1.359006613492965698e-01 -5.382406711578369141e-02
6.800750736147165298e-03 -8.648049086332321167e-03 2.577783167362213135e-02
-3.100952878594398499e-02 5.412332341074943542e-02 -1.659547686576843262e-01
1.822164840996265411e-02 -1.059104129672050476e-02 -1.390778869390487671e-01
-4.262100905179977417e-02 8.729612827301025391e-02 -1.181635111570358276e-01
3.720638155937194824e-02 -5.027111619710922241e-03 -6.908607482910156250e-02
-4.282923042774200439e-02 8.765552192926406860e-02 -7.997184246778488159e-02
-1.641136594116687775e-02 2.545950561761856079e-02 -1.763374954462051392e-01
-7.087531033903360367e-03 7.596343755722045898e-03 -1.707696914672851562e-01
7.382628973573446274e-03 1.461640298366546631e-01 -1.217588037252426147e-02
-1.724664680659770966e-02 3.228338435292243958e-02 -1.792193353176116943e-01
-4.079369828104972839e-02 6.960671395063400269e-02 -1.271728873252868652e-01
3.382612392306327820e-02 8.386723697185516357e-02 -5.407411232590675354e-02
-2.653697691857814789e-02 1.236500293016433716e-01 -1.617139577865600586e-01
-2.988597378134727478e-02 1.126806139945983887e-01 -4.257407039403915405e-03
-2.222061529755592346e-02 -9.812843054533004761e-03 -8.956624567508697510e-02
3.526951745152473450e-02 4.610851407051086426e-02 -9.208869189023971558e-02
1.160873938351869583e-02 -4.528367891907691956e-02 -8.559086173772811890e-02
2.450594678521156311e-02 8.433009684085845947e-02 3.441002964973449707e-02
-1.571377739310264587e-02 1.533634513616561890e-01 -1.104647293686866760e-02
3.748894482851028442e-02 6.590437144041061401e-02 -4.409593343734741211e-02
3.297197632491588593e-03 1.340571939945220947e-01 -1.298618763685226440e-01
-1.511430251412093639e-03 1.368938535451889038e-01 -1.363833546638488770e-01
-4.038718342781066895e-02 5.775049328804016113e-02 -8.373088389635086060e-02
-4.053502902388572693e-02 1.241566389799118042e-01 -6.860753893852233887e-02
1.491128001362085342e-02 4.927658662199974060e-02 -1.622238159179687500e-01
3.049177490174770355e-02 9.544344246387481689e-02 -6.372760236263275146e-02
2.117758430540561676e-02 2.187393605709075928e-03 -1.411464214324951172e-01
-3.400832042098045349e-02 2.425508201122283936e-02 -9.623996913433074951e-02
3.819389268755912781e-02 1.238669082522392273e-02 8.594319224357604980e-04
-8.892221376299858093e-03 -9.725604206323623657e-03 -1.524129211902618408e-01
6.722851190716028214e-03 5.829286202788352966e-02 5.685469508171081543e-02
-2.794002182781696320e-03 6.193598732352256775e-02 5.152533948421478271e-02
-9.216375648975372314e-03 4.325189068913459778e-02 -1.863063126802444458e-01
-4.972489550709724426e-03 1.539143025875091553e-01 -1.120074316859245300e-01
1.413609273731708527e-02 1.368133127689361572e-01 -7.963426411151885986e-02
3.862678632140159607e-02 5.853413790464401245e-02 -3.884770348668098450e-02
3.099190257489681244e-02 -1.129775866866111755e-02 1.080478727817535400e-02
2.566005475819110870e-02 1.099382042884826660e-01 -6.168968975543975830e-03
2.448475174605846405e-02 1.014859229326248169e-01 -9.821237623691558838e-02
-2.622433565557003021e-02 9.224046021699905396e-03 -4.617114365100860596e-02
-3.334188088774681091e-02 1.500295251607894897e-01 -6.118011102080345154e-02
1.664226874709129333e-02 1.119546145200729370e-01 -1.192174255847930908e-01
-1.052477303892374039e-02 1.588564366102218628e-02 2.089655399322509766e-02
1.319776102900505066e-02 1.359013020992279053e-01 -8.890315890312194824e-02
2.565375529229640961e-02 9.157250821590423584e-02 2.470260858535766602e-02
2.253098785877227783e-02 5.062156170606613159e-02 -1.434790790081024170e-01
-2.177306683734059334e-03 9.494422376155853271e-02 4.809589684009552002e-02
1.127768866717815399e-02 -2.453069016337394714e-02 -1.349609494209289551e-01
3.175204619765281677e-02 9.138650447130203247e-02 -1.084968820214271545e-02
8.871454745531082153e-03 9.134262800216674805e-02 -1.593504548072814941e-01
-4.257235676050186157e-02 7.509876042604446411e-02 -9.940166771411895752e-02
-3.422925993800163269e-02 1.011085957288742065e-01 -1.703115925192832947e-02
3.693987801671028137e-02 3.895939141511917114e-02 1.231673359870910645e-02
-2.191854082047939301e-02 -1.015723869204521179e-02 -7.985472679138183594e-02
-3.776317462325096130e-02 4.502606391906738281e-02 -7.260788977146148682e-02
-2.740197069942951202e-02 5.857527256011962891e-03 -6.711281836032867432e-02
2.147046662867069244e-02 7.049506902694702148e-02 -1.391823291778564453e-01
1.495257671922445297e-02 -2.662871032953262329e-03 -1.504222303628921509e-01
-2.822837606072425842e-02 5.942958220839500427e-02 -1.744084954261779785e-01
7.489469368010759354e-03 -3.177887573838233948e-02 -6.210271269083023071e-03
3.585448488593101501e-02 7.634689658880233765e-02 -3.911466151475906372e-02
-5.126812495291233063e-03 5.162374675273895264e-02 -1.863553524017333984e-01
-2.731675840914249420e-02 1.329495161771774292e-01 -9.008429944515228271e-03
3.399546444416046143e-02 -1.348887756466865540e-02 -8.252564072608947754e-02
1.400127820670604706e-02 1.166631430387496948e-01 -1.225441694259643555e-01
-1.424078946001827717e-03 3.200964629650115967e-02 -1.815971434116363525e-01
-3.374315053224563599e-02 1.190712004899978638e-01 -1.530518233776092529e-01
-2.198909968137741089e-02 1.387488394975662231e-01 -1.452736556529998779e-03
-4.304004460573196411e-02 1.004350334405899048e-01 -8.172599226236343384e-02
-9.387221187353134155e-03 3.497213125228881836e-03 -1.662518680095672607e-01
-4.260741546750068665e-02 1.110466644167900085e-01 -1.090407744050025940e-01
-3.377396240830421448e-02 2.383637055754661560e-02 -1.045848503708839417e-01
-4.143690690398216248e-02 7.054082304239273071e-02 -1.204273030161857605e-01
-4.170437902212142944e-02 7.454296201467514038e-02 -7.377344369888305664e-02
-6.181233562529087067e-03 1.360512226819992065e-01 -1.452156603336334229e-01
-3.583243489265441895e-02 1.318486183881759644e-01 -1.339431703090667725e-01
2.609825693070888519e-02 4.361111670732498169e-03 3.362831473350524902e-02
2.631437778472900391e-02 -3.990422934293746948e-03 2.726914733648300171e-02
1.159874722361564636e-02 1.242364645004272461e-01 2.140869200229644775e-02
-2.019713167101144791e-03 1.608952879905700684e-01 -4.007962346076965332e-02
1.942722871899604797e-02 3.034463897347450256e-02 -1.530145704746246338e-01
-2.326617948710918427e-02 7.869654148817062378e-02 1.879305392503738403e-02
-1.511983759701251984e-02 -1.017710193991661072e-02 -1.401630043983459473e-01
2.947858721017837524e-02 1.064503192901611328e-02 3.160187602043151855e-02
2.809548750519752502e-03 1.573745012283325195e-01 -5.735456943511962891e-02
-4.129967465996742249e-02 1.103831678628921509e-01 -1.259440183639526367e-01
4.072375968098640442e-02 2.214056253433227539e-02 -2.453792467713356018e-02
2.156881988048553467e-02 -3.323226049542427063e-02 -1.036385148763656616e-01
6.906541530042886734e-03 5.221926420927047729e-02 -1.754311323165893555e-01
8.517060196027159691e-04 1.531817317008972168e-01 -9.653021395206451416e-02
9.089993312954902649e-03 -4.593527689576148987e-02 -5.236160755157470703e-02
-8.648134768009185791e-03 -6.453637033700942993e-03 1.886256039142608643e-03
-2.006362564861774445e-02 4.477816447615623474e-02 1.690129935741424561e-02
6.068857386708259583e-03 1.294471919536590576e-01 -1.293911039829254150e-01
-2.028214000165462494e-02 6.095566228032112122e-02 2.283401787281036377e-02
-4.205035790801048279e-02 6.929222494363784790e-02 -9.635512530803680420e-02
-3.940385300666093826e-03 1.255150437355041504e-01 3.012884408235549927e-02
3.461035341024398804e-02 -1.959815248847007751e-02 -6.567432731389999390e-02
2.131621725857257843e-02 1.871015504002571106e-02 -1.468356847763061523e-01
2.029390446841716766e-02 4.801517724990844727e-02 -1.501033902168273926e-01
3.499425947666168213e-02 -9.574964642524719238e-04 -8.958016335964202881e-02
3.844877704977989197e-02 3.950921446084976196e-02 -7.104009389877319336e-02
2.249881997704505920e-02 1.132195815443992615e-01 -8.834297209978103638e-02
2.905013971030712128e-02 5.996076390147209167e-02 3.601479530334472656e-02
3.923989459872245789e-02 -8.209161460399627686e-04 -4.711540788412094116e-02
3.916957974433898926e-02 3.216439485549926758e-02 -2.099148929119110107e-03
-3.756849095225334167e-02 1.308135539293289185e-01 -1.273084580898284912e-01
1.857293210923671722e-02 -1.019742339849472046e-03 3.601258248090744019e-02
2.810614183545112610e-02 1.049035936594009399e-01 -1.358783245086669922e-02
-6.434360053390264511e-03 9.237825870513916016e-02 4.577705264091491699e-02
2.883351035416126251e-02 8.150788396596908569e-02 2.322821319103240967e-02
3.308679163455963135e-02 3.153468668460845947e-02 2.881441265344619751e-02
-1.425269525498151779e-02 8.543423563241958618e-02 3.721355646848678589e-02
2.961311303079128265e-02 9.655328094959259033e-02 -7.042976468801498413e-02
-1.167342532426118851e-02 2.128497511148452759e-02 2.257139235734939575e-02
7.889841683208942413e-03 1.161752566695213318e-01 -1.411934494972229004e-01
3.747565671801567078e-02 -2.169523388147354126e-03 -7.730759680271148682e-03
-9.765675291419029236e-03 6.607756018638610840e-02 -1.877980530261993408e-01
4.048650711774826050e-02 3.315613418817520142e-02 -2.071067318320274353e-02
3.496124967932701111e-02 5.886024981737136841e-02 -8.539737015962600708e-02
9.112110128626227379e-04 3.826860338449478149e-02 5.008351057767868042e-02
-1.431200001388788223e-02 6.463845074176788330e-02 3.626472502946853638e-02
-2.079949527978897095e-02 7.533599436283111572e-02 -1.850632131099700928e-01
-3.379198536276817322e-02 3.688323125243186951e-02 -1.403972059488296509e-01
1.210736110806465149e-02 1.428920179605484009e-01 -6.938766688108444214e-02
3.850594907999038696e-02 5.765485018491744995e-02 -1.882890611886978149e-02
-2.894631028175354004e-02 1.312114745378494263e-01 -1.518993377685546875e-01
-1.755563542246818542e-02 -5.799312144517898560e-03 -2.822101116180419922e-02
-1.201188075356185436e-03 1.342955380678176880e-01 2.142217010259628296e-02
-2.739746496081352234e-02 1.575122028589248657e-01 -1.084605827927589417e-01
7.896536029875278473e-03 4.127555713057518005e-02 -1.742544770240783691e-01
-4.331040382385253906e-02 9.046378731727600098e-02 -1.031446009874343872e-01
1.857381500303745270e-02 9.704999625682830811e-02 -1.292352676391601562e-01
-2.438625693321228027e-02 1.389564871788024902e-01 -7.049728184938430786e-03
-3.217152878642082214e-02 5.628777295351028442e-02 -1.907788962125778198e-02
-1.696484349668025970e-02 1.377396434545516968e-01 8.328765630722045898e-03
-3.944149240851402283e-03 1.214591413736343384e-02 3.037447482347488403e-02
-2.561072632670402527e-02 4.903559386730194092e-02 -1.756470203399658203e-01
-1.617697812616825104e-02 4.935973882675170898e-02 -1.858856081962585449e-01
3.105534799396991730e-02 9.538111090660095215e-02 -5.579969286918640137e-02
-3.275327011942863464e-02 1.974885165691375732e-02 -9.061867743730545044e-02
7.920029573142528534e-03 -1.348026469349861145e-02 2.157902717590332031e-02
-2.006813324987888336e-02 1.320094019174575806e-01 8.509404957294464111e-03
2.989322878420352936e-03 1.218107342720031738e-01 -1.461930125951766968e-01
-2.915866672992706299e-02 9.311903268098831177e-03 -1.093757748603820801e-01
1.586112752556800842e-02 9.525261819362640381e-02 4.283840954303741455e-02
3.805545344948768616e-02 6.082030385732650757e-02 -4.819278419017791748e-02
1.187668275088071823e-02 -1.099766418337821960e-02 -1.485904306173324585e-01
3.738832846283912659e-02 5.914258211851119995e-02 -6.270768493413925171e-02
2.565533854067325592e-03 -2.043063566088676453e-02 6.019555032253265381e-03
2.163599058985710144e-02 4.510727524757385254e-02 5.118317902088165283e-02
-1.345488522201776505e-02 -1.448684558272361755e-02 -2.788829430937767029e-02
-3.416382707655429840e-03 1.629340201616287231e-01 -5.267281085252761841e-02
-2.762825600802898407e-02 5.509598553180694580e-02 -1.221790909767150879e-03
7.194417994469404221e-03 -4.607192054390907288e-02 -6.557678431272506714e-02
9.798089973628520966e-03 1.479775011539459229e-01 -5.956140905618667603e-02
