2.074110507965087891e-01 -8.278577029705047607e-02 1.218161955475807190e-01
1.749641597270965576e-01 -3.377921879291534424e-02 3.957648575305938721e-02
6.020458340644836426e-01 -1.009831726551055908e-01 6.272079050540924072e-02
4.111079275608062744e-01 -6.794213503599166870e-02 1.783756464719772339e-01
2.207290679216384888e-01 -1.169259548187255859e-01 6.528408825397491455e-02
3.906031548976898193e-01 -1.124861761927604675e-01 1.393650621175765991e-01
5.746171474456787109e-01 -4.721239954233169556e-02 5.878520011901855469e-02
5.363438129425048828e-01 -1.081530526280403137e-01 1.151684448122978210e-01
3.598737716674804688e-01 -1.382951438426971436e-01 6.591048091650009155e-02
5.825627446174621582e-01 -1.085719913244247437e-01 -4.175434261560440063e-02
2.706423103809356689e-01 -1.123270690441131592e-01 -1.085618063807487488e-01
2.910222411155700684e-01 -3.951462730765342712e-02 -7.602149993181228638e-02
4.338081777095794678e-01 -1.443514972925186157e-02 6.421528011560440063e-02
2.029592245817184448e-01 -9.524447470903396606e-02 1.027362421154975891e-01
3.731572926044464111e-01 -1.035927981138229370e-02 6.332638114690780640e-02
2.630614042282104492e-01 -1.353534758090972900e-01 1.222441252321004868e-02
2.085463851690292358e-01 -2.559723705053329468e-02 7.442811876535415649e-02
2.331840395927429199e-01 -4.037572443485260010e-02 -5.956422537565231323e-02
2.414979189634323120e-01 -1.241663396358489990e-01 5.775009095668792725e-02
3.385305404663085938e-01 -3.000207245349884033e-02 -5.850164592266082764e-02
2.906637489795684814e-01 -1.590452343225479126e-02 3.766937181353569031e-03
4.566631019115447998e-01 -1.787671074271202087e-02 3.783768787980079651e-02
3.345269262790679932e-01 -1.561741530895233154e-02 1.146099939942359924e-01
3.814455866813659668e-01 -8.855373412370681763e-02 1.690075993537902832e-01
3.271514177322387695e-01 -1.037207245826721191e-01 1.454000025987625122e-01
2.214855849742889404e-01 -6.936375051736831665e-02 -9.479276090860366821e-02
4.713094830513000488e-01 -1.429867893457412720e-01 3.030042350292205811e-02
5.586506128311157227e-01 -6.402769684791564941e-02 1.263061910867691040e-01
1.400685161352157593e-01 -5.855309963226318359e-02 4.753576964139938354e-02
5.890403985977172852e-01 -6.806696206331253052e-02 9.666310995817184448e-02
4.598122537136077881e-01 -1.989166438579559326e-02 2.062881924211978912e-02
5.490587949752807617e-01 -3.819330781698226929e-02 7.422851771116256714e-02
1.468560248613357544e-01 -6.779424101114273071e-02 -3.055881895124912262e-02
1.669294387102127075e-01 -1.050309538841247559e-01 -2.669807337224483490e-02
4.388501644134521484e-01 -8.951415866613388062e-02 -1.239544227719306946e-01
4.921704828739166260e-01 -4.099503904581069946e-02 -4.607672989368438721e-02
3.581358790397644043e-01 -3.519408032298088074e-02 -7.122155278921127319e-02
2.442851215600967407e-01 -1.033470109105110168e-01 1.160473972558975220e-01
4.135572314262390137e-01 -1.328671723604202271e-01 -9.724371135234832764e-02
3.149579465389251709e-01 -1.431094557046890259e-01 -3.005315177142620087e-02
5.116350054740905762e-01 -1.336657553911209106e-01 5.888274312019348145e-02
2.048771530389785767e-01 -1.190204024314880371e-01 3.418384492397308350e-02
2.314137369394302368e-01 -1.112432107329368591e-01 9.132307767868041992e-02
3.275032639503479004e-01 -1.411656439304351807e-01 -5.918847024440765381e-02
5.463577508926391602e-01 -1.270996630191802979e-01 5.715884268283843994e-02
1.578259915113449097e-01 -7.734092324972152710e-02 -5.094096064567565918e-02
5.006324648857116699e-01 -1.261968910694122314e-01 9.225558489561080933e-02
6.050308346748352051e-01 -7.226831465959548950e-02 7.100249826908111572e-02
4.761666655540466309e-01 -1.284025013446807861e-01 9.488764405250549316e-02
1.770332157611846924e-01 -1.066181510686874390e-01 -4.377218335866928101e-02
4.464868903160095215e-01 -1.791817322373390198e-02 9.500970691442489624e-02
4.232569038867950439e-01 -1.307688057422637939e-01 9.754575788974761963e-02
5.022594928741455078e-01 -3.880567476153373718e-02 -3.309624642133712769e-02
5.838204622268676758e-01 -9.026983380317687988e-02 1.024367362260818481e-01
4.955810904502868652e-01 -1.083496436476707458e-01 1.322878450155258179e-01
1.914970576763153076e-01 -3.806411474943161011e-02 -2.479999698698520660e-02
4.034499228000640869e-01 -3.927849233150482178e-02 1.664340198040008545e-01
2.212725728750228882e-01 -4.037833586335182190e-02 1.277852207422256470e-01
5.178335309028625488e-01 -4.082988575100898743e-02 -2.717693708837032318e-02
3.521535992622375488e-01 -1.451385617256164551e-01 1.935824751853942871e-02
3.453744649887084961e-01 -1.040084660053253174e-02 4.072449356317520142e-02
1.832835823297500610e-01 -5.365487188100814819e-02 1.109895333647727966e-01
2.889380156993865967e-01 -1.030158549547195435e-01 1.360230892896652222e-01
5.969666838645935059e-01 -1.119374483823776245e-01 3.544395416975021362e-02
3.503063917160034180e-01 -1.465168446302413940e-01 -1.441730000078678131e-02
4.360220730304718018e-01 -1.249249726533889771e-01 1.122710779309272766e-01
3.922505974769592285e-01 -1.382046788930892944e-01 7.152692973613739014e-02
2.070962190628051758e-01 -1.105490997433662415e-01 7.221728563308715820e-02
5.735967755317687988e-01 -9.234259277582168579e-02 -5.949677526950836182e-02
4.568091034889221191e-01 -2.936954796314239502e-02 -3.011242486536502838e-02
3.726080358028411865e-01 -1.468009650707244873e-01 -3.504838049411773682e-02
4.259136319160461426e-01 -5.186709761619567871e-02 1.738338619470596313e-01
5.032212138175964355e-01 -1.412781029939651489e-01 -1.162738539278507233e-02
3.409126400947570801e-01 -1.255758553743362427e-01 1.047286167740821838e-01
2.419508397579193115e-01 -9.895008057355880737e-02 -1.073782965540885925e-01
4.019992053508758545e-01 -1.471761167049407959e-01 1.420241966843605042e-02
5.249593853950500488e-01 -1.068373173475265503e-01 -9.179794043302536011e-02
4.043163359165191650e-01 -1.479942053556442261e-01 -1.784743741154670715e-03
5.201894044876098633e-01 -3.325450420379638672e-02 1.009272783994674683e-01
2.782430350780487061e-01 -1.233194991946220398e-01 8.745884150266647339e-02
4.958608448505401611e-01 -8.426942676305770874e-02 -1.048894599080085754e-01
4.731740951538085938e-01 -1.105144396424293518e-01 -1.120869442820549011e-01
6.144807338714599609e-01 -7.821188867092132568e-02 2.975475788116455078e-02
4.290425479412078857e-01 -1.489830762147903442e-02 8.473727107048034668e-02
5.755938291549682617e-01 -1.238461136817932129e-01 9.509871713817119598e-03
4.228371381759643555e-01 -2.276432141661643982e-02 1.310560256242752075e-01
3.948045372962951660e-01 -6.057334318757057190e-02 1.791835725307464600e-01
2.798520624637603760e-01 -2.374423295259475708e-02 -3.003857471048831940e-02
3.248058557510375977e-01 -7.845743000507354736e-02 -1.264854967594146729e-01
1.446426063776016235e-01 -7.615441083908081055e-02 6.057835370302200317e-02
4.002736210823059082e-01 -3.901800140738487244e-02 -7.495834678411483765e-02
4.274723827838897705e-01 -3.655774891376495361e-02 1.593368351459503174e-01
4.663499891757965088e-01 -1.454806625843048096e-01 -1.430613733828067780e-02
3.991509079933166504e-01 -1.419508457183837891e-01 -7.090432196855545044e-02
1.581359952688217163e-01 -1.023627519607543945e-01 -3.536012023687362671e-03
5.152503848075866699e-01 -9.290894865989685059e-02 1.441398411989212036e-01
3.064195513725280762e-01 -3.129206225275993347e-02 -5.940168350934982300e-02
4.154630005359649658e-01 -3.620483726263046265e-02 -6.525911390781402588e-02
3.925887048244476318e-01 -1.642621308565139771e-02 -8.482169359922409058e-04
4.656598269939422607e-01 -8.312973380088806152e-02 1.658635139465332031e-01
6.002777218818664551e-01 -1.106529235839843750e-01 5.632674321532249451e-03
2.556368410587310791e-01 -1.551507413387298584e-02 4.272063076496124268e-02
3.420144319534301758e-01 -1.302283257246017456e-02 1.216750871390104294e-02
4.556340575218200684e-01 -1.462374776601791382e-01 1.191401854157447815e-03
3.532005250453948975e-01 -1.564449816942214966e-02 -4.343034699559211731e-03
5.209454298019409180e-01 -1.220454424619674683e-01 -7.879588752985000610e-02
4.131275415420532227e-02 -2.644562125205993652e-01 1.419757902622222900e-01
-2.040037214756011963e-01 -6.504578888416290283e-02 2.281948924064636230e-03
-1.017484441399574280e-01 -2.555882632732391357e-01 -3.564051985740661621e-01
1.178298890590667725e-02 -8.400999009609222412e-02 2.366149574518203735e-01
-2.879283428192138672e-01 -2.305855453014373779e-01 2.991401851177215576e-01
-2.747932672500610352e-01 -2.998113632202148438e-01 -1.200966462492942810e-01
-1.873766481876373291e-01 -6.112040579319000244e-02 -3.930496051907539368e-03
-2.485241889953613281e-01 -3.039650022983551025e-01 1.392302215099334717e-01
-5.528933554887771606e-02 -5.932568013668060303e-02 1.589105278253555298e-01
-1.222616061568260193e-01 -5.595338344573974609e-02 1.300335973501205444e-01
-3.303027153015136719e-02 -1.070280969142913818e-01 -2.804922461509704590e-01
-3.289810419082641602e-01 -2.571265101432800293e-01 1.204182058572769165e-01
-2.662774920463562012e-01 -2.969110310077667236e-01 1.426372230052947998e-01
-2.901232242584228516e-01 -2.902557253837585449e-01 1.059262305498123169e-01
-3.102663755416870117e-01 -1.147043555974960327e-01 -8.096825331449508667e-03
-1.876391172409057617e-01 -2.909083962440490723e-01 2.948587536811828613e-01
-3.209569454193115234e-01 -1.621892154216766357e-01 -2.553814947605133057e-01
-6.724280864000320435e-02 -3.111810088157653809e-01 1.171470060944557190e-01
6.227029860019683838e-02 -2.458051741123199463e-01 -1.560145802795886993e-02
-1.266023814678192139e-01 -1.381795555353164673e-01 4.479872584342956543e-01
-3.632141649723052979e-02 -2.466190755367279053e-01 -3.065524101257324219e-01
-3.479214757680892944e-02 -6.074291467666625977e-02 1.381010413169860840e-01
-2.834575772285461426e-01 -3.003527522087097168e-01 1.101283263415098190e-02
-1.588230282068252563e-01 -2.971779406070709229e-01 2.843013405799865723e-01
-2.597718238830566406e-01 -3.039059937000274658e-01 1.045759767293930054e-01
-1.176006868481636047e-01 -2.469286471605300903e-01 4.324190020561218262e-01
-3.485369980335235596e-01 -2.488419264554977417e-01 1.943489722907543182e-02
-1.844281852245330811e-01 -3.230354189872741699e-01 1.353871077299118042e-03
-4.732941836118698120e-02 -2.681188285350799561e-01 3.545441627502441406e-01
-2.090767920017242432e-01 -3.173578977584838867e-01 9.575444459915161133e-02
-2.061174213886260986e-01 -7.494483888149261475e-02 1.658146530389785767e-01
9.137167036533355713e-02 -1.975480318069458008e-01 1.961524039506912231e-01
-7.527717202901840210e-02 -3.027938306331634521e-01 2.229874879121780396e-01
-1.276862770318984985e-01 -2.784187197685241699e-01 -3.149060010910034180e-01
-2.383891940116882324e-01 -3.066943287849426270e-01 -1.577775329351425171e-01
-2.476901113986968994e-01 -1.444475054740905762e-01 -3.608085215091705322e-01
4.593175649642944336e-02 -1.633504778146743774e-01 3.659290969371795654e-01
-2.989861667156219482e-01 -1.214988753199577332e-01 -1.927607953548431396e-01
-3.486651778221130371e-01 -1.577017605304718018e-01 1.553820446133613586e-02
-1.446266472339630127e-02 -2.716004550457000732e-01 2.973134517669677734e-01
1.064361631870269775e-02 -2.794317603111267090e-01 1.785047650337219238e-01
-2.001413702964782715e-02 -6.125625967979431152e-02 7.548997551202774048e-02
-2.614509463310241699e-01 -2.799978256225585938e-01 -2.667031884193420410e-01
-6.870003044605255127e-02 -3.100636005401611328e-01 -6.517983973026275635e-02
-8.969396352767944336e-03 -7.902983576059341431e-02 2.489325106143951416e-01
-2.257453799247741699e-01 -1.368335038423538208e-01 3.650042116641998291e-01
-1.014836356043815613e-01 -1.179284155368804932e-01 -3.580233156681060791e-01
8.732017874717712402e-02 -2.131556421518325806e-01 1.716084927320480347e-01
6.128115952014923096e-02 -1.679080724716186523e-01 3.334374725818634033e-01
-2.180992960929870605e-01 -3.192033171653747559e-01 -1.143779419362545013e-02
6.150013208389282227e-02 -9.777338802814483643e-02 1.051914691925048828e-01
-1.393841505050659180e-01 -2.669659554958343506e-01 3.892830610275268555e-01
-3.283050656318664551e-01 -1.323725432157516479e-01 2.898691222071647644e-02
9.486843645572662354e-02 -2.049347013235092163e-01 3.680968284606933594e-02
-8.607354015111923218e-02 -3.155644536018371582e-01 -3.824144601821899414e-02
-6.278706341981887817e-02 -5.418972671031951904e-02 1.291190180927515030e-02
-3.313199877738952637e-01 -2.704133391380310059e-01 -6.406530737876892090e-02
2.117930352687835693e-02 -2.565561532974243164e-01 -1.573428213596343994e-01
-3.036080598831176758e-01 -1.922793239355087280e-01 2.808396220207214355e-01
2.901281416416168213e-02 -9.634730219841003418e-02 -1.274097263813018799e-01
-2.538340687751770020e-01 -1.221825107932090759e-01 2.844422459602355957e-01
1.766057312488555908e-02 -2.421914488077163696e-01 3.373681902885437012e-01
-5.440403521060943604e-02 -2.162098884582519531e-01 4.577607810497283936e-01
1.678691804409027100e-02 -2.719514369964599609e-01 2.133030444383621216e-01
-3.106364607810974121e-01 -1.225565820932388306e-01 -1.443009078502655029e-01
-1.862489581108093262e-01 -1.308380663394927979e-01 3.998458981513977051e-01
-3.109938502311706543e-01 -2.863757610321044922e-01 -2.650242857635021210e-02
-1.222664117813110352e-02 -1.623150259256362915e-01 4.429986178874969482e-01
5.202461779117584229e-02 -2.384375035762786865e-01 2.575191259384155273e-01
-1.040661633014678955e-01 -5.388614535331726074e-02 -4.570311307907104492e-02
-2.337156534194946289e-01 -2.597557008266448975e-01 3.396965563297271729e-01
-3.185005784034729004e-01 -1.966145783662796021e-01 -2.971216142177581787e-01
-6.853106617927551270e-02 -5.334506928920745850e-02 3.784658014774322510e-02
-1.087810173630714417e-01 -2.741268575191497803e-01 -3.160326778888702393e-01
-1.873157620429992676e-01 -7.265274971723556519e-02 -1.726129353046417236e-01
-1.557957679033279419e-01 -5.790923535823822021e-02 -6.696905195713043213e-02
-3.232033848762512207e-01 -2.774190306663513184e-01 -2.812989056110382080e-03
-1.427178084850311279e-01 -2.191140055656433105e-01 -4.240134358406066895e-01
-3.778500109910964966e-02 -6.496076285839080811e-02 1.929623037576675415e-01
-1.213871687650680542e-01 -2.836809754371643066e-01 3.417934179306030273e-01
-1.586446911096572876e-02 -1.084382981061935425e-01 -2.612841427326202393e-01
-2.824596166610717773e-01 -1.954806298017501831e-01 3.275548517704010010e-01
2.696514129638671875e-04 -6.916701793670654297e-02 1.378661692142486572e-01
-3.059868812561035156e-01 -1.680695116519927979e-01 2.560250461101531982e-01
9.518447518348693848e-02 -2.020384371280670166e-01 1.427292227745056152e-01
-5.600228905677795410e-03 -2.778388559818267822e-01 2.469269335269927979e-01
-2.221564650535583496e-01 -7.053525745868682861e-02 2.520851418375968933e-02
-1.541427373886108398e-01 -2.693033516407012939e-01 3.796693980693817139e-01
6.741103529930114746e-02 -1.861073225736618042e-01 3.140600323677062988e-01
-1.058323234319686890e-01 -3.203507065773010254e-01 2.379922755062580109e-02
7.258296012878417969e-02 -2.401994466781616211e-01 6.805749982595443726e-02
-1.668638736009597778e-01 -1.221377477049827576e-01 4.000119268894195557e-01
-1.861465573310852051e-01 -3.212144970893859863e-01 7.718619704246520996e-02
-4.947330057621002197e-02 -3.085781335830688477e-01 6.359298527240753174e-02
5.167691409587860107e-02 -1.268339455127716064e-01 3.067094981670379639e-01
-1.840043365955352783e-01 -3.212897479534149170e-01 -6.621643900871276855e-02
-3.718710690736770630e-02 -2.916157245635986328e-01 -1.428027004003524780e-01
-1.534166634082794189e-01 -9.992516040802001953e-02 -3.196949660778045654e-01
-2.005686461925506592e-01 -1.685771644115447998e-01 4.307305216789245605e-01
-3.119713068008422852e-01 -2.828477919101715088e-01 -1.013195589184761047e-01
-1.234494149684906006e-02 -1.038588583469390869e-01 -2.434410750865936279e-01
-2.155099064111709595e-02 -9.333897382020950317e-02 3.297054171562194824e-01
-2.807722985744476318e-02 -2.912849485874176025e-01 -1.191483661532402039e-01
-2.119697332382202148e-01 -6.743124127388000488e-02 -2.131004445254802704e-02
-2.912613451480865479e-01 -2.923678159713745117e-01 8.107149600982666016e-02
3.875008225440979004e-02 -1.293791830539703369e-01 3.407084345817565918e-01
4.939471185207366943e-02 -8.894141763448715210e-02 6.441561132669448853e-02
3.830015659332275391e-03 -1.909608691930770874e-01 4.286052286624908447e-01
5.037643015384674072e-02 -2.494852691888809204e-01 2.115883380174636841e-01
-2.563846707344055176e-01 -1.067058145999908447e-01 -2.431951463222503662e-01
-2.751249670982360840e-01 -1.913937777280807495e-01 -3.725960850715637207e-01
-3.626041114330291748e-01 -1.929030865430831909e-01 -7.092534750699996948e-02
-2.313235551118850708e-01 -2.186239510774612427e-01 3.982365727424621582e-01
-4.996538162231445312e-02 -9.201633185148239136e-02 3.458757996559143066e-01
-4.028184711933135986e-02 -6.410216540098190308e-02 -9.179259836673736572e-02
-9.468208998441696167e-02 -2.917668819427490234e-01 -2.404733002185821533e-01
-2.772791385650634766e-01 -9.342054277658462524e-02 -7.796527817845344543e-03
6.478293240070343018e-02 -2.108936905860900879e-01 -1.426251679658889771e-01
-2.751644849777221680e-01 -1.873034238815307617e-01 3.395887613296508789e-01
-1.674465537071228027e-01 -8.033092319965362549e-02 2.670871913433074951e-01
1.162514090538024902e-03 -9.960897266864776611e-02 3.248579800128936768e-01
5.926564335823059082e-03 -2.350593209266662598e-01 3.743950724601745605e-01
-1.377640068531036377e-01 -7.290866225957870483e-02 2.574117779731750488e-01
-3.455229997634887695e-01 -1.747679561376571655e-01 -1.838617473840713501e-01
-7.480490207672119141e-02 -1.080325990915298462e-01 -3.219073116779327393e-01
-2.104589343070983887e-02 -2.810132503509521484e-01 -1.639134287834167480e-01
8.105680346488952637e-03 -2.855406105518341064e-01 1.118224784731864929e-01
-3.361029028892517090e-01 -2.142787575721740723e-01 -2.446773052215576172e-01
-3.025782108306884766e-01 -2.619590163230895996e-01 -2.505809664726257324e-01
-1.945925056934356689e-01 -1.953078806400299072e-01 4.431520104408264160e-01
-3.631920218467712402e-01 -2.131679654121398926e-01 -6.453073769807815552e-02
-1.527431458234786987e-01 -3.201375007629394531e-01 -9.060390293598175049e-02
4.600375890731811523e-03 -2.857125699520111084e-01 1.391669064760208130e-01
5.761833488941192627e-02 -1.201560720801353455e-01 2.722733914852142334e-01
-3.397702574729919434e-01 -1.602140963077545166e-01 -1.747123152017593384e-01
-6.437033414840698242e-03 -1.051977947354316711e-01 3.515685498714447021e-01
-2.983283996582031250e-01 -1.461048424243927002e-01 -2.809190154075622559e-01
-8.842208981513977051e-02 -2.904745340347290039e-01 3.040090799331665039e-01
-2.233596742153167725e-01 -7.847322523593902588e-02 -1.462581604719161987e-01
-1.699054986238479614e-01 -2.732786536216735840e-01 3.627718687057495117e-01
-3.451181054115295410e-01 -2.551797628402709961e-01 -7.328648120164871216e-02
-1.010897159576416016e-01 -1.513829678297042847e-01 -4.054927229881286621e-01
8.390140533447265625e-02 -1.201548427343368530e-01 1.197754219174385071e-01
1.592259109020233154e-02 -2.736247479915618896e-01 -8.355753123760223389e-02
-5.753312259912490845e-02 -3.061804473400115967e-01 1.570750027894973755e-01
-3.056890368461608887e-01 -1.806362867355346680e-01 2.696283757686614990e-01
-2.719595730304718018e-01 -9.461151808500289917e-02 8.428345620632171631e-02
-1.582235097885131836e-02 -9.383182227611541748e-02 -2.164726704359054565e-01
-2.958701550960540771e-01 -1.048246994614601135e-01 -5.051215738058090210e-02
-6.571382284164428711e-02 -1.962637752294540405e-01 4.751053154468536377e-01
-2.435273230075836182e-01 -1.565854698419570923e-01 -3.825809657573699951e-01
6.709724664688110352e-02 -2.453998625278472900e-01 1.034176126122474670e-01
-3.333962708711624146e-02 -3.036898672580718994e-01 5.866771191358566284e-02
6.727071106433868408e-02 -1.033137366175651550e-01 1.247214674949645996e-01
-2.230738401412963867e-01 -1.249731481075286865e-01 3.448325991630554199e-01
-3.388799428939819336e-01 -1.436541378498077393e-01 1.767967455089092255e-02
-1.468021273612976074e-01 -3.124403357505798340e-01 1.983041167259216309e-01
-7.645660638809204102e-02 -1.801673769950866699e-01 -4.056148827075958252e-01
-3.032084107398986816e-01 -1.520813405513763428e-01 2.370174229145050049e-01
2.882237732410430908e-02 -2.261844873428344727e-01 -2.234476804733276367e-01
7.652597129344940186e-02 -2.357611358165740967e-01 8.394622802734375000e-02
-2.937514483928680420e-01 -2.929986119270324707e-01 5.844222754240036011e-02
-4.258798807859420776e-02 -5.661553144454956055e-02 5.906236916780471802e-02
9.503042697906494141e-02 -1.565171033143997192e-01 -2.449105121195316315e-02
8.406840264797210693e-02 -1.996137499809265137e-01 2.355249077081680298e-01
-7.139217853546142578e-02 -3.131824433803558350e-01 9.347619116306304932e-02
6.479199230670928955e-02 -1.847864836454391479e-01 -1.727377176284790039e-01
-1.126406118273735046e-01 -3.210251331329345703e-01 2.561686560511589050e-03
-2.727136015892028809e-01 -2.340094894170761108e-01 3.241837918758392334e-01
-2.781563997268676758e-01 -2.458587437868118286e-01 2.967721819877624512e-01
-2.703429460525512695e-01 -1.030388325452804565e-01 -1.883159577846527100e-01
-3.252896666526794434e-01 -1.288367956876754761e-01 -7.843067497014999390e-02
-1.683284640312194824e-01 -7.035640627145767212e-02 -1.788990199565887451e-01
-1.648209393024444580e-01 -2.014567703008651733e-01 4.620940089225769043e-01
5.616779625415802002e-02 -9.574859589338302612e-02 1.394413113594055176e-01
-8.016462624073028564e-02 -3.159649968147277832e-01 5.564995110034942627e-02
-1.302736997604370117e-01 -1.069366857409477234e-01 3.881874680519104004e-01
-2.941333055496215820e-01 -2.826153635978698730e-01 1.419311165809631348e-01
-2.573880255222320557e-01 -3.065224289894104004e-01 -1.096774712204933167e-01
-1.914783716201782227e-01 -2.768347561359405518e-01 3.393608331680297852e-01
-1.719013154506683350e-01 -2.425288558006286621e-01 4.236057698726654053e-01
-2.705062627792358398e-01 -2.177032232284545898e-01 3.430847227573394775e-01
1.959478855133056641e-02 -1.334667950868606567e-01 3.797567784786224365e-01
-3.056419789791107178e-01 -1.166856586933135986e-01 8.168757706880569458e-02
-1.434874534606933594e-01 -6.800700724124908447e-02 -1.804122775793075562e-01
-1.197795420885086060e-01 -9.876764565706253052e-02 3.702903389930725098e-01
-1.838492155075073242e-01 -6.329576671123504639e-02 1.040924564003944397e-01
-1.553442329168319702e-01 -3.021015524864196777e-01 2.615517079830169678e-01
-8.557550609111785889e-03 -1.183304712176322937e-01 -2.735818028450012207e-01
-1.030750051140785217e-01 -3.099395632743835449e-01 1.999635547399520874e-01
4.946641623973846436e-02 -2.454929947853088379e-01 -9.747694432735443115e-02
-1.340080797672271729e-01 -2.575672268867492676e-01 4.111342728137969971e-01
-2.018318474292755127e-01 -2.578566670417785645e-01 -3.715112805366516113e-01
-2.361923456192016602e-03 -1.024345606565475464e-01 -2.225245982408523560e-01
-3.272558450698852539e-01 -2.531915903091430664e-01 -2.044417709112167358e-01
1.005737483501434326e-02 -1.909006237983703613e-01 -3.010700047016143799e-01
-5.980105698108673096e-02 -1.657843440771102905e-01 4.719809293746948242e-01
-1.807211041450500488e-01 -1.014339849352836609e-01 -3.141618967056274414e-01
-9.349554777145385742e-03 -2.937324643135070801e-01 3.177454695105552673e-03
1.866219937801361084e-02 -1.066443100571632385e-01 3.207060992717742920e-01
8.771991729736328125e-02 -2.132508307695388794e-01 -6.438698619604110718e-03
-8.274060487747192383e-02 -2.600102126598358154e-01 4.001188278198242188e-01
-2.576455473899841309e-01 -2.067960798740386963e-01 -3.918710052967071533e-01
2.262294292449951172e-04 -1.235317513346672058e-01 3.870207071304321289e-01
-2.142867743968963623e-01 -1.263166368007659912e-01 3.598771989345550537e-01
-3.194018006324768066e-01 -1.537894010543823242e-01 1.870137453079223633e-01
-1.316764801740646362e-01 -3.189216256141662598e-01 -8.979970216751098633e-02
-3.600473701953887939e-02 -1.392250955104827881e-01 -3.431596159934997559e-01
-1.654553562402725220e-01 -3.237436413764953613e-01 -4.077432677149772644e-03
-2.167150825262069702e-01 -1.129641011357307434e-01 3.235444128513336182e-01
-2.574334442615509033e-01 -1.253034025430679321e-01 -3.062517642974853516e-01
-1.886464357376098633e-01 -9.179495275020599365e-02 2.914576530456542969e-01
-2.250621914863586426e-01 -1.727424860000610352e-01 -4.119580984115600586e-01
-1.150877773761749268e-02 -2.935299575328826904e-01 -2.075440622866153717e-02
-1.893782615661621094e-01 -2.565521597862243652e-01 3.891501128673553467e-01
9.898312389850616455e-02 -1.608604192733764648e-01 5.842834711074829102e-03
-3.576517701148986816e-01 -2.251545637845993042e-01 -1.165005043148994446e-01
-2.542348206043243408e-02 -2.434632033109664917e-01 3.965704143047332764e-01
-2.630192935466766357e-01 -1.358570754528045654e-01 -3.241285681724548340e-01
-2.515506148338317871e-01 -8.113267272710800171e-02 -2.699913457036018372e-03
1.013584434986114502e-01 -1.589372605085372925e-01 4.590421915054321289e-02
2.724997699260711670e-02 -1.129085272550582886e-01 -1.923738718032836914e-01
-1.893569529056549072e-01 -3.217153251171112061e-01 -4.850359261035919189e-02
8.531570434570312500e-02 -1.207326352596282959e-01 8.533678203821182251e-02
2.779883146286010742e-02 -1.664350926876068115e-01 -2.680893540382385254e-01
-1.041774079203605652e-01 -2.907196581363677979e-01 -2.544972896575927734e-01
1.922845840454101562e-02 -9.937684237957000732e-02 -1.669829040765762329e-01
-2.898583114147186279e-01 -1.179802492260932922e-01 -2.073872387409210205e-01
8.033318817615509033e-02 -1.318780481815338135e-01 -5.994433909654617310e-02
7.966122031211853027e-02 -2.114522159099578857e-01 -7.266534864902496338e-02
-2.241966724395751953e-01 -2.103907167911529541e-01 -4.161775410175323486e-01
9.470421075820922852e-02 -1.964790523052215576e-01 -6.482701748609542847e-03
-2.220332622528076172e-01 -3.000170290470123291e-01 -2.235335111618041992e-01
-2.598031461238861084e-01 -2.325945645570755005e-01 3.472596406936645508e-01
3.340244293212890625e-02 -1.473648101091384888e-01 3.765916526317596436e-01
-2.439870089292526245e-01 -9.730090200901031494e-02 -2.241748869419097900e-01
-3.373007476329803467e-01 -2.443847805261611938e-01 -1.909399628639221191e-01
-1.671951413154602051e-01 -2.517446279525756836e-01 4.113397896289825439e-01
2.568653225898742676e-02 -7.851623743772506714e-02 1.356989443302154541e-01
-3.625963330268859863e-01 -2.191128283739089966e-01 -3.089667670428752899e-02
-1.200857609510421753e-01 -3.055941462516784668e-01 2.411496639251708984e-01
-1.460427045822143555e-01 -1.874958276748657227e-01 4.727759957313537598e-01
-1.792929768562316895e-01 -1.124548241496086121e-01 -3.461079895496368408e-01
-2.772634625434875488e-01 -2.477503269910812378e-01 -3.297065198421478271e-01
-2.212915122509002686e-01 -2.480109333992004395e-01 -3.807480037212371826e-01
-2.263974398374557495e-02 -2.834241092205047607e-01 2.548984885215759277e-01
-3.058629631996154785e-01 -2.729247808456420898e-01 1.493563950061798096e-01
-3.240107297897338867e-01 -1.264277398586273193e-01 -6.098078563809394836e-03
-1.467670500278472900e-01 -8.457975834608078003e-02 -2.666551172733306885e-01
-3.024655580520629883e-01 -2.209010422229766846e-01 2.762970924377441406e-01
6.556129455566406250e-02 -2.318951785564422607e-01 -7.802853733301162720e-02
3.282517194747924805e-03 -2.759885787963867188e-01 2.330282926559448242e-01
-8.842799812555313110e-02 -1.088685169816017151e-01 -3.321677446365356445e-01
-1.550598144531250000e-01 -1.306064724922180176e-01 4.235202372074127197e-01
-8.623237907886505127e-02 -6.121352314949035645e-02 -1.256582885980606079e-01
6.987974047660827637e-03 -1.186530143022537231e-01 3.691036403179168701e-01
-5.560217797756195068e-02 -6.176827847957611084e-02 1.857691854238510132e-01
-2.116912603378295898e-02 -2.929101288318634033e-01 -8.071769028902053833e-02
-2.873941063880920410e-01 -1.809996962547302246e-01 3.125768005847930908e-01
-3.138957023620605469e-01 -2.185098379850387573e-01 2.488898932933807373e-01
-7.880923151969909668e-02 -5.737136304378509521e-02 1.569204032421112061e-01
5.521720647811889648e-02 -2.566102445125579834e-01 7.515224814414978027e-02
-1.050128489732742310e-01 -6.942884624004364014e-02 2.546882629394531250e-01
-2.534309029579162598e-01 -3.081934452056884766e-01 7.890424132347106934e-02
-9.308443963527679443e-02 -3.139404952526092529e-01 1.469569802284240723e-01
7.358896732330322266e-02 -1.466385573148727417e-01 2.803966403007507324e-01
-1.567384302616119385e-01 -2.444380223751068115e-01 4.279681444168090820e-01
-3.079025149345397949e-01 -1.245261728763580322e-01 1.242338567972183228e-01
-2.719016075134277344e-01 -9.130825102329254150e-02 2.853318676352500916e-02
9.004402160644531250e-02 -1.411601305007934570e-01 1.905211508274078369e-01
-3.299993276596069336e-02 -5.876801908016204834e-02 8.728726953268051147e-02
-2.355563491582870483e-01 -2.458606660366058350e-01 3.630430698394775391e-01
1.833343505859375000e-02 -2.668823599815368652e-01 -1.174848601222038269e-01
-1.140286028385162354e-01 -2.635698914527893066e-01 -3.469325006008148193e-01
-8.568676561117172241e-02 -2.324681580066680908e-01 4.507956802845001221e-01
-4.402022808790206909e-02 -3.060687184333801270e-01 -1.100841350853443146e-02
-1.727695614099502563e-01 -2.722846567630767822e-01 -3.435018658638000488e-01
-2.296722382307052612e-01 -2.893153429031372070e-01 2.566353976726531982e-01
-6.390295922756195068e-03 -2.462394833564758301e-01 3.671880960464477539e-01
-1.877949833869934082e-01 -2.488499283790588379e-01 4.040019810199737549e-01
-4.406422376632690430e-04 -2.840815484523773193e-01 -7.287167757749557495e-02
-1.707989275455474854e-01 -1.024027764797210693e-01 3.481465876102447510e-01
-2.357126325368881226e-01 -3.157597780227661133e-01 9.879339486360549927e-03
-2.698097229003906250e-01 -8.959491550922393799e-02 -2.667533792555332184e-02
-3.244411051273345947e-01 -2.749662995338439941e-01 -8.705076575279235840e-02
5.422064661979675293e-02 -2.292519509792327881e-01 -1.384831219911575317e-01
3.486816585063934326e-02 -2.039750218391418457e-01 3.742641508579254150e-01
-3.190308511257171631e-01 -2.778566181659698486e-01 4.537040740251541138e-02
-2.959449291229248047e-01 -2.442477792501449585e-01 2.617085576057434082e-01
-2.499332875013351440e-01 -1.373882293701171875e-01 -3.451788723468780518e-01
-3.125984668731689453e-01 -1.403354704380035400e-01 -2.239717245101928711e-01
-3.060685843229293823e-02 -2.532720863819122314e-01 3.795175254344940186e-01
5.589127540588378906e-02 -2.545368671417236328e-01 1.853249035775661469e-02
-1.699717044830322266e-01 -1.203026250004768372e-01 -3.675929903984069824e-01
-3.066410422325134277e-01 -1.153932586312294006e-01 -1.069446131587028503e-01
-3.433519005775451660e-01 -1.558493077754974365e-01 6.489601731300354004e-02
-5.246677249670028687e-02 -6.738007068634033203e-02 2.290650904178619385e-01
-8.683912456035614014e-02 -2.482636123895645142e-01 -3.592711985111236572e-01
-7.191362231969833374e-02 -2.808604538440704346e-01 -2.578562498092651367e-01
-5.736708641052246094e-02 -3.005319833755493164e-01 2.108339220285415649e-01
-3.522919416427612305e-01 -1.646392196416854858e-01 -9.032621979713439941e-02
-6.167145073413848877e-02 -1.018258854746818542e-01 -2.959589362144470215e-01
6.615953147411346436e-02 -2.363938689231872559e-01 2.012048959732055664e-01
-1.720957905054092407e-01 -5.839525163173675537e-02 -1.816071383655071259e-02
-1.223911643028259277e-01 -2.112852334976196289e-01 -4.232864975929260254e-01
-1.254004091024398804e-01 -2.275854945182800293e-01 4.581411480903625488e-01
-2.001872509717941284e-01 -8.626653254032135010e-02 -2.383639812469482422e-01
1.081119477748870850e-02 -2.450488209724426270e-01 -2.235631644725799561e-01
-2.828543633222579956e-02 -1.974369287490844727e-01 4.553114473819732666e-01
-3.146157264709472656e-01 -2.759281694889068604e-01 -1.482190489768981934e-01
7.214687764644622803e-02 -2.040105313062667847e-01 2.785463929176330566e-01
-6.132326275110244751e-02 -1.854360103607177734e-01 -3.937160372734069824e-01
-1.993838101625442505e-01 -7.837785035371780396e-02 2.063890695571899414e-01
-3.029263019561767578e-01 -1.346328556537628174e-01 -2.354890406131744385e-01
-3.433681130409240723e-01 -2.580598294734954834e-01 -1.026261039078235626e-02
-2.108846902847290039e-01 -1.388231068849563599e-01 3.873193860054016113e-01
-2.036318778991699219e-01 -6.549006700515747070e-02 -3.488500416278839111e-02
3.523159027099609375e-02 -2.422863841056823730e-01 2.967686653137207031e-01
-3.318347930908203125e-01 -1.811375021934509277e-01 1.884869039058685303e-01
2.171686291694641113e-02 -2.541472315788269043e-01 2.898128926753997803e-01
4.696552455425262451e-02 -1.318624913692474365e-01 -1.868793964385986328e-01
-1.293538957834243774e-01 -3.214108645915985107e-01 -4.354202002286911011e-02
-3.574640452861785889e-01 -2.286912798881530762e-01 2.928736805915832520e-02
7.025319337844848633e-02 -1.130029186606407166e-01 -3.493829071521759033e-02
-2.061896622180938721e-01 -3.015760779380798340e-01 -2.272121310234069824e-01
-1.942740678787231445e-01 -1.345098018646240234e-01 -3.854969739913940430e-01
-1.031710132956504822e-01 -2.595469057559967041e-01 4.068742692470550537e-01
-2.575528919696807861e-01 -1.614714860916137695e-01 -3.735353946685791016e-01
6.589263677597045898e-03 -1.523496508598327637e-01 4.180921912193298340e-01
-1.343026459217071533e-01 -5.463045835494995117e-02 8.905664086341857910e-02
-3.138468861579895020e-01 -1.254538595676422119e-01 9.555573016405105591e-02
-2.031048536300659180e-01 -1.944868862628936768e-01 -4.294317364692687988e-01
-2.948065102100372314e-01 -2.847733497619628906e-01 1.261244416236877441e-01
-4.175668954849243164e-02 -1.833967566490173340e-01 4.675749242305755615e-01
-8.473540842533111572e-02 -2.756384015083312988e-01 3.578596711158752441e-01
-3.306336402893066406e-01 -1.993751078844070435e-01 -2.652043402194976807e-01
-2.706479430198669434e-01 -9.240707010030746460e-02 6.406124681234359741e-02
-1.258334815502166748e-01 -5.956825613975524902e-02 1.698192209005355835e-01
-2.839924991130828857e-01 -2.729381322860717773e-01 -2.543812096118927002e-01
9.179499745368957520e-02 -1.328896135091781616e-01 1.306821554899215698e-01
-2.195841521024703979e-01 -6.950380653142929077e-02 3.417413681745529175e-03
8.650407195091247559e-03 -7.084779441356658936e-02 1.181236356496810913e-01
-8.420527726411819458e-02 -5.271629989147186279e-02 7.213085144758224487e-02
-1.969818472862243652e-01 -6.559703499078750610e-02 -7.576551288366317749e-02
-1.142002642154693604e-01 -3.185059428215026855e-01 1.184239163994789124e-01
-2.501343786716461182e-01 -8.075893670320510864e-02 1.694350317120552063e-02
-3.113597333431243896e-01 -1.557821929454803467e-01 2.196408212184906006e-01
-1.552280783653259277e-01 -7.833006978034973145e-02 -2.351577579975128174e-01
1.792320609092712402e-02 -1.610048115253448486e-01 4.100122749805450439e-01
-7.118420302867889404e-02 -5.616690218448638916e-02 -5.427246540784835815e-02
-1.141216903924942017e-01 -7.273475825786590576e-02 2.703064978122711182e-01
-2.481107413768768311e-02 -2.915854752063751221e-01 2.048659622669219971e-01
-2.024037390947341919e-02 -2.638390958309173584e-01 3.360885977745056152e-01
7.799500226974487305e-02 -2.262795269489288330e-01 1.781339943408966064e-01
-8.540767431259155273e-02 -3.102304637432098389e-01 1.751934885978698730e-01
3.368552029132843018e-02 -2.321304082870483398e-01 -1.977019906044006348e-01
-2.779720425605773926e-01 -2.729190886020660400e-01 2.299502044916152954e-01
-1.405796557664871216e-01 -1.556415408849716187e-01 4.614873230457305908e-01
-1.922179460525512695e-01 -3.042290210723876953e-01 -2.194540947675704956e-01
-1.315996646881103516e-01 -3.185929059982299805e-01 1.351155787706375122e-01
-3.232758492231369019e-02 -2.288348674774169922e-01 -3.320313692092895508e-01
-2.344599068164825439e-01 -7.735957205295562744e-02 8.518748730421066284e-02
-5.576098710298538208e-02 -7.071341574192047119e-02 -1.648723781108856201e-01
-3.581965565681457520e-01 -2.338280081748962402e-01 -2.561821229755878448e-02
-2.378323674201965332e-02 -8.546644449234008789e-02 3.010914325714111328e-01
-2.287423312664031982e-01 -2.954614162445068359e-01 -2.405485808849334717e-01
-1.832699775695800781e-01 -6.935910880565643311e-02 -1.523958146572113037e-01
5.875606834888458252e-02 -1.954360753297805786e-01 -1.846152245998382568e-01
-2.449548542499542236e-01 -3.110942542552947998e-01 -9.225030988454818726e-02
-1.628486812114715576e-02 -6.202222406864166260e-02 4.694881290197372437e-02
-2.629480957984924316e-01 -9.477494657039642334e-02 -1.557749956846237183e-01
7.712787389755249023e-02 -1.659191697835922241e-01 -1.293501555919647217e-01
-8.185511827468872070e-02 -5.738493800163269043e-02 -8.354276418685913086e-02
-1.383244097232818604e-01 -1.237656101584434509e-01 4.207750856876373291e-01
-2.241794466972351074e-01 -1.096759364008903503e-01 -3.042946755886077881e-01
-2.860852479934692383e-01 -2.849470973014831543e-01 -1.966180950403213501e-01
5.720494687557220459e-02 -1.508164107799530029e-01 3.324568569660186768e-01
-1.331174522638320923e-01 -2.863602936267852783e-01 -2.914307117462158203e-01
-1.457197666168212891e-01 -2.821572422981262207e-01 -3.107448220252990723e-01
-1.367550194263458252e-01 -7.613843679428100586e-02 -2.301233410835266113e-01
-2.520583868026733398e-01 -2.643016576766967773e-01 3.036094605922698975e-01
3.565116226673126221e-02 -2.536463439464569092e-01 2.505688369274139404e-01
-6.627451628446578979e-02 -3.046258985996246338e-01 1.937519162893295288e-01
-7.141462713479995728e-02 -6.582642346620559692e-02 2.298242449760437012e-01
1.019233316183090210e-01 -1.849485039710998535e-01 9.798372536897659302e-02
-5.896120518445968628e-02 -5.557982623577117920e-02 1.044810786843299866e-01
-1.466270685195922852e-01 -1.181668043136596680e-01 4.055133163928985596e-01
-1.826017946004867554e-01 -2.144739627838134766e-01 4.454392790794372559e-01
-1.649341434240341187e-01 -9.612007439136505127e-02 3.337128460407257080e-01
6.912490725517272949e-02 -2.155894935131072998e-01 2.654491364955902100e-01
-1.827105581760406494e-01 -1.566514372825622559e-01 4.369679987430572510e-01
-3.366673588752746582e-01 -1.716670393943786621e-01 1.545914560556411743e-01
-1.644818484783172607e-01 -2.616494894027709961e-01 -3.681866228580474854e-01
-2.349495887756347656e-01 -2.931355237960815430e-01 2.319617867469787598e-01
7.537531852722167969e-02 -1.094796732068061829e-01 9.287472069263458252e-02
1.912218332290649414e-02 -1.644071340560913086e-01 -2.842591106891632080e-01
-8.041591942310333252e-02 -5.381517112255096436e-02 -2.488770894706249237e-02
6.250736117362976074e-02 -9.966520220041275024e-02 2.237208932638168335e-02
-1.648010909557342529e-01 -2.854355275630950928e-01 -3.038980960845947266e-01
-1.798591166734695435e-01 -2.298698872327804565e-01 4.345677196979522705e-01
-4.349574446678161621e-02 -1.276229321956634521e-01 4.279147386550903320e-01
2.120794355869293213e-02 -7.513947784900665283e-02 1.058551147580146790e-01
-2.962212860584259033e-01 -2.757348418235778809e-01 1.698204725980758667e-01
-1.782915741205215454e-01 -7.025071233510971069e-02 1.899780184030532837e-01
9.742295742034912109e-02 -1.466132253408432007e-01 1.388346105813980103e-01
-1.582468450069427490e-01 -1.065866276621818542e-01 -3.376996219158172607e-01
-1.668708026409149170e-01 -3.166176676750183105e-01 -1.344329565763473511e-01
-2.772481441497802734e-01 -9.369649738073348999e-02 1.231036707758903503e-02
-1.074820160865783691e-01 -2.868913412094116211e-01 3.274827897548675537e-01
-1.815612316131591797e-01 -1.119262948632240295e-01 3.640121817588806152e-01
-2.098530530929565430e-04 -6.660970300436019897e-02 7.070402801036834717e-02
-2.960275411605834961e-01 -1.066662743687629700e-01 -8.835684508085250854e-02
-1.192445307970046997e-01 -5.274499952793121338e-02 -9.826967492699623108e-03
-6.587699800729751587e-02 -5.672305822372436523e-02 1.374344825744628906e-01
-2.944028973579406738e-01 -1.036467999219894409e-01 7.505044341087341309e-04
-2.030612230300903320e-01 -7.089664787054061890e-02 1.368370354175567627e-01
-1.935769170522689819e-01 -7.404017448425292969e-02 1.883862018585205078e-01
9.771506488323211670e-02 -1.896009445190429688e-01 1.607465893030166626e-01
-4.548721760511398315e-02 -5.657991766929626465e-02 1.062491815537214279e-02
6.239174306392669678e-02 -1.683386713266372681e-01 -1.820335537195205688e-01
-1.150894984602928162e-01 -6.029200553894042969e-02 1.843478679656982422e-01
-6.940485537052154541e-02 -3.112731277942657471e-01 -4.938663542270660400e-02
-2.307219505310058594e-01 -9.242446720600128174e-02 2.192197293043136597e-01
-3.167354464530944824e-01 -2.401245683431625366e-01 2.134559899568557739e-01
8.821409940719604492e-02 -1.694725006818771362e-01 -7.901892811059951782e-02
8.098621666431427002e-02 -1.794893592596054077e-01 2.716640233993530273e-01
-3.207451999187469482e-01 -1.265110075473785400e-01 4.888677597045898438e-02
-2.771786451339721680e-01 -3.007123470306396484e-01 6.085480004549026489e-02
-1.263282001018524170e-01 -5.749763548374176025e-02 1.464277952909469604e-01
4.854288697242736816e-02 -2.478372305631637573e-01 2.293189615011215210e-01
2.593299746513366699e-02 -2.453655749559402466e-01 3.102975189685821533e-01
-1.970107257366180420e-01 -6.753356009721755981e-02 -1.044108793139457703e-01
-1.180569082498550415e-01 -5.238054692745208740e-02 4.878680780529975891e-02
-3.466810286045074463e-01 -2.291890382766723633e-01 -1.838702410459518433e-01
-2.136895209550857544e-01 -9.182073175907135010e-02 -2.482198476791381836e-01
-3.537493348121643066e-01 -2.005278766155242920e-01 9.609731286764144897e-02
-1.544413864612579346e-01 -5.643121898174285889e-02 7.531353086233139038e-02
-1.575722545385360718e-02 -8.312842249870300293e-02 -1.715051680803298950e-01
-3.503432869911193848e-02 -3.036361336708068848e-01 3.303794190287590027e-03
8.223801851272583008e-03 -2.429646104574203491e-01 3.526161611080169678e-01
-3.611249029636383057e-01 -2.220664024353027344e-01 -7.843932509422302246e-02
-2.710430622100830078e-01 -3.041664361953735352e-01 4.422990977764129639e-02
-2.787229716777801514e-01 -1.035453528165817261e-01 -1.613324135541915894e-01
-2.605828046798706055e-01 -2.490367144346237183e-01 -3.479799926280975342e-01
3.713265061378479004e-02 -2.695104181766510010e-01 3.329280391335487366e-02
3.847667574882507324e-02 -8.457249402999877930e-02 4.933703690767288208e-03
-2.907965779304504395e-01 -2.519453763961791992e-01 -3.003481626510620117e-01
1.044493913650512695e-02 -2.559013068675994873e-01 3.095217347145080566e-01
-1.855658292770385742e-01 -6.073151528835296631e-02 2.289389818906784058e-02
-1.133647561073303223e-02 -6.744871288537979126e-02 -4.773809760808944702e-02
1.293823122978210449e-03 -2.899750173091888428e-01 5.164145678281784058e-02
-3.220300674438476562e-01 -2.590869665145874023e-01 1.442387104034423828e-01
7.802540063858032227e-02 -2.216812521219253540e-01 -4.622330516576766968e-02
-3.374060988426208496e-01 -2.254881113767623901e-01 -2.294772863388061523e-01
-7.269532233476638794e-02 -2.469805330038070679e-01 4.234836697578430176e-01
-3.415557146072387695e-01 -1.647777110338211060e-01 1.130160167813301086e-01
-2.339959740638732910e-01 -7.838205248117446899e-02 1.017430648207664490e-01
-8.592994511127471924e-02 -5.232694745063781738e-02 5.359812080860137939e-02
-9.167288243770599365e-02 -9.177174419164657593e-02 3.543712794780731201e-01
-1.609868109226226807e-01 -7.176211476325988770e-02 2.270220071077346802e-01
-6.166334450244903564e-02 -1.040390729904174805e-01 3.862853348255157471e-01
-1.073517203330993652e-01 -3.113574087619781494e-01 -1.376714706420898438e-01
-1.865679621696472168e-01 -1.035903468728065491e-01 3.353812098503112793e-01
-3.807842731475830078e-02 -9.122516214847564697e-02 -2.386545538902282715e-01
5.163793265819549561e-02 -1.078021526336669922e-01 2.459720820188522339e-01
4.134234786033630371e-02 -1.789235025644302368e-01 -2.398587763309478760e-01
-2.700896263122558594e-01 -2.685732245445251465e-01 2.604664862155914307e-01
-3.578661084175109863e-01 -1.794914603233337402e-01 2.464844100177288055e-02
5.803842842578887939e-02 -1.332920491695404053e-01 -1.568045169115066528e-01
-2.656839042901992798e-02 -5.962322652339935303e-02 6.067360192537307739e-02
-4.452347010374069214e-02 -9.775384515523910522e-02 -2.676945626735687256e-01
-3.376907408237457275e-01 -2.558724582195281982e-01 -1.424569934606552124e-01
-2.558621019124984741e-02 -2.608709633350372314e-01 3.527660667896270752e-01
1.199689507484436035e-02 -2.793866395950317383e-01 -5.339023470878601074e-02
-3.225470185279846191e-01 -2.780471742153167725e-01 -5.271837115287780762e-02
3.300368785858154297e-03 -7.323328405618667603e-02 1.765691041946411133e-01
-2.978273928165435791e-01 -1.363196969032287598e-01 2.132208943367004395e-01
-2.854582667350769043e-01 -1.015058383345603943e-01 -1.065791174769401550e-01
-3.201990723609924316e-01 -1.252095997333526611e-01 -9.332323074340820312e-02
-6.585532426834106445e-02 -9.365244209766387939e-02 -2.750318050384521484e-01
-7.976539433002471924e-02 -9.617897123098373413e-02 3.679531216621398926e-01
-3.253351151943206787e-01 -1.275053173303604126e-01 -4.252378642559051514e-02
-3.588915467262268066e-01 -1.882373392581939697e-01 4.006244614720344543e-02
-2.005437016487121582e-02 -2.986732125282287598e-01 2.134170010685920715e-02
9.139145910739898682e-02 -1.301320493221282959e-01 1.029105558991432190e-01
-2.269634902477264404e-01 -3.115752637386322021e-01 1.241018399596214294e-01
9.689587354660034180e-02 -2.025419473648071289e-01 6.767255812883377075e-02
-1.742927432060241699e-01 -3.060641586780548096e-01 -2.128156423568725586e-01
-2.467044144868850708e-01 -3.113957345485687256e-01 5.952158570289611816e-02
-1.102606803178787231e-01 -3.024734854698181152e-01 2.557277381420135498e-01
-3.047251105308532715e-01 -1.133637800812721252e-01 5.379347503185272217e-02
-6.478919088840484619e-02 -5.573126673698425293e-02 1.193495094776153564e-01
1.259331405162811279e-02 -8.428023010492324829e-02 -1.117914393544197083e-01
-1.951291114091873169e-01 -2.743260264396667480e-01 -3.351654708385467529e-01
-7.696680724620819092e-02 -2.709412276744842529e-01 -2.967937588691711426e-01
-1.024843752384185791e-01 -3.007458448410034180e-01 -2.043455243110656738e-01
-1.796779036521911621e-02 -7.576721161603927612e-02 -1.352660804986953735e-01
-8.708819746971130371e-03 -6.451003253459930420e-02 2.099990099668502808e-02
-1.536232084035873413e-01 -5.737078189849853516e-02 9.852668642997741699e-02
-1.724887937307357788e-01 -6.385505199432373047e-02 1.432827711105346680e-01
-2.695443630218505859e-01 -1.095150709152221680e-01 1.989933699369430542e-01
-6.372459232807159424e-03 -2.896200418472290039e-01 -4.440981894731521606e-02
-2.965719103813171387e-01 -2.207983732223510742e-01 -3.340897560119628906e-01
-3.574466109275817871e-01 -2.301591783761978149e-01 -9.973219782114028931e-02
-2.302893102169036865e-01 -1.326305121183395386e-01 -3.568662703037261963e-01
-1.764430850744247437e-01 -1.655791252851486206e-01 4.486784338951110840e-01
-2.746019959449768066e-01 -1.392913907766342163e-01 2.830823361873626709e-01
-2.483671605587005615e-01 -1.050068065524101257e-01 2.365759313106536865e-01
-3.190287947654724121e-01 -2.750041782855987549e-01 7.311251759529113770e-02
-6.637038290500640869e-02 -1.324138790369033813e-01 4.432983100414276123e-01
-1.623630523681640625e-01 -3.232693076133728027e-01 5.466985702514648438e-02
-3.526568412780761719e-01 -1.790799796581268311e-01 7.662042975425720215e-02
-3.618717789649963379e-01 -2.038338780403137207e-01 2.245215512812137604e-02
-8.695140480995178223e-02 -1.173075586557388306e-01 -3.498084843158721924e-01
-1.380553841590881348e-02 -2.161373943090438843e-01 4.281315803527832031e-01
4.535451531410217285e-03 -2.869924604892730713e-01 -3.032721579074859619e-03
