1.483588758856058121e-02 2.475203126668930054e-01 -5.059621855616569519e-02
3.777695819735527039e-04 2.623350918292999268e-01 -4.335464537143707275e-02
-3.433994017541408539e-03 2.210937589406967163e-01 2.281671389937400818e-02
2.218801155686378479e-02 1.905339658260345459e-01 4.581081122159957886e-02
2.496292814612388611e-02 1.937810778617858887e-01 -3.665822744369506836e-02
-5.185953341424465179e-03 2.855554521083831787e-01 -4.251157399266958237e-03
-8.864755742251873016e-03 2.654997110366821289e-01 -7.947324775159358978e-03
1.582331210374832153e-02 2.757930457592010498e-01 -4.030007123947143555e-02
-4.914079792797565460e-03 2.289634793996810913e-01 -2.556111477315425873e-02
2.401662059128284454e-02 1.618990898132324219e-01 2.413781359791755676e-02
3.298018127679824829e-02 1.757130920886993408e-01 2.910848148167133331e-02
-4.568430595099925995e-03 2.240373492240905762e-01 -2.340901643037796021e-02
2.504077740013599396e-03 2.255436182022094727e-01 3.870718181133270264e-02
-6.918816827237606049e-03 2.727287709712982178e-01 -2.262969687581062317e-02
3.196262195706367493e-02 2.534505426883697510e-01 -1.662212237715721130e-02
1.104853115975856781e-02 1.703688502311706543e-01 -4.802121780812740326e-03
-1.312387175858020782e-03 2.060689181089401245e-01 2.073214016854763031e-02
7.527005858719348907e-03 2.975940704345703125e-01 -2.035904442891478539e-03
2.696689590811729431e-02 1.722005009651184082e-01 3.510323539376258850e-02
-6.504430435597896576e-03 2.786323726177215576e-01 -1.936624012887477875e-02
3.621314838528633118e-02 2.290777117013931274e-01 1.740518771111965179e-02
-8.496670983731746674e-03 2.386537194252014160e-01 -1.338033471256494522e-03
3.899034112691879272e-02 1.944794803857803345e-01 1.151312142610549927e-02
3.059431910514831543e-02 2.171710729598999023e-01 -3.581515327095985413e-02
2.259014174342155457e-03 2.313530296087265015e-01 -4.331923648715019226e-02
-3.081248141825199127e-03 2.576959729194641113e-01 2.569954656064510345e-02
2.271508052945137024e-02 2.821544110774993896e-01 -6.614557001739740372e-03
-3.051576204597949982e-03 2.519167661666870117e-01 2.720963396131992340e-02
2.452880702912807465e-02 2.394817620515823364e-01 4.088325053453445435e-02
2.433062717318534851e-02 2.684020698070526123e-01 2.017931826412677765e-02
-6.430626846849918365e-03 2.228870093822479248e-01 5.074656102806329727e-03
1.635649427771568298e-02 2.807528972625732422e-01 -3.558148443698883057e-02
-6.585395894944667816e-03 2.229935675859451294e-01 -6.332864519208669662e-03
-5.827472545206546783e-03 2.710662484169006348e-01 -2.827576361596584320e-02
2.572559937834739685e-02 2.741149067878723145e-01 3.933710046112537384e-03
2.729769796133041382e-03 1.940033286809921265e-01 2.478419244289398193e-02
-7.896991446614265442e-04 2.264444231986999512e-01 3.243316709995269775e-02
3.011258505284786224e-02 2.441440224647521973e-01 2.855201810598373413e-02
-5.039728246629238129e-03 2.149287462234497070e-01 -7.811388466507196426e-03
2.928610518574714661e-02 1.638880968093872070e-01 2.312489971518516541e-02
7.413772400468587875e-03 1.903116405010223389e-01 -2.730096504092216492e-02
-3.005889244377613068e-03 2.914263606071472168e-01 -7.730727083981037140e-03
9.869361296296119690e-03 1.946699768304824829e-01 4.085641354322433472e-02
-7.781819440424442291e-03 2.313852012157440186e-01 -6.169780390337109566e-04
3.617470338940620422e-02 1.996375769376754761e-01 -1.934478618204593658e-02
3.285783529281616211e-02 2.120319604873657227e-01 -3.077494911849498749e-02
3.007613122463226318e-02 2.329784035682678223e-01 -3.573155775666236877e-02
-9.198055602610111237e-03 2.519613802433013916e-01 -5.864552222192287445e-03
3.571297600865364075e-02 2.149037569761276245e-01 2.771394886076450348e-02
2.444925904273986816e-02 2.738426327705383301e-01 1.151379477232694626e-02
3.574111312627792358e-02 2.356472164392471313e-01 1.311127282679080963e-02
1.385401934385299683e-02 1.654083281755447388e-01 4.916347679682075977e-04
3.382942639291286469e-03 2.704666852951049805e-01 2.968633361160755157e-02
3.169234842061996460e-02 2.161632925271987915e-01 3.775331750512123108e-02
3.623243793845176697e-02 1.925371885299682617e-01 -1.650126092135906219e-02
3.102377057075500488e-02 1.821680068969726562e-01 -2.340553514659404755e-02
3.030314669013023376e-02 2.627943158149719238e-01 -6.439852993935346603e-03
-9.045599959790706635e-03 2.516703009605407715e-01 -1.138206105679273605e-02
1.013564039021730423e-02 1.842610538005828857e-01 -2.579306997358798981e-02
-5.113224498927593231e-03 2.590406537055969238e-01 -3.316371887922286987e-02
3.210156410932540894e-02 2.452347129583358765e-01 2.133765816688537598e-02
3.434462472796440125e-02 2.407031208276748657e-01 1.576254330575466156e-02
3.703767061233520508e-02 2.293083071708679199e-01 -9.267427958548069000e-03
3.528625518083572388e-02 1.802101731300354004e-01 2.567304298281669617e-02
1.534787844866514206e-02 1.966558396816253662e-01 -3.975331038236618042e-02
3.799637034535408020e-02 2.248439937829971313e-01 5.084191914647817612e-03
-3.746611066162586212e-03 2.680997550487518311e-01 -3.518822416663169861e-02
-2.081245183944702148e-04 2.957029342651367188e-01 -1.158652082085609436e-02
1.088769268244504929e-02 1.698630452156066895e-01 1.495966129004955292e-02
2.153434231877326965e-02 2.309921681880950928e-01 4.623664543032646179e-02
1.456233114004135132e-02 2.238773554563522339e-01 -4.941228032112121582e-02
9.429447352886199951e-03 2.727837264537811279e-01 3.106935881078243256e-02
4.172432236373424530e-03 2.134078592061996460e-01 -3.883130848407745361e-02
2.457965165376663208e-04 2.069243937730789185e-01 2.743872441351413727e-02
-9.640390053391456604e-04 1.973422169685363770e-01 6.784410215914249420e-03
3.288660198450088501e-02 2.531304955482482910e-01 2.337506273761391640e-03
3.313290327787399292e-02 2.377151697874069214e-01 2.417545393109321594e-02
3.584894165396690369e-02 2.030568718910217285e-01 2.956342138350009918e-02
-4.282212816178798676e-03 2.185855358839035034e-01 1.732237078249454498e-02
5.735462531447410583e-03 1.814143955707550049e-01 -9.510289877653121948e-03
2.417193725705146790e-02 2.535656690597534180e-01 3.385105729103088379e-02
3.902694582939147949e-02 2.012630403041839600e-01 1.278164610266685486e-02
1.271686237305402756e-02 1.869029551744461060e-01 4.026543349027633667e-02
-4.117514006793498993e-03 2.458037734031677246e-01 2.534499950706958771e-02
3.448790684342384338e-02 2.245105504989624023e-01 2.790673635900020599e-02
1.655092276632785797e-02 1.687459796667098999e-01 2.902971394360065460e-02
5.193750374019145966e-03 2.723468244075775146e-01 -4.485984519124031067e-02
2.550106309354305267e-02 2.564385533332824707e-01 -3.694939240813255310e-02
-7.453725673258304596e-03 2.377422600984573364e-01 1.051604095846414566e-02
-5.675693042576313019e-03 2.744970023632049561e-01 9.781937114894390106e-03
3.846176341176033020e-02 1.870848983526229858e-01 1.229651737958192825e-03
6.344953551888465881e-03 2.479261457920074463e-01 4.117310419678688049e-02
1.045889221131801605e-03 2.305367887020111084e-01 3.665171563625335693e-02
2.015449479222297668e-02 2.474614679813385010e-01 -4.747461900115013123e-02
2.913063950836658478e-02 2.214607894420623779e-01 4.087010398507118225e-02
8.729232475161552429e-03 2.670205533504486084e-01 3.460945561528205872e-02
3.546917438507080078e-02 1.733951419591903687e-01 1.744215004146099091e-02
5.092672072350978851e-03 2.005288004875183105e-01 3.597846254706382751e-02
2.434286847710609436e-02 2.069023102521896362e-01 -4.196717590093612671e-02
1.754343323409557343e-02 1.628506928682327271e-01 -3.512896597385406494e-03
-8.491697721183300018e-03 2.681661248207092285e-01 -1.338449399918317795e-02
3.617809712886810303e-02 2.350572645664215088e-01 -1.029740925878286362e-02
2.862249314785003662e-02 2.389681339263916016e-01 -3.740940243005752563e-02
3.422470763325691223e-02 2.479690164327621460e-01 -2.304081339389085770e-03
-8.767628110945224762e-03 2.635792791843414307e-01 -1.112009049393236637e-03
3.850288316607475281e-02 2.130687534809112549e-01 1.374269649386405945e-02
1.654082722961902618e-02 2.178698480129241943e-01 4.929539933800697327e-02
2.945682033896446228e-02 2.391883432865142822e-01 3.327594324946403503e-02
2.600190788507461548e-02 1.837719380855560303e-01 4.212060198187828064e-02
1.739519461989402771e-02 2.820337414741516113e-01 1.699843816459178925e-02
3.433550894260406494e-02 1.695812195539474487e-01 1.511725713498890400e-04
3.194354102015495300e-02 2.572290599346160889e-01 -2.898555481806397438e-03
2.827620133757591248e-03 1.887388974428176880e-01 -1.090876199305057526e-02
-6.490510888397693634e-03 2.339416593313217163e-01 1.484278775751590729e-02
-7.782670669257640839e-03 2.610160112380981445e-01 8.577654138207435608e-03
6.237211637198925018e-03 2.260800600051879883e-01 4.366918280720710754e-02
9.247561916708946228e-03 2.165732681751251221e-01 4.597257077693939209e-02
-1.399359665811061859e-03 2.931637167930603027e-01 -1.836133562028408051e-02
2.973009459674358368e-02 2.111634016036987305e-01 4.183417558670043945e-02
-2.410248853266239166e-03 2.907009124755859375e-01 -5.278767785057425499e-04
3.701286762952804565e-02 2.104151546955108643e-01 2.399751171469688416e-02
3.396639972925186157e-02 1.672745943069458008e-01 6.648059468716382980e-03
2.446177415549755096e-03 2.135180830955505371e-01 3.611454740166664124e-02
-3.372582606971263885e-03 2.353630810976028442e-01 2.717752195894718170e-02
3.679447621107101440e-02 2.342725992202758789e-01 -6.526954239234328270e-04
3.588080406188964844e-02 2.303534001111984253e-01 -1.705761067569255829e-02
-8.687104098498821259e-03 2.493045330047607422e-01 4.000151064246892929e-03
2.910648286342620850e-02 2.654251158237457275e-01 3.775006160140037537e-03
7.737052626907825470e-03 1.992340981960296631e-01 -3.522477298974990845e-02
3.807377070188522339e-02 2.233581244945526123e-01 -3.938477486371994019e-03
3.349571675062179565e-02 2.502167224884033203e-01 -8.940237574279308319e-03
3.928157687187194824e-02 2.078640013933181763e-01 4.217477049678564072e-03
1.607987284660339355e-02 2.735028266906738281e-01 2.805280312895774841e-02
3.611188381910324097e-02 1.830565929412841797e-01 -1.081516221165657043e-02
-7.195239886641502380e-04 2.847368419170379639e-01 -3.251773118972778320e-02
-7.012006826698780060e-03 2.298582345247268677e-01 -1.431607082486152649e-02
-2.215036191046237946e-03 2.164302468299865723e-01 -2.632728032767772675e-02
9.815074503421783447e-03 1.757628619670867920e-01 2.458398789167404175e-02
-2.966578118503093719e-03 2.079409509897232056e-01 -1.271207351237535477e-02
3.722208738327026367e-02 2.108471691608428955e-01 -1.645828410983085632e-02
2.649557590484619141e-02 1.968968808650970459e-01 4.513075575232505798e-02
3.933620639145374298e-03 1.950047910213470459e-01 -2.440278977155685425e-02
3.590803220868110657e-02 2.376009374856948853e-01 8.162356913089752197e-03
-6.837481632828712463e-04 2.156806737184524536e-01 2.942598611116409302e-02
-8.859799243509769440e-03 2.600021064281463623e-01 -1.430705096572637558e-02
-3.355122171342372894e-03 2.678712308406829834e-01 2.095242217183113098e-02
2.619925513863563538e-02 2.736843228340148926e-01 -1.314311474561691284e-02
4.189842380583286285e-03 1.881393045186996460e-01 2.314687147736549377e-02
1.335338875651359558e-02 1.740059256553649902e-01 -1.828852668404579163e-02
8.451880887150764465e-03 1.792462617158889771e-01 -1.557370647788047791e-02
3.891816735267639160e-02 2.152054011821746826e-01 3.853204660117626190e-03
2.125742286443710327e-02 2.769416868686676025e-01 -2.993817999958992004e-02
3.574521839618682861e-02 2.064377069473266602e-01 -2.218518406152725220e-02
-1.880818046629428864e-03 2.507786750793457031e-01 -4.036017879843711853e-02
3.350962698459625244e-02 2.383332699537277222e-01 -2.361636422574520111e-02
3.075096756219863892e-02 2.493809163570404053e-01 -2.689610421657562256e-02
3.560319170355796814e-02 1.757791787385940552e-01 -4.873008467257022858e-03
-5.987362004816532135e-03 2.252058684825897217e-01 -1.681196875870227814e-02
3.597144968807697296e-03 1.910260468721389771e-01 -1.837786473333835602e-02
2.739876881241798401e-02 2.190808504819869995e-01 -4.099825769662857056e-02
3.829828649759292603e-02 1.875819265842437744e-01 1.440878026187419891e-02
1.133543439209461212e-02 2.842420637607574463e-01 -3.759797662496566772e-02
2.394952997565269470e-02 1.657646596431732178e-01 3.010886535048484802e-02
1.746023073792457581e-03 2.636037468910217285e-01 3.149386495351791382e-02
-7.868958637118339539e-04 2.042765170335769653e-01 -1.932266168296337128e-02
-5.151900462806224823e-03 2.142949849367141724e-01 2.944498555734753609e-05
1.911210268735885620e-02 1.727375686168670654e-01 3.586615249514579773e-02
1.328638382256031036e-02 2.954691648483276367e-01 -1.033090334385633469e-02
2.158422395586967468e-02 2.820206582546234131e-01 -2.010466530919075012e-02
1.577550172805786133e-02 2.860131263732910156e-01 -3.049802593886852264e-02
3.492913767695426941e-02 1.876366287469863892e-01 -1.816547289490699768e-02
2.330947667360305786e-02 2.306359857320785522e-01 -4.609526321291923523e-02
-5.533154122531414032e-03 2.567403018474578857e-01 1.940008997917175293e-02
7.348353508859872818e-03 1.759721189737319946e-01 1.318845711648464203e-02
-3.570147790014743805e-03 2.079440206289291382e-01 7.321646437048912048e-03
1.744781062006950378e-02 2.907781600952148438e-01 -1.111825089901685715e-02
2.358835563063621521e-02 2.034269571304321289e-01 4.762038215994834900e-02
7.365391589701175690e-03 2.230692505836486816e-01 -4.633626714348793030e-02
5.523091182112693787e-03 1.789778918027877808e-01 3.209311515092849731e-03
1.192859094589948654e-02 2.426701933145523071e-01 4.513585940003395081e-02
5.624230951070785522e-03 1.797580271959304810e-01 -3.673081751912832260e-03
3.815083950757980347e-02 2.100676745176315308e-01 -1.119869202375411987e-02
-2.162809483706951141e-03 2.640312910079956055e-01 2.529879100620746613e-02
2.691885456442832947e-02 2.291618883609771729e-01 -4.181247949600219727e-02
-2.260348759591579437e-03 2.799628674983978271e-01 1.499770767986774445e-02
3.691896423697471619e-02 1.774361878633499146e-01 1.994401449337601662e-03
1.116027124226093292e-03 2.200371772050857544e-01 3.523578494787216187e-02
2.267437428236007690e-02 1.599086821079254150e-01 1.885421760380268097e-02
-6.720228120684623718e-04 2.885825037956237793e-01 -2.877313829958438873e-02
3.485517203807830811e-02 2.351692169904708862e-01 -1.941509358584880829e-02
-1.640713773667812347e-03 2.220137864351272583e-01 2.912865579128265381e-02
-6.543212570250034332e-03 2.266680300235748291e-01 9.495093487203121185e-03
2.428043261170387268e-02 2.785177826881408691e-01 -1.491556642577052116e-03
2.616029046475887299e-02 2.659065127372741699e-01 -2.796423807740211487e-02
2.305929362773895264e-02 2.717854082584381104e-01 -3.100320883095264435e-02
3.493311256170272827e-02 1.885254234075546265e-01 3.062428720295429230e-02
3.762599825859069824e-02 1.821363717317581177e-01 -5.225188797339797020e-04
3.091279789805412292e-02 1.932870894670486450e-01 -2.970279194414615631e-02
1.857263967394828796e-02 1.636155843734741211e-01 2.339183352887630463e-02
5.358634516596794128e-03 2.810754179954528809e-01 -4.068174213171005249e-02
1.625054143369197845e-02 2.682989537715911865e-01 3.215012326836585999e-02
3.276722505688667297e-02 2.002665251493453979e-01 3.728346154093742371e-02
2.319079264998435974e-02 1.865143477916717529e-01 -3.372937440872192383e-02
3.177497535943984985e-02 2.574059665203094482e-01 -8.215796202421188354e-03
-7.766420952975749969e-03 2.587802708148956299e-01 -2.298989892005920410e-02
3.922810405492782593e-02 1.955370306968688965e-01 5.937970709055662155e-03
-8.041408844292163849e-03 2.650193572044372559e-01 4.820415284484624863e-03
3.500695154070854187e-02 2.439688444137573242e-01 2.337127225473523140e-03
-5.856334231793880463e-03 2.650034129619598389e-01 1.529680751264095306e-02
1.020151376724243164e-02 2.680750191211700439e-01 -4.721842706203460693e-02
-6.839794106781482697e-03 2.397681176662445068e-01 -2.323658764362335205e-02
1.174107193946838379e-03 1.950946897268295288e-01 1.940639130771160126e-02
3.258066251873970032e-02 2.258299291133880615e-01 -3.100508637726306915e-02
1.534606050699949265e-02 2.926467061042785645e-01 -1.689355447888374329e-02
3.202715888619422913e-02 2.238090485334396362e-01 3.484940901398658752e-02
1.976258307695388794e-02 2.873935997486114502e-01 -6.604512222111225128e-03
-1.174285076558589935e-03 2.096354514360427856e-01 -2.385286055505275726e-02
3.134187310934066772e-02 1.702245175838470459e-01 -1.162304729223251343e-02
3.674326464533805847e-02 2.180696129798889160e-01 2.224788069725036621e-02
1.143958978354930878e-02 2.366835623979568481e-01 -5.086390674114227295e-02
6.656198762357234955e-03 2.077802717685699463e-01 -3.916965052485466003e-02
-1.800662837922573090e-03 2.368386387825012207e-01 -3.799695894122123718e-02
1.824705861508846283e-03 1.901058107614517212e-01 1.380744483321905136e-02
-2.463067881762981415e-03 2.247212231159210205e-01 -3.125232458114624023e-02
-2.738826908171176910e-03 2.593295276165008545e-01 -3.874072432518005371e-02
-3.726980648934841156e-03 2.406767308712005615e-01 -3.460632637143135071e-02
-5.361474119126796722e-03 2.784275412559509277e-01 -2.549048885703086853e-02
3.322528675198554993e-02 1.990022063255310059e-01 -2.739611826837062836e-02
-6.113027222454547882e-03 2.449591010808944702e-01 -2.838965505361557007e-02
7.027572952210903168e-03 1.855441927909851074e-01 2.926909551024436951e-02
-2.649215050041675568e-03 2.841882109642028809e-01 9.654682129621505737e-03
2.109395340085029602e-02 2.848417460918426514e-01 -1.281265728175640106e-02
8.867250755429267883e-03 1.722533702850341797e-01 5.182899534702301025e-03
-1.264664344489574432e-03 1.979624032974243164e-01 1.336686313152313232e-03
1.438535097986459732e-02 2.553209960460662842e-01 -4.961666837334632874e-02
2.639871090650558472e-02 2.739672362804412842e-01 -5.098990164697170258e-03
2.832012064754962921e-02 2.644329965114593506e-01 -2.086701616644859314e-02
2.932104095816612244e-02 1.606937348842620850e-01 4.870897158980369568e-03
8.684485219419002533e-03 2.942793965339660645e-01 6.683035753667354584e-03
2.532468363642692566e-02 1.734193861484527588e-01 -2.255756035447120667e-02
1.035743393003940582e-02 1.742107421159744263e-01 -1.193638984113931656e-02
3.071800619363784790e-02 1.994373649358749390e-01 -3.232886642217636108e-02
-6.569192744791507721e-03 2.595949769020080566e-01 1.485132426023483276e-02
6.278811022639274597e-03 1.841121166944503784e-01 -1.689849048852920532e-02
2.960105799138545990e-02 2.261224240064620972e-01 -3.758636116981506348e-02
-8.543989621102809906e-03 2.486548721790313721e-01 -1.627183891832828522e-02
1.633253879845142365e-03 2.108035832643508911e-01 -3.266089037060737610e-02
-6.727474741637706757e-03 2.646929621696472168e-01 -2.697021327912807465e-02
-8.348037488758563995e-03 2.711402177810668945e-01 -8.194115944206714630e-03
-6.552419625222682953e-03 2.815409600734710693e-01 -8.368713781237602234e-03
2.940774336457252502e-02 2.316669672727584839e-01 3.704684227705001831e-02
3.068826347589492798e-02 2.401535063982009888e-01 -3.216252475976943970e-02
-6.418201141059398651e-03 2.451894134283065796e-01 1.757478713989257812e-02
3.344612568616867065e-02 1.710239648818969727e-01 2.322678081691265106e-02
1.366210170090198517e-02 1.745768487453460693e-01 3.174356371164321899e-02
-7.736370898783206940e-03 2.388727515935897827e-01 -1.717652939260005951e-02
3.030781634151935577e-03 2.041673660278320312e-01 -3.078914433717727661e-02
6.561176851391792297e-03 2.987738549709320068e-01 -1.033664774149656296e-02
-4.906938411295413971e-03 2.841565012931823730e-01 -2.095564641058444977e-02
-1.512914896011352539e-04 2.246236801147460938e-01 -3.678549081087112427e-02
-2.377852797508239746e-05 1.943607330322265625e-01 -3.375896252691745758e-03
-5.679307505488395691e-04 2.366834431886672974e-01 3.384860605001449585e-02
1.745885610580444336e-02 2.773023843765258789e-01 2.282674051821231842e-02
-2.432473935186862946e-03 2.312945276498794556e-01 -3.458192199468612671e-02
2.707659266889095306e-02 2.072788178920745850e-01 4.522547870874404907e-02
2.364257909357547760e-02 1.602616012096405029e-01 -2.756338799372315407e-03
1.501565519720315933e-02 2.531257271766662598e-01 4.148488491773605347e-02
1.584120839834213257e-02 2.373795658349990845e-01 4.667370766401290894e-02
-5.073550157248973846e-03 2.153548747301101685e-01 6.933636963367462158e-03
-1.870111562311649323e-03 2.027681618928909302e-01 1.278389059007167816e-02
1.075544767081737518e-02 1.948468387126922607e-01 -3.565567731857299805e-02
2.175392583012580872e-02 2.382380217313766479e-01 -4.723446816205978394e-02
1.078722998499870300e-03 2.420355975627899170e-01 3.641735017299652100e-02
-4.200239665806293488e-03 2.145970314741134644e-01 -1.508547365665435791e-02
3.848867863416671753e-02 2.083386182785034180e-01 1.621547527611255646e-02
2.673000097274780273e-02 2.176301479339599609e-01 4.467108100652694702e-02
1.372236572206020355e-02 2.858545184135437012e-01 1.667393557727336884e-02
3.877841308712959290e-02 2.011330574750900269e-01 -6.059640552848577499e-03
2.064101025462150574e-02 2.256658524274826050e-01 4.780630022287368774e-02
-1.813064329326152802e-03 2.014540433883666992e-01 -7.670118473470211029e-03
2.353308536112308502e-02 1.766276359558105469e-01 3.956852853298187256e-02
8.904522284865379333e-03 2.591893672943115234e-01 -4.949597269296646118e-02
-2.238660119473934174e-03 2.767245769500732422e-01 -3.506437689065933228e-02
2.547363564372062683e-02 2.419223934412002563e-01 -4.226113855838775635e-02
2.584836445748806000e-03 2.243071198463439941e-01 -4.142666980624198914e-02
-5.139329470694065094e-03 2.529555559158325195e-01 -3.301544860005378723e-02
2.576135098934173584e-03 2.758103609085083008e-01 -4.179705306887626648e-02
3.435052186250686646e-02 2.455037832260131836e-01 7.586823776364326477e-03
-2.721826545894145966e-03 2.034515440464019775e-01 -7.093654712662100792e-04
-2.101792953908443451e-03 2.119308859109878540e-01 2.240382507443428040e-02
2.915092557668685913e-02 2.580476701259613037e-01 -2.533002942800521851e-02
4.810398444533348083e-03 2.982122600078582764e-01 -1.662836037576198578e-02
1.599428802728652954e-02 2.910390496253967285e-01 1.913156826049089432e-03
1.725812256336212158e-02 1.984015107154846191e-01 4.756712913513183594e-02
3.183967992663383484e-02 2.546626925468444824e-01 9.423822164535522461e-03
1.918317377567291260e-02 2.565593719482421875e-01 3.763053566217422485e-02
1.913417130708694458e-03 2.946662902832031250e-01 -2.390759810805320740e-02
3.746337816119194031e-02 2.218257933855056763e-01 1.563756354153156281e-02
1.433685980737209320e-02 1.789743006229400635e-01 3.677381202578544617e-02
2.494524046778678894e-02 7.263792157173156738e-01 2.174173668026924133e-02
-8.243188261985778809e-03 6.713911890983581543e-01 -3.025273978710174561e-02
2.379130199551582336e-02 7.084692716598510742e-01 3.416993468999862671e-02
3.484551608562469482e-02 6.410512924194335938e-01 1.488935109227895737e-02
3.342678770422935486e-02 6.945971250534057617e-01 1.856030896306037903e-02
2.135994285345077515e-02 7.498064041137695312e-01 5.801226943731307983e-04
1.735456287860870361e-02 6.166090369224548340e-01 2.428689599037170410e-02
2.641901746392250061e-02 7.368780374526977539e-01 2.118651755154132843e-03
1.742069050669670105e-02 7.237113714218139648e-01 -5.533430352807044983e-02
1.399323809891939163e-02 7.365285754203796387e-01 -5.498269572854042053e-02
3.270829468965530396e-02 7.096375226974487305e-01 5.577561445534229279e-03
-1.317835412919521332e-03 6.397120356559753418e-01 -2.269653603434562683e-03
2.600536495447158813e-02 6.743593215942382812e-01 -4.590307548642158508e-02
2.565184608101844788e-02 7.318449616432189941e-01 1.447383221238851547e-02
-5.399037152528762817e-03 6.747498512268066406e-01 5.833075381815433502e-03
1.389259658753871918e-02 7.581685185432434082e-01 -3.755254670977592468e-02
5.554939620196819305e-03 7.412439584732055664e-01 -5.899770185351371765e-02
1.991650834679603577e-02 7.479483485221862793e-01 8.763850666582584381e-03
3.381168842315673828e-02 6.391198635101318359e-01 -1.008746959269046783e-02
2.507677860558032990e-02 6.077713966369628906e-01 1.167578622698783875e-03
2.240943722426891327e-03 6.349496841430664062e-01 9.666989557445049286e-03
2.715284936130046844e-03 6.269721388816833496e-01 4.625879228115081787e-05
1.891041174530982971e-02 6.649334430694580078e-01 4.319947957992553711e-02
3.260433301329612732e-02 6.582744121551513672e-01 3.062960878014564514e-02
1.708723418414592743e-02 6.049659252166748047e-01 -5.325973033905029297e-04
2.520543336868286133e-02 6.212963461875915527e-01 -2.508989721536636353e-02
1.573924906551837921e-03 6.280313134193420410e-01 -1.988586038351058960e-02
1.275087147951126099e-02 7.504887580871582031e-01 1.335619296878576279e-02
2.461575344204902649e-02 6.999480724334716797e-01 3.660613670945167542e-02
1.448735967278480530e-02 7.538068294525146484e-01 -4.180307313799858093e-02
2.859215810894966125e-02 6.368128657341003418e-01 -2.889946475625038147e-02
1.626866683363914490e-02 6.410805583000183105e-01 3.779021278023719788e-02
2.234439179301261902e-02 7.390661239624023438e-01 -3.575482591986656189e-02
2.811135351657867432e-02 6.711912155151367188e-01 -4.083462432026863098e-02
3.470870479941368103e-02 6.443312168121337891e-01 -8.096221834421157837e-03
3.108142688870429993e-02 6.306379437446594238e-01 2.507803216576576233e-02
3.559170290827751160e-04 7.172333598136901855e-01 -6.437887996435165405e-02
1.199322566390037537e-02 6.096078157424926758e-01 3.791621886193752289e-03
5.221537780016660690e-03 6.202389597892761230e-01 -2.049452438950538635e-02
3.343907743692398071e-02 7.044684886932373047e-01 7.124709896743297577e-03
-4.019105806946754456e-03 6.467563509941101074e-01 -1.442933827638626099e-02
9.667323902249336243e-04 6.575152277946472168e-01 2.037023380398750305e-02
2.007878571748733521e-02 6.188661456108093262e-01 -3.035954385995864868e-02
2.545800991356372833e-02 6.097669005393981934e-01 1.228080969303846359e-02
3.538669273257255554e-02 6.466302871704101562e-01 1.476349402219057083e-02
-6.112761795520782471e-03 6.570069789886474609e-01 -1.572785153985023499e-02
3.373575955629348755e-02 6.415463685989379883e-01 2.241123840212821960e-02
2.727599442005157471e-02 6.133983731269836426e-01 -8.412810042500495911e-03
-7.425587624311447144e-03 6.645069718360900879e-01 -2.576797641813755035e-02
-5.563041195273399353e-03 7.126182913780212402e-01 7.237120531499385834e-03
1.382970996201038361e-02 6.965269446372985840e-01 -6.352201849222183228e-02
-8.724583312869071960e-03 7.207416892051696777e-01 -8.269274607300758362e-03
-1.788664609193801880e-03 7.460994124412536621e-01 1.768833026289939880e-03
2.926403284072875977e-02 7.054538726806640625e-01 2.668742462992668152e-02
-9.042195975780487061e-03 6.764987707138061523e-01 -2.127056941390037537e-02
3.251755237579345703e-02 6.272240281105041504e-01 -4.224665462970733643e-03
5.169389769434928894e-04 6.883915662765502930e-01 -6.341996043920516968e-02
2.148671820759773254e-02 6.053109169006347656e-01 4.394116811454296112e-03
2.571625448763370514e-02 6.490114331245422363e-01 -4.086890816688537598e-02
2.829930558800697327e-02 6.992607116699218750e-01 -3.857532516121864319e-02
3.392869606614112854e-02 6.995881199836730957e-01 -9.798189625144004822e-03
3.384475782513618469e-02 7.034078836441040039e-01 -1.515453681349754333e-03
2.203188650310039520e-02 7.443066239356994629e-01 -3.092084452509880066e-02
3.313789889216423035e-02 6.762529611587524414e-01 2.771601453423500061e-02
-1.041442528367042542e-02 7.230597138404846191e-01 -2.817379310727119446e-02
3.401593118906021118e-02 6.861225366592407227e-01 -1.823335886001586914e-02
3.118109330534934998e-02 6.760909557342529297e-01 3.301340341567993164e-02
1.731797680258750916e-02 7.325307130813598633e-01 2.611159533262252808e-02
-4.342105239629745483e-03 6.866401433944702148e-01 1.236094255000352859e-02
-1.002960465848445892e-02 6.868071556091308594e-01 -2.427986264228820801e-02
2.387199178338050842e-02 6.841241717338562012e-01 -5.057236552238464355e-02
3.599680960178375244e-02 6.555798649787902832e-01 -3.255316987633705139e-03
3.195107728242874146e-02 7.148709297180175781e-01 2.195394597947597504e-03
-5.915228277444839478e-03 6.993961334228515625e-01 -5.592370033264160156e-02
8.399992249906063080e-03 6.149817705154418945e-01 -1.964481174945831299e-02
2.513667568564414978e-02 7.426220774650573730e-01 -9.393529966473579407e-03
2.369691058993339539e-02 6.782233715057373047e-01 4.196937009692192078e-02
8.026586845517158508e-03 7.452952861785888672e-01 1.663068681955337524e-02
2.438609302043914795e-02 6.115946769714355469e-01 1.818609610199928284e-02
1.732222735881805420e-02 6.303106546401977539e-01 -4.195587337017059326e-02
3.548433631658554077e-02 6.740549802780151367e-01 -1.076382398605346680e-02
3.200873732566833496e-02 6.240683197975158691e-01 1.276528742164373398e-02
1.553510688245296478e-02 6.443544030189514160e-01 -5.103299021720886230e-02
3.532688319683074951e-02 6.425362825393676758e-01 1.163221895694732666e-03
3.391608223319053650e-02 6.679204702377319336e-01 2.637958154082298279e-02
3.520106151700019836e-02 6.605021953582763672e-01 2.072858437895774841e-02
-4.264377057552337646e-03 6.814256310462951660e-01 -5.499728024005889893e-02
-6.107997149229049683e-03 6.860108375549316406e-01 -5.213870853185653687e-02
-1.162374392151832581e-03 7.077164053916931152e-01 -6.372153759002685547e-02
-3.859277814626693726e-03 6.647223830223083496e-01 7.898868061602115631e-03
9.992629289627075195e-03 6.542693972587585449e-01 -5.695522576570510864e-02
1.741853356361389160e-02 6.528912782669067383e-01 -5.326745659112930298e-02
3.260716050863265991e-02 6.456255316734313965e-01 2.825072407722473145e-02
3.586791828274726868e-02 6.528562307357788086e-01 1.369855087250471115e-02
-6.997222080826759338e-03 7.156327366828918457e-01 -5.384432151913642883e-02
3.499862551689147949e-02 6.656230092048645020e-01 -1.455723308026790619e-02
3.456933051347732544e-02 6.711559295654296875e-01 -1.744295284152030945e-02
1.444624084979295731e-02 7.153279781341552734e-01 3.485045209527015686e-02
-2.229178324341773987e-03 6.872643232345581055e-01 1.849843189120292664e-02
1.094238646328449249e-02 6.341557502746582031e-01 -4.601410776376724243e-02
2.432297542691230774e-02 7.399171590805053711e-01 7.761350832879543304e-03
7.012559566646814346e-03 6.384729146957397461e-01 2.526806667447090149e-02
2.268426120281219482e-02 6.292976737022399902e-01 -3.582828491926193237e-02
-9.077578783035278320e-03 6.994391083717346191e-01 -6.767844315618276596e-03
-7.626971229910850525e-03 7.277769446372985840e-01 -5.934745538979768753e-03
9.772304445505142212e-03 7.158313989639282227e-01 -6.472796201705932617e-02
8.616574108600616455e-03 7.162946462631225586e-01 3.159417957067489624e-02
1.669924706220626831e-03 7.464299798011779785e-01 -5.589653179049491882e-02
4.042466171085834503e-03 6.239008903503417969e-01 -2.450426295399665833e-02
8.096730336546897888e-03 6.418600082397460938e-01 -5.019748955965042114e-02
-1.069136895239353180e-02 6.990699172019958496e-01 -2.891236543655395508e-02
2.943636663258075714e-02 6.175699234008789062e-01 1.540320459753274918e-02
3.202799707651138306e-02 6.818904876708984375e-01 -2.882236987352371216e-02
2.921548858284950256e-02 6.843969225883483887e-01 3.509704023599624634e-02
-3.236752003431320190e-03 6.509583592414855957e-01 -3.745622187852859497e-02
-6.594637408852577209e-03 6.620661020278930664e-01 -1.065510790795087814e-02
-5.475649610161781311e-03 7.103521823883056641e-01 -5.762328207492828369e-02
3.507910668849945068e-02 6.516325473785400391e-01 -1.000934094190597534e-02
-4.602788016200065613e-03 7.543698549270629883e-01 -3.674485534429550171e-02
1.641716808080673218e-02 6.130890846252441406e-01 1.954859867691993713e-02
1.498540490865707397e-02 7.566620111465454102e-01 4.207362420856952667e-03
2.628115564584732056e-02 6.294539570808410645e-01 -2.962067350745201111e-02
7.824739441275596619e-03 6.144211292266845703e-01 -2.513440325856208801e-03
1.986080780625343323e-02 6.267783641815185547e-01 3.304735943675041199e-02
2.235008403658866882e-03 6.317312717437744141e-01 -3.234866634011268616e-02
3.459833562374114990e-02 6.939887404441833496e-01 -8.423778228461742401e-03
-1.066959276795387268e-02 7.117244005203247070e-01 -3.427466377615928650e-02
1.776071637868881226e-02 7.250407934188842773e-01 3.032327815890312195e-02
3.046663664281368256e-02 6.618070006370544434e-01 -3.308352828025817871e-02
8.217087015509605408e-03 6.592312455177307129e-01 3.467673063278198242e-02
2.816401422023773193e-02 6.933324933052062988e-01 3.428286314010620117e-02
-1.057883724570274353e-03 6.969999670982360840e-01 2.125953882932662964e-02
3.587255626916885376e-02 6.828851103782653809e-01 4.777099005877971649e-03
2.244364097714424133e-02 6.381155848503112793e-01 3.823696449398994446e-02
3.646731004118919373e-02 6.676939129829406738e-01 4.320601932704448700e-03
1.785141602158546448e-02 6.677501797676086426e-01 -5.706695467233657837e-02
-6.299726665019989014e-03 6.737418770790100098e-01 -4.552119225263595581e-02
2.962812222540378571e-02 6.365281939506530762e-01 3.164013102650642395e-02
1.598727330565452576e-02 6.790156960487365723e-01 -6.067877262830734253e-02
3.028991259634494781e-02 6.780532598495483398e-01 -3.513889014720916748e-02
-6.598990410566329956e-03 7.495202422142028809e-01 -2.841821312904357910e-02
2.106171101331710815e-02 7.525472640991210938e-01 -7.261591497808694839e-03
1.741549558937549591e-02 7.580295205116271973e-01 -2.581244334578514099e-02
2.961969561874866486e-02 7.145541310310363770e-01 1.900330930948257446e-02
3.084547817707061768e-03 6.240885257720947266e-01 -5.820140708237886429e-03
-5.808347836136817932e-03 7.182658314704895020e-01 4.999752156436443329e-03
-8.616693317890167236e-03 6.753365993499755859e-01 -1.493221987038850784e-02
3.159041702747344971e-02 6.944456696510314941e-01 -2.802082151174545288e-02
1.271888613700866699e-04 6.475778818130493164e-01 1.273422967642545700e-02
-2.242707647383213043e-03 6.414808034896850586e-01 -2.732205018401145935e-02
1.281516905874013901e-02 7.445219755172729492e-01 -5.210026353597640991e-02
7.814876735210418701e-03 7.609171271324157715e-01 5.643889307975769043e-04
3.125040605664253235e-02 6.482769250869750977e-01 -2.666164189577102661e-02
2.235194295644760132e-02 7.313416600227355957e-01 2.225501090288162231e-02
4.648566246032714844e-03 6.923270821571350098e-01 3.183144703507423401e-02
2.704995498061180115e-02 6.506296396255493164e-01 3.894802182912826538e-02
-7.148534059524536133e-03 6.857474446296691895e-01 1.354259438812732697e-03
-1.059541665017604828e-02 7.163134217262268066e-01 -2.291678078472614288e-02
-8.772084489464759827e-03 6.938148736953735352e-01 -5.615776870399713516e-03
-7.968222722411155701e-03 6.758648753166198730e-01 -7.871797308325767517e-03
2.803340181708335876e-02 6.777633428573608398e-01 3.813251480460166931e-02
-1.004752330482006073e-02 7.211501598358154297e-01 -1.841887831687927246e-02
-7.214767858386039734e-03 7.126848101615905762e-01 1.247971318662166595e-03
-2.911811694502830505e-03 6.937788128852844238e-01 -6.053540110588073730e-02
-2.453281544148921967e-03 6.454129815101623535e-01 -3.359297662973403931e-02
7.563991937786340714e-03 6.223101019859313965e-01 1.329274941235780716e-02
1.422159839421510696e-02 6.261489987373352051e-01 -4.001194983720779419e-02
1.516496855765581131e-02 6.906670331954956055e-01 4.113991558551788330e-02
2.213681302964687347e-02 6.958591341972351074e-01 3.964375331997871399e-02
-2.004005014896392822e-03 6.678130626678466797e-01 -5.365676432847976685e-02
3.012799657881259918e-02 6.168023347854614258e-01 5.293670110404491425e-03
4.853336140513420105e-04 6.885308623313903809e-01 2.479503676295280457e-02
7.737884297966957092e-04 6.814438700675964355e-01 2.511412650346755981e-02
-9.359566494822502136e-03 6.901329755783081055e-01 -3.999339789152145386e-02
3.045031800866127014e-02 6.363201141357421875e-01 -2.313824184238910675e-02
-1.096459105610847473e-03 6.353850960731506348e-01 -1.508396770805120468e-02
3.634782880544662476e-02 6.580830812454223633e-01 1.848108135163784027e-03
-1.025505922734737396e-02 7.036986351013183594e-01 -3.858358412981033325e-02
1.471142284572124481e-02 6.176242828369140625e-01 -3.162140399217605591e-02
-1.034443266689777374e-02 6.924810409545898438e-01 -2.225663885474205017e-02
-1.016653701663017273e-02 6.987887024879455566e-01 -1.554876472800970078e-02
-7.037708535790443420e-03 7.037236690521240234e-01 3.218748606741428375e-03
-1.104624010622501373e-03 6.429315805435180664e-01 3.566485829651355743e-03
3.390004485845565796e-02 6.313839554786682129e-01 4.395329393446445465e-03
1.045074313879013062e-03 6.817353367805480957e-01 -6.245622038841247559e-02
3.622012585401535034e-02 6.614941358566284180e-01 -2.668762579560279846e-03
1.529244706034660339e-02 6.713874936103820801e-01 -6.000901386141777039e-02
-4.920914769172668457e-03 6.507785320281982422e-01 -2.303610369563102722e-02
3.141153603792190552e-02 6.218273043632507324e-01 -1.876624301075935364e-03
1.899451389908790588e-02 6.249561309814453125e-01 -3.677738457918167114e-02
-8.517682552337646484e-03 7.402507662773132324e-01 -3.093643486499786377e-02
1.752222143113613129e-02 6.916749477386474609e-01 -5.998314544558525085e-02
3.624810650944709778e-02 6.550773382186889648e-01 8.550294674932956696e-03
1.037465874105691910e-02 6.185880899429321289e-01 1.609322056174278259e-02
-3.232896327972412109e-03 6.497710347175598145e-01 -4.367101937532424927e-04
-4.795340821146965027e-03 7.429279088973999023e-01 -4.980523884296417236e-02
2.695780992507934570e-02 7.159323096275329590e-01 -3.670352324843406677e-02
8.517637848854064941e-03 6.513346433639526367e-01 3.311010077595710754e-02
3.916508518159389496e-03 7.345228195190429688e-01 -6.178212538361549377e-02
-6.369296461343765259e-04 6.445487141609191895e-01 -3.973399102687835693e-02
2.208367176353931427e-02 6.745401024818420410e-01 -5.292833596467971802e-02
3.272470086812973022e-02 6.997306346893310547e-01 -1.978199556469917297e-02
3.536054491996765137e-02 6.418355107307434082e-01 6.669915281236171722e-03
6.838622968643903732e-03 6.467391252517700195e-01 -5.248157307505607605e-02
2.319200895726680756e-03 6.972401738166809082e-01 2.779351547360420227e-02
1.006085425615310669e-03 7.410455346107482910e-01 1.122578699141740799e-02
3.232593089342117310e-02 6.814473271369934082e-01 2.889974787831306458e-02
1.730625331401824951e-02 7.408607602119445801e-01 -4.729767888784408569e-02
-2.447693608701229095e-03 7.608773708343505859e-01 -2.674497291445732117e-02
-2.970807254314422607e-03 6.575667858123779297e-01 -4.494826868176460266e-02
1.452170312404632568e-03 7.662155032157897949e-01 -2.562248334288597107e-02
6.020627915859222412e-03 6.929946541786193848e-01 -6.631110608577728271e-02
-4.749216139316558838e-03 7.208013534545898438e-01 -5.815461277961730957e-02
6.943857297301292419e-04 7.551972866058349609e-01 -1.287957653403282166e-03
1.725611463189125061e-02 7.399409413337707520e-01 2.076071500778198242e-02
3.618583083152770996e-02 6.774128079414367676e-01 2.098289318382740021e-03
2.401107922196388245e-03 6.371821165084838867e-01 -3.977896273136138916e-02
2.784062922000885010e-02 6.408582329750061035e-01 3.579444438219070435e-02
1.501076854765415192e-03 7.258155345916748047e-01 -6.359384953975677490e-02
-6.724778562784194946e-03 7.338651418685913086e-01 -5.499515216797590256e-03
-5.697086453437805176e-03 6.627840399742126465e-01 -2.533620223402976990e-03
3.603808209300041199e-02 6.684848070144653320e-01 1.383040379732847214e-02
4.054972901940345764e-03 6.604323387145996094e-01 2.820255979895591736e-02
1.014887541532516479e-02 7.635104656219482422e-01 -3.826576285064220428e-03
2.481470257043838501e-02 6.084950566291809082e-01 -5.417408421635627747e-03
2.906242199242115021e-02 7.276546359062194824e-01 2.843763679265975952e-03
-5.120148882269859314e-03 7.544322013854980469e-01 -3.043981269001960754e-02
3.629356622695922852e-02 6.613609194755554199e-01 1.091275271028280258e-02
4.701444879174232483e-03 7.477596402168273926e-01 1.182268466800451279e-02
8.610919117927551270e-03 6.175770759582519531e-01 -2.616205625236034393e-02
1.171152386814355850e-02 6.646391749382019043e-01 -6.028204411268234253e-02
4.738545976579189301e-03 6.386752724647521973e-01 -4.513353109359741211e-02
3.475310653448104858e-02 6.960145235061645508e-01 1.221531070768833160e-03
-4.558220505714416504e-03 6.894239783287048340e-01 -5.682832375168800354e-02
1.712764054536819458e-02 7.600931525230407715e-01 -1.807945594191551208e-02
4.379322752356529236e-03 7.048659920692443848e-01 2.985931560397148132e-02
1.007490791380405426e-02 6.921392679214477539e-01 3.796006739139556885e-02
3.318678587675094604e-02 7.017822861671447754e-01 -1.483701355755329132e-02
3.218146413564682007e-02 7.123943567276000977e-01 -1.039281953126192093e-02
2.316758781671524048e-02 6.436188817024230957e-01 3.974921256303787231e-02
-8.759390562772750854e-03 7.326577901840209961e-01 -1.616373099386692047e-02
-5.263706669211387634e-03 7.038814425468444824e-01 9.543565101921558380e-03
-7.579686120152473450e-03 6.655063629150390625e-01 -1.849094592034816742e-02
3.787162713706493378e-03 6.741828322410583496e-01 -6.231793016195297241e-02
-7.483212277293205261e-03 6.680412888526916504e-01 -1.137218624353408813e-02
2.905654720962047577e-02 7.223162055015563965e-01 -2.274640277028083801e-02
-3.764977678656578064e-03 7.147741317749023438e-01 1.205086614936590195e-02
9.991630911827087402e-03 6.299101710319519043e-01 2.551785856485366821e-02
-6.365071982145309448e-03 6.579131484031677246e-01 -2.283677272498607635e-02
2.469783090054988861e-02 7.429394125938415527e-01 -1.836317591369152069e-03
1.680921763181686401e-02 6.314312815666198730e-01 3.415572643280029297e-02
2.763776481151580811e-02 7.115828394889831543e-01 2.678689360618591309e-02
1.003399956971406937e-02 7.550647258758544922e-01 8.655195124447345734e-03
1.044553704559803009e-03 6.653431057929992676e-01 2.307938039302825928e-02
3.103412128984928131e-02 6.506634950637817383e-01 3.331510350108146667e-02
8.522914722561836243e-04 6.334904432296752930e-01 1.168160699307918549e-03
3.523181378841400146e-02 6.600189805030822754e-01 -1.201902423053979874e-02
1.116111129522323608e-02 7.629240751266479492e-01 -3.544089198112487793e-02
2.027818560600280762e-02 7.256313562393188477e-01 -4.962935671210289001e-02
-2.103948965668678284e-03 6.397508978843688965e-01 -9.844249114394187927e-03
2.451547980308532715e-02 7.143638134002685547e-01 3.050886467099189758e-02
2.696997672319412231e-02 7.034180760383605957e-01 3.229974582791328430e-02
-9.867707267403602600e-03 7.132862210273742676e-01 -4.217739030718803406e-02
2.865605987608432770e-02 7.306454181671142578e-01 -5.732836201786994934e-03
3.540781885385513306e-02 6.889356374740600586e-01 -9.501697495579719543e-04
3.200605511665344238e-02 7.150096297264099121e-01 -4.601655993610620499e-03
-5.098082125186920166e-03 6.541135311126708984e-01 -8.613700978457927704e-03
3.166399896144866943e-02 6.216011047363281250e-01 7.721384055912494659e-03
1.855918020009994507e-02 7.113801836967468262e-01 3.617846593260765076e-02
1.141481101512908936e-03 7.518416047096252441e-01 3.097762353718280792e-03
3.337256237864494324e-02 6.721098423004150391e-01 -2.361025288701057434e-02
2.517171204090118408e-02 7.215205430984497070e-01 2.506348118185997009e-02
2.715969085693359375e-02 7.341572642326354980e-01 -1.749377325177192688e-02
-1.061764173209667206e-02 7.012799978256225586e-01 -2.115213684737682343e-02
6.672547664493322372e-03 6.642233729362487793e-01 3.343566879630088806e-02
2.160049602389335632e-02 7.081297039985656738e-01 -5.249847844243049622e-02
-7.282510399818420410e-03 7.187172770500183105e-01 -6.185285747051239014e-04
-1.059497706592082977e-02 7.087292075157165527e-01 -1.999863609671592712e-02
2.981969714164733887e-02 7.236662507057189941e-01 -1.467118412256240845e-02
3.365978226065635681e-02 6.815133094787597656e-01 -2.145247720181941986e-02
1.871239207684993744e-02 7.319511175155639648e-01 -4.976730048656463623e-02
2.340805903077125549e-02 6.688757538795471191e-01 -5.004164949059486389e-02
9.078326635062694550e-03 7.667724490165710449e-01 -2.970435470342636108e-02
-9.261367842555046082e-03 6.801427602767944336e-01 -3.128390014171600342e-02
-3.095902502536773682e-03 7.571616768836975098e-01 -1.645047962665557861e-02
1.704681292176246643e-02 6.087563037872314453e-01 -1.818483136594295502e-02
3.346138447523117065e-02 6.541043519973754883e-01 -2.020590379834175110e-02
-2.955652773380279541e-03 6.420839428901672363e-01 -1.750592887401580811e-02
2.583385258913040161e-02 6.654760241508483887e-01 -4.506787285208702087e-02
3.446424752473831177e-02 6.356649994850158691e-01 1.091830525547266006e-02
1.284423004835844040e-02 6.662275195121765137e-01 4.054144397377967834e-02
-7.630487903952598572e-03 7.299409508705139160e-01 -4.849398136138916016e-02
3.001241572201251984e-02 7.182194590568542480e-01 1.334100868552923203e-02
1.259674318134784698e-02 7.277770638465881348e-01 -5.993496999144554138e-02
1.815001294016838074e-02 7.584992647171020508e-01 -1.291311439126729965e-02
2.632605284452438354e-02 7.300609350204467773e-01 -2.889621257781982422e-02
2.888886816799640656e-02 6.584202647209167480e-01 3.779388219118118286e-02
1.557216979563236237e-02 7.599815130233764648e-01 -3.602649085223674774e-03
8.141877129673957825e-03 6.164870858192443848e-01 5.921940319240093231e-03
2.119533531367778778e-02 6.126734614372253418e-01 -2.180926315486431122e-02
4.994145594537258148e-03 6.697274446487426758e-01 3.168191388249397278e-02
-1.228067092597484589e-03 7.583698630332946777e-01 -4.212779924273490906e-02
2.900308556854724884e-02 7.285395860671997070e-01 -1.151405181735754013e-02
1.003240142017602921e-02 6.838966608047485352e-01 3.856952115893363953e-02
3.587075322866439819e-02 6.801460385322570801e-01 9.484135545790195465e-03
3.497839905321598053e-03 7.109391093254089355e-01 2.735592424869537354e-02
-7.672306150197982788e-03 6.894567012786865234e-01 -4.830066114664077759e-02
2.646159939467906952e-02 6.151603460311889648e-01 -1.463497243821620941e-02
5.711862817406654358e-03 6.976808309555053711e-01 3.272560611367225647e-02
-6.377920508384704590e-03 6.793905496597290039e-01 3.131425008177757263e-03
-5.153445526957511902e-04 7.598991394042968750e-01 -1.108892820775508881e-02
2.949030697345733643e-02 6.898089647293090820e-01 -3.674564138054847717e-02
4.411451518535614014e-03 7.674568891525268555e-01 -1.765460148453712463e-02
-7.432796061038970947e-03 7.378553152084350586e-01 -4.461775720119476318e-02
2.464413642883300781e-02 6.580960750579833984e-01 4.165310040116310120e-02
-1.203474588692188263e-03 6.728524565696716309e-01 1.924239471554756165e-02
-1.020702719688415527e-02 7.233903408050537109e-01 -3.516692668199539185e-02
-9.643085300922393799e-03 6.898420453071594238e-01 -1.362400315701961517e-02
3.418342024087905884e-02 6.879786252975463867e-01 1.876251026988029480e-02
3.155947662889957428e-03 6.499896049499511719e-01 2.266916260123252869e-02
-9.660657495260238647e-03 7.305433154106140137e-01 -3.459842875599861145e-02
3.211790695786476135e-03 6.795592904090881348e-01 2.965178713202476501e-02
-9.068999439477920532e-03 6.820491552352905273e-01 -1.298074889928102493e-02
1.956773176789283752e-02 6.086546182632446289e-01 1.527673657983541489e-02
-4.152974113821983337e-03 7.377334237098693848e-01 -5.414129048585891724e-02
2.078761346638202667e-03 7.273815274238586426e-01 2.000258862972259521e-02
2.812044695019721985e-02 6.657816767692565918e-01 -4.010343179106712341e-02
1.341984514147043228e-02 7.079784274101257324e-01 3.691214695572853088e-02
3.495262563228607178e-02 6.918143630027770996e-01 8.675816468894481659e-03
-8.731001988053321838e-03 7.373282313346862793e-01 -2.229238487780094147e-02
1.732126809656620026e-02 7.075216770172119141e-01 -5.919074639678001404e-02
-3.435134887695312500e-03 6.623540520668029785e-01 -4.721629247069358826e-02
1.383085735142230988e-03 7.364733219146728516e-01 1.456234883517026901e-02
