4.702946543693542480e-01 -1.012376546859741211e-01 -3.638004660606384277e-01
6.219491362571716309e-02 3.135191798210144043e-01 3.465285599231719971e-01
2.885093390941619873e-01 3.237749040126800537e-01 -7.229644656181335449e-01
5.446229577064514160e-01 4.456019401550292969e-01 3.571241348981857300e-02
1.120526790618896484e-01 -1.907117664813995361e-02 -3.012659251689910889e-01
6.312943696975708008e-01 4.021311402320861816e-01 -6.984464079141616821e-02
2.463350445032119751e-01 4.919966757297515869e-01 5.567053705453872681e-02
2.597419023513793945e-01 -8.078008890151977539e-02 -3.137259781360626221e-01
7.884172201156616211e-01 1.695815026760101318e-01 2.896265685558319092e-01
5.302348732948303223e-02 3.566844463348388672e-01 2.860175669193267822e-01
7.457768917083740234e-02 3.517205119132995605e-01 3.291605710983276367e-01
1.171671450138092041e-01 2.055303752422332764e-02 -5.366396903991699219e-01
3.361316025257110596e-01 1.401321887969970703e-01 -8.141729831695556641e-01
6.862578392028808594e-01 3.507184982299804688e-01 2.161326110363006592e-01
5.907879471778869629e-01 1.704171448945999146e-01 5.736467838287353516e-01
1.603639274835586548e-01 6.118561327457427979e-02 3.324894607067108154e-01
2.656510472297668457e-02 4.132930934429168701e-02 -1.338752508163452148e-01
2.794178128242492676e-01 2.404448390007019043e-02 -7.099967002868652344e-01
7.691962122917175293e-01 2.846914231777191162e-01 -8.579341322183609009e-02
8.245697617530822754e-02 2.479224205017089844e-01 -7.012879252433776855e-01
-7.368430495262145996e-02 3.075468540191650391e-01 -6.447921693325042725e-02
5.518838167190551758e-01 -8.430573344230651855e-02 -3.989940881729125977e-01
2.074973285198211670e-01 2.611766457557678223e-01 5.333085656166076660e-01
6.056395173072814941e-02 4.383626580238342285e-01 -2.999070286750793457e-01
7.648525834083557129e-01 2.958377301692962646e-01 2.613946050405502319e-02
3.547671735286712646e-01 4.896791875362396240e-01 6.884855777025222778e-02
6.203479766845703125e-01 1.599634587764739990e-01 -6.478503942489624023e-01
3.965343534946441650e-01 4.454595148563385010e-01 -3.952438235282897949e-01
4.511550068855285645e-02 4.166323840618133545e-01 -3.728863894939422607e-01
2.086166143417358398e-01 4.771746695041656494e-01 1.487541794776916504e-01
5.457140207290649414e-01 1.349882334470748901e-01 5.838311314582824707e-01
1.446114927530288696e-01 2.509236037731170654e-01 4.765105843544006348e-01
3.312826156616210938e-04 4.167683720588684082e-01 -1.474046260118484497e-01
6.140002012252807617e-01 -1.412160694599151611e-02 -5.383110046386718750e-01
6.773438453674316406e-01 -7.010778784751892090e-02 -2.129272818565368652e-01
8.334658145904541016e-01 1.166843175888061523e-01 1.424649357795715332e-02
6.897640228271484375e-02 4.589459300041198730e-02 -5.062292814254760742e-01
7.535008192062377930e-01 3.539624810218811035e-02 2.720583081245422363e-01
6.228764057159423828e-01 1.314546912908554077e-01 -6.483250260353088379e-01
-6.751272082328796387e-02 3.167946636676788330e-01 -3.042415678501129150e-01
2.947079539299011230e-01 4.730592966079711914e-01 -3.262735307216644287e-01
3.996282815933227539e-01 3.758354187011718750e-01 -6.001896858215332031e-01
1.960848271846771240e-01 4.331234097480773926e-01 -4.855602979660034180e-01
3.613838553428649902e-02 5.580654740333557129e-02 2.790496498346328735e-02
8.085739612579345703e-02 4.406346976757049561e-01 -3.368950784206390381e-01
2.855617403984069824e-01 9.251013398170471191e-03 -6.875584125518798828e-01
6.091709136962890625e-01 2.358762323856353760e-01 -6.157009601593017578e-01
4.414442777633666992e-01 -5.584374070167541504e-03 -6.738249063491821289e-01
7.598479390144348145e-01 -2.518570423126220703e-02 -4.400579258799552917e-02
7.631021738052368164e-01 2.150495499372482300e-01 3.291253745555877686e-01
2.624479830265045166e-01 4.954644441604614258e-01 -1.172044128179550171e-01
2.792093157768249512e-01 -6.329387426376342773e-03 -6.535754799842834473e-01
6.676113605499267578e-02 2.267019450664520264e-02 -1.026586443185806274e-02
2.243671715259552002e-01 2.892462909221649170e-02 3.497603833675384521e-01
1.734808087348937988e-01 -3.283484280109405518e-02 5.307068675756454468e-02
1.202091872692108154e-01 8.184520155191421509e-02 3.090723156929016113e-01
7.985459566116333008e-01 1.897244602441787720e-01 2.380487918853759766e-01
-6.101578474044799805e-03 3.090128600597381592e-01 2.125810980796813965e-01
-1.821884512901306152e-02 4.014113545417785645e-01 -1.368492692708969116e-01
4.869450926780700684e-01 3.111705780029296875e-01 -6.528968811035156250e-01
7.856060266494750977e-01 2.688010931015014648e-01 5.537115037441253662e-03
4.081983864307403564e-01 4.487803876399993896e-01 3.068340718746185303e-01
2.444017976522445679e-01 -8.042713999748229980e-02 -2.350435853004455566e-01
1.428682059049606323e-01 4.663953781127929688e-01 1.176981702446937561e-01
4.738123714923858643e-01 3.923875093460083008e-01 -4.985249936580657959e-01
1.240450143814086914e-02 3.861263990402221680e-01 -4.080803096294403076e-01
3.237573504447937012e-01 2.209477424621582031e-01 6.020506620407104492e-01
6.207701563835144043e-02 3.139084577560424805e-02 1.837816834449768066e-02
1.763565987348556519e-01 3.400961458683013916e-01 -6.814613938331604004e-01
7.179360389709472656e-01 -2.709001302719116211e-02 -3.110448420047760010e-01
3.627271950244903564e-01 -7.311686873435974121e-02 1.760226786136627197e-01
3.977417945861816406e-02 2.004938274621963501e-01 3.118854165077209473e-01
5.962139368057250977e-02 1.217243745923042297e-01 2.651784718036651611e-01
8.927294611930847168e-02 5.594286322593688965e-02 -5.774802565574645996e-01
4.114059507846832275e-01 2.310713827610015869e-01 -7.796829342842102051e-01
8.335397839546203613e-01 1.249718144536018372e-01 -3.978279605507850647e-02
-6.317982077598571777e-02 2.238832265138626099e-01 3.091596812009811401e-02
7.491786479949951172e-01 2.759025096893310547e-01 2.629000246524810791e-01
5.648199319839477539e-01 1.702705025672912598e-02 -6.375573873519897461e-01
4.912505149841308594e-01 3.903917074203491211e-01 -4.843070507049560547e-01
5.100084543228149414e-01 3.251930475234985352e-01 -6.093115210533142090e-01
-4.885911941528320312e-03 3.720727562904357910e-01 1.194548085331916809e-01
5.931597352027893066e-01 4.142284393310546875e-01 1.770592927932739258e-01
4.358366131782531738e-01 4.329160153865814209e-01 3.494735360145568848e-01
5.222929716110229492e-01 5.696678161621093750e-02 5.229935646057128906e-01
7.948054075241088867e-01 1.217499375343322754e-02 -4.094163700938224792e-02
5.590800046920776367e-01 4.334215521812438965e-01 -1.426111161708831787e-01
3.513927459716796875e-01 4.190757870674133301e-01 -5.180454254150390625e-01
7.984086275100708008e-01 2.297520637512207031e-02 -1.240331381559371948e-01
6.126435995101928711e-01 4.146500825881958008e-01 2.086751163005828857e-02
1.946596056222915649e-01 2.717772126197814941e-02 3.076839745044708252e-01
1.396820992231369019e-01 4.402523934841156006e-01 2.336300015449523926e-01
5.053207874298095703e-01 -4.829189181327819824e-02 3.154199719429016113e-01
3.200537264347076416e-01 -4.305845499038696289e-02 2.555744349956512451e-01
1.034681499004364014e-01 -1.078656315803527832e-02 -7.294032722711563110e-02
6.367819309234619141e-01 6.083458662033081055e-02 -6.057986617088317871e-01
4.521649181842803955e-01 4.719377458095550537e-01 9.344030171632766724e-02
1.850235015153884888e-01 -2.989454567432403564e-02 -4.814982116222381592e-01
3.928583264350891113e-01 3.463050425052642822e-01 5.446591377258300781e-01
1.563161015510559082e-01 4.658015370368957520e-01 -3.158987164497375488e-01
3.525472581386566162e-01 -8.109977841377258301e-02 1.256672441959381104e-01
3.845993578433990479e-01 -7.325217127799987793e-02 1.929965615272521973e-01
6.944924592971801758e-01 1.398084759712219238e-01 -5.448168516159057617e-01
4.377073943614959717e-01 -1.044919788837432861e-01 -3.442416787147521973e-01
7.418464422225952148e-01 1.733887791633605957e-01 4.022973775863647461e-01
1.959938406944274902e-01 -5.401352047920227051e-02 -3.638657629489898682e-01
-5.154341459274291992e-02 3.351255655288696289e-01 1.916994154453277588e-02
-4.514217376708984375e-03 7.261998951435089111e-02 -2.986861765384674072e-01
3.216621875762939453e-01 -9.933999180793762207e-02 -2.611244618892669678e-01
2.162703871726989746e-01 -2.581642568111419678e-02 1.807203292846679688e-01
1.159583926200866699e-01 1.237571462988853455e-01 -7.113600969314575195e-01
3.355992436408996582e-01 4.943192005157470703e-01 -3.422208130359649658e-03
5.203622579574584961e-01 2.958611845970153809e-01 -6.446740031242370605e-01
-6.438258290290832520e-02 2.237716615200042725e-01 -4.061548709869384766e-01
4.686182141304016113e-01 4.711679220199584961e-01 -3.157562017440795898e-02
3.926919996738433838e-01 2.309877574443817139e-01 -7.867591977119445801e-01
5.404066443443298340e-01 4.457983076572418213e-01 7.510807365179061890e-02
7.624295353889465332e-02 3.481529057025909424e-01 -5.964853167533874512e-01
3.659342229366302490e-01 5.413389205932617188e-02 5.020009875297546387e-01
5.374795198440551758e-01 1.175690889358520508e-01 5.764907598495483398e-01
-3.596672415733337402e-02 1.104616746306419373e-01 -1.340731531381607056e-01
5.448952913284301758e-01 -1.092930734157562256e-01 -2.141015231609344482e-01
4.878489077091217041e-01 -7.054343819618225098e-03 4.211437702178955078e-01
-7.346254587173461914e-02 1.770685464143753052e-01 -2.350465953350067139e-01
4.780839681625366211e-01 -6.334349513053894043e-02 -5.293229818344116211e-01
3.971002697944641113e-01 1.862212121486663818e-01 6.164435744285583496e-01
4.939443767070770264e-01 -1.107207238674163818e-01 -2.695191800594329834e-01
4.119824767112731934e-01 -1.117060780525207520e-01 -2.538302242755889893e-01
3.788800537586212158e-01 1.165658533573150635e-01 -8.028132319450378418e-01
3.198374509811401367e-01 4.667642712593078613e-01 2.562316656112670898e-01
2.815166115760803223e-02 2.230131775140762329e-01 3.005706369876861572e-01
4.409106969833374023e-01 1.468126773834228516e-01 6.061086058616638184e-01
5.002906322479248047e-01 3.980774581432342529e-01 -4.497901201248168945e-01
1.736897677183151245e-01 -5.099500715732574463e-02 -1.039969250559806824e-01
1.432891786098480225e-01 -3.885072469711303711e-02 -2.439517378807067871e-01
1.737416535615921021e-01 2.454523295164108276e-01 -7.683348655700683594e-01
2.640689611434936523e-01 -7.145738601684570312e-02 -4.057592451572418213e-01
6.649610400199890137e-02 3.112323284149169922e-01 -6.365986466407775879e-01
3.371593058109283447e-01 -1.041811704635620117e-01 -1.362192183732986450e-01
5.769557356834411621e-01 2.310992926359176636e-01 -6.584725975990295410e-01
2.818500101566314697e-01 1.347301155328750610e-01 -8.094738125801086426e-01
4.590933024883270264e-01 -9.944206476211547852e-02 9.065286070108413696e-02
-6.828099489212036133e-03 3.529459834098815918e-01 -4.513524472713470459e-01
1.449090242385864258e-02 3.967997729778289795e-01 1.090414747595787048e-01
5.044773817062377930e-01 -1.609702408313751221e-02 -6.295248270034790039e-01
2.021462619304656982e-01 -5.903349816799163818e-02 -4.799777269363403320e-02
5.910669565200805664e-01 2.282250821590423584e-01 5.664179325103759766e-01
5.468990802764892578e-01 -1.106488406658172607e-01 -1.779109239578247070e-01
6.804546117782592773e-01 3.436203002929687500e-01 -2.540238499641418457e-01
6.150373816490173340e-01 2.594802677631378174e-01 -5.816215872764587402e-01
5.782834887504577637e-01 3.676739335060119629e-01 -4.225308895111083984e-01
6.774336099624633789e-02 3.763554692268371582e-01 -5.324171781539916992e-01
5.335539579391479492e-01 4.502144455909729004e-01 -1.790721714496612549e-02
1.210550665855407715e-01 2.665698230266571045e-01 -7.248408198356628418e-01
4.622401595115661621e-01 2.815124392509460449e-01 -7.097951173782348633e-01
1.583558320999145508e-01 1.383061408996582031e-01 -7.581809163093566895e-01
3.488559126853942871e-01 2.044348418712615967e-02 4.379081726074218750e-01
2.019058465957641602e-01 3.843724131584167480e-01 4.278203248977661133e-01
4.886591136455535889e-01 1.145885512232780457e-01 5.846512913703918457e-01
1.493279039859771729e-01 1.638327538967132568e-02 2.031425833702087402e-01
5.489174127578735352e-01 5.525963008403778076e-02 -6.902107000350952148e-01
2.819023132324218750e-01 -6.886634230613708496e-02 -4.491148591041564941e-01
1.757079511880874634e-01 3.244217038154602051e-01 4.767228960990905762e-01
6.134845614433288574e-01 3.964492082595825195e-01 -2.179711759090423584e-01
5.268900394439697266e-01 4.054128527641296387e-01 -3.845907151699066162e-01
8.614662289619445801e-02 8.177162706851959229e-02 2.457610070705413818e-01
-2.326455712318420410e-02 3.786828517913818359e-01 -3.165491819381713867e-01
4.128294885158538818e-01 2.896957099437713623e-01 -7.294024825096130371e-01
3.956905007362365723e-02 3.179284930229187012e-02 -3.087387979030609131e-01
4.156175851821899414e-01 3.695377707481384277e-01 5.085994601249694824e-01
1.754203289747238159e-01 1.291204988956451416e-01 -7.648426890373229980e-01
-1.858496665954589844e-02 1.112672761082649231e-01 -4.144026041030883789e-01
1.692387163639068604e-01 4.833257794380187988e-01 2.678037434816360474e-02
7.272670269012451172e-01 1.342770159244537354e-01 -4.838276803493499756e-01
7.753767371177673340e-01 1.880938708782196045e-01 -3.305931985378265381e-01
5.060110688209533691e-01 3.609007000923156738e-01 -5.425841212272644043e-01
-8.610549569129943848e-02 2.340875267982482910e-01 -2.365629076957702637e-01
7.668218612670898438e-01 2.914789915084838867e-01 7.532768696546554565e-02
-8.281970024108886719e-02 2.787227630615234375e-01 -1.012736782431602478e-01
4.428339004516601562e-01 1.298137009143829346e-02 -7.018761634826660156e-01
2.137691080570220947e-01 -6.778234243392944336e-02 -2.837116420269012451e-01
6.117755174636840820e-01 2.911835312843322754e-01 -5.404171943664550781e-01
3.880271613597869873e-01 -9.891933202743530273e-02 4.855731874704360962e-02
6.680068969726562500e-01 -5.721238255500793457e-02 -3.250202238559722900e-01
3.953349590301513672e-02 3.433483541011810303e-01 2.783246636390686035e-01
7.878093719482421875e-01 2.230714559555053711e-01 2.335395514965057373e-01
5.038240551948547363e-01 4.197414219379425049e-02 5.059224963188171387e-01
5.651227235794067383e-01 -1.059280335903167725e-01 -2.147956788539886475e-01
4.952692985534667969e-01 4.631472229957580566e-01 2.501470595598220825e-02
3.071444034576416016e-01 4.942409396171569824e-01 4.038395732641220093e-02
4.198397397994995117e-01 2.978618144989013672e-01 -7.163757085800170898e-01
4.593365490436553955e-01 -3.795193135738372803e-02 3.445737659931182861e-01
8.491590619087219238e-02 3.846014738082885742e-01 2.946670949459075928e-01
2.424079030752182007e-01 -6.328564882278442383e-02 4.611342400312423706e-02
5.530645847320556641e-01 -1.926499605178833008e-02 3.817774057388305664e-01
3.945262432098388672e-01 4.627959430217742920e-01 -3.127239048480987549e-01
5.772140622138977051e-01 2.710702419281005859e-01 -6.161764264106750488e-01
6.836948394775390625e-01 4.845783114433288574e-02 4.100998640060424805e-01
6.441147923469543457e-01 1.661664098501205444e-01 -6.153517365455627441e-01
1.948352754116058350e-01 4.749945998191833496e-01 -2.947925627231597900e-01
1.212129592895507812e-01 2.172040939331054688e-02 1.600210666656494141e-01
2.699018120765686035e-01 9.046062827110290527e-03 -6.796133518218994141e-01
2.234955430030822754e-01 4.463737308979034424e-01 -4.481250643730163574e-01
2.002124041318893433e-01 1.463092565536499023e-01 -7.870016694068908691e-01
7.803592085838317871e-02 1.975329667329788208e-01 3.765952885150909424e-01
1.361596435308456421e-01 -3.573648631572723389e-02 -1.980266869068145752e-01
6.017068028450012207e-02 2.481529116630554199e-02 -2.940402925014495850e-02
3.040913939476013184e-01 3.927429914474487305e-01 -6.013075113296508789e-01
2.798020839691162109e-02 7.880327850580215454e-02 8.514939993619918823e-02
9.072050452232360840e-02 1.591610014438629150e-01 3.676984608173370361e-01
4.872419536113739014e-01 2.548791766166687012e-01 6.050272583961486816e-01
4.195272326469421387e-01 -1.052446067333221436e-01 2.513998001813888550e-02
3.667728304862976074e-01 -1.090768873691558838e-01 -2.028644680976867676e-01
5.629310011863708496e-01 4.376810491085052490e-01 -4.752099141478538513e-02
7.485651969909667969e-02 5.704475939273834229e-02 1.580657362937927246e-01
6.221615672111511230e-01 4.089739322662353516e-01 -3.143062442541122437e-02
3.724679648876190186e-01 9.405881911516189575e-02 5.534235835075378418e-01
2.547737956047058105e-01 -7.342594861984252930e-02 -3.716922402381896973e-01
4.966846406459808350e-01 4.328193664550781250e-01 -3.190090656280517578e-01
3.983661532402038574e-02 4.718625545501708984e-02 -4.162485301494598389e-01
8.015071153640747070e-01 2.222600281238555908e-01 1.621869206428527832e-01
5.724298954010009766e-01 3.175427019596099854e-01 -5.502392649650573730e-01
5.592375993728637695e-01 -1.094094812870025635e-01 -9.096147865056991577e-02
-6.037041544914245605e-02 2.054895609617233276e-01 2.507436275482177734e-02
7.984286546707153320e-01 2.424517571926116943e-01 1.015089377760887146e-01
4.665041565895080566e-01 4.313983619213104248e-01 3.305166065692901611e-01
7.926256060600280762e-01 2.523927092552185059e-01 -7.724808156490325928e-02
1.015932857990264893e-01 2.878033518791198730e-01 -6.938037872314453125e-01
7.420677542686462402e-01 3.203078508377075195e-01 -1.235756278038024902e-02
7.165987491607666016e-01 -5.628013610839843750e-02 -8.911085873842239380e-02
6.187991499900817871e-01 -1.889362931251525879e-02 -5.229091644287109375e-01
3.342394530773162842e-01 6.508982181549072266e-02 -7.728993892669677734e-01
4.037744402885437012e-01 6.816085427999496460e-02 5.334438085556030273e-01
4.367350339889526367e-01 4.410414099693298340e-01 -3.712093830108642578e-01
5.783959627151489258e-01 -1.047946214675903320e-01 -1.885949671268463135e-01
1.885668188333511353e-01 3.730108141899108887e-01 -6.319562792778015137e-01
1.871601790189743042e-01 4.688603281974792480e-01 1.730438470840454102e-01
3.210832476615905762e-01 -3.370833396911621094e-02 2.870975732803344727e-01
1.827007532119750977e-02 5.371603369712829590e-02 -3.372212052345275879e-01
6.621077060699462891e-01 2.284285128116607666e-01 -5.457137227058410645e-01
4.872584342956542969e-01 -9.603214263916015625e-02 -3.892270326614379883e-01
7.746973633766174316e-02 1.657785922288894653e-01 -6.950529813766479492e-01
7.857030630111694336e-01 9.545341134071350098e-03 -1.571375727653503418e-01
6.127328872680664062e-01 -3.382956981658935547e-02 3.097185492515563965e-01
5.739409923553466797e-01 -5.819492042064666748e-02 -4.758058786392211914e-01
-6.895583868026733398e-02 2.534120678901672363e-01 1.570378988981246948e-02
7.800936698913574219e-03 4.143628180027008057e-01 -2.577608525753021240e-01
5.973098278045654297e-01 4.036777019500732422e-01 2.334447205066680908e-01
-5.428424477577209473e-02 1.356965303421020508e-01 -2.353368997573852539e-01
-8.338975906372070312e-02 2.292119860649108887e-01 -2.761324346065521240e-01
6.707242727279663086e-01 -7.585579156875610352e-02 3.402516245841979980e-03
6.212335824966430664e-01 3.593047857284545898e-01 -3.622845411300659180e-01
7.831350564956665039e-01 2.088426500558853149e-01 2.743162810802459717e-01
2.054032087326049805e-01 1.192532852292060852e-01 -7.765546441078186035e-01
7.501054406166076660e-01 2.808047533035278320e-01 2.449406981468200684e-01
6.779690384864807129e-01 -7.616239786148071289e-02 -8.220073580741882324e-02
6.962783336639404297e-01 4.752552509307861328e-02 -5.053505301475524902e-01
7.887488603591918945e-01 8.908953517675399780e-02 2.625793218612670898e-01
2.709457278251647949e-02 2.063356786966323853e-01 -6.376366019248962402e-01
1.985165774822235107e-01 4.516751468181610107e-01 2.612560987472534180e-01
2.093589901924133301e-01 2.299420535564422607e-02 3.176119327545166016e-01
2.981500923633575439e-01 -9.231975674629211426e-02 -6.536194682121276855e-02
6.426050662994384766e-01 -2.549850940704345703e-02 -4.753426909446716309e-01
1.380951851606369019e-01 2.015955746173858643e-02 -5.732396841049194336e-01
4.129172265529632568e-01 4.319155216217041016e-02 -7.460219860076904297e-01
7.557530999183654785e-01 1.633828878402709961e-02 2.209830880165100098e-01
6.838928461074829102e-01 7.396095246076583862e-02 -5.474748015403747559e-01
6.460239291191101074e-01 -6.669691205024719238e-02 -3.320100903511047363e-01
7.493832111358642578e-01 -2.818684279918670654e-02 4.379785805940628052e-02
4.993239045143127441e-01 4.589510560035705566e-01 9.427533298730850220e-02
6.202657818794250488e-01 3.897864818572998047e-01 -2.338186800479888916e-01
4.361411929130554199e-01 9.967833757400512695e-04 4.330644607543945312e-01
-5.618098378181457520e-02 2.986430525779724121e-01 5.706007033586502075e-02
2.726494669914245605e-01 -8.695682883262634277e-02 -2.770480215549468994e-01
3.401162028312683105e-01 -4.558204114437103271e-02 2.650261223316192627e-01
4.685787558555603027e-01 2.730443775653839111e-01 6.002463102340698242e-01
-3.372967243194580078e-03 2.175892591476440430e-01 2.281416058540344238e-01
7.992035150527954102e-01 2.158816158771514893e-01 -1.813711524009704590e-01
1.261590421199798584e-01 4.524162411689758301e-01 1.626864671707153320e-01
7.937542200088500977e-01 2.319214791059494019e-01 -1.663939654827117920e-01
3.831274509429931641e-01 4.891952574253082275e-01 -2.064780890941619873e-02
7.730170488357543945e-01 2.230313122272491455e-01 -2.867340147495269775e-01
3.717135190963745117e-01 1.881652325391769409e-01 6.119983196258544922e-01
-7.729089260101318359e-02 1.870707571506500244e-01 -2.113362699747085571e-01
3.229689300060272217e-01 3.211022615432739258e-01 -7.221928834915161133e-01
5.248858928680419922e-01 2.553313970565795898e-01 -6.881408691406250000e-01
-7.962396740913391113e-02 2.326462864875793457e-01 -3.179270327091217041e-01
4.542814195156097412e-01 4.750178754329681396e-01 -7.598616182804107666e-03
3.806903362274169922e-01 4.437380433082580566e-01 3.386677801609039307e-01
5.574643611907958984e-02 1.782924979925155640e-01 -6.724555492401123047e-01
1.926451474428176880e-01 4.062952101230621338e-01 3.804989755153656006e-01
2.419151067733764648e-01 3.863224387168884277e-01 4.511314630508422852e-01
3.565796315670013428e-01 1.952445060014724731e-01 6.096627116203308105e-01
6.718605160713195801e-01 5.122084915637969971e-02 4.272867441177368164e-01
4.854804277420043945e-02 4.385395050048828125e-01 -2.571669518947601318e-01
6.188875436782836914e-02 8.304867893457412720e-02 1.945393681526184082e-01
3.574478328227996826e-01 -2.406315505504608154e-02 -6.429004669189453125e-01
5.512349009513854980e-01 4.213805198669433594e-01 2.513824999332427979e-01
5.505419373512268066e-01 4.091516435146331787e-01 -3.243005871772766113e-01
3.952298164367675781e-01 -5.475343763828277588e-02 2.716392278671264648e-01
8.222630620002746582e-01 8.588796854019165039e-02 -1.398428529500961304e-01
1.763381510972976685e-01 4.882676303386688232e-01 -8.180091530084609985e-02
6.723642349243164062e-02 2.616932094097137451e-01 3.748158216476440430e-01
4.035683274269104004e-01 4.810213446617126465e-01 -1.520099937915802002e-01
2.368626147508621216e-01 3.088451325893402100e-01 -7.382975816726684570e-01
-1.129654049873352051e-02 4.006220698356628418e-01 -2.502849102020263672e-01
6.087940931320190430e-01 -9.320756793022155762e-02 2.834362536668777466e-02
4.543952643871307373e-01 -7.536432147026062012e-02 2.164849042892456055e-01
7.660347223281860352e-01 1.031322106719017029e-01 -3.901822566986083984e-01
5.182272195816040039e-02 2.795486152172088623e-02 -5.449562519788742065e-02
8.194477558135986328e-01 5.578510463237762451e-02 -4.902583360671997070e-02
4.352002441883087158e-01 4.354834556579589844e-01 -3.966549038887023926e-01
3.238354325294494629e-01 4.915433228015899658e-01 -1.556604206562042236e-01
-1.251363754272460938e-02 9.713082015514373779e-02 -2.275760471820831299e-02
1.595910489559173584e-01 -1.966123282909393311e-02 8.555520325899124146e-02
7.469894886016845703e-01 2.837193012237548828e-01 -2.299194037914276123e-01
6.671506166458129883e-01 3.598842620849609375e-01 2.419838905334472656e-01
2.944723963737487793e-01 -5.457465350627899170e-02 1.831149458885192871e-01
5.709450840950012207e-01 5.872346460819244385e-02 5.097277164459228516e-01
7.071874141693115234e-01 1.282033026218414307e-01 -5.233544111251831055e-01
5.289463996887207031e-01 -9.974372386932373047e-02 -3.346372842788696289e-01
7.631137371063232422e-01 2.585627734661102295e-01 -2.416644096374511719e-01
-5.104991793632507324e-02 1.382475644350051880e-01 -1.023945957422256470e-01
4.297928810119628906e-01 4.634311497211456299e-01 -2.596101164817810059e-01
1.140272021293640137e-01 3.687148988246917725e-01 -5.962411165237426758e-01
1.082587242126464844e-02 1.838627457618713379e-01 2.371161878108978271e-01
5.760817527770996094e-01 4.125823378562927246e-01 2.408460080623626709e-01
2.585850954055786133e-01 4.927157461643218994e-01 -1.672353744506835938e-01
6.192116141319274902e-01 3.607010841369628906e-02 4.519606828689575195e-01
3.022162020206451416e-01 -9.297385811805725098e-02 -2.970295846462249756e-01
2.288224846124649048e-01 3.461552262306213379e-01 4.969773292541503906e-01
-5.843183398246765137e-02 1.697436571121215820e-01 -3.686360418796539307e-01
6.120901703834533691e-01 -6.163251399993896484e-02 -4.155012965202331543e-01
4.135468304157257080e-01 8.437544107437133789e-03 -7.021199464797973633e-01
6.669859886169433594e-01 3.821215629577636719e-01 2.539343386888504028e-02
8.174183964729309082e-01 1.198715716600418091e-01 1.756626367568969727e-01
3.237678110599517822e-01 2.516112327575683594e-01 5.993319153785705566e-01
6.287875175476074219e-01 -6.296226382255554199e-02 -3.830484449863433838e-01
8.125176429748535156e-01 5.808271467685699463e-02 1.004122570157051086e-01
-2.812686562538146973e-02 1.798780858516693115e-01 -5.073780417442321777e-01
6.457785367965698242e-01 -2.330404520034790039e-02 3.078912794589996338e-01
3.917045891284942627e-01 2.948662638664245605e-02 4.734532237052917480e-01
1.630899757146835327e-01 2.949382960796356201e-01 4.837977290153503418e-01
2.106310725212097168e-01 4.225975871086120605e-01 3.581729531288146973e-01
5.356515645980834961e-01 -7.352769374847412109e-02 2.187499701976776123e-01
5.398236513137817383e-01 2.899886071681976318e-01 -6.332058310508728027e-01
6.118590235710144043e-01 3.036217391490936279e-01 -5.184786915779113770e-01
4.974532723426818848e-01 1.513058692216873169e-01 -7.605952620506286621e-01
3.310188353061676025e-01 -4.250140488147735596e-02 -5.884708166122436523e-01
6.520290374755859375e-01 3.731198310852050781e-01 2.275575995445251465e-01
-6.693580746650695801e-02 2.669467031955718994e-01 2.554212510585784912e-02
5.404889583587646484e-01 -7.783484458923339844e-02 1.979482769966125488e-01
4.847539961338043213e-01 2.339665591716766357e-01 -7.377444505691528320e-01
2.747306227684020996e-02 3.895080089569091797e-01 -4.322112798690795898e-01
3.665020167827606201e-01 3.305400609970092773e-01 5.618442296981811523e-01
5.855712890625000000e-01 -6.024211645126342773e-02 2.438991069793701172e-01
4.172765016555786133e-01 -9.792643785476684570e-02 -3.880605101585388184e-01
4.587154686450958252e-01 -9.732240438461303711e-02 -3.918334841728210449e-01
4.347115755081176758e-01 4.538041651248931885e-01 2.631861567497253418e-01
8.109936714172363281e-01 3.789086639881134033e-02 -5.277049541473388672e-02
3.526887595653533936e-01 -7.701250910758972168e-02 1.474522352218627930e-01
2.378154695034027100e-01 4.497216343879699707e-01 -4.381777048110961914e-01
1.668268442153930664e-02 4.237916469573974609e-01 -2.261779904365539551e-01
7.732656598091125488e-01 3.569085896015167236e-02 -3.013799488544464111e-01
5.862832069396972656e-01 4.155090451240539551e-01 -1.880467981100082397e-01
3.777412772178649902e-01 -9.918981790542602539e-02 -3.593979477882385254e-01
5.556462407112121582e-01 -9.956762194633483887e-02 -3.020053505897521973e-01
6.913661956787109375e-01 3.640898466110229492e-01 5.547811836004257202e-02
1.900723576545715332e-02 4.075445532798767090e-01 8.356181532144546509e-02
6.675993204116821289e-01 3.043429255485534668e-01 -4.127102494239807129e-01
2.996251881122589111e-01 -4.199269413948059082e-02 -5.732578039169311523e-01
7.474478483200073242e-01 4.801967740058898926e-02 -3.975611925125122070e-01
5.767356753349304199e-01 1.359926760196685791e-01 -6.979650259017944336e-01
5.228007435798645020e-01 1.031016558408737183e-01 -7.366498708724975586e-01
7.064162492752075195e-01 -1.593621075153350830e-02 2.406835258007049561e-01
6.607698202133178711e-01 -5.791600048542022705e-02 1.628067791461944580e-01
5.241963267326354980e-02 1.125492081046104431e-01 2.339977622032165527e-01
6.261168718338012695e-01 3.262737989425659180e-01 4.281995892524719238e-01
2.687838971614837646e-01 -8.626949787139892578e-02 -9.905792772769927979e-02
4.554578661918640137e-01 4.261066019535064697e-01 3.588210642337799072e-01
3.253774940967559814e-01 4.376497566699981689e-01 -4.704013764858245850e-01
1.182538866996765137e-01 4.565912187099456787e-01 -3.171473741531372070e-01
2.860936522483825684e-02 2.497188597917556763e-01 3.075649440288543701e-01
6.840271353721618652e-01 3.584484755992889404e-01 1.803979575634002686e-01
4.075703322887420654e-01 -8.038818836212158203e-02 1.752101480960845947e-01
6.093377470970153809e-01 -9.817767143249511719e-02 -1.733236014842987061e-01
3.950840234756469727e-02 3.187884390354156494e-02 -1.117921620607376099e-01
5.024319291114807129e-01 -1.136314868927001953e-01 -5.696348100900650024e-02
9.904310107231140137e-02 1.680102348327636719e-01 -7.199860811233520508e-01
1.180219054222106934e-01 4.744139909744262695e-01 -6.603175401687622070e-02
-6.996959447860717773e-02 1.707451492547988892e-01 -1.456260234117507935e-01
2.178676873445510864e-01 2.316744178533554077e-01 5.432521700859069824e-01
1.471317261457443237e-01 -2.864211797714233398e-02 -3.903166055679321289e-01
4.606399834156036377e-01 -8.940032124519348145e-02 1.514246463775634766e-01
5.387670993804931641e-01 -1.034435927867889404e-01 4.068530350923538208e-02
3.217628002166748047e-01 4.772368371486663818e-01 -2.886666357517242432e-01
5.515531301498413086e-01 3.679135441780090332e-01 4.326041936874389648e-01
-7.216036319732666016e-04 2.345221787691116333e-01 -5.890881419181823730e-01
6.784697771072387695e-01 3.688668012619018555e-01 1.283239424228668213e-01
6.834379434585571289e-01 2.020919173955917358e-01 4.860264062881469727e-01
5.348891019821166992e-01 4.385741949081420898e-01 -1.903907954692840576e-01
3.997853398323059082e-01 8.250328898429870605e-02 5.492100715637207031e-01
4.727800190448760986e-01 3.569564223289489746e-01 -5.847546458244323730e-01
2.493773996829986572e-01 1.317023783922195435e-01 -8.008100390434265137e-01
9.653788805007934570e-02 1.271040737628936768e-01 3.410202860832214355e-01
6.671581864356994629e-01 7.589588314294815063e-02 -5.743861794471740723e-01
7.098537087440490723e-01 -4.516746103763580322e-02 1.086557731032371521e-01
2.650728821754455566e-02 2.795813083648681641e-01 -6.144794225692749023e-01
-3.910315036773681641e-02 2.088397145271301270e-01 -4.940913915634155273e-01
3.345054686069488525e-01 -8.151045441627502441e-02 1.012909486889839172e-01
2.447512447834014893e-01 -2.700121700763702393e-02 -5.749461054801940918e-01
7.186725139617919922e-01 3.100583255290985107e-01 2.664930224418640137e-01
3.668893575668334961e-01 1.864749193191528320e-02 -7.204554677009582520e-01
4.941642284393310547e-02 2.867915034294128418e-01 -6.402943134307861328e-01
2.918584048748016357e-01 3.997219204902648926e-01 -5.872468948364257812e-01
6.070743799209594727e-01 -7.331147789955139160e-02 1.675560176372528076e-01
6.140957474708557129e-01 1.291229724884033203e-01 5.455912947654724121e-01
7.523711919784545898e-01 2.857677340507507324e-01 -1.965527832508087158e-01
-3.792184591293334961e-02 2.491252571344375610e-01 -5.002219080924987793e-01
6.392818689346313477e-01 2.880539596080780029e-01 -5.011879205703735352e-01
8.391425013542175293e-02 -3.501906991004943848e-03 -1.465039253234863281e-01
1.453531533479690552e-01 2.434204369783401489e-01 -7.536307573318481445e-01
2.927161455154418945e-01 2.320563793182373047e-02 4.051542282104492188e-01
3.820505440235137939e-01 4.720229506492614746e-01 -2.698017358779907227e-01
2.921267151832580566e-01 3.115716278553009033e-01 5.600232481956481934e-01
2.268344312906265259e-01 4.814018309116363525e-01 -2.690431475639343262e-01
3.745241165161132812e-01 4.842441380023956299e-01 -1.743128597736358643e-01
2.318231314420700073e-01 4.028566181659698486e-01 4.156081080436706543e-01
5.432871580123901367e-01 4.003183543682098389e-02 4.949803352355957031e-01
2.794467806816101074e-01 2.941375374794006348e-01 5.656326413154602051e-01
1.662959605455398560e-01 4.447571039199829102e-01 -4.274423718452453613e-01
5.601484775543212891e-01 2.503629028797149658e-02 4.663602113723754883e-01
5.245503187179565430e-01 1.748286187648773193e-02 -6.687976121902465820e-01
3.324093222618103027e-01 -2.106839418411254883e-02 3.331103622913360596e-01
8.234329819679260254e-01 1.548795998096466064e-01 -1.420857757329940796e-01
6.048330664634704590e-01 -1.006810963153839111e-01 -1.227701753377914429e-01
6.238417625427246094e-01 2.183623611927032471e-02 -5.828728675842285156e-01
7.288372516632080078e-02 1.504352986812591553e-01 -6.807653307914733887e-01
6.531999111175537109e-01 2.828577160835266113e-01 -4.854559898376464844e-01
3.241837024688720703e-03 3.967463970184326172e-01 -3.408437371253967285e-01
7.324785590171813965e-01 -3.067289292812347412e-02 -2.431657016277313232e-01
-6.607741117477416992e-03 2.463839054107666016e-01 -5.748945474624633789e-01
3.913338184356689453e-01 3.144374489784240723e-01 5.782878994941711426e-01
1.542475819587707520e-02 1.223270446062088013e-01 1.591802537441253662e-01
3.948706388473510742e-02 3.324991464614868164e-01 -5.748130679130554199e-01
3.149049878120422363e-01 3.797186315059661865e-01 -6.270114183425903320e-01
1.304046064615249634e-01 -1.155748963356018066e-02 4.114177078008651733e-02
3.048635721206665039e-01 4.895424246788024902e-01 1.053637042641639709e-01
5.275244712829589844e-01 -9.278979897499084473e-02 1.258892118930816650e-01
1.072582602500915527e-02 1.106716990470886230e-01 -5.168868899345397949e-01
4.007344543933868408e-01 3.989297449588775635e-01 -5.448586940765380859e-01
2.576846182346343994e-01 -8.179557323455810547e-02 -8.050157874822616577e-02
3.474595844745635986e-01 8.332150429487228394e-02 5.318566560745239258e-01
7.290269136428833008e-01 9.810281544923782349e-02 -4.764972329139709473e-01
1.064128279685974121e-01 1.927269995212554932e-01 -7.328270673751831055e-01
2.952390015125274658e-01 -7.199645042419433594e-02 9.840064495801925659e-02
3.674464523792266846e-01 3.853228688240051270e-01 -5.967270135879516602e-01
5.023131370544433594e-01 -9.904712438583374023e-02 9.410526603460311890e-02
3.209104537963867188e-01 -5.070523917675018311e-02 2.289725542068481445e-01
3.752580583095550537e-01 -2.152238786220550537e-02 -6.506404280662536621e-01
3.393537104129791260e-01 4.394054114818572998e-01 3.600288033485412598e-01
6.457474827766418457e-02 4.519469439983367920e-01 -1.932095289230346680e-01
2.043010592460632324e-01 1.199838966131210327e-01 4.711755514144897461e-01
6.962106227874755859e-01 2.308034896850585938e-01 -4.808327555656433105e-01
7.423665523529052734e-01 -3.930091857910156250e-02 -6.333800405263900757e-02
1.320845186710357666e-01 1.637924015522003174e-01 -7.488735318183898926e-01
1.019800007343292236e-01 5.536368489265441895e-02 -5.986135005950927734e-01
1.320036053657531738e-01 -2.772426605224609375e-02 -3.311902284622192383e-01
1.043309569358825684e-01 -1.636345684528350830e-02 -2.699007987976074219e-01
-3.375154733657836914e-02 3.746640384197235107e-01 -2.800906598567962646e-01
-5.475786328315734863e-02 3.514011502265930176e-01 -6.214078143239021301e-02
5.165061950683593750e-01 2.823711931705474854e-01 -6.659387350082397461e-01
7.924836874008178711e-01 2.426518350839614868e-01 -1.338097304105758667e-01
4.741717278957366943e-01 4.535731971263885498e-01 2.122546136379241943e-01
5.101709961891174316e-01 4.055782854557037354e-01 3.756234347820281982e-01
5.594218373298645020e-01 -1.010541319847106934e-01 4.063995927572250366e-02
6.985301971435546875e-01 2.132368534803390503e-01 -4.959254264831542969e-01
-8.347219228744506836e-02 2.122094929218292236e-01 -2.249030768871307373e-01
2.185662537813186646e-01 -5.464300513267517090e-03 -6.095898747444152832e-01
-5.471682548522949219e-02 3.512301445007324219e-01 -2.583185434341430664e-01
2.496360689401626587e-01 -2.456076443195343018e-02 2.367302775382995605e-01
7.744777798652648926e-01 2.298650145530700684e-01 -2.671720087528228760e-01
8.070477843284606934e-02 8.028058707714080811e-02 -6.111332774162292480e-01
5.806578397750854492e-01 4.279577136039733887e-01 -8.471632003784179688e-02
-8.015576004981994629e-02 2.801712155342102051e-01 -7.298602908849716187e-02
-2.783003449440002441e-02 3.166116476058959961e-01 -4.667181968688964844e-01
5.713508129119873047e-01 -1.051472723484039307e-01 -3.078751266002655029e-02
4.095519781112670898e-01 1.490708589553833008e-01 -8.022149205207824707e-01
-9.985595941543579102e-03 4.081934094429016113e-01 -1.648810207843780518e-01
2.618157565593719482e-01 3.989992141723632812e-01 -5.911028981208801270e-01
3.616321980953216553e-01 4.773723185062408447e-01 -2.548628151416778564e-01
4.607016742229461670e-01 4.717757701873779297e-01 5.908378213644027710e-02
1.254955381155014038e-01 -2.908405661582946777e-02 -1.531691700220108032e-01
2.796538174152374268e-01 4.969239532947540283e-01 -4.523165524005889893e-02
2.738356590270996094e-03 6.714599579572677612e-02 -3.202083706855773926e-01
7.677082419395446777e-01 4.604998230934143066e-02 -3.376258611679077148e-01
-1.831978559494018555e-02 3.397803306579589844e-01 -4.504910707473754883e-01
2.443821579217910767e-01 -1.169420778751373291e-02 -6.172546148300170898e-01
3.183434009552001953e-01 2.831149101257324219e-02 -7.285091280937194824e-01
2.884343266487121582e-01 4.183180928230285645e-01 -5.399821400642395020e-01
2.419215440750122070e-02 4.193650186061859131e-02 -1.597457230091094971e-01
-1.838803291320800781e-03 2.485149502754211426e-01 2.420788407325744629e-01
4.036953449249267578e-01 5.204674601554870605e-02 5.121118426322937012e-01
-4.025337100028991699e-02 2.951362431049346924e-01 -4.606376290321350098e-01
3.849957883358001709e-01 3.590971529483795166e-01 5.280455946922302246e-01
4.982848465442657471e-01 4.205909371376037598e-01 -3.716177046298980713e-01
6.426479816436767578e-01 -8.115002512931823730e-02 -2.500286400318145752e-01
4.569647908210754395e-01 4.202060103416442871e-01 3.768395781517028809e-01
-6.869599223136901855e-02 3.259342908859252930e-01 -7.780514657497406006e-02
1.475500315427780151e-01 4.449722468852996826e-01 -4.112799763679504395e-01
5.167757868766784668e-01 -4.661068320274353027e-03 -6.418786048889160156e-01
8.022675514221191406e-01 1.945528239011764526e-01 2.154551148414611816e-01
-4.764834046363830566e-02 2.045461833477020264e-01 -4.636037051677703857e-01
1.108825206756591797e-01 4.290036261081695557e-01 -4.348756968975067139e-01
4.912499487400054932e-01 -7.632270455360412598e-02 -4.786362648010253906e-01
2.270901501178741455e-01 -5.259160697460174561e-02 7.672595232725143433e-02
2.006983757019042969e-01 4.915892481803894043e-01 -3.521469980478286743e-02
7.319284677505493164e-01 2.938115298748016357e-01 -2.566717565059661865e-01
4.977350234985351562e-01 -5.153161287307739258e-02 -5.545083284378051758e-01
3.934594988822937012e-02 4.360177814960479736e-01 -2.372341454029083252e-01
5.166721940040588379e-01 -1.102925837039947510e-01 -2.510733306407928467e-01
4.312609434127807617e-01 -6.319090723991394043e-02 2.576440572738647461e-01
6.329889297485351562e-01 -2.279485762119293213e-02 -4.956123232841491699e-01
-2.635392546653747559e-02 2.937079966068267822e-01 -5.003075599670410156e-01
3.361284136772155762e-01 4.943295419216156006e-01 -6.859073787927627563e-02
6.963707208633422852e-01 3.587261438369750977e-01 8.727949112653732300e-02
1.931126713752746582e-01 3.553197979927062988e-01 -6.646023392677307129e-01
5.445088148117065430e-01 2.012061029672622681e-01 5.987590551376342773e-01
7.161564826965332031e-01 8.742198348045349121e-03 2.901741266250610352e-01
-5.514022707939147949e-02 1.541673690080642700e-01 -6.273905932903289795e-02
1.135354340076446533e-01 4.318417608737945557e-01 2.222449183464050293e-01
5.836907625198364258e-01 -8.846089243888854980e-02 1.087886169552803040e-01
4.254816472530364990e-01 4.815720915794372559e-01 -3.574219346046447754e-02
3.686024546623229980e-01 5.020916461944580078e-02 -7.589088678359985352e-01
-5.110347270965576172e-02 1.504810899496078491e-01 -4.649421572685241699e-02
6.434614658355712891e-01 -7.439219951629638672e-02 -2.958789169788360596e-01
3.037502765655517578e-01 -9.447601437568664551e-02 -2.800104618072509766e-01
6.507967710494995117e-01 3.002256453037261963e-01 4.383918642997741699e-01
4.244181513786315918e-02 2.667127549648284912e-02 -1.535027325153350830e-01
3.565369844436645508e-01 1.255528926849365234e-01 -8.088659644126892090e-01
3.944721817970275879e-02 4.422069489955902100e-01 -1.239830255508422852e-01
6.516123414039611816e-01 3.774591684341430664e-01 2.040994167327880859e-01
2.616009712219238281e-01 1.983863860368728638e-01 5.677544474601745605e-01
4.240975081920623779e-01 3.653793334960937500e-01 -6.063053607940673828e-01
4.899455010890960693e-01 4.315611720085144043e-01 -3.369949162006378174e-01
3.507569432258605957e-02 4.180562794208526611e-01 9.305915981531143188e-02
1.301530450582504272e-01 1.177005469799041748e-01 3.802560865879058838e-01
6.891608238220214844e-01 2.757064104080200195e-01 -4.254739582538604736e-01
3.515843749046325684e-01 4.628560543060302734e-01 2.700835168361663818e-01
1.592655628919601440e-01 4.524071216583251953e-01 -3.894535303115844727e-01
6.196116805076599121e-01 -3.748865425586700439e-02 2.929086685180664062e-01
3.545594215393066406e-02 4.198418855667114258e-01 -3.326507806777954102e-01
5.751416087150573730e-01 3.458516299724578857e-01 -4.863783419132232666e-01
7.616348862648010254e-01 1.705195009708404541e-01 3.614154756069183350e-01
3.657826185226440430e-01 4.911124110221862793e-01 -7.050538808107376099e-02
1.583534479141235352e-02 6.101325154304504395e-02 -3.706846237182617188e-01
4.571097493171691895e-01 -1.149536669254302979e-01 -7.463160157203674316e-02
2.750990986824035645e-01 -3.703519701957702637e-02 2.268156409263610840e-01
5.491213798522949219e-01 -1.072370409965515137e-01 -2.357697188854217529e-01
-7.547158002853393555e-02 3.097528815269470215e-01 -2.565899789333343506e-01
5.308836698532104492e-01 3.024774789810180664e-02 -6.796989440917968750e-01
-4.291298985481262207e-02 2.547449767589569092e-01 -4.838686287403106689e-01
5.851708650588989258e-01 -5.061557888984680176e-02 2.783010601997375488e-01
2.660304307937622070e-03 1.369947195053100586e-01 1.506607234477996826e-01
7.589049339294433594e-01 6.775172799825668335e-02 3.141334354877471924e-01
2.194127142429351807e-01 3.841676414012908936e-01 -6.189944148063659668e-01
6.894960999488830566e-02 1.375152170658111572e-02 -6.271012127399444580e-02
6.839184165000915527e-01 8.330820500850677490e-02 4.509144425392150879e-01
7.298789024353027344e-01 1.944760978221893311e-02 -3.986096680164337158e-01
8.178856968879699707e-01 5.155108869075775146e-02 -3.269201517105102539e-02
2.560811936855316162e-01 -7.163318991661071777e-02 -3.885435461997985840e-01
3.276116251945495605e-01 -6.533622741699218750e-02 -5.089817643165588379e-01
7.566312551498413086e-01 -2.525843679904937744e-02 1.302997022867202759e-02
1.983672678470611572e-01 8.045745640993118286e-02 -7.402809262275695801e-01
4.790557622909545898e-01 -3.825946152210235596e-02 3.454696834087371826e-01
9.967675805091857910e-02 1.205459237098693848e-03 -4.095424413681030273e-01
3.045686781406402588e-01 2.573674917221069336e-01 -7.876794934272766113e-01
3.763211369514465332e-01 -9.913960099220275879e-02 3.278345614671707153e-02
5.815586447715759277e-01 3.827952444553375244e-01 -3.661534488201141357e-01
3.533282876014709473e-02 4.364674389362335205e-01 -3.093107044696807861e-02
2.813996672630310059e-01 4.849306643009185791e-01 -2.488048672676086426e-01
1.359099894762039185e-01 4.789293706417083740e-01 -4.214182868599891663e-02
6.489838361740112305e-01 3.365905880928039551e-01 3.672347962856292725e-01
3.717810809612274170e-01 2.355751693248748779e-01 -7.905318140983581543e-01
5.915042161941528320e-01 1.403333991765975952e-01 5.649088025093078613e-01
7.069064378738403320e-01 2.693915963172912598e-01 3.892902135848999023e-01
6.790605783462524414e-01 2.774667143821716309e-01 -4.441678822040557861e-01
2.182530462741851807e-01 -3.565841913223266602e-02 -5.131909847259521484e-01
2.263087779283523560e-01 4.237153530120849609e-01 -5.235342979431152344e-01
7.849740982055664062e-02 2.118133157491683960e-01 -7.055238485336303711e-01
2.698660492897033691e-01 -8.859103918075561523e-02 -1.572646796703338623e-01
6.727101206779479980e-01 2.364549338817596436e-01 4.812104701995849609e-01
4.953467845916748047e-01 1.120361685752868652e-02 4.567793607711791992e-01
1.092377901077270508e-01 3.484487533569335938e-03 5.116801708936691284e-02
6.380381584167480469e-01 3.321878015995025635e-01 -4.070689082145690918e-01
2.554597556591033936e-01 3.002170026302337646e-01 5.500501394271850586e-01
3.496209681034088135e-01 4.855010211467742920e-01 -1.978900879621505737e-01
7.254420518875122070e-01 2.115943431854248047e-01 -4.406273365020751953e-01
4.007477760314941406e-01 4.835001230239868164e-01 -1.229287609457969666e-01
2.088049948215484619e-01 4.612009525299072266e-01 -3.807694017887115479e-01
4.894860684871673584e-01 4.197644293308258057e-01 3.503405451774597168e-01
1.519038826227188110e-01 3.083034157752990723e-01 4.654769301414489746e-01
2.571345865726470947e-01 3.223140239715576172e-01 5.356109738349914551e-01
1.808398962020874023e-02 1.908433288335800171e-01 2.600627243518829346e-01
-7.666882872581481934e-02 2.507866621017456055e-01 -3.423941433429718018e-01
4.765384197235107422e-01 4.560479521751403809e-02 5.128166675567626953e-01
3.832970559597015381e-01 4.701662957668304443e-01 2.168300151824951172e-01
1.942419111728668213e-01 -4.220901429653167725e-02 5.578272789716720581e-02
4.008329510688781738e-01 -1.126399338245391846e-01 -2.144284546375274658e-01
2.229945361614227295e-01 4.884659647941589355e-01 7.193990796804428101e-02
7.316303253173828125e-01 3.188950419425964355e-01 1.701116263866424561e-01
4.577939212322235107e-01 1.925447732210159302e-01 6.199267506599426270e-01
1.185310781002044678e-01 3.078163862228393555e-01 4.289236664772033691e-01
7.491602897644042969e-01 3.133842945098876953e-01 2.461309731006622314e-02
7.960288524627685547e-01 1.108479499816894531e-01 2.587682902812957764e-01
8.084120750427246094e-01 1.906011998653411865e-01 -1.856002360582351685e-01
2.228377461433410645e-01 3.484639525413513184e-01 -6.835297346115112305e-01
3.911757469177246094e-01 3.552829027175903320e-01 -6.455668807029724121e-01
-8.029937744140625000e-03 2.559203505516052246e-01 2.275874614715576172e-01
6.865470409393310547e-01 3.652709722518920898e-01 1.010334864258766174e-01
1.039227545261383057e-01 1.969628036022186279e-01 4.145096540451049805e-01
5.612623691558837891e-01 4.905319213867187500e-02 -6.749563813209533691e-01
4.242979288101196289e-01 3.882435262203216553e-01 4.724947810173034668e-01
3.163137733936309814e-01 3.702855706214904785e-01 5.052392482757568359e-01
1.290619820356369019e-01 4.707781374454498291e-01 5.041524022817611694e-02
6.036714315414428711e-01 4.172866940498352051e-01 -7.130116969347000122e-02
4.949984550476074219e-01 3.266295194625854492e-01 -6.212782263755798340e-01
-3.554940223693847656e-03 1.986887156963348389e-01 2.148137986660003662e-01
1.279203891754150391e-01 3.655504286289215088e-01 3.842044472694396973e-01
2.869740426540374756e-01 4.297351837158203125e-01 -5.066523551940917969e-01
1.944260448217391968e-01 -5.783544480800628662e-02 -3.190880715847015381e-01
2.938258647918701172e-02 4.223310947418212891e-02 -3.262486755847930908e-01
