2.677342593669891357e-01 4.448176547884941101e-02 7.008897066116333008e-01
4.013566970825195312e-01 6.585182994604110718e-02 7.360972166061401367e-01
3.749638199806213379e-01 2.295619249343872070e-02 -3.788851499557495117e-01
2.717944383621215820e-01 7.520740479230880737e-02 -9.449593722820281982e-02
5.820090174674987793e-01 6.488029658794403076e-02 -9.256686270236968994e-02
3.993585109710693359e-01 8.687127381563186646e-02 2.701960206031799316e-01
2.794201374053955078e-01 1.550740376114845276e-02 2.259987741708755493e-01
3.503431379795074463e-01 3.284296393394470215e-02 7.239334583282470703e-01
3.236302733421325684e-01 1.814581081271171570e-02 4.385784864425659180e-01
2.837815284729003906e-01 5.057986080646514893e-02 7.248622179031372070e-01
4.449563622474670410e-01 8.881838619709014893e-02 1.654393672943115234e-01
4.189081192016601562e-01 8.673439919948577881e-02 3.035779893398284912e-01
2.284581959247589111e-01 6.637672334909439087e-02 2.069626450538635254e-01
1.919696927070617676e-01 2.922602184116840363e-02 1.522116661071777344e-01
5.089818835258483887e-01 3.997255489230155945e-02 -3.928299844264984131e-01
5.499058961868286133e-01 4.063419252634048462e-02 -4.150713235139846802e-02
2.785581946372985840e-01 2.211824990808963776e-02 5.075886249542236328e-01
3.721413016319274902e-01 3.704446926712989807e-02 -6.078666448593139648e-01
3.874393999576568604e-01 8.505961298942565918e-02 -2.649415731430053711e-01
4.277819097042083740e-01 2.278685942292213440e-02 -2.620482742786407471e-01
2.869888544082641602e-01 3.258327394723892212e-02 6.819248199462890625e-01
2.157106101512908936e-01 5.923740193247795105e-02 -1.683807671070098877e-01
3.224606812000274658e-01 3.595029562711715698e-02 -5.756422281265258789e-01
3.101243972778320312e-01 1.401251554489135742e-02 5.914894491434097290e-02
2.078388780355453491e-01 5.406947433948516846e-02 3.885439932346343994e-01
4.298088252544403076e-01 2.287132851779460907e-02 4.024249017238616943e-01
2.651855349540710449e-01 7.313437759876251221e-02 2.880466580390930176e-01
2.367928326129913330e-01 2.655946835875511169e-02 4.820558726787567139e-01
5.361402034759521484e-01 4.525242373347282410e-02 4.138669371604919434e-01
5.482000708580017090e-01 7.474232465028762817e-02 3.224758207798004150e-01
3.589487969875335693e-01 1.491051539778709412e-02 -3.088825941085815430e-02
2.666862308979034424e-01 1.574248820543289185e-02 1.105606257915496826e-01
4.882626831531524658e-01 2.958690188825130463e-02 3.348163664340972900e-01
4.183917641639709473e-01 7.737125456333160400e-02 5.818954706192016602e-01
3.918506205081939697e-01 8.837382495403289795e-02 8.204244077205657959e-02
5.824081897735595703e-01 6.767429411411285400e-02 1.011093333363533020e-02
4.027265012264251709e-01 6.364706158638000488e-02 -6.531533002853393555e-01
2.508566975593566895e-01 6.062291935086250305e-02 -3.798193335533142090e-01
5.509545803070068359e-01 4.100288823246955872e-02 1.171849519014358521e-01
3.278430998325347900e-01 7.507754862308502197e-02 -4.141593575477600098e-01
2.162006348371505737e-01 2.211651019752025604e-02 1.442545950412750244e-01
3.980936706066131592e-01 1.647637784481048584e-02 2.378590032458305359e-02
3.340612649917602539e-01 1.402077451348304749e-02 3.400499001145362854e-02
3.929581642150878906e-01 2.443672344088554382e-02 5.526472330093383789e-01
2.566007375717163086e-01 1.994324102997779846e-02 -1.672408580780029297e-01
5.118814706802368164e-01 8.401395380496978760e-02 -2.169299125671386719e-01
4.686613678932189941e-01 8.866709470748901367e-02 -8.613403141498565674e-02
5.833986401557922363e-01 6.120078265666961670e-02 9.430216252803802490e-02
3.496118783950805664e-01 5.111581459641456604e-02 8.002344369888305664e-01
4.211378693580627441e-01 4.065608978271484375e-02 -6.143542528152465820e-01
4.710618555545806885e-01 2.387881465256214142e-02 1.926585286855697632e-02
4.733590781688690186e-01 7.962574809789657593e-02 -4.386143982410430908e-01
3.161608576774597168e-01 7.557733356952667236e-02 4.810126125812530518e-01
4.535309374332427979e-01 8.632490038871765137e-02 3.143922984600067139e-01
2.517860233783721924e-01 2.977387607097625732e-02 -3.750007450580596924e-01
3.737266361713409424e-01 8.741062879562377930e-02 -1.093561947345733643e-02
4.250357151031494141e-01 3.154871985316276550e-02 -4.939657151699066162e-01
3.743254840373992920e-01 8.363263309001922607e-02 -2.920497953891754150e-01
4.527866840362548828e-01 3.906742110848426819e-02 -5.520398616790771484e-01
3.049763441085815430e-01 7.537145912647247314e-02 4.457120895385742188e-01
3.827418684959411621e-01 4.205130785703659058e-02 -6.458721160888671875e-01
4.169975817203521729e-01 1.926613226532936096e-02 2.847487926483154297e-01
4.231393635272979736e-01 7.247447967529296875e-02 6.583598852157592773e-01
4.490370750427246094e-01 2.591303549706935883e-02 -2.949305772781372070e-01
3.445510566234588623e-01 2.018554508686065674e-02 4.998640418052673340e-01
5.310811996459960938e-01 6.991126388311386108e-02 4.762651324272155762e-01
4.210897982120513916e-01 2.016645669937133789e-02 -1.656652539968490601e-01
5.198091268539428711e-01 6.215827167034149170e-02 5.676828622817993164e-01
4.589272439479827881e-01 3.398141264915466309e-02 -4.628894031047821045e-01
4.000793397426605225e-01 2.088380418717861176e-02 -2.730907201766967773e-01
4.065160155296325684e-01 8.478543162345886230e-02 3.804021775722503662e-01
4.846448004245758057e-01 2.719005197286605835e-02 2.447285801172256470e-01
5.053076148033142090e-01 2.942730113863945007e-02 6.389024108648300171e-02
4.810358285903930664e-01 2.593779750168323517e-02 1.921060383319854736e-01
4.448229670524597168e-01 2.895419858396053314e-02 -3.966909646987915039e-01
4.668718874454498291e-01 8.268968760967254639e-02 -3.754534423351287842e-01
2.307544797658920288e-01 2.113196812570095062e-02 -6.335435807704925537e-02
3.460640907287597656e-01 1.906196773052215576e-02 -2.807691693305969238e-01
5.109409093856811523e-01 3.302217274904251099e-02 2.856577634811401367e-01
2.777759432792663574e-01 6.148698925971984863e-02 6.287940740585327148e-01
4.630548655986785889e-01 3.355640172958374023e-02 5.603806972503662109e-01
2.435879558324813843e-01 2.053226530551910400e-02 3.472580313682556152e-01
5.339788198471069336e-01 3.576907142996788025e-02 1.817535609006881714e-02
2.910843193531036377e-01 7.619291543960571289e-02 3.451440036296844482e-01
2.406165301799774170e-01 6.877487897872924805e-02 2.483136206865310669e-01
3.236233592033386230e-01 1.741749793291091919e-02 4.105225503444671631e-01
4.572203755378723145e-01 7.621208578348159790e-02 -5.148843526840209961e-01
4.129094481468200684e-01 1.747148856520652771e-02 1.011063307523727417e-01
4.447795748710632324e-01 2.128370851278305054e-02 2.192855328321456909e-01
2.134478390216827393e-01 6.230355799198150635e-02 1.814272105693817139e-01
4.242803156375885010e-01 2.917411364614963531e-02 -4.505020081996917725e-01
3.539024889469146729e-01 2.365883067250251770e-02 -4.083612263202667236e-01
4.336414337158203125e-01 3.633860871195793152e-02 6.768120527267456055e-01
4.798654019832611084e-01 3.381226956844329834e-02 5.017452836036682129e-01
5.184681415557861328e-01 8.461681008338928223e-02 1.705271303653717041e-01
3.284375965595245361e-01 1.500381529331207275e-02 2.797809541225433350e-01
4.175941050052642822e-01 2.417495101690292358e-02 4.886298477649688721e-01
4.723118841648101807e-01 8.895834535360336304e-02 2.103697508573532104e-02
3.372099995613098145e-01 6.687811017036437988e-02 -5.666242837905883789e-01
2.160306870937347412e-01 2.382344752550125122e-02 2.828903198242187500e-01
1.879967302083969116e-01 5.105824023485183716e-02 2.480172365903854370e-02
2.656727731227874756e-01 7.041426002979278564e-02 -2.577791213989257812e-01
5.317693948745727539e-01 8.320181071758270264e-02 -1.206452995538711548e-01
5.285955071449279785e-01 8.138000965118408203e-02 2.610995769500732422e-01
5.150347948074340820e-01 7.784153521060943604e-02 4.188798367977142334e-01
2.161649912595748901e-01 2.621099911630153656e-02 3.664321303367614746e-01
3.638891577720642090e-01 6.377081573009490967e-02 -6.308364868164062500e-01
3.891048133373260498e-01 7.156354188919067383e-02 6.718409061431884766e-01
2.884276211261749268e-01 2.917349338531494141e-02 6.467913389205932617e-01
3.140220046043395996e-01 8.196631819009780884e-02 1.444112807512283325e-01
5.521744489669799805e-01 7.904368638992309570e-02 -1.371142417192459106e-01
5.393130183219909668e-01 4.252924025058746338e-02 -2.635741233825683594e-01
5.134850144386291504e-01 3.909544274210929871e-02 4.430796504020690918e-01
2.667941451072692871e-01 6.131597235798835754e-02 -4.392229020595550537e-01
2.934913039207458496e-01 1.619594544172286987e-02 3.244451582431793213e-01
4.382618665695190430e-01 6.324138492345809937e-02 -6.469764709472656250e-01
3.044213652610778809e-01 7.807985693216323853e-02 -2.232817113399505615e-01
2.837103605270385742e-01 1.574817299842834473e-02 -5.561862140893936157e-02
5.533196926116943359e-01 7.547573000192642212e-02 2.702869772911071777e-01
3.096147179603576660e-01 5.922969803214073181e-02 -5.805413722991943359e-01
3.782197833061218262e-01 8.161290735006332397e-02 4.553630352020263672e-01
1.926860362291336060e-01 3.813096880912780762e-02 3.611610233783721924e-01
4.779497981071472168e-01 2.844437025487422943e-02 3.616741597652435303e-01
4.735549092292785645e-01 2.426758222281932831e-02 1.163399368524551392e-01
1.919998675584793091e-01 3.244388476014137268e-02 -6.188280135393142700e-02
4.342016577720642090e-01 2.183769643306732178e-02 3.353837430477142334e-01
2.019860893487930298e-01 5.861278250813484192e-02 1.320662498474121094e-01
4.301897883415222168e-01 3.749230504035949707e-02 -5.712821483612060547e-01
3.658107817173004150e-01 7.903169095516204834e-02 5.092235803604125977e-01
3.197453618049621582e-01 2.832409366965293884e-02 6.643686294555664062e-01
2.172430455684661865e-01 4.629738628864288330e-02 5.233657360076904297e-01
4.186897575855255127e-01 7.903835177421569824e-02 5.483479499816894531e-01
3.269914388656616211e-01 8.029612898826599121e-02 3.598682880401611328e-01
5.028691291809082031e-01 8.398333191871643066e-02 -2.560977339744567871e-01
4.254046380519866943e-01 8.590910583734512329e-02 -2.840915024280548096e-01
2.630525827407836914e-01 1.902507990598678589e-02 3.723702728748321533e-01
2.965404093265533447e-01 7.203583419322967529e-02 -3.739345371723175049e-01
3.707568645477294922e-01 2.754087373614311218e-02 -4.817726910114288330e-01
5.676957964897155762e-01 4.776739329099655151e-02 -6.645792722702026367e-02
2.726047039031982422e-01 1.704239472746849060e-02 -9.766162931919097900e-02
4.944466948509216309e-01 6.985942274332046509e-02 5.918108224868774414e-01
5.120609998703002930e-01 3.902229294180870056e-02 -3.592548072338104248e-01
3.503531813621520996e-01 1.555024087429046631e-02 -1.088443100452423096e-01
4.799585640430450439e-01 6.539175659418106079e-02 -5.915756225585937500e-01
3.630782365798950195e-01 1.471807807683944702e-02 1.621527075767517090e-01
3.744770288467407227e-01 1.754133775830268860e-02 3.582110106945037842e-01
5.511902570724487305e-01 5.717813223600387573e-02 -3.765560090541839600e-01
3.903442919254302979e-01 7.084127515554428101e-02 -5.866929292678833008e-01
2.056684643030166626e-01 5.727614089846611023e-02 2.911272644996643066e-01
3.239570856094360352e-01 7.685500383377075195e-02 -3.569675087928771973e-01
5.469852685928344727e-01 7.795923948287963867e-02 -2.269815504550933838e-01
4.352321624755859375e-01 3.403389453887939453e-02 6.440225839614868164e-01
2.510760128498077393e-01 6.546109914779663086e-02 4.530702233314514160e-01
5.479451417922973633e-01 8.050520718097686768e-02 1.273112297058105469e-01
2.859357297420501709e-01 2.522574737668037415e-02 5.840559005737304688e-01
2.566239833831787109e-01 3.190508484840393066e-02 -4.161951839923858643e-01
3.621369600296020508e-01 8.407086879014968872e-02 -2.338871061801910400e-01
3.711681067943572998e-01 8.711941540241241455e-02 1.214450150728225708e-01
4.475733041763305664e-01 2.224857360124588013e-02 2.694097459316253662e-01
2.167786061763763428e-01 5.581700056791305542e-02 4.293719232082366943e-01
4.137763679027557373e-01 8.799301087856292725e-02 2.201165854930877686e-01
3.246623873710632324e-01 7.302603125572204590e-02 -4.479713737964630127e-01
3.876910209655761719e-01 1.573561504483222961e-02 1.138012260198593140e-01
4.061668515205383301e-01 8.168005198240280151e-02 -4.072940945625305176e-01
4.246289730072021484e-01 8.856248110532760620e-02 1.870312094688415527e-01
2.567905783653259277e-01 2.668219059705734253e-02 -3.418435156345367432e-01
4.776964783668518066e-01 8.762687444686889648e-02 -1.523001044988632202e-01
4.910827577114105225e-01 7.255765795707702637e-02 -5.168170928955078125e-01
2.095336467027664185e-01 6.102460250258445740e-02 1.328494399785995483e-03
4.599788188934326172e-01 8.448651432991027832e-02 3.784883022308349609e-01
4.681653380393981934e-01 2.524749748408794403e-02 2.847758531570434570e-01
3.696893155574798584e-01 8.625887334346771240e-02 2.125836163759231567e-01
2.241676002740859985e-01 2.290830202400684357e-02 -9.162434935569763184e-02
4.148806929588317871e-01 1.844507455825805664e-02 -7.820807397365570068e-02
4.364498257637023926e-01 8.931545168161392212e-02 1.037380248308181763e-01
3.360469639301300049e-01 2.499209344387054443e-02 -4.357205927371978760e-01
5.302186012268066406e-01 3.612102568149566650e-02 2.068155705928802490e-01
2.544296383857727051e-01 1.821508258581161499e-02 -7.373444736003875732e-02
3.179557919502258301e-01 1.412515342235565186e-02 1.360169053077697754e-02
2.554112672805786133e-01 7.046635448932647705e-02 3.254739940166473389e-01
2.564262151718139648e-01 4.399777576327323914e-02 6.730345487594604492e-01
5.160232186317443848e-01 8.219441026449203491e-02 2.991287112236022949e-01
3.128520548343658447e-01 8.164233714342117310e-02 -5.942912399768829346e-02
5.468125939369201660e-01 7.997284829616546631e-02 1.736169010400772095e-01
4.177395701408386230e-01 8.260592818260192871e-02 4.593771994113922119e-01
5.053365230560302734e-01 8.674283325672149658e-02 9.540896117687225342e-02
4.618355631828308105e-01 6.918299198150634766e-02 6.598162651062011719e-01
4.545092284679412842e-01 8.685688674449920654e-02 2.879287004470825195e-01
3.020388484001159668e-01 6.850696355104446411e-02 -4.610426723957061768e-01
4.940250813961029053e-01 3.356896340847015381e-02 -3.219790160655975342e-01
4.576551020145416260e-01 8.732251077890396118e-02 2.587950229644775391e-01
3.597768843173980713e-01 6.462078541517257690e-02 7.357319593429565430e-01
3.166685998439788818e-01 7.839865982532501221e-02 -2.775159478187561035e-01
5.518293380737304688e-01 4.098902642726898193e-02 -3.933317959308624268e-03
3.528439700603485107e-01 1.787269860506057739e-02 4.128838479518890381e-01
4.931678473949432373e-01 8.619660139083862305e-02 -1.889792978763580322e-01
4.218084216117858887e-01 8.937153220176696777e-02 3.553278744220733643e-02
4.995804727077484131e-01 7.906789332628250122e-02 -4.012509584426879883e-01
4.978674054145812988e-01 4.354806989431381226e-02 -4.887773096561431885e-01
2.488261312246322632e-01 1.762179285287857056e-02 1.982296854257583618e-01
4.554249048233032227e-01 7.666136324405670166e-02 5.711119174957275391e-01
4.853748381137847900e-01 2.631481178104877472e-02 1.562365591526031494e-01
3.309455811977386475e-01 4.551142826676368713e-02 -6.373066902160644531e-01
4.961822032928466797e-01 4.228096827864646912e-02 5.709280967712402344e-01
4.420135915279388428e-01 8.944231271743774414e-02 -2.411899715662002563e-02
5.041971802711486816e-01 5.133866146206855774e-02 6.131525039672851562e-01
3.895816802978515625e-01 8.785666525363922119e-02 1.570874154567718506e-01
5.392619967460632324e-01 6.464728713035583496e-02 -4.353988468647003174e-01
4.329892992973327637e-01 1.962094008922576904e-02 -2.829504013061523438e-02
4.978197813034057617e-01 3.406737744808197021e-02 4.181760251522064209e-01
4.167519509792327881e-01 8.924148231744766235e-02 6.105261296033859253e-02
5.303350090980529785e-01 3.637124598026275635e-02 -1.324389278888702393e-01
4.429413974285125732e-01 6.892009079456329346e-02 -6.079719066619873047e-01
3.698113858699798584e-01 8.566875010728836060e-02 -1.747603416442871094e-01
3.546903133392333984e-01 7.261615246534347534e-02 -5.212923288345336914e-01
2.418444603681564331e-01 1.919310912489891052e-02 2.670739591121673584e-01
5.309163928031921387e-01 7.606928795576095581e-02 -3.568800687789916992e-01
3.035119175910949707e-01 1.540151610970497131e-02 -8.852888643741607666e-02
4.888411462306976318e-01 3.386652469635009766e-02 4.616008102893829346e-01
3.541315197944641113e-01 8.399954438209533691e-02 2.953212261199951172e-01
4.000802934169769287e-01 8.032505214214324951e-02 -4.353430569171905518e-01
3.116116225719451904e-01 2.174044959247112274e-02 -3.467993438243865967e-01
5.419574975967407227e-01 8.236552774906158447e-02 4.867527633905410767e-02
4.291494190692901611e-01 8.910010755062103271e-02 -7.708619534969329834e-02
4.190627336502075195e-01 8.917433023452758789e-02 -3.675740212202072144e-02
2.509003877639770508e-01 6.041314825415611267e-02 5.470153689384460449e-01
5.323334336280822754e-01 8.211801946163177490e-02 -1.791994273662567139e-01
2.941157221794128418e-01 6.336414813995361328e-02 6.497153043746948242e-01
2.309643030166625977e-01 5.849613994359970093e-02 4.768077731132507324e-01
3.608764708042144775e-01 7.388904690742492676e-02 6.137042045593261719e-01
2.906906008720397949e-01 7.919006049633026123e-02 3.560499846935272217e-02
4.171060919761657715e-01 1.802998781204223633e-02 -4.219137132167816162e-03
1.944472938776016235e-01 3.771027177572250366e-02 -1.580228954553604126e-01
2.769445180892944336e-01 1.631024479866027832e-02 2.825865149497985840e-01
3.100169301033020020e-01 6.178607046604156494e-02 7.011287212371826172e-01
2.516865134239196777e-01 3.092367015779018402e-02 5.935282707214355469e-01
2.652056813240051270e-01 7.471665740013122559e-02 -2.936509251594543457e-02
3.631937503814697266e-01 8.347713947296142578e-02 3.539352715015411377e-01
5.440292358398437500e-01 7.436132431030273438e-02 3.547338247299194336e-01
3.725466132164001465e-01 2.550943568348884583e-02 -4.409756958484649658e-01
2.964343428611755371e-01 7.783274352550506592e-02 3.022041618824005127e-01
4.647303223609924316e-01 2.406584843993186951e-02 -1.102687865495681763e-01
2.661061286926269531e-01 6.792178004980087280e-02 4.740146696567535400e-01
2.189683914184570312e-01 6.450797617435455322e-02 1.077342107892036438e-01
2.033704221248626709e-01 2.519412711262702942e-02 8.556361496448516846e-02
5.319185256958007812e-01 8.404815942049026489e-02 1.776248961687088013e-02
2.993219196796417236e-01 6.543853878974914551e-02 -4.967751204967498779e-01
2.789198458194732666e-01 7.649488747119903564e-02 2.209772467613220215e-01
5.534512996673583984e-01 7.925264537334442139e-02 -1.072121560573577881e-01
4.676497876644134521e-01 4.535556584596633911e-02 6.837837696075439453e-01
2.466132640838623047e-01 2.283598668873310089e-02 4.367079734802246094e-01
3.734610378742218018e-01 1.814866438508033752e-02 -2.165060043334960938e-01
3.501918613910675049e-01 2.192448265850543976e-02 -3.664459586143493652e-01
3.859780132770538330e-01 1.611023768782615662e-02 2.080496847629547119e-01
3.128967881202697754e-01 8.211102336645126343e-02 6.588417291641235352e-02
4.734093546867370605e-01 4.047632589936256409e-02 -5.228360891342163086e-01
4.411762356758117676e-01 8.816277980804443359e-02 -1.709606945514678955e-01
4.485305547714233398e-01 2.110225521028041840e-02 1.397940516471862793e-01
2.079717963933944702e-01 4.861043766140937805e-02 -2.585287392139434814e-01
4.947823584079742432e-01 8.208563923835754395e-02 -3.417641818523406982e-01
1.885555088520050049e-01 3.149529919028282166e-02 1.954602897167205811e-01
3.059911131858825684e-01 1.712943986058235168e-02 -1.879613101482391357e-01
5.565803050994873047e-01 4.272813722491264343e-02 9.070251137018203735e-02
4.001011550426483154e-01 2.537454850971698761e-02 -4.081915915012359619e-01
4.338628053665161133e-01 2.787998132407665253e-02 5.365108847618103027e-01
2.296494394540786743e-01 2.454840391874313354e-02 -1.840076148509979248e-01
5.009827613830566406e-01 6.709975004196166992e-02 -5.421780347824096680e-01
3.323608934879302979e-01 1.572732254862785339e-02 3.266930282115936279e-01
5.244929790496826172e-01 4.728982597589492798e-02 5.043524503707885742e-01
2.690217196941375732e-01 7.192417979240417480e-02 -2.307412624359130859e-01
2.825504243373870850e-01 7.786664366722106934e-02 4.071541130542755127e-03
2.309271544218063354e-01 6.705891340970993042e-02 -4.076553136110305786e-02
2.908081114292144775e-01 7.752831280231475830e-02 2.743909060955047607e-01
5.675088167190551758e-01 4.803736507892608643e-02 1.426501274108886719e-01
3.811857998371124268e-01 8.355213701725006104e-02 3.934281766414642334e-01
3.884579837322235107e-01 1.662948727607727051e-02 2.465052902698516846e-01
2.307455241680145264e-01 1.954368501901626587e-02 1.074427217245101929e-01
3.631637394428253174e-01 6.741689145565032959e-02 7.092820405960083008e-01
5.004823803901672363e-01 2.873951010406017303e-02 1.271012425422668457e-01
3.280861079692840576e-01 8.263330906629562378e-02 -1.304204761981964111e-01
3.240791559219360352e-01 1.979420706629753113e-02 -3.022369742393493652e-01
4.290841519832611084e-01 7.499079406261444092e-02 -5.451674461364746094e-01
2.922421693801879883e-01 1.461655646562576294e-02 1.819709539413452148e-01
5.419456958770751953e-01 3.859476745128631592e-02 1.537555158138275146e-01
3.428046703338623047e-01 7.784228771924972534e-02 4.948143959045410156e-01
2.941835820674896240e-01 6.956680864095687866e-02 5.508773922920227051e-01
4.000386893749237061e-01 8.471842110157012939e-02 -3.037551939487457275e-01
3.298312127590179443e-01 2.199820056557655334e-02 5.514895915985107422e-01
4.717819094657897949e-01 3.154563158750534058e-02 -3.696398437023162842e-01
5.353026390075683594e-01 3.610293567180633545e-02 6.400004029273986816e-02
4.415206015110015869e-01 8.057815581560134888e-02 -4.440974295139312744e-01
4.262712299823760986e-01 8.942114561796188354e-02 3.987204283475875854e-03
4.382859170436859131e-01 6.809077411890029907e-02 6.972557306289672852e-01
2.294835001230239868e-01 3.215454146265983582e-02 -3.222900331020355225e-01
5.125153064727783203e-01 8.458426594734191895e-02 2.141511738300323486e-01
2.422288507223129272e-01 6.550617516040802002e-02 3.951312601566314697e-01
2.158387601375579834e-01 2.277815714478492737e-02 1.023870706558227539e-02
5.076203346252441406e-01 4.411124810576438904e-02 -4.612199962139129639e-01
3.790273368358612061e-01 1.641299203038215637e-02 2.736436724662780762e-01
4.521605372428894043e-01 7.878026366233825684e-02 -4.755343496799468994e-01
2.478087842464447021e-01 1.803290471434593201e-02 -8.065491914749145508e-03
3.314656019210815430e-01 8.237214386463165283e-02 -1.729360520839691162e-01
2.705925703048706055e-01 1.575804874300956726e-02 2.425390854477882385e-02
5.251889228820800781e-01 4.458040744066238403e-02 4.690548777580261230e-01
3.798315525054931641e-01 3.460860252380371094e-02 7.294954061508178711e-01
3.528780639171600342e-01 1.612173765897750854e-02 -1.430630832910537720e-01
2.373691052198410034e-01 6.215172633528709412e-02 -2.790380716323852539e-01
4.230750799179077148e-01 8.767312020063400269e-02 -1.934195160865783691e-01
2.534544467926025391e-01 6.735372543334960938e-02 4.183725416660308838e-01
3.345977663993835449e-01 1.661522313952445984e-02 3.729988634586334229e-01
2.925135493278503418e-01 1.830509677529335022e-02 4.186350405216217041e-01
3.910284638404846191e-01 8.840231597423553467e-02 4.971982538700103760e-02
3.968649208545684814e-01 1.627895236015319824e-02 7.966221868991851807e-02
2.461371123790740967e-01 4.352401942014694214e-02 6.435216665267944336e-01
2.148706614971160889e-01 6.327840685844421387e-02 7.854183018207550049e-02
3.839353024959564209e-01 3.232472017407417297e-02 7.005780935287475586e-01
5.311641097068786621e-01 5.483340471982955933e-02 -4.615558087825775146e-01
5.357218980789184570e-01 3.722459450364112854e-02 -9.959964454174041748e-02
5.589311122894287109e-01 7.849783450365066528e-02 -5.244210362434387207e-02
4.532911181449890137e-01 4.792493581771850586e-02 -6.259180307388305664e-01
4.154441356658935547e-01 4.821861162781715393e-02 7.812488079071044922e-01
4.057140946388244629e-01 1.876173913478851318e-02 3.134656250476837158e-01
1.887945979833602905e-01 4.520248621702194214e-02 3.119758665561676025e-01
3.470821082592010498e-01 1.409547775983810425e-02 1.104992032051086426e-01
3.899731636047363281e-01 1.848564296960830688e-02 -1.944296956062316895e-01
4.908732175827026367e-01 2.933358773589134216e-02 3.027873337268829346e-01
2.775927484035491943e-01 1.513314992189407349e-02 6.306570768356323242e-02
2.377610206604003906e-01 6.936504691839218140e-02 2.886996045708656311e-02
4.442030787467956543e-01 8.316600322723388672e-02 4.363892078399658203e-01
3.363915085792541504e-01 3.774084523320198059e-02 7.633394002914428711e-01
3.520660996437072754e-01 8.400613069534301758e-02 -1.933304965496063232e-01
2.948189377784729004e-01 1.842895522713661194e-02 -2.229256927967071533e-01
2.821862995624542236e-01 7.790792733430862427e-02 9.614828974008560181e-02
2.836046814918518066e-01 1.773346215486526489e-02 -1.696494370698928833e-01
5.012531876564025879e-01 8.323577791452407837e-02 -2.886447906494140625e-01
2.384917587041854858e-01 6.411426514387130737e-02 -2.427685558795928955e-01
4.619355797767639160e-01 2.504440210759639740e-02 -1.928486824035644531e-01
4.357761442661285400e-01 2.975089289247989655e-02 5.710468292236328125e-01
3.621083498001098633e-01 7.581818103790283203e-02 5.781792402267456055e-01
5.368072390556335449e-01 7.642942667007446289e-02 -3.237240612506866455e-01
4.784340858459472656e-01 6.889832019805908203e-02 6.349223852157592773e-01
4.336782395839691162e-01 8.058114349842071533e-02 5.102112293243408203e-01
2.437127083539962769e-01 4.583613947033882141e-02 -4.470225870609283447e-01
3.095256388187408447e-01 7.903639972209930420e-02 3.274176716804504395e-01
4.994518756866455078e-01 8.252944797277450562e-02 -3.165443241596221924e-01
3.540072143077850342e-01 2.611473947763442993e-02 -4.598813354969024658e-01
2.056179493665695190e-01 3.685097396373748779e-02 4.530538022518157959e-01
2.403842061758041382e-01 1.832900941371917725e-02 1.562250554561614990e-01
2.604130506515502930e-01 1.889237388968467712e-02 -1.400514096021652222e-01
4.184298515319824219e-01 2.383817918598651886e-02 -3.283856511116027832e-01
3.866446316242218018e-01 2.714323624968528748e-02 6.191008090972900391e-01
5.345695018768310547e-01 7.134266942739486694e-02 4.457503855228424072e-01
2.794815897941589355e-01 6.523916125297546387e-02 5.808979272842407227e-01
2.938531935214996338e-01 7.722246646881103516e-02 -1.908287405967712402e-01
2.876807451248168945e-01 1.465464755892753601e-02 1.526309251785278320e-01
3.209595680236816406e-01 8.276416361331939697e-02 -3.491267561912536621e-02
5.323929190635681152e-01 3.804927319288253784e-02 2.699371576309204102e-01
3.461268246173858643e-01 1.740815117955207825e-02 -2.156246006488800049e-01
2.271391004323959351e-01 3.608803451061248779e-02 -3.496899604797363281e-01
2.618183493614196777e-01 6.684926897287368774e-02 -3.268485665321350098e-01
3.620604574680328369e-01 7.030551880598068237e-02 6.718859672546386719e-01
2.491677701473236084e-01 1.743671670556068420e-02 4.709285870194435120e-02
4.332895576953887939e-01 1.935931667685508728e-02 1.181464344263076782e-01
2.784060835838317871e-01 7.139071822166442871e-02 -3.052905201911926270e-01
2.476067692041397095e-01 7.165301591157913208e-02 9.969733655452728271e-02
1.889570057392120361e-01 3.199887275695800781e-02 2.258581072092056274e-01
3.348194360733032227e-01 6.493131071329116821e-02 7.074346542358398438e-01
4.447706937789916992e-01 8.668268471956253052e-02 -2.535020112991333008e-01
2.872931957244873047e-01 1.507020369172096252e-02 -7.434323430061340332e-03
3.201952874660491943e-01 7.808420062065124512e-02 -3.046582937240600586e-01
2.785509228706359863e-01 7.692752033472061157e-02 1.730753183364868164e-01
5.078175067901611328e-01 2.996987104415893555e-02 9.113112837076187134e-02
2.018924504518508911e-01 5.499414727091789246e-02 -1.175743192434310913e-01
2.282064110040664673e-01 3.019171580672264099e-02 -2.906328737735748291e-01
3.506645560264587402e-01 8.018343150615692139e-02 4.446117877960205078e-01
4.656131863594055176e-01 8.816008269786834717e-02 1.869402825832366943e-01
3.615947663784027100e-01 8.669553697109222412e-02 3.819569200277328491e-02
2.020765841007232666e-01 5.705621838569641113e-02 -5.583214014768600464e-02
3.113773465156555176e-01 7.805970311164855957e-02 3.802355825901031494e-01
4.047000408172607422e-01 1.708105579018592834e-02 1.689237654209136963e-01
3.124151229858398438e-01 6.782044470310211182e-02 6.308798789978027344e-01
3.613967001438140869e-01 8.659868687391281128e-02 9.268453717231750488e-02
2.104302942752838135e-01 2.598000131547451019e-02 3.128157556056976318e-01
4.042931497097015381e-01 8.846329152584075928e-02 -8.516867458820343018e-02
4.954879581928253174e-01 2.764482237398624420e-02 4.009803757071495056e-02
3.856562077999114990e-01 8.697786182165145874e-02 -1.495664119720458984e-01
3.295974731445312500e-01 8.383968472480773926e-02 -4.624709486961364746e-03
3.951556086540222168e-01 7.554943114519119263e-02 -5.249625444412231445e-01
4.025361537933349609e-01 8.325918018817901611e-02 4.316302239894866943e-01
4.471653997898101807e-01 8.239363878965377808e-02 -3.988561928272247314e-01
5.264454483985900879e-01 3.698185086250305176e-02 -2.046182155609130859e-01
3.300882279872894287e-01 8.148048818111419678e-02 -2.141048312187194824e-01
3.829870820045471191e-01 2.278774790465831757e-02 5.286282300949096680e-01
2.477271705865859985e-01 2.127420529723167419e-02 3.945757448673248291e-01
4.064176976680755615e-01 2.224487625062465668e-02 4.613489508628845215e-01
5.129908323287963867e-01 7.360368967056274414e-02 -4.542020857334136963e-01
5.374533534049987793e-01 3.885238245129585266e-02 -1.617115288972854614e-01
3.812355101108551025e-01 8.650785684585571289e-02 2.438530027866363525e-01
1.870789825916290283e-01 4.737544804811477661e-02 2.609817385673522949e-01
4.649143517017364502e-01 8.906872570514678955e-02 -3.779798746109008789e-02
2.773735523223876953e-01 1.854638382792472839e-02 3.969348073005676270e-01
3.171863555908203125e-01 8.075858652591705322e-02 2.827313542366027832e-01
3.475027978420257568e-01 1.895021647214889526e-02 4.586016535758972168e-01
5.105818510055541992e-01 3.578115999698638916e-02 3.837167620658874512e-01
2.943126857280731201e-01 1.681801304221153259e-02 3.588320910930633545e-01
4.698257446289062500e-01 8.433941751718521118e-02 -3.224210143089294434e-01
2.010109573602676392e-01 2.980282530188560486e-02 -1.049942970275878906e-01
5.285534262657165527e-01 8.432163298130035400e-02 -5.280449241399765015e-02
3.969987332820892334e-01 1.961120963096618652e-02 -2.284988462924957275e-01
4.753770530223846436e-01 8.201634138822555542e-02 4.283211231231689453e-01
4.865167737007141113e-01 8.516269922256469727e-02 2.976986169815063477e-01
3.425852656364440918e-01 8.062891662120819092e-02 4.059524834156036377e-01
4.244936704635620117e-01 2.620140090584754944e-02 -3.810320794582366943e-01
2.655279934406280518e-01 7.517100870609283447e-02 7.613987475633621216e-02
3.710001707077026367e-01 8.027506619691848755e-02 4.837448000907897949e-01
3.844289481639862061e-01 2.144286967813968658e-02 4.879294931888580322e-01
3.489919602870941162e-01 7.673505693674087524e-02 -4.329245090484619141e-01
4.025225639343261719e-01 3.166013956069946289e-02 6.700121164321899414e-01
4.561004638671875000e-01 2.398760430514812469e-02 3.088427782058715820e-01
5.517843961715698242e-01 4.396079480648040771e-02 2.508800029754638672e-01
3.483104407787322998e-01 8.518193662166595459e-02 -7.407647371292114258e-02
3.518123030662536621e-01 8.541347086429595947e-02 1.722215414047241211e-01
5.440533757209777832e-01 4.737972468137741089e-02 -3.254861235618591309e-01
3.181047141551971436e-01 7.488360255956649780e-02 -3.875485360622406006e-01
-3.313463330268859863e-01 8.637113869190216064e-02 1.530750095844268799e-01
-1.629037111997604370e-01 8.570239692926406860e-02 -9.555403143167495728e-02
-2.229161560535430908e-01 5.036620423197746277e-02 -4.489577114582061768e-01
-9.643267095088958740e-02 7.196141779422760010e-02 -3.149657845497131348e-01
-7.545356452465057373e-02 7.892741262912750244e-02 -1.400784552097320557e-01
-1.909556686878204346e-01 3.227280080318450928e-02 1.019706875085830688e-01
-1.245308443903923035e-01 3.395982831716537476e-02 7.026679813861846924e-02
-2.218565195798873901e-01 8.347275108098983765e-02 3.590780794620513916e-01
-1.471264958381652832e-01 4.832878708839416504e-02 6.095818877220153809e-01
-3.214785456657409668e-01 5.621956288814544678e-02 -5.061645507812500000e-01
-4.571703076362609863e-01 4.265759885311126709e-02 -7.855273783206939697e-03
-8.734263479709625244e-02 3.532561659812927246e-02 1.223353892564773560e-01
2.871379256248474121e-03 7.466121017932891846e-02 1.480524390935897827e-01
-2.217503786087036133e-01 4.016402363777160645e-02 -3.012238144874572754e-01
-7.117967307567596436e-02 6.441412866115570068e-02 -3.225274085998535156e-01
-4.322751164436340332e-01 5.663543194532394409e-02 4.058693647384643555e-01
-4.340580105781555176e-01 8.061801642179489136e-02 1.399655342102050781e-01
2.594694495201110840e-02 7.061702013015747070e-02 2.014198303222656250e-01
-3.965546488761901855e-01 3.897271305322647095e-02 1.913906037807464600e-01
-2.320725619792938232e-01 8.619581162929534912e-02 -1.819222271442413330e-01
-2.772082090377807617e-01 6.036855280399322510e-02 -5.176038146018981934e-01
3.141367435455322266e-02 6.598033010959625244e-02 3.405790030956268311e-01
-2.808587551116943359e-01 4.902590066194534302e-02 -4.533062875270843506e-01
-4.522871375083923340e-01 8.107468485832214355e-02 -1.376083493232727051e-02
4.186779260635375977e-04 7.262862473726272583e-02 -1.840738952159881592e-02
-6.417688727378845215e-02 8.142577111721038818e-02 1.855726689100265503e-01
-2.632274031639099121e-01 4.279725253582000732e-02 -3.653462827205657959e-01
-2.221715599298477173e-01 3.212513402104377747e-02 9.662520140409469604e-02
-2.547329664230346680e-01 8.462793380022048950e-02 -2.591867148876190186e-01
-3.320665359497070312e-01 8.755866438150405884e-02 4.882548004388809204e-03
-1.257915198802947998e-01 7.711816579103469849e-02 4.789245724678039551e-01
-3.994715809822082520e-01 8.243924379348754883e-02 -2.488034367561340332e-01
-1.177407577633857727e-01 8.435968309640884399e-02 2.073302268981933594e-01
-1.752244681119918823e-01 3.524190932512283325e-02 3.687579631805419922e-01
-1.861617863178253174e-01 4.764314740896224976e-02 -3.982336521148681641e-01
-4.674269556999206543e-01 4.554645344614982605e-02 1.382097601890563965e-01
-2.902069091796875000e-01 3.832952305674552917e-02 4.036376774311065674e-01
-3.640956878662109375e-01 7.650960236787796021e-02 4.013367891311645508e-01
-8.944121003150939941e-02 8.298064768314361572e-02 1.988785266876220703e-01
-3.669297695159912109e-01 3.636365756392478943e-02 -7.471334189176559448e-02
-2.317039221525192261e-01 8.757928013801574707e-02 -9.545906633138656616e-02
-2.080435901880264282e-01 4.673693701624870300e-02 5.932576656341552734e-01
-1.604424268007278442e-01 3.361714258790016174e-02 2.737842798233032227e-01
-5.230421423912048340e-01 6.270591914653778076e-02 9.902394562959671021e-02
-3.868487477302551270e-01 3.692750632762908936e-02 6.657338887453079224e-02
-1.674440652132034302e-01 4.732391610741615295e-02 -3.787305057048797607e-01
-2.559091448783874512e-01 8.764620870351791382e-02 -1.112487539649009705e-01
-1.398552954196929932e-01 8.466288447380065918e-02 2.489358186721801758e-01
-1.275463104248046875e-01 8.069685846567153931e-02 -2.183303833007812500e-01
4.918041825294494629e-02 6.275663524866104126e-02 2.594077289104461670e-01
-2.552141845226287842e-01 3.245791047811508179e-02 3.639303520321846008e-02
-3.565729856491088867e-01 8.625823259353637695e-02 9.169970452785491943e-02
-4.148635268211364746e-01 8.367638289928436279e-02 4.132727533578872681e-02
-5.766655504703521729e-02 3.701438754796981812e-02 1.595031917095184326e-01
-3.554386794567108154e-01 7.040958106517791748e-02 4.899395406246185303e-01
-4.349073767662048340e-01 7.443274557590484619e-02 -3.777748048305511475e-01
-2.841067016124725342e-01 8.830334246158599854e-02 -2.068479359149932861e-02
-4.347774386405944824e-02 5.248773097991943359e-02 -2.442251443862915039e-01
-2.499239146709442139e-01 4.835245758295059204e-02 -4.401785433292388916e-01
-3.453181982040405273e-01 5.490845814347267151e-02 5.432096123695373535e-01
-1.144516021013259888e-01 8.458834886550903320e-02 9.544741362333297729e-03
-1.212800219655036926e-01 3.826703876256942749e-02 4.382313787937164307e-01
-2.282698452472686768e-01 5.797222256660461426e-02 6.400914192199707031e-01
-1.656680256128311157e-01 8.677402138710021973e-02 1.315877884626388550e-01
-2.145317643880844116e-01 8.527974784374237061e-02 2.923328578472137451e-01
-3.332297503948211670e-02 3.946833312511444092e-02 2.785564064979553223e-01
-2.986382842063903809e-01 8.154604583978652954e-02 3.758190870285034180e-01
-1.496357321739196777e-01 8.002874255180358887e-02 4.312131404876708984e-01
6.232559680938720703e-04 5.307342112064361572e-02 -1.310573518276214600e-01
-3.968287706375122070e-01 8.498291671276092529e-02 1.214770972728729248e-02
-8.238741755485534668e-02 8.298300951719284058e-02 8.315910398960113525e-02
-2.140569090843200684e-01 3.523667901754379272e-02 3.674550056457519531e-01
-1.960673332214355469e-01 8.747765421867370605e-02 -3.291060775518417358e-02
-9.676779806613922119e-02 3.558489680290222168e-02 3.191136568784713745e-02
-3.666632771492004395e-01 7.330418378114700317e-02 -4.590073525905609131e-01
-4.210544228553771973e-01 3.980780392885208130e-02 1.101549416780471802e-01
-3.448869287967681885e-01 4.489996284246444702e-02 4.594710469245910645e-01
-1.731073856353759766e-01 3.286717832088470459e-02 2.209880053997039795e-01
-1.768441796302795410e-01 3.828523308038711548e-02 4.635438024997711182e-01
-2.480791360139846802e-01 8.703425526618957520e-02 -1.494676470756530762e-01
-2.283207178115844727e-01 3.859931230545043945e-02 -2.669845521450042725e-01
-1.587322801351547241e-01 3.451473265886306763e-02 -6.288778036832809448e-02
-6.570357084274291992e-02 3.762830793857574463e-02 2.423522248864173889e-02
-3.415415585041046143e-01 3.590469062328338623e-02 2.195724546909332275e-01
-2.247726470232009888e-01 4.276898503303527832e-02 5.394390821456909180e-01
-6.970027089118957520e-02 8.006908744573593140e-02 -7.854626327753067017e-02
-6.377939879894256592e-02 4.097001254558563232e-02 -1.049925610423088074e-01
-4.600138664245605469e-01 8.042507618665695190e-02 -4.273801296949386597e-02
-4.502355754375457764e-01 7.305914163589477539e-02 2.825970351696014404e-01
-1.071349084377288818e-01 8.094502985477447510e-02 3.574561774730682373e-01
-3.479105830192565918e-01 7.637639343738555908e-02 -4.320941567420959473e-01
-6.241470575332641602e-02 7.656033337116241455e-02 -1.652716100215911865e-01
-4.297821223735809326e-02 6.853505969047546387e-02 5.176697969436645508e-01
-2.675265967845916748e-01 8.788257837295532227e-02 1.289784014225006104e-01
-1.879178285598754883e-01 3.403825312852859497e-02 -7.632120698690414429e-02
-2.568504810333251953e-01 7.911982387304306030e-02 -3.904756307601928711e-01
-1.688401550054550171e-01 8.395615220069885254e-02 3.226103782653808594e-01
-2.967934310436248779e-01 3.706085681915283203e-02 3.584178984165191650e-01
-1.660780161619186401e-01 8.613475412130355835e-02 2.016938924789428711e-01
-1.559261083602905273e-01 8.281939476728439331e-02 -2.087346017360687256e-01
-2.930228114128112793e-01 3.750013187527656555e-02 -2.373284995555877686e-01
-2.643958628177642822e-01 8.419060707092285156e-02 3.241180479526519775e-01
-1.604137122631072998e-01 3.872714564204216003e-02 -2.189226746559143066e-01
-2.256897836923599243e-01 7.455578446388244629e-02 5.415269732475280762e-01
-4.233838319778442383e-01 8.051738888025283813e-02 -2.654393911361694336e-01
-2.126182913780212402e-01 3.226602077484130859e-02 1.679454147815704346e-01
-5.247595906257629395e-02 4.142811894416809082e-02 4.264204502105712891e-01
-2.199582308530807495e-01 3.216173499822616577e-02 1.398790627717971802e-01
-3.855626583099365234e-01 8.527146279811859131e-02 -1.195699498057365417e-01
-4.927362501621246338e-02 3.852102532982826233e-02 3.011408448219299316e-01
-4.499301314353942871e-03 7.238101959228515625e-02 3.556919097900390625e-01
-3.011975586414337158e-01 3.339583799242973328e-02 3.546305000782012939e-03
-3.912732899188995361e-01 4.527340829372406006e-02 -3.495226502418518066e-01
-1.651618927717208862e-01 7.506623864173889160e-02 -3.777629137039184570e-01
-2.162648439407348633e-01 8.777630329132080078e-02 1.295188516378402710e-01
-3.003497123718261719e-01 8.723129332065582275e-02 1.484889388084411621e-01
-1.816921830177307129e-01 3.261191770434379578e-02 4.924929141998291016e-02
-1.684686839580535889e-01 8.470645546913146973e-02 -1.605576276779174805e-01
-2.193399518728256226e-01 7.960016280412673950e-02 4.581649005413055420e-01
-1.675260961055755615e-01 7.879849523305892944e-02 4.685994684696197510e-01
-4.602532386779785156e-01 7.826143503189086914e-02 -2.315026819705963135e-01
3.127411007881164551e-03 6.961583346128463745e-02 3.940128982067108154e-01
2.401632070541381836e-02 5.352798849344253540e-02 -4.521713405847549438e-02
-1.663477122783660889e-01 8.699448406696319580e-02 7.758790254592895508e-02
-3.660716414451599121e-01 3.820026665925979614e-02 -1.862597465515136719e-01
-1.689614355564117432e-01 8.651813119649887085e-02 1.743305921554565430e-01
-2.152208685874938965e-01 3.389232233166694641e-02 3.071599006652832031e-01
-1.667188405990600586e-01 3.395903110504150391e-02 3.025265336036682129e-01
-3.581467866897583008e-01 3.535912558436393738e-02 7.993892580270767212e-02
-4.665734171867370605e-01 7.973743230104446411e-02 -7.732675224542617798e-02
-1.822025477886199951e-01 7.065690308809280396e-02 5.910624265670776367e-01
-1.580286473035812378e-01 7.303982973098754883e-02 5.605280399322509766e-01
-4.098450541496276855e-01 8.387193828821182251e-02 -1.353504061698913574e-01
-8.202777802944183350e-02 3.789298981428146362e-02 -4.820101708173751831e-02
-4.454448819160461426e-02 7.667850703001022339e-02 -1.031437441706657410e-01
-3.007813990116119385e-01 3.410446643829345703e-02 -7.267741113901138306e-02
-4.056829214096069336e-01 8.073808252811431885e-02 2.266230285167694092e-01
-3.150777816772460938e-01 3.462187200784683228e-02 2.140049934387207031e-01
-4.921085536479949951e-01 4.746047407388687134e-02 1.437331736087799072e-02
-4.104273617267608643e-01 3.945174068212509155e-02 1.525082588195800781e-01
-2.570022642612457275e-01 8.183632045984268188e-02 3.963353633880615234e-01
-1.118653565645217896e-01 3.920475393533706665e-02 -1.613472700119018555e-01
-5.814447999000549316e-02 6.823433190584182739e-02 5.425728559494018555e-01
-3.897514343261718750e-01 3.711835294961929321e-02 -1.178806275129318237e-02
-3.726262450218200684e-01 4.222094640135765076e-02 -3.055996298789978027e-01
-3.384222388267517090e-01 8.711732923984527588e-02 6.628002226352691650e-02
-3.657728433609008789e-02 4.619929566979408264e-02 -1.508502960205078125e-01
-4.666360616683959961e-01 4.429814219474792480e-02 7.513788342475891113e-02
-3.197779059410095215e-01 3.375697880983352661e-02 4.782146215438842773e-02
-2.669199407100677490e-01 3.322421014308929443e-02 -4.376900196075439453e-02
-2.638111114501953125e-01 5.490393191576004028e-02 6.176499724388122559e-01
-4.017310738563537598e-01 4.046461731195449829e-02 2.382047772407531738e-01
-3.965915441513061523e-01 4.234091937541961670e-02 3.111080825328826904e-01
-3.787657022476196289e-01 5.636972188949584961e-02 -4.850428998470306396e-01
-4.491274356842041016e-01 4.301437735557556152e-02 -1.436212360858917236e-01
-9.639954566955566406e-02 8.377087861299514771e-02 4.853541404008865356e-02
-4.660289883613586426e-01 7.965046167373657227e-02 -1.087316647171974182e-01
-1.953407675027847290e-01 8.386148512363433838e-02 3.418411016464233398e-01
-3.326354920864105225e-01 7.886991649866104126e-02 3.999525904655456543e-01
-5.187885761260986328e-01 5.335064604878425598e-02 -1.097332611680030823e-01
-2.660587430000305176e-01 7.973159849643707275e-02 4.397917985916137695e-01
-2.816388607025146484e-01 3.575064241886138916e-02 3.326178789138793945e-01
5.246526002883911133e-02 5.515508726239204407e-02 1.588486284017562866e-01
-3.062575459480285645e-01 3.606408834457397461e-02 3.078493475914001465e-01
-2.491159886121749878e-01 8.837530016899108887e-02 -6.578758358955383301e-03
-3.499441444873809814e-01 3.514076024293899536e-02 -2.101092040538787842e-02
-2.735687792301177979e-01 8.299984037876129150e-02 3.559523522853851318e-01
-4.317570924758911133e-01 8.273223787546157837e-02 -9.944725781679153442e-02
-1.399763524532318115e-01 8.269852399826049805e-02 -1.820417642593383789e-01
-3.562266230583190918e-01 8.117190003395080566e-02 3.151351511478424072e-01
-3.544176816940307617e-01 7.364188134670257568e-02 4.562708735466003418e-01
-3.212228417396545410e-03 6.853453814983367920e-02 4.335074424743652344e-01
-8.601346611976623535e-02 3.833729773759841919e-02 3.957489430904388428e-01
-1.674663126468658447e-01 8.528275787830352783e-02 2.595989406108856201e-01
-2.137133777141571045e-01 8.738924562931060791e-02 1.677395105361938477e-01
-3.269396424293518066e-01 7.404571771621704102e-02 4.832399487495422363e-01
-4.249917566776275635e-01 8.266501873731613159e-02 6.727074831724166870e-02
-2.450591325759887695e-01 6.769804656505584717e-02 6.025820374488830566e-01
-1.114316880702972412e-01 4.971820116043090820e-02 6.074126958847045898e-01
-2.327477931976318359e-02 4.001595079898834229e-02 2.423888146877288818e-01
-2.058011889457702637e-01 8.349879086017608643e-02 -2.572236657142639160e-01
-2.404627203941345215e-01 3.737623989582061768e-02 4.230586886405944824e-01
-4.712448120117187500e-01 6.229710951447486877e-02 -3.935391306877136230e-01
-8.019562065601348877e-02 8.030816912651062012e-02 -1.078210100531578064e-01
-2.596156299114227295e-01 8.843493461608886719e-02 2.785550057888031006e-02
-3.778452873229980469e-01 8.600735664367675781e-02 -1.437286287546157837e-02
-1.786064505577087402e-01 8.167209476232528687e-02 -2.755484282970428467e-01
-3.722838163375854492e-01 3.907182067632675171e-02 2.766864001750946045e-01
-4.645526409149169922e-01 7.162952423095703125e-02 -3.590749502182006836e-01
-3.016016483306884766e-01 4.715246707201004028e-02 -4.313566684722900391e-01
-2.953369021415710449e-01 3.510050475597381592e-02 -1.403850615024566650e-01
-5.068974494934082031e-01 5.005921423435211182e-02 -1.644372195005416870e-02
3.225058317184448242e-02 6.771914660930633545e-02 2.901348769664764404e-01
-1.043872684240341187e-01 8.369269967079162598e-02 -2.141488343477249146e-02
-1.518834829330444336e-01 3.303734958171844482e-02 1.933189034461975098e-01
-2.534972727298736572e-01 3.454520925879478455e-02 3.139882385730743408e-01
-1.951626688241958618e-01 8.118067681789398193e-02 4.214857816696166992e-01
-4.462821483612060547e-01 7.874059677124023438e-02 1.643085330724716187e-01
-4.453898072242736816e-01 6.045847386121749878e-02 -4.345197975635528564e-01
-3.808318674564361572e-01 7.845479995012283325e-02 -3.784586787223815918e-01
-1.204396635293960571e-01 3.560581803321838379e-02 3.387406468391418457e-01
-1.542852222919464111e-01 4.260600358247756958e-02 -2.965784966945648193e-01
-1.215970516204833984e-02 4.230897128582000732e-02 4.748841375112533569e-02
-3.859012424945831299e-01 7.029380649328231812e-02 4.480060636997222900e-01
-5.467236042022705078e-03 7.512503862380981445e-02 2.450328171253204346e-01
-4.066937565803527832e-01 3.817391023039817810e-02 1.509319618344306946e-02
-1.166954040527343750e-01 8.499796688556671143e-02 7.861113548278808594e-02
-1.804398000240325928e-01 8.008169382810592651e-02 4.445894062519073486e-01
-1.116819828748703003e-01 6.740414351224899292e-02 -3.759194314479827881e-01
