-7.794386148452758789e-01 4.770861566066741943e-01 -2.007614076137542725e-01
-6.434750556945800781e-01 5.539533495903015137e-01 3.155961036682128906e-01
-6.988625526428222656e-01 4.430719316005706787e-01 -1.458677649497985840e-01
-3.877003490924835205e-01 4.317561984062194824e-01 9.056669473648071289e-02
-6.985394954681396484e-01 5.459184050559997559e-01 -2.460189163684844971e-01
-7.471443414688110352e-01 4.487559497356414795e-01 1.622010767459869385e-02
-6.191167831420898438e-01 4.547621607780456543e-01 3.425396382808685303e-01
-4.271208643913269043e-01 4.991891384124755859e-01 3.829972743988037109e-01
-7.628806829452514648e-01 5.719126462936401367e-01 -7.639425247907638550e-02
-4.245240986347198486e-01 5.178270936012268066e-01 -2.250114083290100098e-02
-5.129601955413818359e-01 4.560420811176300049e-01 4.002229869365692139e-01
-6.147668957710266113e-01 4.656486809253692627e-01 -2.731546759605407715e-01
-4.620850682258605957e-01 5.137773752212524414e-01 -1.245472356677055359e-01
-7.854539752006530762e-01 4.647195041179656982e-01 -8.583930879831314087e-02
-7.788282632827758789e-01 4.947192668914794922e-01 2.169505655765533447e-01
-7.091112136840820312e-01 5.686935186386108398e-01 2.032621502876281738e-01
-4.839622676372528076e-01 5.522486567497253418e-01 9.019964933395385742e-02
-6.683695912361145020e-01 4.297343790531158447e-01 9.265840798616409302e-02
-5.618980526924133301e-01 5.469628572463989258e-01 3.428132534027099609e-01
-6.323811411857604980e-01 5.771832466125488281e-01 2.341400086879730225e-02
-5.295502543449401855e-01 4.269391894340515137e-01 2.811348438262939453e-01
-5.595278143882751465e-01 5.590906739234924316e-01 -7.477427273988723755e-02
-5.488641858100891113e-01 4.228813648223876953e-01 -9.659170359373092651e-02
-7.228909730911254883e-01 5.323169827461242676e-01 3.127210438251495361e-01
-7.644069194793701172e-01 4.885551929473876953e-01 2.332381010055541992e-01
-7.198293209075927734e-01 4.734791815280914307e-01 2.737234532833099365e-01
-5.452905893325805664e-01 4.217429459095001221e-01 2.323544919490814209e-01
-6.443328261375427246e-01 4.772838950157165527e-01 -2.933040857315063477e-01
-4.771615862846374512e-01 4.227189123630523682e-01 2.586105465888977051e-01
-6.746693849563598633e-01 4.717882871627807617e-01 -2.813923656940460205e-01
-6.732439994812011719e-01 5.640785694122314453e-01 2.561694383621215820e-01
-7.536990642547607422e-01 4.948283731937408447e-01 2.658471167087554932e-01
-6.702719330787658691e-01 5.597298741340637207e-01 2.799521982669830322e-01
-8.483853340148925781e-01 5.098151564598083496e-01 -8.194958418607711792e-02
-7.821884155273437500e-01 5.572801828384399414e-01 1.632522642612457275e-01
-7.578283548355102539e-01 4.598690867424011230e-01 1.201128810644149780e-01
-5.083432793617248535e-01 4.175713658332824707e-01 -3.184352815151214600e-02
-8.432213664054870605e-01 5.343702435493469238e-01 -1.268911063671112061e-01
-7.259286046028137207e-01 5.072451829910278320e-01 3.196373283863067627e-01
-5.572351217269897461e-01 4.379926919937133789e-01 3.259112238883972168e-01
-6.759287118911743164e-01 4.335800409317016602e-01 1.266733407974243164e-01
-8.493664860725402832e-01 5.389212369918823242e-01 -2.962666004896163940e-02
-6.370351910591125488e-01 4.231959879398345947e-01 -1.991056650876998901e-02
-6.630645394325256348e-01 5.484128594398498535e-01 3.268396854400634766e-01
-6.546473503112792969e-01 5.671729445457458496e-01 -1.296565234661102295e-01
-4.211623668670654297e-01 4.294958412647247314e-01 -4.726491868495941162e-03
-6.778216361999511719e-01 4.451722502708435059e-01 2.230823934078216553e-01
-7.744762897491455078e-01 5.380897521972656250e-01 2.339421808719635010e-01
-5.387694835662841797e-01 5.577319264411926270e-01 2.597324848175048828e-01
-5.013375878334045410e-01 4.430594146251678467e-01 3.647080063819885254e-01
-4.533650279045104980e-01 5.432846546173095703e-01 1.698515415191650391e-01
-8.199624419212341309e-01 5.273438692092895508e-01 -2.038095593452453613e-01
-5.361415743827819824e-01 5.620192289352416992e-01 2.056010365486145020e-01
-8.124707937240600586e-01 5.060920119285583496e-01 1.553817093372344971e-01
-5.327885746955871582e-01 5.442792177200317383e-01 3.398483991622924805e-01
-6.436053514480590820e-01 4.692766368389129639e-01 3.593574166297912598e-01
-7.215846776962280273e-01 4.896519184112548828e-01 3.076383471488952637e-01
-4.255747795104980469e-01 4.346936643123626709e-01 3.042954802513122559e-01
-4.406292438507080078e-01 5.244607925415039062e-01 -3.422151505947113037e-02
-5.094902515411376953e-01 5.592702627182006836e-01 1.095831319689750671e-01
-6.683883666992187500e-01 4.656445980072021484e-01 3.235108256340026855e-01
-7.471797466278076172e-01 4.485316276550292969e-01 -2.880746871232986450e-02
-5.350586175918579102e-01 5.436486601829528809e-01 -1.318430006504058838e-01
-6.857221126556396484e-01 4.558709561824798584e-01 -2.316565215587615967e-01
-6.535658836364746094e-01 4.495051503181457520e-01 -2.243876755237579346e-01
-4.561381340026855469e-01 5.369554162025451660e-01 2.775060832500457764e-01
-3.491311669349670410e-01 4.714725911617279053e-01 1.434125751256942749e-01
-5.523387193679809570e-01 5.647041797637939453e-01 2.329684793949127197e-03
-6.736086606979370117e-01 4.289984703063964844e-01 1.694208011031150818e-02
-3.991281390190124512e-01 4.308879375457763672e-01 2.364766299724578857e-01
-5.225923061370849609e-01 5.618029236793518066e-01 7.944011688232421875e-02
-3.800907135009765625e-01 4.330553412437438965e-01 1.388222575187683105e-01
-6.773657798767089844e-01 5.698210000991821289e-01 -1.222886517643928528e-01
-5.891811251640319824e-01 5.366503000259399414e-01 3.812059760093688965e-01
-4.302926063537597656e-01 4.211008846759796143e-01 1.969339847564697266e-01
-7.780769467353820801e-01 5.102502703666687012e-01 2.400288879871368408e-01
-7.430852055549621582e-01 4.518483877182006836e-01 9.994021803140640259e-02
-5.270425677299499512e-01 5.629751682281494141e-01 1.395826339721679688e-01
-4.723013639450073242e-01 4.392074942588806152e-01 -1.284181475639343262e-01
-4.666807055473327637e-01 5.432931184768676758e-01 2.797884494066238403e-02
-7.252629995346069336e-01 4.417048394680023193e-01 -1.707246154546737671e-02
-4.827983677387237549e-01 4.277934134006500244e-01 2.951026558876037598e-01
-6.949993371963500977e-01 5.795719623565673828e-01 1.195964589715003967e-02
-7.739722728729248047e-01 4.840158522129058838e-01 1.996094584465026855e-01
-4.260688722133636475e-01 4.700438678264617920e-01 -1.169664189219474792e-01
-8.005158901214599609e-01 4.711048007011413574e-01 -7.224174588918685913e-02
-7.796574831008911133e-01 5.676438808441162109e-01 -9.812050312757492065e-02
-7.494828701019287109e-01 5.701311826705932617e-01 1.412398070096969604e-01
-7.698569297790527344e-01 5.738017559051513672e-01 6.656721234321594238e-04
-6.508587002754211426e-01 4.653891324996948242e-01 -2.729248702526092529e-01
-4.653409123420715332e-01 5.014023780822753906e-01 -1.579538583755493164e-01
-5.961957573890686035e-01 4.202350080013275146e-01 1.504668593406677246e-01
-7.312967777252197266e-01 5.703580379486083984e-01 -1.213008388876914978e-01
-6.632302403450012207e-01 5.370203256607055664e-01 3.554309606552124023e-01
-4.371511936187744141e-01 4.912775754928588867e-01 4.031696319580078125e-01
-5.802603960037231445e-01 4.164498150348663330e-01 1.123071908950805664e-01
-6.319900155067443848e-01 4.742166101932525635e-01 3.796091675758361816e-01
-4.226169586181640625e-01 4.715195596218109131e-01 3.924562931060791016e-01
-7.746593952178955078e-01 4.861160516738891602e-01 -2.384054362773895264e-01
-6.950262784957885742e-01 5.122366547584533691e-01 -3.040508031845092773e-01
-8.038310408592224121e-01 5.072976350784301758e-01 -2.313250601291656494e-01
-7.986208200454711914e-01 4.918085634708404541e-01 -2.132899761199951172e-01
-4.973973631858825684e-01 4.732558727264404297e-01 4.277638792991638184e-01
-6.283878684043884277e-01 5.352267026901245117e-01 -2.530038952827453613e-01
-8.031861186027526855e-01 4.746564328670501709e-01 4.203195869922637939e-02
-6.189655065536499023e-01 4.374711811542510986e-01 -1.820485889911651611e-01
-7.998778820037841797e-01 4.869646131992340088e-01 1.388277411460876465e-01
-8.274291753768920898e-01 5.458154678344726562e-01 8.814906328916549683e-02
-4.831182956695556641e-01 4.133048057556152344e-01 9.930083155632019043e-02
-4.080953001976013184e-01 5.025573968887329102e-01 3.471353650093078613e-01
-4.473021924495697021e-01 5.400279760360717773e-01 2.059276700019836426e-01
-5.595309138298034668e-01 5.642272830009460449e-01 2.236038744449615479e-01
-7.654516696929931641e-01 4.570344984531402588e-01 -9.079211205244064331e-02
-7.863320708274841309e-01 5.705007314682006836e-01 -1.921376585960388184e-02
-7.300606966018676758e-01 4.504255056381225586e-01 -1.439139842987060547e-01
-5.026765465736389160e-01 4.329788088798522949e-01 -1.329560577869415283e-01
-5.706297159194946289e-01 4.271024167537689209e-01 2.539191246032714844e-01
-5.399158596992492676e-01 5.004076957702636719e-01 -2.481860518455505371e-01
-6.402829289436340332e-01 5.724822878837585449e-01 -6.972081214189529419e-02
-7.133746743202209473e-01 5.790251493453979492e-01 1.293897628784179688e-03
-4.369068145751953125e-01 5.303536057472229004e-01 1.793199777603149414e-02
-7.169117927551269531e-01 4.541670382022857666e-01 -1.930682659149169922e-01
-7.899643778800964355e-01 5.310650467872619629e-01 -2.419731020927429199e-01
-6.604632735252380371e-01 5.486442446708679199e-01 -2.274846434593200684e-01
-6.719714999198913574e-01 5.793644189834594727e-01 8.638720959424972534e-02
-4.797362983226776123e-01 5.476513504981994629e-01 2.375386357307434082e-01
-3.983415365219116211e-01 5.133652091026306152e-01 4.821268469095230103e-02
-3.747696876525878906e-01 5.059679150581359863e-01 1.822766363620758057e-01
-7.797316312789916992e-01 4.661219716072082520e-01 8.504101634025573730e-02
-6.260201930999755859e-01 4.248657822608947754e-01 -7.717717438936233521e-02
-5.064147710800170898e-01 4.646393060684204102e-01 -2.157532274723052979e-01
-5.471898913383483887e-01 4.142145514488220215e-01 1.541648432612419128e-02
-7.660108208656311035e-01 4.592622816562652588e-01 -1.179178282618522644e-01
-6.004855632781982422e-01 4.250733256340026855e-01 2.012372314929962158e-01
-4.905126988887786865e-01 5.395750403404235840e-01 3.230202496051788330e-01
-5.353304743766784668e-01 4.792027175426483154e-01 -2.502715289592742920e-01
-7.465401887893676758e-01 4.515310525894165039e-01 -1.043296679854393005e-01
-5.984534025192260742e-01 4.213415384292602539e-01 -6.515964120626449585e-02
-4.890958666801452637e-01 5.435575246810913086e-01 2.961212098598480225e-01
-6.999777555465698242e-01 5.595721602439880371e-01 -1.926236152648925781e-01
-5.617095232009887695e-01 5.690732598304748535e-01 1.392949819564819336e-01
-6.640028953552246094e-01 4.498530328273773193e-01 2.710077464580535889e-01
-4.441986680030822754e-01 4.916529953479766846e-01 -1.377228796482086182e-01
-5.141311883926391602e-01 4.209370315074920654e-01 2.419582605361938477e-01
-5.648559331893920898e-01 5.688343048095703125e-01 1.607974469661712646e-01
-6.642490029335021973e-01 5.767054557800292969e-01 -3.834900259971618652e-02
-5.315685272216796875e-01 5.347289443016052246e-01 3.765691816806793213e-01
-6.747207641601562500e-01 5.623914003372192383e-01 -1.711734235286712646e-01
-3.678842782974243164e-01 4.573817849159240723e-01 3.600893169641494751e-02
-3.797095417976379395e-01 5.093526840209960938e-01 1.526672840118408203e-01
-7.427104711532592773e-01 5.237911343574523926e-01 2.967508733272552490e-01
-5.131610631942749023e-01 4.131116867065429688e-01 1.277756690979003906e-01
-3.712716400623321533e-01 4.966507852077484131e-01 2.606465816497802734e-01
-5.637512803077697754e-01 5.514817237854003906e-01 3.223542571067810059e-01
-4.713678359985351562e-01 5.336142778396606445e-01 -6.266782432794570923e-02
-5.812823772430419922e-01 5.698012113571166992e-01 -7.325857877731323242e-04
-4.275283217430114746e-01 5.107399821281433105e-01 -6.104352325201034546e-02
-7.179889678955078125e-01 5.594058036804199219e-01 2.463166117668151855e-01
-5.553913116455078125e-01 4.758085012435913086e-01 -2.624881267547607422e-01
-5.074461698532104492e-01 4.148116409778594971e-01 1.700550019741058350e-01
-4.110050797462463379e-01 5.268336534500122070e-01 1.525774598121643066e-01
-7.968206405639648438e-01 5.610954761505126953e-01 -1.244462206959724426e-01
-4.841088652610778809e-01 4.512744843959808350e-01 -1.734537780284881592e-01
-6.342230439186096191e-01 4.347705841064453125e-01 -1.587673127651214600e-01
-6.259576082229614258e-01 4.280560314655303955e-01 1.873133331537246704e-01
-3.906615078449249268e-01 4.335733950138092041e-01 5.627474188804626465e-02
-4.248601794242858887e-01 5.206557512283325195e-01 3.103420734405517578e-01
-6.755222678184509277e-01 4.382576048374176025e-01 -1.431126296520233154e-01
-5.757622122764587402e-01 4.170750379562377930e-01 -2.197743207216262817e-02
-6.102973818778991699e-01 5.708667635917663574e-01 2.037071287631988525e-01
-4.570858478546142578e-01 4.204676747322082520e-01 -1.993231475353240967e-03
-3.563940525054931641e-01 4.844959378242492676e-01 1.169770509004592896e-01
-6.240396499633789062e-01 4.388533830642700195e-01 2.692508399486541748e-01
-3.566410541534423828e-01 4.488565623760223389e-01 1.429812312126159668e-01
-7.387286424636840820e-01 4.548139572143554688e-01 1.435313671827316284e-01
-4.005206227302551270e-01 4.405791163444519043e-01 3.011136949062347412e-01
-8.237029314041137695e-01 5.513226389884948730e-01 -1.241518333554267883e-01
-4.819244146347045898e-01 4.137555062770843506e-01 6.677696108818054199e-02
-4.908590614795684814e-01 5.200890302658081055e-01 3.963913917541503906e-01
-5.098778009414672852e-01 5.069255828857421875e-01 -2.093898653984069824e-01
-7.288886904716491699e-01 5.507028102874755859e-01 -2.287822365760803223e-01
-8.296772837638854980e-01 4.901528954505920410e-01 8.456893265247344971e-03
-4.020769894123077393e-01 5.185567140579223633e-01 2.480723261833190918e-01
-3.762697577476501465e-01 4.414710700511932373e-01 2.499585449695587158e-01
-6.271026134490966797e-01 5.548627376556396484e-01 -1.821848750114440918e-01
-5.664123296737670898e-01 4.221699237823486328e-01 2.172129154205322266e-01
-3.579627871513366699e-01 4.735639393329620361e-01 7.364962249994277954e-02
-7.082226276397705078e-01 5.307748913764953613e-01 -2.821104526519775391e-01
-8.184465765953063965e-01 4.988051354885101318e-01 1.186049506068229675e-01
-8.401443958282470703e-01 5.250473618507385254e-01 7.790023088455200195e-02
-5.394590497016906738e-01 4.167791306972503662e-01 1.824122369289398193e-01
-7.557945847511291504e-01 5.726847648620605469e-01 1.010675877332687378e-01
-4.214941263198852539e-01 4.206477701663970947e-01 1.450552642345428467e-01
-4.166650176048278809e-01 4.526840448379516602e-01 3.601376414299011230e-01
-4.145212173461914062e-01 5.271361470222473145e-01 1.039595827460289001e-01
-5.267176032066345215e-01 5.620496273040771484e-01 5.726161599159240723e-02
-4.815351963043212891e-01 4.194276034832000732e-01 2.295896112918853760e-01
-6.589139699935913086e-01 4.308758080005645752e-01 -9.718262404203414917e-02
-7.759587168693542480e-01 5.675957202911376953e-01 1.085109561681747437e-01
-5.982818603515625000e-01 4.573517441749572754e-01 3.674118816852569580e-01
-4.278309345245361328e-01 5.314176082611083984e-01 2.315205633640289307e-01
-8.213156461715698242e-01 5.552397370338439941e-01 -1.033253744244575500e-01
-5.171858072280883789e-01 4.188658297061920166e-01 2.209481298923492432e-01
-4.151923060417175293e-01 4.228866696357727051e-01 1.795152276754379272e-01
-4.298453330993652344e-01 4.249444007873535156e-01 2.423130869865417480e-01
-5.874871015548706055e-01 4.326931834220886230e-01 2.746483981609344482e-01
-6.229421496391296387e-01 5.252110362052917480e-01 3.955169916152954102e-01
-4.425783157348632812e-01 4.181603789329528809e-01 6.552893668413162231e-02
-6.962513923645019531e-01 4.866295754909515381e-01 -2.977947592735290527e-01
-8.246737718582153320e-01 4.866576492786407471e-01 -9.406448155641555786e-02
-5.410679578781127930e-01 5.294943451881408691e-01 3.949825465679168701e-01
-5.562406778335571289e-01 4.952102899551391602e-01 4.351684153079986572e-01
-5.835646986961364746e-01 5.233922600746154785e-01 4.091691970825195312e-01
-7.727131247520446777e-01 4.577808082103729248e-01 -3.090886771678924561e-02
-7.257338166236877441e-01 4.735725224018096924e-01 -2.590933144092559814e-01
-6.847227811813354492e-01 4.504322409629821777e-01 -2.089589536190032959e-01
-7.591209411621093750e-01 5.740684270858764648e-01 -4.751438647508621216e-02
-7.878963351249694824e-01 5.590013265609741211e-01 1.420347392559051514e-01
-4.767659604549407959e-01 4.248192906379699707e-01 -6.469795852899551392e-02
-4.538460969924926758e-01 5.279002189636230469e-01 3.302758038043975830e-01
-6.377366781234741211e-01 5.416491031646728516e-01 3.574630618095397949e-01
-5.761583447456359863e-01 4.153825044631958008e-01 8.751422911882400513e-02
-6.220309734344482422e-01 4.302688241004943848e-01 -1.345872581005096436e-01
-7.352652549743652344e-01 4.453827142715454102e-01 3.678039461374282837e-02
-4.966830611228942871e-01 5.487709641456604004e-01 -1.893623918294906616e-02
-4.982154369354248047e-01 4.873264729976654053e-01 -2.154433727264404297e-01
-5.700295567512512207e-01 4.190128147602081299e-01 -5.599516630172729492e-02
-7.589523792266845703e-01 5.182546377182006836e-01 -2.796680927276611328e-01
-6.668643355369567871e-01 5.657048225402832031e-01 -1.472619175910949707e-01
-6.290363669395446777e-01 5.774551630020141602e-01 4.971971362829208374e-02
-4.487324953079223633e-01 4.526902139186859131e-01 3.824947476387023926e-01
-7.823302149772644043e-01 4.621559381484985352e-01 -5.614994466304779053e-02
-5.851755142211914062e-01 4.159524440765380859e-01 6.795866787433624268e-02
-6.240937709808349609e-01 5.199996232986450195e-01 -2.815513014793395996e-01
-3.922145366668701172e-01 4.903024435043334961e-01 -2.595864236354827881e-02
-7.335766553878784180e-01 4.505589008331298828e-01 1.232679635286331177e-01
-4.794014692306518555e-01 5.284346938133239746e-01 -1.052881851792335510e-01
-4.653326869010925293e-01 4.313159883022308350e-01 3.115474581718444824e-01
-6.493261456489562988e-01 4.244641065597534180e-01 1.193385198712348938e-02
-4.117403328418731689e-01 5.254843831062316895e-01 2.183202505111694336e-01
-7.135778665542602539e-01 5.468667745590209961e-01 2.938891947269439697e-01
-4.357699453830718994e-01 4.184576272964477539e-01 8.910496532917022705e-02
-7.317469716072082520e-01 5.662979483604431152e-01 1.952021420001983643e-01
-5.938263535499572754e-01 4.266929030418395996e-01 -1.215226873755455017e-01
-6.447809338569641113e-01 5.742731094360351562e-01 1.795727610588073730e-01
-4.547756314277648926e-01 4.157974720001220703e-01 1.396826952695846558e-01
-5.874559283256530762e-01 5.441203713417053223e-01 -1.942049562931060791e-01
-4.811265468597412109e-01 4.155031740665435791e-01 1.772306710481643677e-01
-5.065258145332336426e-01 5.480424761772155762e-01 -5.101413279771804810e-02
-4.386084377765655518e-01 5.276776552200317383e-01 -8.410580456256866455e-03
-7.740203738212585449e-01 5.621886253356933594e-01 -1.510868370532989502e-01
-7.502458691596984863e-01 5.551168918609619141e-01 -2.048816382884979248e-01
-6.383439898490905762e-01 5.695749521255493164e-01 -9.671195596456527710e-02
-6.845006346702575684e-01 4.410291612148284912e-01 1.798139810562133789e-01
-4.097443222999572754e-01 4.610100686550140381e-01 -8.079490810632705688e-02
-7.561532258987426758e-01 5.182792544364929199e-01 2.795344293117523193e-01
-5.851755738258361816e-01 5.725725293159484863e-01 1.270391643047332764e-01
-8.227964639663696289e-01 5.055004954338073730e-01 -1.902110576629638672e-01
-7.888903617858886719e-01 5.528061389923095703e-01 -1.841613650321960449e-01
-6.536674499511718750e-01 5.664783716201782227e-01 2.485815286636352539e-01
-7.385087013244628906e-01 5.423606634140014648e-01 2.775146067142486572e-01
-5.969226956367492676e-01 4.328885674476623535e-01 -1.623130738735198975e-01
-7.012898921966552734e-01 4.813293218612670898e-01 3.201987743377685547e-01
-7.733296155929565430e-01 5.058171153068542480e-01 -2.685762941837310791e-01
-5.784249901771545410e-01 4.704917371273040771e-01 4.079958796501159668e-01
-7.607572078704833984e-01 5.653178095817565918e-01 1.587204337120056152e-01
-4.987078309059143066e-01 5.107469558715820312e-01 -1.886571347713470459e-01
-6.993682384490966797e-01 4.350652098655700684e-01 3.455448523163795471e-02
-7.664898633956909180e-01 5.444513559341430664e-01 -2.331044673919677734e-01
-7.626893520355224609e-01 5.512498617172241211e-01 2.210971713066101074e-01
-7.536849379539489746e-01 4.656397998332977295e-01 -1.962946355342864990e-01
-4.494309425354003906e-01 5.408592224121093750e-01 8.592809736728668213e-02
-6.688058972358703613e-01 4.395137727260589600e-01 2.020825147628784180e-01
-8.360829353332519531e-01 4.986859858036041260e-01 3.203947097063064575e-02
-4.691429138183593750e-01 5.474090576171875000e-01 1.937031745910644531e-01
-3.967049717903137207e-01 4.269845783710479736e-01 1.221719980239868164e-01
-6.925890445709228516e-01 4.396025240421295166e-01 1.456610262393951416e-01
-4.429793357849121094e-01 5.355988144874572754e-01 2.490327060222625732e-01
-5.034544467926025391e-01 5.554986000061035156e-01 2.069432437419891357e-01
-5.928441882133483887e-01 5.715204477310180664e-01 1.745036244392395020e-01
-7.886197566986083984e-01 5.685240626335144043e-01 -6.206253916025161743e-02
-8.011365532875061035e-01 5.637095570564270020e-01 -8.832735568284988403e-02
-3.960064649581909180e-01 5.191318988800048828e-01 1.832383275032043457e-01
-5.528721213340759277e-01 5.223689079284667969e-01 -2.261288464069366455e-01
-5.468698143959045410e-01 5.370421409606933594e-01 -1.764412224292755127e-01
-4.967004060745239258e-01 4.140489995479583740e-01 3.222131729125976562e-02
-6.962807774543762207e-01 4.535411894321441650e-01 2.358373999595642090e-01
-5.906666517257690430e-01 4.453573226928710938e-01 3.334112167358398438e-01
-7.768545746803283691e-01 5.488838553428649902e-01 2.050700485706329346e-01
-6.470419764518737793e-01 4.508139491081237793e-01 2.981370687484741211e-01
-8.456247448921203613e-01 5.226104259490966797e-01 4.956124722957611084e-02
-8.390327692031860352e-01 5.019739866256713867e-01 -1.165222451090812683e-01
-3.521754741668701172e-01 4.755538702011108398e-01 2.298490107059478760e-01
-6.255979537963867188e-01 5.670007467269897461e-01 2.461150586605072021e-01
-4.061008095741271973e-01 5.059819817543029785e-01 -1.995547115802764893e-02
-6.601855754852294922e-01 5.727325677871704102e-01 -8.558078855276107788e-02
-5.351534485816955566e-01 5.628625154495239258e-01 3.313976153731346130e-02
-5.940504670143127441e-01 5.562085509300231934e-01 -1.439897119998931885e-01
-8.110909461975097656e-01 5.541183948516845703e-01 1.060072258114814758e-01
-7.436625957489013672e-01 5.763309597969055176e-01 6.795594841241836548e-02
-7.009965181350708008e-01 4.384958148002624512e-01 -9.237682074308395386e-02
-6.112478971481323242e-01 5.463253855705261230e-01 -2.065488398075103760e-01
-5.866496562957763672e-01 4.969676733016967773e-01 -2.837954461574554443e-01
-5.652174949645996094e-01 5.492541790008544922e-01 -1.464142501354217529e-01
-6.525825262069702148e-01 5.789570212364196777e-01 4.129297286272048950e-02
-5.457002520561218262e-01 4.191620349884033203e-01 -6.230340152978897095e-02
-6.493478417396545410e-01 4.267236590385437012e-01 -5.855504423379898071e-02
-5.091530084609985352e-01 4.225866198539733887e-01 -7.806026190519332886e-02
-7.914681434631347656e-01 4.658842384815216064e-01 -3.589286655187606812e-02
-6.108445525169372559e-01 4.262905120849609375e-01 -1.087798848748207092e-01
-5.710950493812561035e-01 5.642145276069641113e-01 -4.978835582733154297e-02
-4.159272313117980957e-01 4.961408674716949463e-01 -7.457598298788070679e-02
-3.593681454658508301e-01 4.652975499629974365e-01 2.727118134498596191e-01
-7.304908037185668945e-01 5.586625337600708008e-01 -1.956844925880432129e-01
-6.027668714523315430e-01 5.500884652137756348e-01 3.372181057929992676e-01
-3.576085567474365234e-01 4.903858900070190430e-01 1.693921387195587158e-01
-3.842642307281494141e-01 4.947412014007568359e-01 1.172448694705963135e-02
-6.332268714904785156e-01 5.074551701545715332e-01 4.043035209178924561e-01
-5.368772745132446289e-01 4.403460025787353516e-01 3.460672199726104736e-01
-5.581961870193481445e-01 4.310931563377380371e-01 -1.516242623329162598e-01
-7.173039913177490234e-01 4.403084814548492432e-01 4.888528585433959961e-02
-7.574858665466308594e-01 4.717160165309906006e-01 1.923785209655761719e-01
-3.781596422195434570e-01 5.069772601127624512e-01 1.220399066805839539e-01
-8.322739601135253906e-01 5.278242826461791992e-01 1.084511131048202515e-01
-6.222788095474243164e-01 5.554022192955017090e-01 3.138084411621093750e-01
-4.545508027076721191e-01 4.251123964786529541e-01 -3.738875687122344971e-02
-6.904844045639038086e-01 5.535489320755004883e-01 2.927748262882232666e-01
-6.469652652740478516e-01 4.336385130882263184e-01 1.983950436115264893e-01
-4.661884307861328125e-01 4.180356264114379883e-01 2.059007585048675537e-01
-7.398172020912170410e-01 5.697243213653564453e-01 1.601019203662872314e-01
-5.368261337280273438e-01 4.164545834064483643e-01 -2.910221368074417114e-02
-6.101891994476318359e-01 5.757849216461181641e-01 9.964792430400848389e-02
-6.823379993438720703e-01 5.741419792175292969e-01 1.758922189474105835e-01
-5.837864875793457031e-01 4.714436829090118408e-01 -2.730300724506378174e-01
-5.313129425048828125e-01 5.528317689895629883e-01 -6.937360018491744995e-02
-7.935969233512878418e-01 5.682758688926696777e-01 2.981294691562652588e-02
-6.297776103019714355e-01 5.776541829109191895e-01 7.307206094264984131e-02
-5.569570064544677734e-01 4.237152338027954102e-01 -2.384753376245498657e-01
-2.143691480159759521e-01 5.161765217781066895e-01 4.935589134693145752e-01
-2.691558599472045898e-01 4.269015789031982422e-01 4.111238420009613037e-01
-3.223436176776885986e-01 4.474243819713592529e-01 -4.298476278781890869e-01
-3.724625706672668457e-01 4.171555638313293457e-01 -3.442576825618743896e-01
-4.763344526290893555e-01 4.664059877395629883e-01 -4.698471128940582275e-01
-3.915882408618927002e-01 4.900441765785217285e-01 4.270584881305694580e-01
-5.004135370254516602e-01 4.665111601352691650e-01 -4.511120617389678955e-01
-1.018349379301071167e-01 4.378409683704376221e-01 1.051632314920425415e-01
-3.360142707824707031e-01 3.844096064567565918e-01 1.185589805245399475e-01
-2.839788198471069336e-01 6.177805662155151367e-01 -3.578278794884681702e-02
-8.710612356662750244e-02 4.473436176776885986e-01 3.399614244699478149e-02
-4.435092806816101074e-01 4.328556060791015625e-01 3.406774997711181641e-01
-3.452349901199340820e-01 6.100695729255676270e-01 -1.306016743183135986e-01
-4.036262631416320801e-01 3.873600065708160400e-01 -1.366461068391799927e-01
-5.145012140274047852e-01 5.581310987472534180e-01 -1.087378263473510742e-01
-5.769914388656616211e-01 4.713347852230072021e-01 -3.213395178318023682e-01
-4.970261454582214355e-02 5.715531706809997559e-01 -1.459095627069473267e-01
-3.360232710838317871e-01 5.977936983108520508e-01 -3.265390098094940186e-01
-1.289661526679992676e-01 5.416864752769470215e-01 -3.554683327674865723e-01
-4.840325117111206055e-01 5.719764828681945801e-01 -1.120571643114089966e-01
-3.865978121757507324e-02 5.865427851676940918e-01 1.221067178994417191e-02
-1.512160003185272217e-01 4.209929704666137695e-01 1.592221856117248535e-02
-5.083910226821899414e-01 3.944393396377563477e-01 -5.194939672946929932e-02
-5.511143803596496582e-02 4.802906215190887451e-01 3.082912266254425049e-01
-4.569818973541259766e-01 4.997551143169403076e-01 -5.029874444007873535e-01
-5.447937250137329102e-01 5.358964800834655762e-01 -2.888129279017448425e-02
-5.103086233139038086e-01 5.430639982223510742e-01 8.468051254749298096e-02
-4.252574443817138672e-01 5.132979750633239746e-01 3.613868653774261475e-01
-4.519810974597930908e-01 5.273250341415405273e-01 -4.868209660053253174e-01
-9.738606214523315430e-02 5.033407211303710938e-01 4.349422752857208252e-01
-2.705734074115753174e-01 4.124920070171356201e-01 -2.324656099081039429e-01
-1.544963270425796509e-01 4.240731000900268555e-01 2.590952813625335693e-01
-3.497031331062316895e-02 5.314992070198059082e-01 -1.400575786828994751e-01
-2.522696852684020996e-01 3.954457044601440430e-01 -1.316337194293737411e-02
-1.366084814071655273e-02 5.048111677169799805e-01 1.957866549491882324e-01
-5.210022926330566406e-01 5.544742345809936523e-01 -1.980945914983749390e-01
-3.065703213214874268e-01 3.915978670120239258e-01 2.117709964513778687e-01
-2.700576186180114746e-01 3.976534605026245117e-01 -1.028788164258003235e-01
-5.599523782730102539e-01 5.311363935470581055e-01 -1.652097254991531372e-01
-3.350319564342498779e-01 5.841816663742065430e-01 -4.032434821128845215e-01
-3.065250217914581299e-01 5.897160768508911133e-01 -3.864379823207855225e-01
-3.895989358425140381e-01 5.962421894073486328e-01 3.002653270959854126e-02
-4.959486126899719238e-01 3.968859314918518066e-01 9.485378861427307129e-02
-2.334400415420532227e-01 5.925366878509521484e-01 2.836577892303466797e-01
-3.443238139152526855e-01 3.827170133590698242e-01 2.939818799495697021e-02
-2.395468652248382568e-01 5.972220897674560547e-01 -3.437638282775878906e-01
-4.542761147022247314e-01 4.492008090019226074e-01 -4.501422643661499023e-01
-4.777896404266357422e-01 4.269106984138488770e-01 2.804351449012756348e-01
-2.641954123973846436e-01 5.925383567810058594e-01 2.658850550651550293e-01
-4.882711768150329590e-01 3.950530290603637695e-01 -1.588856428861618042e-01
-1.487935334444046021e-01 4.877578020095825195e-01 -3.397179543972015381e-01
-3.707537353038787842e-01 3.927752971649169922e-01 -1.851994544267654419e-01
-2.021027207374572754e-01 4.211075305938720703e-01 -1.672881990671157837e-01
-3.234308063983917236e-01 4.738502502441406250e-01 -4.881372153759002686e-01
-2.781381905078887939e-01 4.151445031166076660e-01 3.668929934501647949e-01
-1.232021749019622803e-01 4.306403994560241699e-01 1.957275569438934326e-01
-4.683932662010192871e-01 4.029241204261779785e-01 -2.563002705574035645e-01
-3.943607211112976074e-02 5.016107559204101562e-01 3.189835846424102783e-01
-3.520837426185607910e-01 4.955083429813385010e-01 -5.215210914611816406e-01
-4.128183722496032715e-01 5.643006563186645508e-01 -4.308888614177703857e-01
-2.326610684394836426e-01 4.508814513683319092e-01 -3.608997762203216553e-01
-3.439950048923492432e-01 5.596017837524414062e-01 -4.788708984851837158e-01
-3.575537502765655518e-01 3.912486135959625244e-01 -1.607431173324584961e-01
-1.018100380897521973e-01 4.498412311077117920e-01 -7.653408497571945190e-02
-2.568278312683105469e-01 6.193678379058837891e-01 -7.606511004269123077e-03
-4.771426618099212646e-01 5.087445378303527832e-01 2.874712049961090088e-01
-2.946919500827789307e-01 6.171545982360839844e-01 -7.573772221803665161e-02
-1.770896017551422119e-01 4.606004357337951660e-01 -3.139551579952239990e-01
-1.422278732061386108e-01 5.771067142486572266e-01 3.530865609645843506e-01
-2.625912725925445557e-01 4.793707132339477539e-01 -4.592543542385101318e-01
-1.526401191949844360e-01 4.282343685626983643e-01 -8.518262207508087158e-02
-4.953467845916748047e-01 5.664103627204895020e-01 -8.415801823139190674e-02
-1.910381019115447998e-01 5.754489302635192871e-01 3.693454265594482422e-01
-2.010870575904846191e-01 4.090337753295898438e-01 -4.399596527218818665e-02
-8.474494516849517822e-02 5.893285274505615234e-01 2.417357861995697021e-01
-4.039832353591918945e-01 4.359727799892425537e-01 -4.228534996509552002e-01
-1.474611908197402954e-01 6.145726442337036133e-01 9.286061674356460571e-02
-1.340786367654800415e-01 6.101699471473693848e-01 -1.463902294635772705e-01
-2.976110279560089111e-01 3.899709880352020264e-01 -5.505717918276786804e-02
-5.294715166091918945e-01 4.815663099288940430e-01 -4.287232756614685059e-01
-5.040879249572753906e-01 5.568735003471374512e-01 1.321361400187015533e-03
-3.626416921615600586e-01 6.012548208236694336e-01 5.000323802232742310e-02
-1.982341110706329346e-01 6.210560798645019531e-01 -6.070730835199356079e-02
-5.030468106269836426e-01 5.526634454727172852e-01 4.556642845273017883e-02
-3.887671232223510742e-01 5.337650179862976074e-01 -5.124340057373046875e-01
-1.794518679380416870e-01 6.192034482955932617e-01 3.644285351037979126e-02
-1.023313403129577637e-02 5.350354909896850586e-01 2.287777513265609741e-01
-2.559546828269958496e-01 3.975347876548767090e-01 -6.469939649105072021e-02
-4.338182210922241211e-01 3.845618069171905518e-01 7.663413882255554199e-02
-1.751890778541564941e-02 4.973971247673034668e-01 6.332057714462280273e-02
-3.852452337741851807e-01 3.960880637168884277e-01 2.540437579154968262e-01
-4.213764965534210205e-01 4.081201255321502686e-01 2.905882894992828369e-01
-5.653318762779235840e-01 4.561348855495452881e-01 1.245959773659706116e-01
-2.552562952041625977e-01 6.148542165756225586e-01 8.633484691381454468e-02
-2.332805544137954712e-01 5.551888942718505859e-01 4.257218539714813232e-01
-1.145267784595489502e-01 4.434865117073059082e-01 2.995742857456207275e-01
-4.204089045524597168e-01 5.581015944480895996e-01 2.373781204223632812e-01
-4.234413802623748779e-01 5.914223790168762207e-01 -5.393351241946220398e-02
-4.353512227535247803e-01 5.823124647140502930e-01 -2.872784733772277832e-01
-3.074552714824676514e-01 6.140153408050537109e-01 -1.728038191795349121e-01
-2.225527465343475342e-01 5.481948852539062500e-01 -4.563289880752563477e-01
-1.496091485023498535e-01 5.606608986854553223e-01 4.086264669895172119e-01
-4.146995544433593750e-01 4.043468236923217773e-01 -2.844885587692260742e-01
-3.672995865345001221e-01 4.023633301258087158e-01 -2.595087587833404541e-01
-8.945561945438385010e-02 5.355246067047119141e-01 -2.862111032009124756e-01
-2.862320244312286377e-01 6.178728342056274414e-01 -1.040498241782188416e-01
-1.544350385665893555e-01 4.545243978500366211e-01 4.218795299530029297e-01
-4.118737578392028809e-01 3.850281536579132080e-01 1.226968541741371155e-01
-9.139522910118103027e-02 6.065947413444519043e-01 -3.888653963804244995e-02
-2.579181194305419922e-01 4.376955628395080566e-01 -3.433609604835510254e-01
-2.759867906570434570e-01 3.897397518157958984e-01 9.291090816259384155e-02
-7.370834052562713623e-02 4.739645123481750488e-01 3.413179814815521240e-01
-5.882136821746826172e-01 4.354052543640136719e-01 -5.637242645025253296e-02
-2.685964107513427734e-01 5.969052314758300781e-01 -3.527730405330657959e-01
-7.055515050888061523e-02 5.913689136505126953e-01 1.976871043443679810e-01
-4.260701239109039307e-01 5.706689953804016113e-01 -3.881561160087585449e-01
-3.495444953441619873e-01 6.010675430297851562e-01 -2.841209769248962402e-01
-4.265072345733642578e-01 4.998528659343719482e-01 -5.177491307258605957e-01
-4.897978305816650391e-01 5.606670379638671875e-01 -3.085587322711944580e-01
-2.425548136234283447e-01 4.046850800514221191e-01 -1.182305365800857544e-01
-4.551872611045837402e-01 5.392295122146606445e-01 -4.621495604515075684e-01
-9.906522929668426514e-02 4.391085803508758545e-01 1.380303949117660522e-01
-4.644454419612884521e-01 3.900130987167358398e-01 9.960325807332992554e-02
-2.966566383838653564e-01 3.884261250495910645e-01 -1.824285276234149933e-02
-1.500904560089111328e-03 5.463077425956726074e-01 1.041887253522872925e-01
-3.584372401237487793e-01 6.064019799232482910e-01 -2.672557532787322998e-02
-1.233903765678405762e-01 4.802545905113220215e-01 -2.751197516918182373e-01
-2.367223501205444336e-01 3.965119123458862305e-01 5.827239528298377991e-02
-3.857651650905609131e-01 5.031946897506713867e-01 -5.267547965049743652e-01
-2.347365319728851318e-01 6.042196750640869141e-01 2.082752585411071777e-01
-2.681068778038024902e-01 6.110188364982604980e-01 1.193197891116142273e-01
-1.263946294784545898e-03 5.276857614517211914e-01 1.386232972145080566e-01
-2.665682733058929443e-01 6.176749467849731445e-01 1.952129602432250977e-02
-3.145107626914978027e-01 6.145322322845458984e-01 -5.427496135234832764e-02
-9.627577662467956543e-02 4.453693032264709473e-01 2.428467571735382080e-01
-4.250371456146240234e-02 4.799650311470031738e-01 2.504833638668060303e-01
-1.952922344207763672e-01 4.071356952190399170e-01 2.211415395140647888e-02
-3.239799737930297852e-01 3.942903876304626465e-01 -1.578505486249923706e-01
-3.622004389762878418e-02 5.659371614456176758e-01 -1.134037673473358154e-01
-5.372602343559265137e-01 4.891878366470336914e-01 1.889252662658691406e-01
-5.105593800544738770e-01 5.537478923797607422e-01 -2.846940755844116211e-01
-4.326084852218627930e-01 4.239049553871154785e-01 -3.792928159236907959e-01
-4.655804634094238281e-01 3.903646469116210938e-01 -1.357430815696716309e-01
-2.084764838218688965e-01 4.324353039264678955e-01 -2.497591972351074219e-01
-1.768367886543273926e-01 4.133514463901519775e-01 1.291821710765361786e-03
-4.911146759986877441e-01 4.127205908298492432e-01 -2.975093722343444824e-01
-5.720244646072387695e-01 5.190011858940124512e-01 -2.149530053138732910e-01
-2.296748310327529907e-01 4.426621198654174805e-01 4.452222585678100586e-01
-3.988288640975952148e-01 4.532305896282196045e-01 -4.682325422763824463e-01
-1.689963638782501221e-01 4.344697594642639160e-01 -1.800463348627090454e-01
-2.470645606517791748e-01 3.945958614349365234e-01 1.119472980499267578e-01
-4.852344691753387451e-01 4.493351876735687256e-01 -4.336212575435638428e-01
-2.875053584575653076e-01 4.374136924743652344e-01 -3.722359538078308105e-01
-5.051097273826599121e-02 4.681817889213562012e-01 1.958580464124679565e-01
-2.334945350885391235e-01 4.593996703624725342e-01 -3.875832259654998779e-01
-3.732497394084930420e-01 4.730316698551177979e-01 -5.016713142395019531e-01
-5.701497197151184082e-02 5.963172912597656250e-01 4.170215874910354614e-02
-2.019892930984497070e-01 5.804019570350646973e-01 -3.832670152187347412e-01
-1.859011352062225342e-01 4.186304807662963867e-01 -1.038552075624465942e-01
-7.355500757694244385e-02 5.365253686904907227e-01 -2.516748011112213135e-01
-3.623876571655273438e-01 6.021370887756347656e-01 -2.488169670104980469e-01
-4.164276421070098877e-01 5.915760397911071777e-01 -1.270984392613172531e-02
-3.182490766048431396e-01 4.911066889762878418e-01 4.810623526573181152e-01
-2.889953553676605225e-01 4.567459225654602051e-01 -4.324997663497924805e-01
-5.193791985511779785e-01 4.096657037734985352e-01 1.291736662387847900e-01
-3.002095818519592285e-01 4.270931780338287354e-01 4.146644175052642822e-01
-5.458800792694091797e-01 4.078476428985595703e-01 -1.230923533439636230e-01
-3.778447806835174561e-01 5.702463388442993164e-01 -4.366318583488464355e-01
-3.794963359832763672e-01 5.827553272247314453e-01 1.794519275426864624e-01
-2.513465285301208496e-02 4.949055314064025879e-01 2.329460382461547852e-01
-5.019915103912353516e-01 3.953691422939300537e-01 -1.259323805570602417e-01
-2.249201685190200806e-01 6.083583831787109375e-01 -2.704809904098510742e-01
-1.778530031442642212e-01 4.132646918296813965e-01 2.061247229576110840e-01
-5.312459468841552734e-01 4.345671534538269043e-01 -3.442565798759460449e-01
-5.500109195709228516e-01 5.358871817588806152e-01 -2.249726355075836182e-01
-3.262852728366851807e-01 4.419385790824890137e-01 4.446962177753448486e-01
-2.508934438228607178e-01 5.658271908760070801e-01 -4.490911662578582764e-01
-5.537787675857543945e-01 5.191618800163269043e-01 4.275637492537498474e-02
-1.625629216432571411e-01 6.191694736480712891e-01 -3.352469578385353088e-02
-5.567528009414672852e-01 4.728183448314666748e-01 1.513421088457107544e-01
-5.271891355514526367e-01 5.143249034881591797e-01 1.586355566978454590e-01
-4.474279880523681641e-01 5.458072423934936523e-01 2.372839450836181641e-01
-5.381175875663757324e-01 4.091242551803588867e-01 -1.828968077898025513e-01
-4.342274665832519531e-01 5.795925259590148926e-01 -3.157877326011657715e-01
-4.290274381637573242e-01 5.438974499702453613e-01 2.781009972095489502e-01
-5.011852979660034180e-01 4.662958085536956787e-01 2.854917645454406738e-01
-1.296371370553970337e-01 6.144738197326660156e-01 -6.024900078773498535e-02
-1.632241755723953247e-01 4.727412760257720947e-01 4.679637253284454346e-01
-4.359471797943115234e-02 4.713959991931915283e-01 9.666300565004348755e-02
-3.001996576786041260e-01 5.030541419982910156e-01 -5.093529224395751953e-01
-5.775430798530578613e-02 5.584231615066528320e-01 3.270305097103118896e-01
-5.705729722976684570e-01 5.217115879058837891e-01 -1.077843979001045227e-01
-3.856260478496551514e-01 3.833387494087219238e-01 1.132214143872261047e-01
-1.234416216611862183e-01 4.607037007808685303e-01 -2.064850926399230957e-01
-5.375598073005676270e-01 4.091377854347229004e-01 6.015713140368461609e-02
-4.842318296432495117e-01 5.684649348258972168e-01 -2.511717677116394043e-01
-3.730800449848175049e-01 3.974780738353729248e-01 -2.270050942897796631e-01
-3.729269206523895264e-01 4.217723011970520020e-01 3.763668835163116455e-01
-5.498759746551513672e-01 4.129982590675354004e-01 3.489086776971817017e-02
-4.631300568580627441e-01 5.737050175666809082e-01 -2.840246260166168213e-01
-4.857776463031768799e-01 5.529230833053588867e-01 1.072405204176902771e-01
-1.292486339807510376e-01 4.354597628116607666e-01 -6.402716040611267090e-02
-1.823993325233459473e-01 6.190308928489685059e-01 -1.094978526234626770e-01
-5.886453390121459961e-01 4.660897850990295410e-01 -2.721053957939147949e-01
-1.601343005895614624e-01 5.948065519332885742e-01 2.772542834281921387e-01
-3.000301718711853027e-01 3.888478279113769531e-01 1.604021638631820679e-01
-1.948238313198089600e-01 4.073906242847442627e-01 1.762187033891677856e-01
-3.792152404785156250e-01 3.819016814231872559e-01 7.154809683561325073e-02
-2.221542298793792725e-01 5.870055556297302246e-01 3.160346448421478271e-01
-3.587184548377990723e-01 3.826107978820800781e-01 -1.456667948514223099e-02
-2.463895082473754883e-01 3.963534235954284668e-01 1.687108874320983887e-01
-4.544728994369506836e-01 5.044666528701782227e-01 3.334400057792663574e-01
-3.052414059638977051e-01 5.902683734893798828e-01 2.418893277645111084e-01
-4.333423972129821777e-01 3.889327943325042725e-01 -1.496828347444534302e-01
-5.015134811401367188e-01 4.007068276405334473e-01 -1.962203234434127808e-01
-3.408186435699462891e-01 5.927952527999877930e-01 1.775879710912704468e-01
-2.204447984695434570e-01 5.687171220779418945e-01 -4.251296222209930420e-01
-2.672557830810546875e-01 4.064509272575378418e-01 -1.836092770099639893e-01
-1.106581091880798340e-02 5.163264870643615723e-01 4.672826267778873444e-03
-1.045814007520675659e-01 5.349004268646240234e-01 -3.154488801956176758e-01
-5.562926530838012695e-01 5.105970501899719238e-01 7.149904966354370117e-02
-6.011372804641723633e-01 4.679521918296813965e-01 -7.927258312702178955e-02
-1.077790856361389160e-01 4.772896766662597656e-01 -2.316703796386718750e-01
-5.215929150581359863e-01 3.981452584266662598e-01 -2.529410831630229950e-02
-2.089434266090393066e-01 4.569221735000610352e-01 4.680399298667907715e-01
-2.271863818168640137e-01 4.032901823520660400e-01 2.277569323778152466e-01
-5.958550572395324707e-01 4.656321406364440918e-01 -2.304476946592330933e-01
-1.836493313312530518e-01 4.755483865737915039e-01 -3.658376932144165039e-01
-3.963762819766998291e-01 5.987126231193542480e-01 -1.861317157745361328e-01
-2.326616644859313965e-01 5.856273174285888672e-01 -3.878386616706848145e-01
-8.384281396865844727e-02 6.025705337524414062e-01 -7.007270306348800659e-02
-1.600125133991241455e-01 4.372862279415130615e-01 3.642228245735168457e-01
-3.410122990608215332e-01 3.866084218025207520e-01 -8.200726658105850220e-02
-5.377167463302612305e-01 4.541742801666259766e-01 -3.865540325641632080e-01
-2.329275012016296387e-02 4.951333999633789062e-01 2.050101757049560547e-02
-3.342579901218414307e-01 3.899337649345397949e-01 -1.214116364717483521e-01
-8.902962505817413330e-02 5.677949190139770508e-01 -2.575234472751617432e-01
-3.975279927253723145e-01 5.502063035964965820e-01 3.057481646537780762e-01
-4.004961848258972168e-01 3.944981992244720459e-01 -2.116617411375045776e-01
-3.886026740074157715e-01 5.683916807174682617e-01 2.447492182254791260e-01
-1.311310678720474243e-01 4.432107508182525635e-01 3.409503996372222900e-01
-4.237295985221862793e-01 5.870891809463500977e-01 2.227845415472984314e-02
-5.611562728881835938e-01 5.198901891708374023e-01 -9.081354364752769470e-04
-7.176387310028076172e-02 5.523127317428588867e-01 3.644039928913116455e-01
-4.604486823081970215e-01 4.617035090923309326e-01 3.507684171199798584e-01
-1.967921555042266846e-01 4.053785800933837891e-01 1.118866801261901855e-01
-1.970481872558593750e-01 4.053210318088531494e-01 8.270440995693206787e-02
-3.326948583126068115e-01 5.830088853836059570e-01 2.507630884647369385e-01
-3.550224304199218750e-01 5.946189165115356445e-01 1.378103345632553101e-01
-3.420874476432800293e-01 5.905870199203491211e-01 -3.680305480957031250e-01
-4.529419839382171631e-01 4.323261678218841553e-01 -4.041907787322998047e-01
-3.092401325702667236e-01 3.859949707984924316e-01 1.211959589272737503e-02
-4.378868937492370605e-01 5.755488872528076172e-01 9.242803603410720825e-02
-7.330687344074249268e-02 6.022287011146545410e-01 1.000054087489843369e-02
-1.571923941373825073e-01 6.021597981452941895e-01 -2.493122220039367676e-01
-3.995415866374969482e-01 3.872592449188232422e-01 1.659868061542510986e-01
-3.780535161495208740e-01 4.234859645366668701e-01 -3.737168014049530029e-01
-9.649983048439025879e-02 4.768220186233520508e-01 -2.017252296209335327e-01
-1.262124180793762207e-01 4.756564497947692871e-01 4.384459853172302246e-01
-4.517738223075866699e-01 5.827964544296264648e-01 -6.530252099037170410e-02
-1.369218826293945312e-01 5.891265273094177246e-01 2.975860238075256348e-01
-1.899431943893432617e-01 6.053096652030944824e-01 -2.671396434307098389e-01
-2.585860192775726318e-01 6.036933660507202148e-01 -3.123864233493804932e-01
-1.344263553619384766e-02 5.475866198539733887e-01 -4.228421673178672791e-02
-5.008893013000488281e-01 4.327317476272583008e-01 2.538664638996124268e-01
-5.871526002883911133e-01 5.009390711784362793e-01 -6.770507991313934326e-02
-1.594685316085815430e-01 4.165851175785064697e-01 5.929477885365486145e-02
-4.545176327228546143e-01 4.094057083129882812e-01 2.569619119167327881e-01
-4.849449992179870605e-01 3.895638287067413330e-01 -2.278027124702930450e-03
-1.743192374706268311e-01 5.046827793121337891e-01 4.922660291194915771e-01
-5.097362399101257324e-01 3.963598608970642090e-01 2.940899878740310669e-02
-1.449888944625854492e-01 4.769351184368133545e-01 -3.075914680957794189e-01
-1.308180391788482666e-01 4.409841299057006836e-01 -1.163163259625434875e-01
-4.372947216033935547e-01 5.874831080436706543e-01 -1.987168043851852417e-01
-3.637078702449798584e-01 3.881297707557678223e-01 -1.292071789503097534e-01
-5.955784022808074951e-02 5.909255146980285645e-01 -8.288135379552841187e-02
-8.873045444488525391e-03 5.469734668731689453e-01 2.000919580459594727e-01
-1.850981414318084717e-01 4.363846480846405029e-01 3.933102488517761230e-01
-4.387167096138000488e-02 5.129874944686889648e-01 3.460938632488250732e-01
-4.019577801227569580e-01 5.798186063766479492e-01 1.532905399799346924e-01
-4.367998838424682617e-01 4.380085468292236328e-01 -4.264377653598785400e-01
-1.196787059307098389e-01 4.647188186645507812e-01 4.051958620548248291e-01
-3.086507618427276611e-01 5.967071056365966797e-01 1.957248002290725708e-01
-9.531994163990020752e-02 5.964555740356445312e-01 2.100868374109268188e-01
-4.229125678539276123e-01 5.336820483207702637e-01 3.194038271903991699e-01
-3.193683326244354248e-01 6.059937477111816406e-01 -2.718000113964080811e-01
-2.807193100452423096e-01 4.617525637149810791e-01 4.839012324810028076e-01
-6.240543723106384277e-02 4.638126790523529053e-01 2.396412193775177002e-01
-2.148788869380950928e-01 5.074329972267150879e-01 -4.514847397804260254e-01
