-4.277619123458862305e-01 5.276877284049987793e-01 1.139145642518997192e-01
-1.303931027650833130e-01 6.101782321929931641e-01 -3.991793394088745117e-01
-2.267942577600479126e-01 3.550072312355041504e-01 -8.898039162158966064e-02
-1.866178363561630249e-01 6.752446889877319336e-01 -3.205636441707611084e-01
-8.522385358810424805e-02 5.983225703239440918e-01 -1.333301216363906860e-01
-2.009906768798828125e-01 6.003537178039550781e-01 -5.721343755722045898e-01
-4.169592857360839844e-01 6.014303565025329590e-01 -1.266489177942276001e-02
-1.783649921417236328e-01 6.724452376365661621e-01 1.665192544460296631e-01
-7.785701751708984375e-02 5.156894326210021973e-01 1.021052747964859009e-01
-1.697325706481933594e-01 6.729897260665893555e-01 -2.819337248802185059e-01
-2.480229735374450684e-01 6.901189684867858887e-01 -3.044800162315368652e-01
-2.241445779800415039e-01 3.676052093505859375e-01 1.573448479175567627e-01
-3.123209774494171143e-01 5.002629160881042480e-01 4.621060490608215332e-01
-3.564469218254089355e-01 3.963356614112854004e-01 1.809862554073333740e-01
-4.051194190979003906e-01 4.498029053211212158e-01 -3.646283745765686035e-01
-4.195685684680938721e-01 6.011234521865844727e-01 -1.689105033874511719e-01
-7.152746617794036865e-02 5.466470718383789062e-01 -7.190743088722229004e-02
-4.273487925529479980e-01 4.720977842807769775e-01 -2.815008759498596191e-01
-1.267033219337463379e-01 5.503755211830139160e-01 3.575569987297058105e-01
-3.338645696640014648e-01 5.339990854263305664e-01 4.327622056007385254e-01
-2.321274280548095703e-01 6.753556132316589355e-01 2.201992571353912354e-01
-3.893021345138549805e-01 6.231732368469238281e-01 -3.312513828277587891e-01
-1.537288129329681396e-01 3.939786553382873535e-01 1.157209277153015137e-01
-4.033691287040710449e-01 5.687907934188842773e-01 -4.251361191272735596e-01
-1.417880654335021973e-01 5.350764989852905273e-01 -5.078698396682739258e-01
-3.278435468673706055e-01 5.868402123451232910e-01 -5.875062346458435059e-01
-2.251509279012680054e-01 3.550322651863098145e-01 -5.963994562625885010e-02
-2.435766607522964478e-01 7.018378973007202148e-01 -3.481255844235420227e-02
-1.123088449239730835e-01 4.448132812976837158e-01 -2.518970370292663574e-01
-1.322367489337921143e-01 4.035061001777648926e-01 3.604069352149963379e-03
-3.498004674911499023e-01 6.666797995567321777e-01 -2.591406404972076416e-01
-1.851421594619750977e-01 4.015665650367736816e-01 2.747388482093811035e-01
-3.788258731365203857e-01 4.683965444564819336e-01 3.071387410163879395e-01
-2.354975640773773193e-01 4.900271296501159668e-01 4.930399060249328613e-01
-2.986303269863128662e-01 6.629621386528015137e-01 -4.286434054374694824e-01
-3.481257557868957520e-01 3.685621619224548340e-01 -5.607888847589492798e-02
-3.138609230518341064e-01 6.127359271049499512e-01 -5.616484880447387695e-01
-1.488188207149505615e-01 6.732413172721862793e-01 -1.522765755653381348e-01
-1.967535614967346191e-01 6.483419537544250488e-01 -4.598900973796844482e-01
-1.399905085563659668e-01 5.722022652626037598e-01 -4.877252876758575439e-01
-1.257164627313613892e-01 6.297077536582946777e-01 -3.208859860897064209e-01
-2.822394967079162598e-01 3.791323304176330566e-01 2.454652488231658936e-01
-1.388167440891265869e-01 4.306251406669616699e-01 2.510638535022735596e-01
-1.943968832492828369e-01 4.803650379180908203e-01 -5.788378119468688965e-01
-3.623841106891632080e-01 4.922768175601959229e-01 -5.610775947570800781e-01
-2.778908908367156982e-01 3.579959273338317871e-01 1.003657579421997070e-01
-1.585436761379241943e-01 5.797506570816040039e-01 4.039444625377655029e-01
-4.375893473625183105e-01 4.921140968799591064e-01 -1.280456781387329102e-03
-1.147610396146774292e-01 4.285519123077392578e-01 9.686219692230224609e-02
-4.153937399387359619e-01 4.608479142189025879e-01 1.346630156040191650e-01
-1.646547913551330566e-01 3.792083263397216797e-01 -1.077692210674285889e-02
-4.217557311058044434e-01 5.722246170043945312e-01 -3.111012279987335205e-01
-3.655588924884796143e-01 3.836811780929565430e-01 4.687721282243728638e-02
-9.265503287315368652e-02 4.917005896568298340e-01 -2.691669166088104248e-01
-2.810055911540985107e-01 6.994848847389221191e-01 -8.063111454248428345e-02
-2.457705885171890259e-01 7.003023624420166016e-01 3.894180059432983398e-03
-9.128679335117340088e-02 4.850509464740753174e-01 1.655355393886566162e-01
-4.362036585807800293e-01 4.773694276809692383e-01 -1.868577599525451660e-01
-7.475180923938751221e-02 5.533775687217712402e-01 6.064397096633911133e-02
-3.767811059951782227e-01 5.867170095443725586e-01 2.774224281311035156e-01
-1.343798637390136719e-01 6.605421900749206543e-01 5.410556495189666748e-02
-3.738945722579956055e-01 6.186006069183349609e-01 2.028462290763854980e-01
-3.940744996070861816e-01 6.265879869461059570e-01 -2.781037688255310059e-01
-1.435888111591339111e-01 3.946526348590850830e-01 -1.041106805205345154e-01
-1.587641984224319458e-01 4.265363514423370361e-01 3.019219040870666504e-01
-4.418737888336181641e-01 5.020806789398193359e-01 -8.279428631067276001e-02
-2.967253923416137695e-01 4.102979302406311035e-01 3.495158255100250244e-01
-2.196504473686218262e-01 6.721564531326293945e-01 -3.957997560501098633e-01
-2.577344179153442383e-01 3.807573318481445312e-01 -3.857876956462860107e-01
-2.388399839401245117e-01 6.566342115402221680e-01 -4.736895263195037842e-01
-2.861569821834564209e-01 3.531688153743743896e-01 1.794716715812683105e-02
-3.167124986648559570e-01 3.698922693729400635e-01 -2.858179211616516113e-01
-3.016279339790344238e-01 6.818491816520690918e-01 -3.142849802970886230e-01
-4.333438277244567871e-01 4.835868179798126221e-01 3.682886064052581787e-02
-3.295868635177612305e-01 4.023081064224243164e-01 2.773645520210266113e-01
-3.008101284503936768e-01 6.780453920364379883e-01 1.444388180971145630e-01
-3.576359748840332031e-01 5.527241230010986328e-01 -5.738353729248046875e-01
-2.606180608272552490e-01 6.767962574958801270e-01 2.078441977500915527e-01
-1.299570798873901367e-01 5.798133611679077148e-01 3.389721512794494629e-01
-7.378542423248291016e-02 5.595997571945190430e-01 2.409826219081878662e-02
-3.141456246376037598e-01 6.036610603332519531e-01 3.877932429313659668e-01
-4.299856126308441162e-01 5.693127512931823730e-01 6.209671497344970703e-03
-2.747286558151245117e-01 6.847252249717712402e-01 1.445728540420532227e-01
-2.023878097534179688e-01 6.924243569374084473e-01 -2.176434248685836792e-01
-1.904617100954055786e-01 4.092282056808471680e-01 -4.168543517589569092e-01
-2.194897532463073730e-01 3.916925489902496338e-01 2.885676920413970947e-01
-1.606155037879943848e-01 5.889629721641540527e-01 -5.204131603240966797e-01
-2.523191273212432861e-01 6.851558685302734375e-01 -3.414265811443328857e-01
-3.480331301689147949e-01 4.259131550788879395e-01 3.089955449104309082e-01
-2.353868186473846436e-01 7.021798491477966309e-01 -6.182288378477096558e-02
-1.055623590946197510e-01 4.467799067497253418e-01 1.331576555967330933e-01
-2.870711386203765869e-01 3.625847101211547852e-01 -2.679093480110168457e-01
-1.018986552953720093e-01 6.113001704216003418e-01 -2.506281435489654541e-01
-4.113616347312927246e-01 5.829880237579345703e-01 -3.533672988414764404e-01
-1.664271503686904907e-01 4.330604374408721924e-01 -4.368069469928741455e-01
-1.157291531562805176e-01 4.244096875190734863e-01 -1.434300839900970459e-01
-1.641229987144470215e-01 3.982742428779602051e-01 -2.876703739166259766e-01
-1.100073903799057007e-01 6.179185509681701660e-01 1.700276136398315430e-01
-1.141649186611175537e-01 6.101089119911193848e-01 2.194260656833648682e-01
-2.470985651016235352e-01 6.488474607467651367e-01 -5.021249055862426758e-01
-1.082459539175033569e-01 5.632089972496032715e-01 2.853025794029235840e-01
-2.691396772861480713e-01 3.723338246345520020e-01 2.156831920146942139e-01
-3.785065412521362305e-01 4.024609029293060303e-01 -2.936481535434722900e-01
-1.725767999887466431e-01 3.752205371856689453e-01 -9.641769528388977051e-02
-4.086322784423828125e-01 5.297058224678039551e-01 2.246456444263458252e-01
-3.665142357349395752e-01 5.690067410469055176e-01 -5.414839982986450195e-01
-2.101048827171325684e-01 3.751378059387207031e-01 1.866960823535919189e-01
-2.667281925678253174e-01 6.306545138359069824e-01 -5.520095229148864746e-01
-4.095652699470520020e-01 4.283227920532226562e-01 4.832205176353454590e-02
-3.051975369453430176e-01 3.541887700557708740e-01 -5.489519238471984863e-02
-1.172739267349243164e-01 4.715660214424133301e-01 -3.642800152301788330e-01
-3.035743236541748047e-01 6.824179291725158691e-01 1.039359569549560547e-01
-3.043025732040405273e-01 6.936571598052978516e-01 -6.880785524845123291e-02
-4.322133362293243408e-01 5.341995358467102051e-01 7.080930471420288086e-02
-3.778610229492187500e-01 6.163235902786254883e-01 -4.130181074142456055e-01
-4.120577871799468994e-01 5.775468349456787109e-01 1.385730803012847900e-01
-2.360127717256546021e-01 5.205156207084655762e-01 -6.456617712974548340e-01
-9.294325113296508789e-02 4.602466523647308350e-01 -1.513163447380065918e-01
-2.580462396144866943e-01 6.522466540336608887e-01 3.158874213695526123e-01
-3.161310255527496338e-01 3.934515714645385742e-01 -4.188631474971771240e-01
3.598618507385253906e-02 -1.244898587465286255e-01 -1.554940640926361084e-02
2.806884050369262695e-01 -6.675100326538085938e-02 7.461022585630416870e-02
-1.018943041563034058e-01 -3.240703940391540527e-01 -4.027911648154258728e-02
3.881049752235412598e-01 -3.850966095924377441e-01 -3.856686353683471680e-01
3.670440614223480225e-02 -1.254769414663314819e-01 3.386083245277404785e-02
-5.038541555404663086e-02 -2.155887633562088013e-01 -7.407784461975097656e-02
2.862599790096282959e-01 -5.510120391845703125e-01 -3.256687819957733154e-01
4.283390045166015625e-01 -1.881979554891586304e-01 -1.906597912311553955e-01
4.296836256980895996e-01 -1.629518121480941772e-01 -6.324498355388641357e-02
1.616719514131546021e-01 -1.938188970088958740e-01 -4.985697567462921143e-01
-6.581072509288787842e-02 -5.483924746513366699e-01 1.043329611420631409e-01
-2.303002774715423584e-02 -2.960772216320037842e-01 -3.919124901294708252e-01
-1.019470244646072388e-01 -4.632274210453033447e-01 1.028761640191078186e-01
-1.827858388423919678e-02 -5.377416610717773438e-01 -3.129133880138397217e-01
7.283517718315124512e-02 -1.969484537839889526e-01 3.977918624877929688e-01
3.895016908645629883e-01 -5.174217820167541504e-01 -5.975698307156562805e-02
-6.758898496627807617e-02 -3.702991306781768799e-01 2.982696294784545898e-01
-2.430118620395660400e-02 -5.112727284431457520e-01 -3.449226617813110352e-01
2.088361233472824097e-01 -5.639851689338684082e-01 -3.866458833217620850e-01
-5.657212436199188232e-02 -3.808853030204772949e-01 3.347798585891723633e-01
2.075950652360916138e-01 -5.924770236015319824e-02 2.089416421949863434e-02
9.855210781097412109e-03 -6.193169355392456055e-01 -7.619019597768783569e-02
1.344198435544967651e-01 -6.256647109985351562e-01 -2.308384776115417480e-01
3.843002021312713623e-01 -4.954959154129028320e-01 2.223073393106460571e-01
1.627402305603027344e-01 -2.646021842956542969e-01 5.408760905265808105e-01
-5.697499215602874756e-02 -2.582502365112304688e-01 -2.243763357400894165e-01
4.323855042457580566e-01 -3.688551485538482666e-01 2.636136114597320557e-01
8.837618678808212280e-02 -6.208066344261169434e-01 2.478836625814437866e-01
2.207632809877395630e-01 -6.472426652908325195e-02 -1.481239944696426392e-01
1.854115128517150879e-01 -6.452170610427856445e-01 -2.752592228353023529e-02
3.725749254226684570e-01 -4.429090023040771484e-01 3.639528751373291016e-01
2.634792029857635498e-02 -2.977098822593688965e-01 -4.820119440555572510e-01
2.828735113143920898e-01 -2.082754969596862793e-01 -4.949127137660980225e-01
2.975008487701416016e-01 -5.997154712677001953e-01 -4.258421808481216431e-02
1.313214302062988281e-01 -1.330733746290206909e-01 -3.683555126190185547e-01
-2.748292684555053711e-02 -2.795300185680389404e-01 3.340022861957550049e-01
-2.360989153385162354e-02 -5.077916979789733887e-01 3.471693098545074463e-01
2.667974829673767090e-01 -5.895388722419738770e-01 -2.372648864984512329e-01
1.773377358913421631e-01 -4.859719872474670410e-01 -5.214811563491821289e-01
2.743597030639648438e-01 -6.075087785720825195e-01 -1.114931032061576843e-01
3.762195706367492676e-01 -4.776290953159332275e-01 -2.896443903446197510e-01
2.370715141296386719e-01 -2.294155806303024292e-01 -5.367522835731506348e-01
1.872422397136688232e-01 -5.127827525138854980e-01 -4.868032932281494141e-01
4.574702978134155273e-01 -3.193241953849792480e-01 -1.761732846498489380e-01
1.458502113819122314e-01 -6.506912708282470703e-01 -1.556225121021270752e-02
-1.114457994699478149e-01 -4.177771508693695068e-01 5.168285220861434937e-02
3.891969621181488037e-01 -1.773247569799423218e-01 2.799251377582550049e-01
4.373224973678588867e-01 -3.863618969917297363e-01 2.236091047525405884e-01
3.341613709926605225e-01 -1.904010623693466187e-01 -4.249706566333770752e-01
-8.055306971073150635e-02 -3.678812086582183838e-01 2.499139159917831421e-01
3.977971076965332031e-01 -4.919736683368682861e-01 1.661858707666397095e-01
1.288956105709075928e-01 -3.682348728179931641e-01 5.683551430702209473e-01
1.250823289155960083e-01 -1.898502409458160400e-01 4.399338066577911377e-01
1.330184191465377808e-01 -5.974737405776977539e-01 3.414593338966369629e-01
2.265817075967788696e-01 -9.071156382560729980e-02 -2.882380783557891846e-01
1.102266609668731689e-01 -6.399601697921752930e-01 -1.482157856225967407e-01
2.891068458557128906e-01 -5.676704049110412598e-01 2.843939363956451416e-01
-2.768620848655700684e-03 -2.146615087985992432e-01 -3.205482661724090576e-01
4.056302905082702637e-01 -2.382830381393432617e-01 3.257444202899932861e-01
-8.613450825214385986e-02 -4.161873757839202881e-01 2.356484979391098022e-01
2.051890045404434204e-01 -1.423201858997344971e-01 3.900217413902282715e-01
1.678507477045059204e-01 -4.871340394020080566e-01 5.223212242126464844e-01
3.815764188766479492e-01 -5.288536548614501953e-01 -2.565731666982173920e-02
2.268901318311691284e-01 -6.004749536514282227e-01 2.794325351715087891e-01
3.360753655433654785e-01 -1.931715309619903564e-01 4.005431830883026123e-01
2.341558933258056641e-01 -6.318892836570739746e-01 2.698557265102863312e-02
-2.547118067741394043e-02 -4.172933101654052734e-01 -4.209996461868286133e-01
1.051468849182128906e-01 -1.172720491886138916e-01 2.430082410573959351e-01
2.363435775041580200e-01 -6.161688566207885742e-01 1.916718333959579468e-01
4.492802023887634277e-01 -3.849289715290069580e-01 -1.562238037586212158e-01
-9.760259091854095459e-02 -3.732994198799133301e-01 1.682418435811996460e-01
3.881410658359527588e-01 -5.095906853675842285e-01 -1.329739391803741455e-01
4.190345406532287598e-01 -3.274633288383483887e-01 3.269576728343963623e-01
3.881459534168243408e-01 -1.939545273780822754e-01 3.117959499359130859e-01
2.661377191543579102e-01 -5.428979992866516113e-01 3.862251937389373779e-01
4.165212512016296387e-01 -4.827263951301574707e-01 -2.399811521172523499e-03
2.733983099460601807e-02 -6.145042181015014648e-01 -1.746896207332611084e-01
2.365312278270721436e-01 -5.473486185073852539e-01 4.093160033226013184e-01
-5.626267194747924805e-02 -3.641300797462463379e-01 -3.513703048229217529e-01
1.433904170989990234e-01 -5.178868770599365234e-01 -4.858465790748596191e-01
4.030951857566833496e-01 -1.356297731399536133e-01 -1.211870610713958740e-01
8.632111549377441406e-02 -5.659072399139404297e-01 -3.905937969684600830e-01
2.819964885711669922e-01 -4.466770887374877930e-01 -4.997544884681701660e-01
-6.776513159275054932e-02 -2.641355395317077637e-01 1.472638547420501709e-01
-9.008161723613739014e-02 -4.217394292354583740e-01 -2.325523495674133301e-01
5.103887617588043213e-02 -1.386397033929824829e-01 2.011465579271316528e-01
5.909990519285202026e-02 -1.492378264665603638e-01 2.618158161640167236e-01
2.542808651924133301e-01 -6.184193491935729980e-02 -1.045649275183677673e-01
9.267351776361465454e-02 -6.447373628616333008e-01 1.062744706869125366e-01
4.181153178215026855e-01 -1.857403069734573364e-01 -2.305310219526290894e-01
6.439581513404846191e-02 -4.176472425460815430e-01 5.249722003936767578e-01
2.182912826538085938e-01 -6.306747198104858398e-01 1.332876384258270264e-01
1.951366961002349854e-01 -6.435086131095886230e-01 3.120219148695468903e-02
-6.206253170967102051e-02 -3.141430914402008057e-01 2.726482748985290527e-01
4.687245488166809082e-01 -3.131248950958251953e-01 6.434971094131469727e-02
4.419595599174499512e-01 -3.919985592365264893e-01 -1.902804970741271973e-01
4.314101338386535645e-01 -4.538507759571075439e-01 6.412346661090850830e-02
-3.826037049293518066e-02 -5.739107728004455566e-01 -1.459341198205947876e-01
1.941389143466949463e-01 -6.946387887001037598e-02 -1.710859239101409912e-01
-6.590360403060913086e-02 -2.456339597702026367e-01 8.133134245872497559e-02
2.810112833976745605e-01 -6.035577654838562012e-01 1.321341693401336670e-01
1.763277500867843628e-01 -3.931034803390502930e-01 -5.836246609687805176e-01
4.129207134246826172e-01 -1.391246467828750610e-01 1.246129162609577179e-02
1.196309924125671387e-02 -4.031705558300018311e-01 4.705686867237091064e-01
-5.722394585609436035e-02 -4.646332561969757080e-01 -3.205446898937225342e-01
-5.626410245895385742e-02 -3.105914294719696045e-01 -3.155105412006378174e-01
4.527918696403503418e-01 -2.138144224882125854e-01 -9.104679524898529053e-02
3.554997444152832031e-01 -3.784047067165374756e-01 4.497175216674804688e-01
2.412826567888259888e-01 -6.027397513389587402e-02 5.201840773224830627e-02
3.186136484146118164e-01 -5.554626584053039551e-01 2.523891925811767578e-01
6.337735056877136230e-02 -5.940635800361633301e-01 -3.057405650615692139e-01
2.625609040260314941e-01 -2.687010169029235840e-01 5.311685204505920410e-01
3.022301793098449707e-01 -1.295310854911804199e-01 3.226465880870819092e-01
-1.614820957183837891e-02 -4.558703005313873291e-01 -4.184718728065490723e-01
4.202862381935119629e-01 -4.618044495582580566e-01 1.401750445365905762e-01
2.466643452644348145e-01 -4.744076132774353027e-01 5.044735074043273926e-01
2.340885102748870850e-01 -6.899160146713256836e-02 -1.809549778699874878e-01
4.336269199848175049e-02 -6.181156635284423828e-01 2.013230323791503906e-01
2.915626168251037598e-01 -3.955186307430267334e-01 5.224369168281555176e-01
3.924421668052673340e-01 -3.414268195629119873e-01 -3.986843228340148926e-01
9.081714600324630737e-02 -9.161958098411560059e-02 -5.729708448052406311e-02
1.775637269020080566e-02 -3.444969654083251953e-01 4.708248376846313477e-01
1.137314438819885254e-01 -1.018007695674896240e-01 -2.361420094966888428e-01
2.596074640750885010e-01 -9.045797586441040039e-02 2.370098382234573364e-01
-6.744107604026794434e-02 -4.729660749435424805e-01 -2.806189060211181641e-01
1.199365779757499695e-01 -6.461704969406127930e-01 -1.002045050263404846e-01
-3.522542119026184082e-02 -5.388099551200866699e-01 -2.691010832786560059e-01
2.555943727493286133e-01 -6.076751351356506348e-01 -1.761058717966079712e-01
4.057505726814270020e-02 -5.576556324958801270e-01 3.721411228179931641e-01
4.423123002052307129e-01 -2.042716145515441895e-01 1.322224587202072144e-01
-5.213637650012969971e-02 -5.737570524215698242e-01 -2.212935686111450195e-02
1.472711265087127686e-01 -1.120255440473556519e-01 -3.235894441604614258e-01
4.161567687988281250e-01 -4.786367118358612061e-01 8.385636657476425171e-02
-8.068643510341644287e-02 -5.293620824813842773e-01 7.024462521076202393e-02
3.219854235649108887e-01 -9.683308005332946777e-02 1.900438219308853149e-01
2.087095677852630615e-01 -4.656426906585693359e-01 5.323352217674255371e-01
1.123605966567993164e-01 -9.579870104789733887e-02 -2.008054554462432861e-01
3.516502380371093750e-01 -5.168805122375488281e-01 -2.659265697002410889e-01
2.039635777473449707e-01 -2.288573235273361206e-01 5.158036947250366211e-01
2.964200377464294434e-01 -5.756156444549560547e-01 -2.222530543804168701e-01
4.317194819450378418e-01 -2.633622884750366211e-01 -2.837291359901428223e-01
4.866573214530944824e-02 -1.301744431257247925e-01 1.508662551641464233e-01
3.465006351470947266e-01 -8.671981096267700195e-02 -6.321246176958084106e-02
2.971827089786529541e-01 -1.078226566314697266e-01 2.672921717166900635e-01
2.976298332214355469e-01 -4.851181209087371826e-01 -4.368616938591003418e-01
-1.620335876941680908e-02 -5.604262948036193848e-01 2.683983445167541504e-01
1.488439291715621948e-01 -7.228165864944458008e-02 -1.116374880075454712e-01
3.085970878601074219e-03 -4.437502324581146240e-01 4.465488195419311523e-01
4.501209855079650879e-01 -3.965397477149963379e-01 -1.207305118441581726e-01
2.767020463943481445e-01 -8.390972018241882324e-02 1.960630714893341064e-01
3.432428240776062012e-01 -5.508289337158203125e-01 -1.686002314090728760e-01
-7.570321857929229736e-02 -3.998558521270751953e-01 2.775020599365234375e-01
4.839099943637847900e-02 -6.390981078147888184e-01 -3.121677786111831665e-03
2.927426099777221680e-01 -1.333205699920654297e-01 -3.741134405136108398e-01
4.604116082191467285e-01 -2.275963425636291504e-01 -7.717980537563562393e-03
1.312675029039382935e-01 -1.140093505382537842e-01 2.708027660846710205e-01
4.268555343151092529e-02 -6.361263990402221680e-01 5.351110920310020447e-02
3.757126927375793457e-01 -5.102027654647827148e-01 -1.989638507366180420e-01
-1.115964353084564209e-02 -2.426507025957107544e-01 -3.521231412887573242e-01
-2.293528616428375244e-02 -3.826373219490051270e-01 -4.309792816638946533e-01
4.597783684730529785e-01 -2.847126424312591553e-01 -1.593562960624694824e-01
-7.033081352710723877e-02 -2.834100723266601562e-01 1.855018138885498047e-01
1.875275671482086182e-01 -6.111896038055419922e-01 2.814160585403442383e-01
2.958900034427642822e-01 -8.048790693283081055e-02 1.535589843988418579e-01
3.277783691883087158e-01 -5.740802288055419922e-01 -1.000955998897552490e-01
4.538922011852264404e-02 -5.514944791793823242e-01 -3.854528963565826416e-01
2.209417521953582764e-02 -1.523860841989517212e-01 -2.013476639986038208e-01
3.375137448310852051e-01 -4.275293350219726562e-01 4.471786022186279297e-01
4.806953668594360352e-02 -2.386408001184463501e-01 4.269837141036987305e-01
3.991156518459320068e-01 -4.516355991363525391e-01 -2.684536278247833252e-01
7.322170585393905640e-02 -3.722002208232879639e-01 5.367199778556823730e-01
4.078674614429473877e-01 -1.854921132326126099e-01 -2.668181657791137695e-01
-6.493958830833435059e-02 -5.516819357872009277e-01 -9.279967844486236572e-02
-6.675247848033905029e-02 -4.797120392322540283e-01 2.659679353237152100e-01
2.758006453514099121e-01 -6.898522377014160156e-02 -1.468328386545181274e-01
9.609828144311904907e-02 -4.081660807132720947e-01 -5.599227547645568848e-01
1.617987453937530518e-01 -6.317492723464965820e-01 2.084645926952362061e-01
4.317351579666137695e-01 -2.276895046234130859e-01 -2.501231729984283447e-01
1.819312870502471924e-01 -7.754743099212646484e-02 -2.125074565410614014e-01
3.848430514335632324e-02 -6.108237504959106445e-01 -2.152375131845474243e-01
2.518923282623291016e-01 -1.356023997068405151e-01 3.702348470687866211e-01
1.766683459281921387e-01 -4.534725844860076904e-01 5.484403967857360840e-01
2.500486671924591064e-01 -5.827264189720153809e-01 -2.925629317760467529e-01
-8.328087627887725830e-02 -2.947271466255187988e-01 -1.625949144363403320e-01
2.681708335876464844e-01 -6.073528528213500977e-02 -4.793117940425872803e-02
3.239675760269165039e-01 -9.405139088630676270e-02 -2.096079587936401367e-01
3.130535781383514404e-02 -3.533589541912078857e-01 -5.106734633445739746e-01
3.801811933517456055e-01 -4.890284836292266846e-01 2.572515010833740234e-01
8.178538829088211060e-02 -1.498528122901916504e-01 -3.475738167762756348e-01
-6.809343397617340088e-02 -2.635166347026824951e-01 -1.756722033023834229e-01
3.110768198966979980e-01 -5.032097101211547852e-01 3.954331576824188232e-01
1.352638304233551025e-01 -4.058409929275512695e-01 -5.755510330200195312e-01
1.089736893773078918e-01 -2.367764711380004883e-01 -5.186287760734558105e-01
4.370610415935516357e-02 -2.190844267606735229e-01 -4.254451692104339600e-01
3.990947008132934570e-01 -2.938687801361083984e-01 -3.868606984615325928e-01
4.433111548423767090e-01 -3.476877212524414062e-01 -2.368794381618499756e-01
3.285636007785797119e-02 -3.795489072799682617e-01 4.977335333824157715e-01
-4.271018505096435547e-02 -2.656965255737304688e-01 -2.983174622058868408e-01
2.937063574790954590e-01 -4.000027775764465332e-01 -5.227435827255249023e-01
1.567218750715255737e-01 -4.500654935836791992e-01 -5.546954870223999023e-01
2.141411453485488892e-01 -7.152330875396728516e-02 1.531114578247070312e-01
3.746660649776458740e-01 -2.154328674077987671e-01 3.685774207115173340e-01
2.802985012531280518e-01 -5.924397706985473633e-01 2.062168568372726440e-01
1.387741267681121826e-01 -3.226699233055114746e-01 -5.824511647224426270e-01
-6.259667873382568359e-02 -5.054386854171752930e-01 -2.501316368579864502e-01
9.442441165447235107e-02 -4.174155294895172119e-01 5.458961129188537598e-01
-1.122584789991378784e-01 -3.870640099048614502e-01 -4.177035018801689148e-02
8.934662491083145142e-02 -2.348168194293975830e-01 4.707052409648895264e-01
-7.742105424404144287e-02 -3.047220408916473389e-01 -2.210487872362136841e-01
-2.161508798599243164e-02 -4.693618118762969971e-01 3.897303938865661621e-01
1.562613844871520996e-01 -5.611727237701416016e-01 4.228155016899108887e-01
2.749659121036529541e-01 -1.045249402523040771e-01 -3.142551183700561523e-01
2.868492901325225830e-01 -9.703075885772705078e-02 -2.786597311496734619e-01
-1.658946275711059570e-04 -1.812821924686431885e-01 -2.340813875198364258e-01
4.438850879669189453e-01 -2.790281176567077637e-01 2.322111874818801880e-01
1.979021579027175903e-01 -8.988180756568908691e-02 2.385639399290084839e-01
4.550696015357971191e-01 -2.708976864814758301e-01 1.697118729352951050e-01
3.723557591438293457e-01 -1.520479172468185425e-01 -2.935756146907806396e-01
2.629398107528686523e-01 -6.198695302009582520e-01 6.386710796505212784e-03
4.045675992965698242e-01 -4.711372554302215576e-01 2.038282454013824463e-01
1.956389248371124268e-01 -6.280795335769653320e-01 1.961119621992111206e-01
3.284240961074829102e-01 -4.642722904682159424e-01 -4.196034669876098633e-01
3.793416619300842285e-01 -5.274190902709960938e-01 9.416035562753677368e-02
3.301703929901123047e-01 -4.172778427600860596e-01 -4.669884741306304932e-01
-2.561041712760925293e-02 -5.983883142471313477e-01 4.237866401672363281e-02
-9.795956313610076904e-02 -4.909057319164276123e-01 -6.831625103950500488e-02
1.297696530818939209e-01 -6.514586210250854492e-01 1.688065007328987122e-02
1.303413212299346924e-01 -6.413546800613403320e-01 1.593963652849197388e-01
-4.762905836105346680e-02 -3.393668830394744873e-01 3.403903841972351074e-01
3.694096207618713379e-01 -4.866829514503479004e-01 2.981357872486114502e-01
1.705448478460311890e-01 -1.352444589138031006e-01 3.637606501579284668e-01
4.122924804687500000e-01 -2.092846184968948364e-01 -2.926965355873107910e-01
1.771975010633468628e-01 -5.639850497245788574e-01 -4.034498631954193115e-01
-5.333198606967926025e-02 -2.805864214897155762e-01 2.553606629371643066e-01
3.940083384513854980e-01 -3.074290454387664795e-01 3.889966309070587158e-01
4.531703591346740723e-01 -3.344952166080474854e-01 1.893968731164932251e-01
4.420332908630371094e-01 -2.033816128969192505e-01 -1.518216133117675781e-01
8.402981609106063843e-02 -3.399372696876525879e-01 -5.581392049789428711e-01
7.065519690513610840e-03 -5.470542907714843750e-01 -3.428839445114135742e-01
5.475823581218719482e-02 -4.760293662548065186e-01 -4.921295642852783203e-01
3.969172239303588867e-01 -1.649526059627532959e-01 2.308644652366638184e-01
6.967274844646453857e-02 -5.085839033126831055e-01 4.696611464023590088e-01
1.132411882281303406e-01 -1.295362859964370728e-01 2.972130477428436279e-01
3.484991788864135742e-01 -9.248068928718566895e-02 8.583227545022964478e-02
3.451945781707763672e-01 -5.129634141921997070e-01 3.050924539566040039e-01
1.109395772218704224e-01 -5.831015110015869141e-01 3.726678490638732910e-01
4.004880189895629883e-01 -4.995131492614746094e-01 -9.361284971237182617e-02
1.992897838354110718e-01 -6.332179307937622070e-01 -1.384984552860260010e-01
2.734798789024353027e-01 -2.304569333791732788e-01 -5.208462476730346680e-01
-6.162095069885253906e-02 -2.338630259037017822e-01 4.700853675603866577e-02
9.277769923210144043e-02 -2.037742137908935547e-01 4.325311183929443359e-01
1.637537032365798950e-01 -6.447257995605468750e-01 -9.373743832111358643e-02
5.333082377910614014e-02 -2.635089159011840820e-01 4.624869227409362793e-01
2.899472117424011230e-01 -4.635579884052276611e-01 4.764799773693084717e-01
4.495877027511596680e-01 -4.160754084587097168e-01 2.368468232452869415e-02
4.385184049606323242e-01 -2.233486920595169067e-01 -2.143586724996566772e-01
9.485456347465515137e-02 -1.686974316835403442e-01 3.719338774681091309e-01
6.653660535812377930e-02 -1.077437996864318848e-01 -1.091222316026687622e-01
7.177715748548507690e-02 -1.015691757202148438e-01 6.289441604167222977e-03
2.116745263338088989e-01 -5.820325016975402832e-02 -3.303136676549911499e-02
2.224621623754501343e-01 -4.921583831310272217e-01 -4.976291954517364502e-01
-2.310031652450561523e-02 -3.036040365695953369e-01 3.718142211437225342e-01
2.321763634681701660e-01 -4.566151797771453857e-01 -5.294035077095031738e-01
8.670258522033691406e-02 -5.679132938385009766e-01 3.932426869869232178e-01
-4.570455849170684814e-02 -4.393305480480194092e-01 3.561028838157653809e-01
-1.589974761009216309e-02 -1.839646846055984497e-01 1.298183947801589966e-01
4.629245996475219727e-01 -3.603509962558746338e-01 -7.824004441499710083e-02
3.064005970954895020e-01 -5.951089859008789062e-01 -8.812649175524711609e-03
2.193569540977478027e-01 -5.036274194717407227e-01 4.892117679119110107e-01
2.628740668296813965e-01 -1.510461866855621338e-01 -4.295695126056671143e-01
-6.036446988582611084e-02 -5.321314930915832520e-01 -1.989971697330474854e-01
-5.038021504878997803e-02 -5.073469877243041992e-01 -2.863560914993286133e-01
3.684792518615722656e-01 -3.271252810955047607e-01 -4.486179351806640625e-01
2.587435245513916016e-01 -5.895632505416870117e-01 2.688755393028259277e-01
3.658548593521118164e-01 -3.084807991981506348e-01 4.418813884258270264e-01
2.738119065761566162e-01 -2.598414123058319092e-01 -5.399415493011474609e-01
3.644574880599975586e-01 -9.633040428161621094e-02 -3.333630040287971497e-02
3.602580130100250244e-01 -5.465410351753234863e-01 -9.117621928453445435e-02
1.039159819483757019e-01 -6.492921113967895508e-01 5.793993175029754639e-02
2.156923413276672363e-01 -6.203651428222656250e-01 -1.915191709995269775e-01
-2.274084091186523438e-02 -3.487344980239868164e-01 4.037586152553558350e-01
-4.398874938488006592e-02 -2.223186343908309937e-01 -1.781605929136276245e-01
-1.240828633308410645e-02 -1.690291464328765869e-01 3.916523605585098267e-02
4.621877670288085938e-01 -2.396560609340667725e-01 4.721866175532341003e-02
3.339371681213378906e-01 -9.055989980697631836e-02 -1.644116938114166260e-01
2.953776419162750244e-01 -1.554788053035736084e-01 -4.149003326892852783e-01
3.667362332344055176e-01 -1.132139712572097778e-01 -1.800748556852340698e-01
1.788409650325775146e-01 -6.495258212089538574e-02 5.930078774690628052e-02
4.439737200736999512e-01 -1.878917813301086426e-01 3.772075474262237549e-02
3.915630578994750977e-01 -3.997675776481628418e-01 3.642119467258453369e-01
2.231391072273254395e-01 -6.318822503089904785e-02 9.023584425449371338e-02
-1.036313325166702271e-01 -4.559211432933807373e-01 -1.133428588509559631e-01
-8.938102424144744873e-02 -3.082328140735626221e-01 1.226561143994331360e-01
4.115026295185089111e-01 -2.914959788322448730e-01 3.441908061504364014e-01
1.079238802194595337e-01 -3.204249441623687744e-01 5.488743782043457031e-01
4.360104203224182129e-01 -4.431610703468322754e-01 -6.945956498384475708e-02
4.174793362617492676e-01 -1.795329153537750244e-01 1.944721639156341553e-01
6.473951786756515503e-02 -6.390608549118041992e-01 -9.387667477130889893e-02
3.371959924697875977e-01 -3.342969417572021484e-01 4.854627251625061035e-01
1.016379296779632568e-01 -5.038634538650512695e-01 4.937034845352172852e-01
2.358669042587280273e-02 -6.188396811485290527e-01 -1.389605849981307983e-01
-2.996692061424255371e-02 -1.929241567850112915e-01 8.103163540363311768e-02
1.835342198610305786e-01 -7.167056202888488770e-02 1.320991367101669312e-01
4.585644602775573730e-01 -3.476661443710327148e-01 -1.469010412693023682e-01
3.640566468238830566e-01 -1.930857747793197632e-01 -3.830059170722961426e-01
2.207321822643280029e-01 -1.992247700691223145e-01 -5.111974477767944336e-01
-1.212321221828460693e-02 -3.968568742275238037e-01 4.335907697677612305e-01
3.988693952560424805e-01 -2.160176634788513184e-01 -3.382927775382995605e-01
1.276241242885589600e-01 -1.546783298254013062e-01 -4.145040214061737061e-01
7.788971066474914551e-03 -5.604945421218872070e-01 3.187403380870819092e-01
5.183275043964385986e-02 -4.645894765853881836e-01 4.927806556224822998e-01
1.333795338869094849e-01 -8.389276266098022461e-02 -1.751467287540435791e-01
2.211198210716247559e-01 -5.171943902969360352e-01 -4.645094573497772217e-01
3.617905378341674805e-01 -1.210269182920455933e-01 -2.293227314949035645e-01
2.679663300514221191e-01 -3.398740589618682861e-01 5.501675009727478027e-01
3.419330120086669922e-01 -4.797732234001159668e-01 3.776964545249938965e-01
5.509310960769653320e-02 -6.088068485260009766e-01 -2.485567480325698853e-01
9.560557454824447632e-02 -5.486571788787841797e-01 -4.276043772697448730e-01
3.568715453147888184e-01 -2.243976891040802002e-01 -4.292132556438446045e-01
3.332141339778900146e-01 -1.185396164655685425e-01 2.509110867977142334e-01
3.214428126811981201e-01 -2.827889323234558105e-01 -5.089958310127258301e-01
4.254946112632751465e-01 -2.213971614837646484e-01 2.464779168367385864e-01
1.130312755703926086e-01 -6.310957074165344238e-01 -2.019873559474945068e-01
4.189569354057312012e-01 -4.549595415592193604e-01 1.748320311307907104e-01
3.265182673931121826e-02 -4.860040545463562012e-01 -4.615727365016937256e-01
8.331683278083801270e-02 -1.261979192495346069e-01 -2.762120664119720459e-01
-1.375688612461090088e-02 -1.901567578315734863e-01 1.709890365600585938e-01
-7.238496840000152588e-02 -5.258073806762695312e-01 -1.579020917415618896e-01
2.279154807329177856e-01 -1.058721840381622314e-01 2.993015348911285400e-01
3.186187148094177246e-01 -8.255663514137268066e-02 1.178260222077369690e-01
1.613720208406448364e-01 -1.594178080558776855e-01 4.102331697940826416e-01
-4.392732679843902588e-02 -5.783782005310058594e-01 -8.007607609033584595e-02
3.133583664894104004e-01 -7.143574953079223633e-02 -3.333940356969833374e-02
1.978389918804168701e-02 -1.662125289440155029e-01 2.113287895917892456e-01
-5.551400780677795410e-02 -4.186516106128692627e-01 -3.531557023525238037e-01
7.366051524877548218e-02 -1.070036888122558594e-01 9.930390119552612305e-02
4.012516736984252930e-01 -4.409499466419219971e-01 2.858086228370666504e-01
3.049011826515197754e-01 -7.136610150337219238e-02 -9.595241397619247437e-02
3.272158503532409668e-01 -2.139334976673126221e-01 4.361740052700042725e-01
-4.716154932975769043e-02 -2.264133989810943604e-01 1.391320377588272095e-01
2.882083952426910400e-01 -2.312012612819671631e-01 4.884055554866790771e-01
3.387310802936553955e-01 -3.410829007625579834e-01 -4.922655224800109863e-01
3.388604819774627686e-01 -5.699667930603027344e-01 -3.929036855697631836e-02
1.108841970562934875e-01 -5.436294674873352051e-01 4.467407166957855225e-01
-8.880868554115295410e-03 -5.922801494598388672e-01 1.845043152570724487e-01
1.072793677449226379e-01 -9.834235906600952148e-02 1.585045307874679565e-01
1.874126195907592773e-01 -3.713734745979309082e-01 5.768832564353942871e-01
-1.053058654069900513e-01 -3.881530165672302246e-01 -1.416803300380706787e-01
4.602828621864318848e-01 -3.081613481044769287e-01 1.515741646289825439e-01
2.316987812519073486e-01 -6.093053817749023438e-01 2.361121475696563721e-01
2.911462783813476562e-01 -5.788755416870117188e-01 2.382353097200393677e-01
-9.147308766841888428e-02 -4.903202056884765625e-01 1.294160634279251099e-01
3.542057573795318604e-01 -1.608892381191253662e-01 3.208908140659332275e-01
7.836703956127166748e-02 -3.751853704452514648e-01 -5.557911396026611328e-01
2.430976331233978271e-01 -1.635533273220062256e-01 -4.584728479385375977e-01
-3.637532889842987061e-02 -2.807055711746215820e-01 -3.408135175704956055e-01
1.160857155919075012e-01 -8.412179350852966309e-02 7.503964006900787354e-02
1.807509660720825195e-01 -8.006307482719421387e-02 1.816906183958053589e-01
4.069645404815673828e-01 -1.534586846828460693e-01 -1.852857023477554321e-01
1.616017073392868042e-01 -5.344054698944091797e-01 4.666816294193267822e-01
1.422535628080368042e-01 -6.496161222457885742e-01 -5.068587511777877808e-02
1.206935346126556396e-01 -1.000573635101318359e-01 1.978208422660827637e-01
1.946452260017395020e-02 -2.291473001241683960e-01 -3.984063863754272461e-01
3.695422410964965820e-02 -4.962223172187805176e-01 4.525029361248016357e-01
9.823565185070037842e-02 -6.340752840042114258e-01 1.923501044511795044e-01
3.297920227050781250e-01 -2.799146175384521484e-01 4.824815988540649414e-01
4.098436236381530762e-02 -1.466746628284454346e-01 -2.453154027462005615e-01
2.797227799892425537e-01 -6.101031303405761719e-01 6.055717915296554565e-02
4.657927751541137695e-01 -3.294434249401092529e-01 -9.870451688766479492e-02
1.782043129205703735e-01 -5.783010721206665039e-01 -3.707855641841888428e-01
1.832095086574554443e-01 -6.604903936386108398e-02 -1.270768046379089355e-01
1.406498253345489502e-01 -1.679161339998245239e-01 -4.492343664169311523e-01
3.432274460792541504e-01 -8.413317799568176270e-02 -9.589036926627159119e-04
2.530386745929718018e-01 -1.784214973449707031e-01 4.463827610015869141e-01
2.421198338270187378e-01 -5.200347304344177246e-01 4.514827132225036621e-01
2.436190545558929443e-01 -4.195838570594787598e-01 -5.505405068397521973e-01
2.174601256847381592e-01 -5.761920213699340820e-01 -3.502685129642486572e-01
-9.865947067737579346e-02 -3.121625483036041260e-01 1.377314329147338867e-04
3.679226934909820557e-01 -2.551076412200927734e-01 4.161656200885772705e-01
8.083868771791458130e-02 -1.982325166463851929e-01 -4.445374608039855957e-01
3.644846677780151367e-01 -1.101836711168289185e-01 1.393845528364181519e-01
4.640584588050842285e-01 -3.631529211997985840e-01 4.369295015931129456e-02
4.386910796165466309e-02 -5.322248935699462891e-01 4.172699153423309326e-01
2.928147017955780029e-01 -3.056150674819946289e-01 -5.418254733085632324e-01
2.134659588336944580e-01 -1.046766042709350586e-01 -3.349456489086151123e-01
4.525887966156005859e-01 -2.641695737838745117e-01 -1.915393322706222534e-01
-2.963572740554809570e-03 -2.475243955850601196e-01 3.473221957683563232e-01
3.515269458293914795e-01 -2.545283138751983643e-01 -4.588800966739654541e-01
2.517983019351959229e-01 -6.195169687271118164e-01 1.193540617823600769e-01
1.823081970214843750e-01 -5.723679065704345703e-01 3.935759067535400391e-01
1.235262304544448853e-01 -2.323898524045944214e-01 4.949001073837280273e-01
-8.873428404331207275e-02 -3.708641231060028076e-01 2.153324633836746216e-01
8.201530575752258301e-02 -1.167002171277999878e-01 -2.330743223428726196e-01
4.240150749683380127e-01 -4.312592744827270508e-01 2.105460315942764282e-01
-1.104217320680618286e-01 -4.415433704853057861e-01 -4.448727890849113464e-02
-9.341095387935638428e-02 -4.334386885166168213e-01 1.948453783988952637e-01
4.451706409454345703e-01 -4.072265923023223877e-01 1.351347416639328003e-01
3.985544741153717041e-01 -4.255898296833038330e-01 -3.150962591171264648e-01
-9.080143272876739502e-02 -4.771653711795806885e-01 -1.718622297048568726e-01
1.828095763921737671e-01 -6.165563464164733887e-01 -2.488435059785842896e-01
4.034296870231628418e-01 -1.317091137170791626e-01 5.706281960010528564e-02
-9.697039425373077393e-02 -4.494827389717102051e-01 1.617505401372909546e-01
3.110566735267639160e-01 -5.917815566062927246e-01 3.545452654361724854e-02
3.197005689144134521e-01 -5.719411373138427734e-01 1.750969290733337402e-01
1.758504509925842285e-01 -5.932557582855224609e-01 3.451757729053497314e-01
4.373995661735534668e-01 -1.732385605573654175e-01 -1.366243977099657059e-02
7.299762219190597534e-02 -4.285961985588073730e-01 -5.375438332557678223e-01
4.387363791465759277e-01 -2.124174833297729492e-01 1.739877462387084961e-01
-5.352908372879028320e-02 -5.206221342086791992e-01 2.483427375555038452e-01
2.135254889726638794e-01 -1.172206550836563110e-01 -3.699299395084381104e-01
1.615895777940750122e-01 -6.484376192092895508e-01 5.987424403429031372e-02
-9.760697185993194580e-02 -4.082866311073303223e-01 -1.973041743040084839e-01
1.774076968431472778e-01 -6.256154179573059082e-02 -4.699930921196937561e-02
2.250709831714630127e-01 -8.060261607170104980e-02 2.043555378913879395e-01
-1.341436803340911865e-02 -6.012339591979980469e-01 1.151963025331497192e-01
-8.056402206420898438e-03 -2.172713428735733032e-01 2.757391631603240967e-01
3.852393031120300293e-01 -1.481765806674957275e-01 -2.492631375789642334e-01
3.201192617416381836e-01 -1.556697040796279907e-01 -3.897059857845306396e-01
7.207456976175308228e-02 -6.233251690864562988e-01 -2.089864015579223633e-01
3.120733797550201416e-02 -1.390646696090698242e-01 -1.685846745967864990e-01
3.970412909984588623e-02 -1.789078712463378906e-01 3.037208020687103271e-01
-1.082103103399276733e-01 -4.336551427841186523e-01 8.400914072990417480e-02
-7.475729286670684814e-02 -4.455799758434295654e-01 2.680690586566925049e-01
3.045666813850402832e-01 -3.442322611808776855e-01 5.215340256690979004e-01
3.049647212028503418e-01 -5.926709175109863281e-01 -7.720778882503509521e-02
4.338678717613220215e-02 -5.194339156150817871e-01 -4.341487288475036621e-01
-8.761958777904510498e-02 -2.910315990447998047e-01 -1.090347915887832642e-01
1.888902485370635986e-02 -1.386698484420776367e-01 -6.151044368743896484e-02
-6.296986341476440430e-02 -2.328834235668182373e-01 -2.266008779406547546e-02
3.432291746139526367e-01 -5.433429479598999023e-01 2.167024463415145874e-01
1.004882156848907471e-02 -2.514543533325195312e-01 3.806410729885101318e-01
1.380304098129272461e-01 -8.125591278076171875e-02 1.218644753098487854e-01
-2.723351120948791504e-03 -5.209302306175231934e-01 -3.712965548038482666e-01
1.790642142295837402e-01 -6.272500753402709961e-01 -2.026369571685791016e-01
2.333619296550750732e-01 -6.320614814758300781e-01 -1.451933197677135468e-02
3.806571960449218750e-01 -1.281496733427047729e-01 1.654339581727981567e-01
4.291428923606872559e-01 -3.109414279460906982e-01 2.962769865989685059e-01
3.639972209930419922e-02 -1.653849780559539795e-01 -2.975483536720275879e-01
3.787932991981506348e-01 -1.072192490100860596e-01 2.268281951546669006e-02
4.353939890861511230e-01 -4.487409591674804688e-01 -2.024538442492485046e-02
-6.036069989204406738e-02 -4.305222630500793457e-01 3.212268948554992676e-01
1.478585451841354370e-01 -5.576710700988769531e-01 -4.220515489578247070e-01
3.051449060440063477e-01 -4.740043282508850098e-01 4.462827742099761963e-01
2.578523159027099609e-01 -1.558337360620498657e-01 4.078422486782073975e-01
-8.829362690448760986e-02 -3.775758743286132812e-01 -2.418863326311111450e-01
-1.075324267148971558e-01 -3.745625019073486328e-01 -1.090778112411499023e-01
3.133803904056549072e-01 -5.875172615051269531e-01 8.718988299369812012e-02
1.966383159160614014e-01 -3.116106986999511719e-01 5.686362981796264648e-01
4.607418775558471680e-01 -3.680924773216247559e-01 8.527091890573501587e-02
-1.126758009195327759e-01 -3.962773680686950684e-01 2.226081304252147675e-02
1.177453100681304932e-01 -4.389120936393737793e-01 -5.550395250320434570e-01
4.705828428268432617e-01 -2.976163923740386963e-01 1.845411583781242371e-02
2.809010148048400879e-01 -5.186875462532043457e-01 -4.047464132308959961e-01
3.631030917167663574e-01 -4.350427985191345215e-01 -3.919185698032379150e-01
2.596742510795593262e-01 -5.703108310699462891e-01 3.292352855205535889e-01
3.960629701614379883e-01 -3.989257812500000000e-01 -3.540686666965484619e-01
3.101190924644470215e-01 -2.041880637407302856e-01 -4.680358171463012695e-01
3.840437531471252441e-02 -1.861914396286010742e-01 -3.558828532695770264e-01
-7.684139907360076904e-02 -3.185488283634185791e-01 2.182532697916030884e-01
2.769781649112701416e-01 -5.381357669830322266e-01 -3.712961375713348389e-01
3.606011867523193359e-01 -5.515655279159545898e-01 7.332281675189733505e-03
-3.929375112056732178e-02 -4.499754011631011963e-01 -3.768230080604553223e-01
8.953930437564849854e-02 -5.866894125938415527e-01 -3.454312384128570557e-01
7.309615612030029297e-03 -2.914364933967590332e-01 -4.479391276836395264e-01
3.327678442001342773e-01 -5.038043260574340820e-01 -3.455124795436859131e-01
2.115913629531860352e-01 -1.788232624530792236e-01 4.548749029636383057e-01
4.179618656635284424e-01 -3.669715225696563721e-01 -3.187242448329925537e-01
-1.759317517280578613e-02 -2.137684524059295654e-01 -2.719440162181854248e-01
7.166622579097747803e-02 -3.040775954723358154e-01 5.138339996337890625e-01
-9.524822235107421875e-05 -5.251916646957397461e-01 3.677800297737121582e-01
4.567088484764099121e-01 -3.954375088214874268e-01 -1.415495574474334717e-02
3.157564699649810791e-01 -3.072815835475921631e-01 5.068710446357727051e-01
4.515993595123291016e-02 -2.099464386701583862e-01 3.790949285030364990e-01
1.596192419528961182e-01 -2.017631381750106812e-01 4.767666459083557129e-01
3.861575126647949219e-01 -3.530522584915161133e-01 4.023163914680480957e-01
1.785622835159301758e-01 -4.089095890522003174e-01 5.700277090072631836e-01
1.993893086910247803e-01 -5.967800617218017578e-01 -3.067227602005004883e-01
4.334717988967895508e-02 -5.756988525390625000e-01 3.380942940711975098e-01
1.876932084560394287e-01 -1.445676088333129883e-01 -4.274367690086364746e-01
3.204754590988159180e-01 -1.296965777873992920e-01 -3.347914218902587891e-01
3.792603611946105957e-01 -4.382801651954650879e-01 -3.505630791187286377e-01
-5.575403571128845215e-03 -3.799106478691101074e-01 -4.614595472812652588e-01
-2.867087721824645996e-03 -1.682078242301940918e-01 -1.591862142086029053e-01
4.204777181148529053e-01 -1.566350460052490234e-01 9.224602580070495605e-02
4.273197352886199951e-01 -1.819110214710235596e-01 1.548971384763717651e-01
-3.950528800487518311e-02 -5.048266649246215820e-01 3.144963085651397705e-01
-2.605858445167541504e-02 -1.824782937765121460e-01 7.678026799112558365e-03
-5.653557181358337402e-02 -5.671975612640380859e-01 5.121880024671554565e-02
3.431875705718994141e-01 -5.385937094688415527e-01 -2.223137915134429932e-01
4.001655280590057373e-01 -4.592997431755065918e-01 2.539732158184051514e-01
-8.709622919559478760e-02 -5.124238729476928711e-01 -9.823848307132720947e-02
9.374400973320007324e-02 -1.513563990592956543e-01 3.304180502891540527e-01
1.105134487152099609e-01 -4.914345741271972656e-01 -5.105631947517395020e-01
-8.684499561786651611e-02 -5.226898193359375000e-01 -8.492486551403999329e-03
4.115068614482879639e-01 -4.681987464427947998e-01 -1.676403582096099854e-01
2.357510775327682495e-01 -6.001216769218444824e-01 -2.523642480373382568e-01
3.412616252899169922e-01 -5.307515859603881836e-01 2.675995528697967529e-01
2.819688916206359863e-01 -4.739395678043365479e-01 -4.705979228019714355e-01
2.948734462261199951e-01 -5.845370888710021973e-01 -1.850988268852233887e-01
2.386887371540069580e-01 -5.405412912368774414e-01 -4.110422134399414062e-01
-2.314475327730178833e-01 -5.652422904968261719e-01 -3.729174286127090454e-02
-4.592155516147613525e-01 1.460313796997070312e-04 -3.554770350456237793e-02
-5.363803505897521973e-01 -3.933594822883605957e-01 4.561703503131866455e-01
-6.333611607551574707e-01 -4.865964055061340332e-01 1.709877848625183105e-01
-5.106798410415649414e-01 -3.054606914520263672e-02 1.565812528133392334e-01
