-1.462530046701431274e-01 -7.960024476051330566e-01 3.392620980739593506e-01
5.227813124656677246e-02 -8.467509746551513672e-01 -3.459266722202301025e-01
3.701294064521789551e-01 -7.948294281959533691e-01 -1.837915331125259399e-01
2.895399034023284912e-01 -8.365656733512878418e-01 1.584671288728713989e-01
1.066136881709098816e-01 -8.881874680519104004e-01 -1.541302353143692017e-01
2.477802187204360962e-01 -8.706430196762084961e-01 -6.537878513336181641e-02
-2.763221859931945801e-01 -6.549088358879089355e-01 -4.019650071859359741e-02
6.520117074251174927e-02 -8.644217252731323242e-01 -2.929750084877014160e-01
2.414176613092422485e-01 -6.386339068412780762e-01 -6.247462704777717590e-03
-1.031573563814163208e-01 -6.532104611396789551e-01 -2.963429093360900879e-01
1.764319986104965210e-01 -8.852291107177734375e-01 2.804111689329147339e-02
1.215767785906791687e-01 -7.404633760452270508e-01 -4.261879324913024902e-01
-3.081374466419219971e-01 -8.480472564697265625e-01 6.738740205764770508e-02
-7.912079989910125732e-02 -6.235232353210449219e-01 7.296209037303924561e-02
3.061100095510482788e-02 -6.168459057807922363e-01 3.681085631251335144e-02
3.549526035785675049e-01 -8.278107047080993652e-01 -8.813826739788055420e-02
1.962182819843292236e-01 -7.224518060684204102e-01 -3.867616951465606689e-01
-2.942757904529571533e-01 -6.639206409454345703e-01 -1.038736701011657715e-01
1.463192328810691833e-02 -6.187642812728881836e-01 6.311044096946716309e-02
1.682613492012023926e-01 -6.253201365470886230e-01 5.607493221759796143e-04
-3.030219972133636475e-01 -7.066708207130432129e-01 1.934204548597335815e-01
1.451480202376842499e-02 -8.746957778930664062e-01 -2.631552815437316895e-01
6.381103396415710449e-02 -8.743822574615478516e-01 2.044600248336791992e-01
2.516569197177886963e-01 -8.275277018547058105e-01 2.300616055727005005e-01
7.812996208667755127e-02 -6.541115045547485352e-01 -3.156749010086059570e-01
2.554590702056884766e-01 -8.681177496910095215e-01 2.375560998916625977e-02
-3.940227031707763672e-01 -7.988508939743041992e-01 -3.166536614298820496e-02
-2.879791557788848877e-01 -6.672534346580505371e-01 7.877263426780700684e-02
2.177602797746658325e-01 -8.785064816474914551e-01 -4.049088060855865479e-02
-8.719227463006973267e-02 -7.196553945541381836e-01 3.526022434234619141e-01
-3.943478763103485107e-01 -7.467800378799438477e-01 -1.325016468763351440e-01
-2.535450458526611328e-01 -6.858133077621459961e-01 2.056884765625000000e-01
-8.791454881429672241e-02 -6.984046697616577148e-01 -3.987320363521575928e-01
-1.183090433478355408e-01 -6.467642188072204590e-01 -2.650938332080841064e-01
-1.493884623050689697e-01 -6.300736665725708008e-01 -1.340093463659286499e-01
1.183142811059951782e-01 -6.191929578781127930e-01 -6.798131763935089111e-02
4.237886145710945129e-02 -6.541876792907714844e-01 -3.220453262329101562e-01
2.864837944507598877e-01 -8.545296788215637207e-01 7.047843933105468750e-02
-2.617598176002502441e-01 -6.659666299819946289e-01 -1.998349875211715698e-01
4.121597707271575928e-01 -7.480947971343994141e-01 3.494254872202873230e-02
2.907311618328094482e-01 -8.322629928588867188e-01 -2.265207469463348389e-01
-1.189514473080635071e-01 -8.953247070312500000e-01 -7.775826379656791687e-03
6.188024207949638367e-02 -6.474729776382446289e-01 2.215727418661117554e-01
-1.613798886537551880e-01 -6.923543214797973633e-01 -3.614068925380706787e-01
-1.355212926864624023e-01 -6.276182532310485840e-01 5.023640766739845276e-02
-3.003797829151153564e-01 -8.404673337936401367e-01 -1.831575334072113037e-01
3.288062512874603271e-01 -6.854708194732666016e-01 1.245541423559188843e-01
-1.944169402122497559e-01 -8.838595151901245117e-01 -7.229223847389221191e-02
3.437814116477966309e-01 -7.339004874229431152e-01 -2.615048587322235107e-01
-2.298163324594497681e-01 -8.345159888267517090e-01 2.349321395158767700e-01
2.686215639114379883e-01 -6.546638011932373047e-01 9.213939309120178223e-02
-2.377197742462158203e-01 -8.522868156433105469e-01 -2.286579906940460205e-01
2.377374619245529175e-01 -8.702849149703979492e-01 -1.104695796966552734e-01
2.605327069759368896e-01 -7.117692232131958008e-01 -3.333158791065216064e-01
3.223525285720825195e-01 -8.463958501815795898e-01 -8.522450923919677734e-03
-3.380932211875915527e-01 -6.873134374618530273e-01 -1.296102255582809448e-01
-1.919661909341812134e-01 -8.470682501792907715e-01 -2.878811955451965332e-01
3.736940622329711914e-01 -7.085852026939392090e-01 -1.654832065105438232e-01
1.125328540802001953e-01 -6.679860353469848633e-01 -3.428095579147338867e-01
-2.720776498317718506e-01 -8.283917903900146484e-01 2.067538797855377197e-01
-2.242812886834144592e-02 -6.515461802482604980e-01 -3.135353922843933105e-01
1.222102642059326172e-01 -8.895449638366699219e-01 -1.249489039182662964e-01
9.954280406236648560e-02 -7.504483461380004883e-01 3.691045343875885010e-01
3.106605708599090576e-01 -6.842784881591796875e-01 1.526782363653182983e-01
-3.569492995738983154e-01 -7.198981642723083496e-01 1.274614036083221436e-01
1.840311139822006226e-01 -6.294494867324829102e-01 -1.118448823690414429e-01
-1.721745729446411133e-01 -6.472136378288269043e-01 -2.262027561664581299e-01
-2.621874213218688965e-01 -7.648991942405700684e-01 2.832139134407043457e-01
9.802491962909698486e-02 -8.840793371200561523e-01 -1.904691457748413086e-01
-2.284914404153823853e-01 -6.595875024795532227e-01 -2.198154926300048828e-01
1.748213768005371094e-01 -8.454974293708801270e-01 -3.015806972980499268e-01
2.174933403730392456e-01 -7.600800395011901855e-01 -3.855030536651611328e-01
-2.723258733749389648e-01 -6.815841197967529297e-01 1.707376986742019653e-01
-6.187830120325088501e-02 -8.942690491676330566e-01 -1.357886344194412231e-01
-1.877188533544540405e-01 -8.848406672477722168e-01 2.676676213741302490e-02
-2.585461735725402832e-01 -8.579886555671691895e-01 -1.730800569057464600e-01
2.423826307058334351e-01 -8.476078510284423828e-01 1.825192421674728394e-01
1.409305334091186523e-01 -8.478880524635314941e-01 -3.142960965633392334e-01
-4.796937108039855957e-02 -6.316194534301757812e-01 -2.261802107095718384e-01
-8.689188212156295776e-02 -7.637945413589477539e-01 3.706093430519104004e-01
-2.425648421049118042e-01 -6.479988694190979004e-01 -1.149425357580184937e-01
-4.772892966866493225e-02 -8.889226913452148438e-01 1.353995651006698608e-01
1.782504767179489136e-01 -6.527794599533081055e-01 -2.652634680271148682e-01
2.799372673034667969e-01 -8.621945381164550781e-01 -2.957542426884174347e-02
1.103244349360466003e-01 -6.514994502067565918e-01 2.219176441431045532e-01
6.517148017883300781e-02 -6.234833002090454102e-01 -1.760435402393341064e-01
3.350332081317901611e-01 -7.075530290603637695e-01 -2.421408891677856445e-01
-2.137860506772994995e-01 -6.867860555648803711e-01 -3.171399235725402832e-01
1.150636821985244751e-01 -8.938636779785156250e-01 -7.073131203651428223e-02
2.161250114440917969e-01 -6.326680183410644531e-01 -3.332190215587615967e-02
3.460841476917266846e-01 -7.199037671089172363e-01 1.762054711580276489e-01
-1.118564978241920471e-02 -8.923615813255310059e-01 1.164384186267852783e-01
-1.461741328239440918e-01 -6.736588478088378906e-01 2.589738965034484863e-01
-1.583211570978164673e-01 -8.393308520317077637e-01 2.731579840183258057e-01
1.011610776185989380e-01 -6.174271106719970703e-01 -4.222748428583145142e-02
-2.744469344615936279e-01 -8.631684780120849609e-01 -9.286239743232727051e-02
-4.662685561925172806e-03 -8.874140977859497070e-01 1.505997925996780396e-01
-2.228271961212158203e-01 -8.769195079803466797e-01 4.193520173430442810e-02
-3.564158082008361816e-01 -8.304469585418701172e-01 -2.342764288187026978e-02
-3.257183730602264404e-01 -6.765894293785095215e-01 1.993855834007263184e-02
3.084303438663482666e-01 -7.149090170860290527e-01 -2.892967760562896729e-01
-2.148047238588333130e-01 -6.747538447380065918e-01 2.138918489217758179e-01
-3.231323957443237305e-01 -7.300719618797302246e-01 2.020905762910842896e-01
1.906876862049102783e-01 -8.834001421928405762e-01 -6.150341778993606567e-02
2.541151344776153564e-01 -6.737855672836303711e-01 1.937254369258880615e-01
2.333699315786361694e-01 -7.840098738670349121e-01 3.037140071392059326e-01
4.775403067469596863e-02 -6.184477806091308594e-01 -1.332240104675292969e-01
1.878234595060348511e-01 -8.667037487030029297e-01 -2.140445709228515625e-01
-1.571920663118362427e-01 -8.891199827194213867e-01 3.718678280711174011e-02
3.967003226280212402e-01 -7.951323986053466797e-01 -8.713111281394958496e-02
3.022466301918029785e-01 -6.569674611091613770e-01 1.013568788766860962e-02
4.030049145221710205e-01 -7.375033497810363770e-01 6.643995642662048340e-02
-3.378092944622039795e-01 -7.628393173217773438e-01 -2.630150318145751953e-01
9.559185057878494263e-02 -7.026855349540710449e-01 3.363350331783294678e-01
-1.470056027173995972e-01 -6.542579531669616699e-01 -2.758009433746337891e-01
4.038608372211456299e-01 -7.913709878921508789e-01 -2.334379404783248901e-02
1.536318212747573853e-01 -8.219103813171386719e-01 -3.640227019786834717e-01
8.127368241548538208e-02 -8.953912854194641113e-01 5.064288154244422913e-02
-1.950905621051788330e-01 -6.653016209602355957e-01 -2.766188681125640869e-01
5.310231447219848633e-02 -7.469576001167297363e-01 3.764124512672424316e-01
7.925811409950256348e-02 -6.201425194740295410e-01 -1.372684091329574585e-01
-2.562479078769683838e-01 -7.005467414855957031e-01 -3.061944842338562012e-01
1.521537154912948608e-01 -8.569244146347045898e-01 2.282711118459701538e-01
2.206839621067047119e-01 -7.122004032135009766e-01 2.944970130920410156e-01
-2.405383139848709106e-01 -6.499533653259277344e-01 6.434111297130584717e-02
-3.702523708343505859e-01 -7.049257159233093262e-01 -1.006679087877273560e-01
1.951941102743148804e-01 -8.706384301185607910e-01 1.331213861703872681e-01
-6.581687927246093750e-02 -7.795546650886535645e-01 -4.330108761787414551e-01
-2.267994433641433716e-01 -6.684294939041137695e-01 1.820764094591140747e-01
2.007931172847747803e-01 -8.042368888854980469e-01 3.064901530742645264e-01
-4.029259681701660156e-01 -7.444012761116027832e-01 1.595573499798774719e-02
-1.908220201730728149e-01 -8.853707313537597656e-01 -4.210053011775016785e-03
5.294792354106903076e-04 -8.386069536209106445e-01 -3.682267367839813232e-01
-1.954820305109024048e-01 -7.105697393417358398e-01 2.980801165103912354e-01
-2.983415722846984863e-01 -6.786072850227355957e-01 -1.902146637439727783e-01
-1.262788325548171997e-01 -8.162818551063537598e-01 3.259792923927307129e-01
-2.885268032550811768e-01 -6.783964037895202637e-01 1.344949603080749512e-01
4.416527599096298218e-02 -8.685645461082458496e-01 2.313946634531021118e-01
3.557606935501098633e-01 -8.236183524131774902e-01 -1.175834685564041138e-01
-1.862456649541854858e-01 -8.743932843208312988e-01 1.295803487300872803e-01
-8.207380771636962891e-02 -8.733214139938354492e-01 -2.565107047557830811e-01
1.744897961616516113e-01 -7.115511298179626465e-01 3.193582594394683838e-01
-7.748162001371383667e-02 -6.499801278114318848e-01 2.195170372724533081e-01
-6.547907739877700806e-02 -8.983370065689086914e-01 -7.570864260196685791e-02
9.067107737064361572e-02 -8.789184093475341797e-01 -2.240308821201324463e-01
6.812535226345062256e-02 -6.364872455596923828e-01 -2.526755630970001221e-01
-9.938190877437591553e-02 -6.905007362365722656e-01 3.124680221080780029e-01
1.522639691829681396e-01 -6.509204506874084473e-01 1.998357921838760376e-01
5.383846908807754517e-02 -8.315809369087219238e-01 3.216400146484375000e-01
-1.137682870030403137e-01 -6.220310330390930176e-01 7.575862109661102295e-04
1.004670783877372742e-01 -6.351804733276367188e-01 -2.351629734039306641e-01
3.820889890193939209e-01 -7.657188177108764648e-01 -1.965829581022262573e-01
8.771449327468872070e-02 -7.831491231918334961e-01 -4.278958439826965332e-01
-3.168562427163124084e-02 -8.904730081558227539e-01 -1.775635480880737305e-01
-3.423405811190605164e-02 -6.384860873222351074e-01 1.861364096403121948e-01
3.959250822663307190e-02 -7.842332720756530762e-01 3.735366463661193848e-01
1.280884258449077606e-02 -8.965145349502563477e-01 -1.251211762428283691e-01
2.771461904048919678e-01 -8.589577674865722656e-01 -1.112820357084274292e-01
-1.912973262369632721e-02 -8.533258438110351562e-01 2.802568376064300537e-01
3.049537241458892822e-01 -6.644268631935119629e-01 7.419981062412261963e-02
-9.737353771924972534e-02 -6.632175445556640625e-01 -3.284485936164855957e-01
3.716317713260650635e-01 -6.896428465843200684e-01 -2.497248351573944092e-04
2.868659794330596924e-01 -7.935459017753601074e-01 2.509400248527526855e-01
-9.397210180759429932e-02 -8.954252600669860840e-01 -9.586586058139801025e-02
-2.084303647279739380e-01 -7.021106481552124023e-01 -3.480939567089080811e-01
-3.369564116001129150e-01 -8.404627442359924316e-01 4.332009702920913696e-03
-9.508363902568817139e-02 -8.648622632026672363e-01 -2.842307090759277344e-01
-1.966328471899032593e-01 -7.731897234916687012e-01 -3.896701633930206299e-01
-1.573361754417419434e-01 -6.459460258483886719e-01 1.571724265813827515e-01
-3.245726823806762695e-01 -6.737829446792602539e-01 -3.441211208701133728e-02
3.498543426394462585e-02 -6.648125648498535156e-01 2.766759395599365234e-01
3.569921255111694336e-01 -6.797521114349365234e-01 -4.800848662853240967e-02
3.310592770576477051e-01 -6.697198748588562012e-01 -1.006420403718948364e-01
-1.304951757192611694e-01 -7.574385404586791992e-01 -4.222734272480010986e-01
1.267533898353576660e-01 -8.698865771293640137e-01 -2.472229003906250000e-01
6.199631467461585999e-02 -8.299607038497924805e-01 -3.789394795894622803e-01
-5.120208114385604858e-02 -6.162021756172180176e-01 -5.655885115265846252e-02
-6.144554913043975830e-02 -8.571862578392028809e-01 -3.176988959312438965e-01
1.770737320184707642e-01 -8.388742804527282715e-01 2.625004053115844727e-01
-4.064743220806121826e-01 -7.750400304794311523e-01 -1.686473190784454346e-02
1.633003205060958862e-01 -8.792919516563415527e-01 1.154773533344268799e-01
-3.753709793090820312e-01 -7.801097631454467773e-01 1.216315329074859619e-01
7.969155162572860718e-02 -6.257326602935791016e-01 1.087617129087448120e-01
-1.159289330244064331e-01 -8.046948909759521484e-01 -4.014552533626556396e-01
-1.509680151939392090e-01 -7.084200978279113770e-01 -3.885574042797088623e-01
1.221342831850051880e-01 -6.818101406097412109e-01 -3.682316243648529053e-01
-3.269413709640502930e-01 -7.026746869087219238e-01 -2.170561850070953369e-01
-2.740952968597412109e-01 -8.474140763282775879e-01 -1.990473717451095581e-01
-1.211147010326385498e-01 -8.939166069030761719e-01 -7.890328764915466309e-02
-6.346639711409807205e-03 -6.157724261283874512e-01 -9.613767266273498535e-02
5.648798868060112000e-02 -8.836492300033569336e-01 1.622910797595977783e-01
-1.530818492174148560e-01 -8.903094530105590820e-01 -7.470814883708953857e-02
-2.863060235977172852e-01 -8.427576422691345215e-01 1.437450200319290161e-01
2.051533758640289307e-01 -6.315194368362426758e-01 5.686149001121520996e-03
1.646379381418228149e-01 -8.834081292152404785e-01 7.891616225242614746e-02
-1.687956750392913818e-01 -8.778834939002990723e-01 -1.783221215009689331e-01
-6.116813421249389648e-02 -6.258107423782348633e-01 1.046513319015502930e-01
2.537551224231719971e-01 -8.588702082633972168e-01 1.148346066474914551e-01
-6.773106753826141357e-02 -8.202643990516662598e-01 -3.937112092971801758e-01
-6.668255478143692017e-02 -6.187751293182373047e-01 -1.030927151441574097e-01
5.390129089355468750e-01 1.039635241031646729e-01 -7.965750992298126221e-02
2.155117839574813843e-01 1.266249418258666992e-01 -5.749516487121582031e-01
7.289212942123413086e-02 1.698946803808212280e-01 6.527595967054367065e-02
2.494542598724365234e-01 1.092031449079513550e-01 -4.028905034065246582e-01
3.981115818023681641e-01 1.129819154739379883e-01 -5.049418807029724121e-01
6.675052642822265625e-01 1.419728249311447144e-01 -1.315028220415115356e-02
5.723783969879150391e-01 1.627737134695053101e-01 2.890320122241973877e-01
9.206521511077880859e-02 1.270024776458740234e-01 -3.382457494735717773e-01
1.922169327735900879e-01 1.126618832349777222e-01 1.027676686644554138e-01
4.847869277000427246e-01 1.141141951084136963e-01 -4.525403380393981934e-01
6.753167510032653809e-02 1.745489239692687988e-01 -1.409105509519577026e-01
4.121415317058563232e-01 1.000049039721488953e-01 5.994468182325363159e-02
2.733972370624542236e-01 1.738457381725311279e-01 -5.378558039665222168e-01
6.186604499816894531e-01 1.163278818130493164e-01 -1.420503854751586914e-01
3.525134921073913574e-02 1.574563235044479370e-01 -2.671450376510620117e-01
5.067558288574218750e-01 1.047340258955955505e-01 1.269792318344116211e-01
2.199697941541671753e-01 1.807089298963546753e-01 -4.391933679580688477e-01
3.513134419918060303e-01 1.258637905120849609e-01 4.324190020561218262e-01
4.586524367332458496e-01 1.867277920246124268e-01 -1.080520600080490112e-01
2.702881395816802979e-01 1.138633489608764648e-01 2.644237875938415527e-01
4.095170199871063232e-01 1.095376163721084595e-01 -4.581394195556640625e-01
6.369918584823608398e-01 1.567452102899551392e-01 -1.363209038972854614e-01
3.195405602455139160e-01 1.217353716492652893e-01 -5.907941460609436035e-01
5.782580375671386719e-02 1.569608747959136963e-01 -3.829937279224395752e-01
4.337957501411437988e-01 1.838158965110778809e-01 2.147061526775360107e-01
1.105498373508453369e-01 1.797574013471603394e-01 3.657562285661697388e-02
4.437798857688903809e-01 1.867758184671401978e-01 1.017379090189933777e-01
3.885719776153564453e-01 1.598230153322219849e-01 4.769225120544433594e-01
5.744581222534179688e-01 1.738435775041580200e-01 -1.383119076490402222e-02
4.050658941268920898e-01 1.869581192731857300e-01 1.710296273231506348e-01
5.687950849533081055e-01 1.596545875072479248e-01 3.244102597236633301e-01
2.696679830551147461e-01 1.923799216747283936e-01 -1.394734978675842285e-01
4.555751383304595947e-01 1.220114454627037048e-01 4.059683382511138916e-01
2.039329856634140015e-01 1.798275560140609741e-01 2.500310540199279785e-01
6.137105226516723633e-01 1.203306913375854492e-01 1.781937479972839355e-01
3.057982623577117920e-01 1.025547534227371216e-01 -3.019670546054840088e-01
2.120315730571746826e-01 1.132242307066917419e-01 -4.230282306671142578e-01
3.720139861106872559e-01 1.184758171439170837e-01 3.822500109672546387e-01
5.170542001724243164e-01 1.108009815216064453e-01 2.419016957283020020e-01
3.884169161319732666e-01 1.911627203226089478e-01 -5.737630277872085571e-02
2.305804491043090820e-01 1.896682679653167725e-01 -2.464024722576141357e-01
6.549113988876342773e-01 1.377876996994018555e-01 1.482499241828918457e-01
3.705398440361022949e-01 1.107979714870452881e-01 -4.864159524440765381e-01
5.367234945297241211e-01 1.169743090867996216e-01 -4.080821275711059570e-01
4.130131304264068604e-01 1.055532395839691162e-01 2.156796455383300781e-01
3.861970901489257812e-01 1.277739107608795166e-01 -6.156170368194580078e-01
6.067162752151489258e-01 1.124803274869918823e-01 -3.937224298715591431e-02
4.052060842514038086e-01 9.935142844915390015e-02 -2.163183391094207764e-01
3.226639628410339355e-01 1.087303608655929565e-01 -4.526985585689544678e-01
1.862795203924179077e-01 1.311406344175338745e-01 -5.744363069534301758e-01
3.221555650234222412e-01 1.204727143049240112e-01 3.797577023506164551e-01
3.184582293033599854e-01 1.882256865501403809e-01 -3.139758110046386719e-01
6.633017063140869141e-01 1.427245140075683594e-01 7.808262854814529419e-02
3.416795432567596436e-01 1.813219785690307617e-01 3.118252754211425781e-01
2.752850651741027832e-01 1.553610265254974365e-01 4.607227444648742676e-01
4.097350239753723145e-01 1.856921166181564331e-01 1.997111141681671143e-01
1.998987942934036255e-01 1.077373921871185303e-01 -4.488922283053398132e-02
1.923154592514038086e-01 1.667511463165283203e-01 3.500815331935882568e-01
1.383866965770721436e-01 1.168772801756858826e-01 1.517255604267120361e-02
3.266087472438812256e-01 1.033595651388168335e-01 -3.453201055526733398e-01
5.511441826820373535e-02 1.388501822948455811e-01 -3.311422467231750488e-01
4.333906471729278564e-01 1.716119349002838135e-01 3.898855745792388916e-01
4.860355257987976074e-01 1.427331864833831787e-01 -5.716120004653930664e-01
5.962952375411987305e-01 1.695958822965621948e-01 3.568375855684280396e-02
6.539765000343322754e-01 1.406587213277816772e-01 -1.832979023456573486e-01
4.635458290576934814e-01 1.825751513242721558e-01 1.957225203514099121e-01
5.215445756912231445e-01 1.802175492048263550e-01 -1.309496164321899414e-01
2.790323495864868164e-01 1.547081172466278076e-01 -6.477838158607482910e-01
2.833478450775146484e-01 1.027582958340644836e-01 3.442768007516860962e-02
1.850322782993316650e-01 1.891891658306121826e-01 -3.502705693244934082e-02
5.075907707214355469e-01 1.678748726844787598e-01 3.542827069759368896e-01
4.866455197334289551e-01 1.102971285581588745e-01 2.649409770965576172e-01
3.924115300178527832e-01 1.902185678482055664e-01 5.848983675241470337e-02
4.435685276985168457e-01 1.602034270763397217e-01 4.592823982238769531e-01
4.194591641426086426e-01 1.896222829818725586e-01 -7.240288704633712769e-02
2.757934331893920898e-01 1.854042708873748779e-01 -3.821590244770050049e-01
1.478386819362640381e-01 1.802636831998825073e-01 1.456426978111267090e-01
2.205445170402526855e-01 1.902096867561340332e-01 -2.059026360511779785e-01
2.948582470417022705e-01 1.105556339025497437e-01 -4.678262174129486084e-01
2.810065150260925293e-01 1.014841571450233459e-01 -1.901529133319854736e-01
6.483712196350097656e-01 1.532168835401535034e-01 -1.089390367269515991e-01
1.744379401206970215e-01 1.886099129915237427e-01 -1.387067437171936035e-01
9.511747956275939941e-02 1.219214871525764465e-01 -1.398994624614715576e-01
4.581739902496337891e-01 1.865436136722564697e-01 5.881675332784652710e-02
1.770388633012771606e-01 1.278057545423507690e-01 -5.424976348876953125e-01
4.094938039779663086e-01 1.898739635944366455e-01 2.662098407745361328e-02
3.229572772979736328e-01 1.170644015073776245e-01 -5.535774827003479004e-01
1.393848210573196411e-01 1.368342638015747070e-01 -5.426391959190368652e-01
2.935974299907684326e-01 1.840427666902542114e-01 -4.076054692268371582e-01
4.186155796051025391e-01 1.756958514451980591e-01 3.573656678199768066e-01
2.654537558555603027e-02 1.525389552116394043e-01 -1.176990568637847900e-01
3.686502277851104736e-01 9.855155646800994873e-02 -5.284180492162704468e-02
3.323222398757934570e-01 1.329199373722076416e-01 4.619299173355102539e-01
2.501977682113647461e-01 1.801879107952117920e-01 -4.611078500747680664e-01
2.468526959419250488e-01 1.914407461881637573e-01 2.366067469120025635e-02
5.151834487915039062e-01 1.041335985064506531e-01 -2.217184007167816162e-01
1.598198115825653076e-01 1.725784093141555786e-01 -4.823980927467346191e-01
2.551059126853942871e-01 1.207274049520492554e-01 -5.595591664314270020e-01
2.715490460395812988e-01 1.034401580691337585e-01 -2.776557207107543945e-01
4.374246895313262939e-01 1.829926222562789917e-01 -3.084955513477325439e-01
6.038376092910766602e-01 1.483515053987503052e-01 3.101111650466918945e-01
1.834993958473205566e-01 1.188791692256927490e-01 1.955571770668029785e-01
1.751949489116668701e-01 1.351594924926757812e-01 3.290169239044189453e-01
4.970804452896118164e-01 1.636874526739120483e-01 -4.749372005462646484e-01
5.544613599777221680e-01 1.098036915063858032e-01 -2.659902870655059814e-01
5.124419927597045898e-01 1.584136933088302612e-01 4.152061343193054199e-01
1.622558683156967163e-01 1.245126947760581970e-01 2.221906483173370361e-01
2.837878465652465820e-01 1.928314566612243652e-01 -9.068579226732254028e-02
4.045498371124267578e-01 1.785564571619033813e-01 3.306798934936523438e-01
6.285405755043029785e-01 1.212922185659408569e-01 1.317771077156066895e-01
5.412447452545166016e-01 1.621798872947692871e-01 -4.103041589260101318e-01
1.285959184169769287e-01 1.244898289442062378e-01 1.367840468883514404e-01
1.654597371816635132e-01 1.556113511323928833e-01 -5.869419574737548828e-01
5.658171176910400391e-01 1.741920411586761475e-01 -1.195942088961601257e-01
3.456497788429260254e-01 1.007335186004638672e-01 -2.723555266857147217e-01
2.545502781867980957e-01 1.114900633692741394e-01 -4.501551687717437744e-01
1.281070709228515625e-01 1.161645501852035522e-01 -1.917828917503356934e-01
5.109216570854187012e-01 1.190716624259948730e-01 3.484537303447723389e-01
4.572664499282836914e-01 1.662397384643554688e-01 -5.070096850395202637e-01
2.753632664680480957e-01 1.148764491081237793e-01 -5.132624506950378418e-01
1.395648866891860962e-01 1.143371313810348511e-01 -1.148210540413856506e-01
4.725784659385681152e-01 1.001356020569801331e-01 -1.457898318767547607e-01
4.971445202827453613e-01 1.824925541877746582e-01 1.013947352766990662e-01
4.083321690559387207e-01 1.017508879303932190e-01 1.238449886441230774e-01
2.539516985416412354e-01 1.404686272144317627e-01 4.396924972534179688e-01
3.728528916835784912e-01 1.083500683307647705e-01 -4.521913826465606689e-01
2.460179626941680908e-01 1.093108206987380981e-01 1.511245965957641602e-01
6.211384534835815430e-01 1.591140627861022949e-01 -1.951244026422500610e-01
3.534349799156188965e-01 1.847626864910125732e-01 -3.719632625579833984e-01
5.466595888137817383e-01 1.780342161655426025e-01 -3.383584320545196533e-03
4.931339621543884277e-02 1.499421745538711548e-01 6.749463826417922974e-02
7.019853591918945312e-02 1.286638528108596802e-01 -7.382126897573471069e-02
3.159477114677429199e-01 1.035445183515548706e-01 1.188937202095985413e-01
2.436243593692779541e-01 1.514854580163955688e-01 -6.460421085357666016e-01
4.383631348609924316e-01 1.024214699864387512e-01 1.353045105934143066e-01
1.955497413873672485e-01 1.338521242141723633e-01 3.516587615013122559e-01
2.113452106714248657e-01 1.116690486669540405e-01 -3.919892609119415283e-01
4.912671148777008057e-01 1.761638224124908447e-01 -3.385302126407623291e-01
4.265234470367431641e-01 1.196530759334564209e-01 -5.504696965217590332e-01
8.494043350219726562e-02 1.772474646568298340e-01 -2.115713655948638916e-01
2.520429790019989014e-01 1.053440719842910767e-01 -3.067889511585235596e-01
3.988657593727111816e-01 1.695647686719894409e-01 4.220683574676513672e-01
3.171228468418121338e-01 1.462996304035186768e-01 4.865820407867431641e-01
2.781936526298522949e-01 1.905604302883148193e-01 1.023434028029441833e-01
2.940163612365722656e-01 1.269920021295547485e-01 -6.184934377670288086e-01
1.090604364871978760e-01 1.719969958066940308e-01 -4.052457213401794434e-01
1.974851638078689575e-01 1.075460016727447510e-01 -8.223040401935577393e-02
1.023073941469192505e-01 1.543165147304534912e-01 2.384400367736816406e-01
5.102375745773315430e-01 1.150246188044548035e-01 3.071871697902679443e-01
4.806110262870788574e-01 1.851933896541595459e-01 1.733499765396118164e-02
7.219332456588745117e-02 1.306822448968887329e-01 -3.059285879135131836e-01
3.057155609130859375e-01 1.905679106712341309e-01 1.140686050057411194e-01
1.684716343879699707e-01 1.142414435744285583e-01 -3.459392786026000977e-01
7.158559560775756836e-02 1.733214557170867920e-01 -2.520241439342498779e-01
4.875480532646179199e-01 1.004598140716552734e-01 -7.171969115734100342e-02
2.899026870727539062e-01 1.065679788589477539e-01 1.611382067203521729e-01
3.135951757431030273e-01 1.001915335655212402e-01 -1.975884586572647095e-01
5.981470942497253418e-01 1.127734184265136719e-01 8.021890372037887573e-02
5.625122785568237305e-01 1.463131308555603027e-01 -4.549273848533630371e-01
1.960771679878234863e-01 1.416814774274826050e-01 -6.196007728576660156e-01
2.532005608081817627e-01 1.879024505615234375e-01 1.611966192722320557e-01
2.191197574138641357e-01 1.156359091401100159e-01 2.165078818798065186e-01
3.465219736099243164e-01 1.911478787660598755e-01 7.879752665758132935e-02
1.688532084226608276e-01 1.883337795734405518e-01 -1.087466478347778320e-01
2.259158790111541748e-01 1.877931952476501465e-01 1.317849457263946533e-01
2.725277543067932129e-01 1.303567886352539062e-01 4.147214293479919434e-01
5.394519567489624023e-01 1.226689368486404419e-01 3.493696451187133789e-01
4.494103491306304932e-01 1.007350087165832520e-01 -2.346968948841094971e-01
1.023845672607421875e-01 1.669288277626037598e-01 -4.415861964225769043e-01
5.394440889358520508e-01 1.183953434228897095e-01 3.114382922649383545e-01
2.227213084697723389e-01 1.473857462406158447e-01 4.230343699455261230e-01
4.646449387073516846e-01 1.765996068716049194e-01 3.060543835163116455e-01
7.453376054763793945e-02 1.345358788967132568e-01 -3.732315003871917725e-01
4.290981292724609375e-01 1.885985583066940308e-01 4.731512814760208130e-02
5.293878316879272461e-01 1.575660407543182373e-01 -4.663447737693786621e-01
4.386176764965057373e-01 1.429465562105178833e-01 4.909548163414001465e-01
1.301154792308807373e-01 1.845647692680358887e-01 -6.754644215106964111e-02
2.961499989032745361e-01 1.164693906903266907e-01 -5.407817959785461426e-01
9.610381722450256348e-02 1.792766153812408447e-01 -3.320465609431266785e-02
3.132532536983489990e-01 1.093447506427764893e-01 2.401052415370941162e-01
4.155593812465667725e-01 1.886184513568878174e-01 9.081801027059555054e-02
3.125952184200286865e-01 1.012199968099594116e-01 2.975646406412124634e-02
3.705208003520965576e-01 1.904301494359970093e-01 -1.903108656406402588e-01
3.801090419292449951e-01 1.009141951799392700e-01 -2.891313433647155762e-01
8.839398622512817383e-02 1.695657223463058472e-01 1.278171241283416748e-01
4.419617056846618652e-01 9.886619448661804199e-02 -5.614703893661499023e-02
4.750086963176727295e-01 1.839423179626464844e-01 1.246547475457191467e-01
5.785173773765563965e-01 1.083320453763008118e-01 -8.890925347805023193e-02
3.911571204662322998e-01 9.947867691516876221e-02 3.442840278148651123e-02
5.904136896133422852e-01 1.635722517967224121e-01 -2.619862556457519531e-01
3.955545723438262939e-01 1.675951778888702393e-01 -5.530105233192443848e-01
4.452291727066040039e-01 1.116697490215301514e-01 -4.629459679126739502e-01
5.806375741958618164e-01 1.611274033784866333e-01 -3.247568309307098389e-01
2.540091276168823242e-01 1.922725439071655273e-01 -3.457166627049446106e-02
1.388098746538162231e-01 1.728095710277557373e-01 2.238197624683380127e-01
5.482843518257141113e-01 1.070712804794311523e-01 -2.137224674224853516e-01
2.272747606039047241e-01 1.899402439594268799e-01 6.233923882246017456e-02
6.101302504539489746e-01 1.307063996791839600e-01 2.809368371963500977e-01
4.010193049907684326e-01 1.537349373102188110e-01 -6.218187212944030762e-01
3.657524287700653076e-01 1.899348199367523193e-01 -2.203478813171386719e-01
2.502868175506591797e-01 1.884594112634658813e-01 -3.032700419425964355e-01
5.356241464614868164e-01 1.776701807975769043e-01 1.229934319853782654e-01
1.985758841037750244e-01 1.696244329214096069e-01 -5.441358089447021484e-01
5.383870601654052734e-01 1.098460555076599121e-01 1.927463412284851074e-01
3.892363607883453369e-01 1.827386617660522461e-01 2.768419384956359863e-01
5.146469473838806152e-01 1.059769093990325928e-01 -2.781361639499664307e-01
3.980177640914916992e-01 1.115070134401321411e-01 3.105780780315399170e-01
8.524662256240844727e-02 1.739413887262344360e-01 -3.062429130077362061e-01
4.036972522735595703e-01 1.879504323005676270e-01 1.412589550018310547e-01
5.992641448974609375e-01 1.153787449002265930e-01 -2.254272103309631348e-01
8.565142750740051270e-02 1.243311837315559387e-01 -2.089509963989257812e-01
4.835679233074188232e-01 1.263426095247268677e-01 4.209770560264587402e-01
3.721478581428527832e-01 1.914145350456237793e-01 -1.204452961683273315e-01
9.732590615749359131e-02 1.748541742563247681e-01 -3.327738344669342041e-01
4.803632497787475586e-01 1.754655241966247559e-01 -3.711209893226623535e-01
6.130014657974243164e-01 1.589393317699432373e-01 -2.368887364864349365e-01
3.481025099754333496e-01 1.409401446580886841e-01 4.903750419616699219e-01
2.268655300140380859e-01 1.122976690530776978e-01 1.749945282936096191e-01
3.944637179374694824e-01 9.825265407562255859e-02 -8.062903583049774170e-02
4.258438348770141602e-01 1.258212625980377197e-01 4.386508464813232422e-01
4.394739866256713867e-02 1.669463515281677246e-01 -8.978643268346786499e-02
3.145046532154083252e-01 1.254013478755950928e-01 4.131401479244232178e-01
1.993948966264724731e-01 1.231039464473724365e-01 2.760309576988220215e-01
2.595940530300140381e-01 1.925235986709594727e-01 -7.436540722846984863e-02
6.134160757064819336e-01 1.661095619201660156e-01 -9.685292840003967285e-03
1.947666704654693604e-01 1.844059228897094727e-01 -3.514105379581451416e-01
5.225855112075805664e-01 1.712686121463775635e-01 -3.470888733863830566e-01
1.490113288164138794e-01 1.857537925243377686e-01 -3.783665597438812256e-03
2.746387720108032227e-01 1.115069687366485596e-01 2.346451580524444580e-01
2.796816825866699219e-01 1.921320855617523193e-01 2.683553844690322876e-02
2.237433493137359619e-01 1.914374828338623047e-01 -1.025199964642524719e-01
5.737082362174987793e-01 1.721869111061096191e-01 -1.472084820270538330e-01
1.648975461721420288e-01 1.128050237894058228e-01 -2.893690764904022217e-01
2.498469352722167969e-01 1.773774027824401855e-01 3.243533670902252197e-01
3.900119364261627197e-01 1.066568940877914429e-01 -4.216803908348083496e-01
6.390187740325927734e-01 1.198515743017196655e-01 -3.676661103963851929e-02
7.656311988830566406e-02 1.353183984756469727e-01 9.130739420652389526e-02
4.381245970726013184e-01 1.663614362478256226e-01 4.282711744308471680e-01
4.236678779125213623e-01 1.186638250946998596e-01 3.868880271911621094e-01
2.573616504669189453e-01 1.228064969182014465e-01 3.485890924930572510e-01
1.489743888378143311e-01 1.198409497737884521e-01 -4.055723249912261963e-01
4.820963442325592041e-01 1.043791174888610840e-01 -3.000009059906005859e-01
2.136491984128952026e-01 1.827030926942825317e-01 -4.029612243175506592e-01
5.677694082260131836e-01 1.747917979955673218e-01 2.356560528278350830e-02
1.421587020158767700e-01 1.256625801324844360e-01 -4.676519930362701416e-01
4.612065851688385010e-01 1.050104349851608276e-01 1.870381236076354980e-01
3.689014911651611328e-02 1.401881873607635498e-01 -1.738588213920593262e-01
3.149205744266510010e-01 9.977546334266662598e-02 -1.563301980495452881e-01
2.372163385152816772e-01 1.084003075957298279e-01 1.117489859461784363e-01
6.589820981025695801e-02 1.289498805999755859e-01 -1.518509984016418457e-01
3.510727286338806152e-01 1.018837690353393555e-01 1.058783903717994690e-01
2.865957915782928467e-01 1.088972091674804688e-01 -4.356344342231750488e-01
2.996205985546112061e-01 1.900023669004440308e-01 -2.672836780548095703e-01
4.777628481388092041e-01 1.845182627439498901e-01 -1.482659578323364258e-01
5.114439725875854492e-01 1.820715665817260742e-01 -8.153872936964035034e-02
6.082013249397277832e-02 1.695844382047653198e-01 6.581492722034454346e-03
1.524704545736312866e-01 1.641135215759277344e-01 -5.387868285179138184e-01
1.171561777591705322e-01 1.674094200134277344e-01 -4.661890268325805664e-01
4.400287866592407227e-01 1.860167831182479858e-01 1.419346332550048828e-01
3.329565525054931641e-01 1.778848767280578613e-01 -4.874341189861297607e-01
3.538502454757690430e-01 9.981346130371093750e-02 2.534235268831253052e-02
4.584348797798156738e-01 1.005233824253082275e-01 4.742942005395889282e-02
5.009328126907348633e-01 1.829398423433303833e-01 5.339664965867996216e-02
3.257930576801300049e-01 1.002574861049652100e-01 -2.282352745532989502e-01
2.452179789543151855e-01 1.175724864006042480e-01 -5.218146443367004395e-01
8.067721128463745117e-02 1.251699924468994141e-01 -1.769771575927734375e-01
2.291018068790435791e-01 1.085329055786132812e-01 -3.538781702518463135e-01
3.811647295951843262e-01 1.753636449575424194e-01 3.765117526054382324e-01
5.741117000579833984e-01 1.082582026720046997e-01 -1.306604743003845215e-01
2.478729933500289917e-01 1.805563569068908691e-01 2.859347462654113770e-01
1.367607563734054565e-01 1.774160563945770264e-01 -3.883020281791687012e-01
4.264401197433471680e-01 1.816173046827316284e-01 2.678232192993164062e-01
1.718528121709823608e-01 1.206859648227691650e-01 -4.660699069499969482e-01
3.609952330589294434e-01 1.623713374137878418e-01 -6.056704521179199219e-01
3.509165942668914795e-01 1.923478543758392334e-01 -4.562593251466751099e-02
3.135429620742797852e-01 1.877972483634948730e-01 1.952880918979644775e-01
3.740516602993011475e-01 1.305042803287506104e-01 4.628254175186157227e-01
5.164625644683837891e-01 1.229879707098007202e-01 -4.862795770168304443e-01
2.034812122583389282e-01 1.824341863393783569e-01 2.113596498966217041e-01
9.719932079315185547e-02 1.778872460126876831e-01 -2.645393610000610352e-01
1.233809888362884521e-01 1.182873845100402832e-01 -2.319965139031410217e-02
1.292910724878311157e-01 1.840522885322570801e-01 -3.185284510254859924e-02
1.508748531341552734e-01 1.602347195148468018e-01 3.200446963310241699e-01
5.166466236114501953e-01 1.746006757020950317e-01 2.539445757865905762e-01
1.177652478218078613e-01 1.500553488731384277e-01 2.725544869899749756e-01
8.277183771133422852e-02 1.258827149868011475e-01 -2.528338432312011719e-01
6.644603013992309570e-01 1.333418041467666626e-01 -7.298748940229415894e-02
3.661102354526519775e-01 1.696290224790573120e-01 -5.548028349876403809e-01
4.505085349082946777e-01 1.023308783769607544e-01 -2.888595461845397949e-01
1.405427902936935425e-01 1.668868809938430786e-01 -5.062376856803894043e-01
4.298925995826721191e-01 1.871643662452697754e-01 -2.005847096443176270e-01
3.624503612518310547e-01 9.866091609001159668e-02 -1.578655391931533813e-01
4.250602722167968750e-01 9.851638972759246826e-02 -1.145826205611228943e-01
4.428205788135528564e-01 1.148636266589164734e-01 3.458950817584991455e-01
4.543096423149108887e-01 1.750300228595733643e-01 -4.191016256809234619e-01
1.174520403146743774e-01 1.749421358108520508e-01 1.503794789314270020e-01
3.982380628585815430e-01 9.829963743686676025e-02 -1.252394318580627441e-01
5.392417311668395996e-02 1.356148421764373779e-01 -2.784174680709838867e-01
3.546424806118011475e-01 1.671456396579742432e-01 4.432950615882873535e-01
5.106442570686340332e-01 1.040439456701278687e-01 9.678732603788375854e-02
1.919074952602386475e-01 1.892711222171783447e-01 -4.494830965995788574e-03
2.872323989868164062e-01 1.010683700442314148e-01 -6.155823543667793274e-02
5.873117446899414062e-01 1.389568597078323364e-01 3.521393835544586182e-01
3.088009059429168701e-01 1.003819927573204041e-01 -3.123075142502784729e-02
1.744035780429840088e-01 1.112295836210250854e-01 -8.313991129398345947e-03
3.402059972286224365e-01 1.429590284824371338e-01 -6.603339910507202148e-01
5.096404552459716797e-01 1.795586943626403809e-01 -2.131600081920623779e-01
3.223158717155456543e-01 1.110443621873855591e-01 2.738026678562164307e-01
4.784857034683227539e-01 1.208038181066513062e-01 -5.168517231941223145e-01
1.044778078794479370e-01 1.454524844884872437e-01 -5.090476870536804199e-01
7.823792099952697754e-02 1.286616027355194092e-01 -4.629768431186676025e-03
2.717508673667907715e-01 1.895567178726196289e-01 -2.799158096313476562e-01
1.479858011007308960e-01 1.274345517158508301e-01 -4.959147274494171143e-01
3.524776995182037354e-01 1.922830194234848022e-01 -7.631435990333557129e-02
1.968833655118942261e-01 1.856777667999267578e-01 1.379669904708862305e-01
5.969355702400207520e-01 1.666889488697052002e-01 1.472835242748260498e-01
4.098956882953643799e-01 1.856950521469116211e-01 -2.892155945301055908e-01
4.222298860549926758e-01 1.587123125791549683e-01 -5.879297256469726562e-01
3.763361871242523193e-01 1.024004220962524414e-01 1.367309689521789551e-01
5.005195140838623047e-01 1.834472268819808960e-01 -3.575988113880157471e-03
3.178399205207824707e-01 1.853269189596176147e-01 2.470797598361968994e-01
3.864381015300750732e-01 1.894718408584594727e-01 1.086863055825233459e-01
1.849047392606735229e-01 1.886558085680007935e-01 -1.937462389469146729e-01
4.511552453041076660e-01 1.875778436660766602e-01 5.962222814559936523e-03
2.809560298919677734e-01 1.215253174304962158e-01 -5.793949365615844727e-01
3.466988503932952881e-01 1.849080324172973633e-01 2.541477680206298828e-01
1.963340044021606445e-01 1.880254000425338745e-01 -2.535954713821411133e-01
2.355627417564392090e-01 1.057958453893661499e-01 -2.812191843986511230e-01
5.461469888687133789e-01 1.131977289915084839e-01 2.372180223464965820e-01
3.555965423583984375e-01 1.863785237073898315e-01 2.225400805473327637e-01
5.769344568252563477e-01 1.590393632650375366e-01 -3.554103374481201172e-01
6.182357072830200195e-01 1.148320138454437256e-01 -5.670614540576934814e-03
4.436925649642944336e-01 1.873688846826553345e-01 -1.428975164890289307e-01
2.777434289455413818e-01 1.914450675249099731e-01 -2.081588804721832275e-01
4.856077432632446289e-01 1.783052831888198853e-01 2.477372884750366211e-01
2.786161303520202637e-01 1.157849729061126709e-01 2.982536852359771729e-01
3.662538230419158936e-01 1.917278170585632324e-01 4.297882318496704102e-03
2.924042344093322754e-01 1.928966045379638672e-01 -5.150258541107177734e-02
3.284224867820739746e-01 1.128835827112197876e-01 3.031651973724365234e-01
5.439028739929199219e-01 1.067093163728713989e-01 1.012818887829780579e-01
6.140213012695312500e-01 1.217921972274780273e-01 -2.644929289817810059e-01
2.290172576904296875e-01 1.852108389139175415e-01 -3.673494458198547363e-01
1.625903993844985962e-01 1.123395115137100220e-01 -2.580184042453765869e-01
6.677133440971374512e-01 1.396370530128479004e-01 2.016834169626235962e-02
2.233347147703170776e-01 1.724293082952499390e-01 3.462956845760345459e-01
1.533643752336502075e-01 1.862398386001586914e-01 -1.991866379976272583e-01
5.564478635787963867e-01 1.143272668123245239e-01 -3.383701145648956299e-01
6.540997028350830078e-01 1.524572819471359253e-01 -4.613713547587394714e-02
5.017924308776855469e-01 1.014062613248825073e-01 -1.172998547554016113e-01
5.807996392250061035e-01 1.184438616037368774e-01 2.432727217674255371e-01
4.174140393733978271e-01 1.001047194004058838e-01 -2.443045973777770996e-01
2.410437166690826416e-01 1.834106594324111938e-01 2.389352023601531982e-01
6.235300302505493164e-01 1.491580009460449219e-01 -2.861951291561126709e-01
4.165711998939514160e-01 1.825131922960281372e-01 -3.511714935302734375e-01
6.436430811882019043e-01 1.572664678096771240e-01 -3.387130796909332275e-03
5.000857114791870117e-01 1.016425266861915588e-01 8.612439036369323730e-03
4.518015980720520020e-01 9.907373785972595215e-02 -9.624607861042022705e-02
2.669636011123657227e-01 1.619032919406890869e-01 -6.195895671844482422e-01
1.443633139133453369e-01 1.859940588474273682e-01 -1.555957049131393433e-01
2.639419734477996826e-01 1.271450966596603394e-01 -6.092908382415771484e-01
2.750765383243560791e-01 1.919821202754974365e-01 -1.763893365859985352e-01
1.423850208520889282e-01 1.797109395265579224e-01 -3.603940308094024658e-01
4.221785664558410645e-01 9.872999042272567749e-02 -2.609006315469741821e-02
6.097532510757446289e-01 1.137223988771438599e-01 3.522303700447082520e-02
3.938851952552795410e-01 1.713533550500869751e-01 -5.225759744644165039e-01
4.475885033607482910e-01 1.095678210258483887e-01 2.768101096153259277e-01
3.689102828502655029e-01 1.819963008165359497e-01 2.975188493728637695e-01
2.031598240137100220e-01 1.068051904439926147e-01 -1.588129103183746338e-01
6.037168502807617188e-01 1.370491385459899902e-01 -3.726114630699157715e-01
4.632303118705749512e-02 1.607692241668701172e-01 -3.119857907295227051e-01
4.000294506549835205e-01 1.762774288654327393e-01 -4.650940299034118652e-01
2.818766832351684570e-01 1.670539528131484985e-01 4.235458970069885254e-01
5.981633663177490234e-01 1.688505262136459351e-01 -8.477836847305297852e-02
2.697952091693878174e-01 1.692135334014892578e-01 -5.761561989784240723e-01
5.188095569610595703e-01 1.815274804830551147e-01 -2.740449830889701843e-02
5.207353830337524414e-01 1.713888496160507202e-01 2.944244742393493652e-01
6.286141872406005859e-01 1.372423917055130005e-01 2.542566359043121338e-01
5.276801586151123047e-01 1.678212285041809082e-01 3.249665498733520508e-01
4.945194721221923828e-01 1.724418103694915771e-01 3.225373327732086182e-01
5.826323628425598145e-01 1.107801198959350586e-01 -1.858463287353515625e-01
1.447727829217910767e-01 1.188665628433227539e-01 -3.764560520648956299e-01
1.766872406005859375e-01 1.095024868845939636e-01 -1.331657320261001587e-01
6.002783775329589844e-02 1.722494065761566162e-01 -1.836622655391693115e-01
4.432609975337982178e-01 1.849220842123031616e-01 -2.459942102432250977e-01
3.771212995052337646e-01 1.040443181991577148e-01 1.785992681980133057e-01
1.709249913692474365e-01 1.102211400866508484e-01 -1.681795418262481689e-01
5.911467671394348145e-01 1.231795698404312134e-01 -3.477330505847930908e-01
6.502000689506530762e-01 1.263206452131271362e-01 -1.302196085453033447e-01
5.498794317245483398e-01 1.049538403749465942e-01 -4.403566569089889526e-02
4.088073968887329102e-02 1.435383707284927368e-01 -1.452261209487915039e-02
4.785540103912353516e-01 1.053888946771621704e-01 -3.288652002811431885e-01
1.220962554216384888e-01 1.837496161460876465e-01 -1.320394277572631836e-01
5.382884144783020020e-01 1.780631840229034424e-01 9.160847216844558716e-02
1.779499500989913940e-01 1.736808717250823975e-01 2.822206914424896240e-01
2.728205919265747070e-01 1.868700087070465088e-01 2.002060115337371826e-01
2.582420110702514648e-01 1.906970888376235962e-01 7.850623875856399536e-02
2.255198657512664795e-01 1.056759357452392578e-01 -2.378114163875579834e-01
1.073132306337356567e-01 1.218526959419250488e-01 -2.948072850704193115e-01
2.489768862724304199e-01 1.909032762050628662e-01 -2.141468524932861328e-01
2.116859555244445801e-01 1.348099261522293091e-01 3.771114349365234375e-01
5.358892679214477539e-01 1.772622168064117432e-01 -1.780288517475128174e-01
4.289445579051971436e-01 1.035514175891876221e-01 1.690488159656524658e-01
3.379902243614196777e-02 1.420322209596633911e-01 -1.440518200397491455e-01
5.115981101989746094e-01 1.821388304233551025e-01 2.447005361318588257e-02
6.392484903335571289e-01 1.271084845066070557e-01 -2.112458050251007080e-01
4.301720857620239258e-01 1.280155181884765625e-01 -5.945832133293151855e-01
3.618542850017547607e-01 1.017066985368728638e-01 -3.132346868515014648e-01
6.144233345985412598e-01 1.451292335987091064e-01 -3.340536653995513916e-01
3.334621787071228027e-01 1.922855377197265625e-01 -1.338214427232742310e-01
2.844708263874053955e-01 1.009645760059356689e-01 -1.142498254776000977e-01
3.122158348560333252e-01 1.747400462627410889e-01 -5.276876688003540039e-01
4.892149567604064941e-01 1.828140914440155029e-01 -1.768793463706970215e-01
2.398411631584167480e-01 1.038502007722854614e-01 -1.734539717435836792e-01
4.059485793113708496e-01 1.075300797820091248e-01 2.519460916519165039e-01
5.762262344360351562e-01 1.717036217451095581e-01 1.187633350491523743e-01
1.978686153888702393e-01 1.145327016711235046e-01 1.560306847095489502e-01
2.229297161102294922e-01 1.913475096225738525e-01 -5.126982182264328003e-02
3.336654901504516602e-01 1.726808995008468628e-01 4.030960500240325928e-01
3.692010045051574707e-01 1.796331405639648438e-01 -4.456499814987182617e-01
5.155275464057922363e-01 1.507244706153869629e-01 -5.196483731269836426e-01
5.042260885238647461e-01 1.018645316362380981e-01 -1.474145799875259399e-01
4.016850590705871582e-01 1.221031919121742249e-01 4.157120585441589355e-01
6.243419647216796875e-01 1.191900372505187988e-01 -1.782482564449310303e-01
3.756286203861236572e-01 1.911383420228958130e-01 3.492226451635360718e-02
2.241953164339065552e-01 1.049758791923522949e-01 -1.031650081276893616e-01
4.285426735877990723e-01 1.752587407827377319e-01 -4.488487541675567627e-01
1.992117464542388916e-01 1.752887070178985596e-01 -4.927245080471038818e-01
6.176531910896301270e-01 1.636439114809036255e-01 -1.130862236022949219e-01
5.449876189231872559e-01 1.731132864952087402e-01 2.108481824398040771e-01
2.495884597301483154e-01 1.682632863521575928e-01 3.965730369091033936e-01
3.586595356464385986e-01 9.852477163076400757e-02 -1.175539046525955200e-01
