-3.145426511764526367e-01 -1.877631843090057373e-01 1.034243702888488770e-01
-7.895503044128417969e-01 -4.137774556875228882e-02 2.506977021694183350e-01
-7.463970184326171875e-01 -3.888755664229393005e-02 2.857295274734497070e-01
-9.024137258529663086e-01 -6.405410915613174438e-02 -1.221643090248107910e-01
-4.460601210594177246e-01 -7.504920661449432373e-02 3.209931254386901855e-01
-7.643578648567199707e-01 -1.645229756832122803e-01 -3.578911721706390381e-01
-5.176741480827331543e-01 -3.091778159141540527e-01 -1.671356856822967529e-01
-3.248217701911926270e-01 -2.229745388031005859e-01 -9.110525250434875488e-02
-7.212995290756225586e-01 -9.556090086698532104e-02 -3.866801857948303223e-01
-5.997381210327148438e-01 8.344694226980209351e-02 2.105939388275146484e-01
-6.117598414421081543e-01 6.238374859094619751e-02 -2.960577905178070068e-01
-3.528249263763427734e-01 -1.532074511051177979e-01 2.178843319416046143e-01
-3.085938096046447754e-01 -1.240995973348617554e-01 1.787488460540771484e-01
-7.619609832763671875e-01 -3.056365251541137695e-01 -1.619369536638259888e-01
-3.324663937091827393e-01 7.120967656373977661e-02 9.124767780303955078e-02
-5.481186509132385254e-01 9.680507332086563110e-02 1.902368068695068359e-01
-9.171348214149475098e-01 -7.742425799369812012e-02 -5.403203889727592468e-03
-8.756406307220458984e-01 -3.017930686473846436e-02 -1.479332149028778076e-01
-8.636964559555053711e-01 -2.531925737857818604e-01 5.721538141369819641e-02
-4.886310100555419922e-01 -3.127967417240142822e-01 -2.574407309293746948e-02
-9.037519693374633789e-01 -1.903027594089508057e-01 -1.493919491767883301e-01
-9.197459220886230469e-01 -1.275572925806045532e-01 5.472015962004661560e-02
-3.685227632522583008e-01 1.060793176293373108e-01 -2.605574205517768860e-02
-8.641631603240966797e-01 -1.894472241401672363e-01 -2.406998276710510254e-01
-3.034592568874359131e-01 6.255669146776199341e-02 3.214995190501213074e-02
-3.771308660507202148e-01 -1.345211267471313477e-01 -3.331268429756164551e-01
-9.029983282089233398e-01 -2.087876796722412109e-01 4.295712336897850037e-02
-4.821695089340209961e-01 -1.817382574081420898e-01 2.966190874576568604e-01
-8.324813842773437500e-01 -4.015945270657539368e-02 -2.556222379207611084e-01
-4.625265300273895264e-01 -2.283346951007843018e-01 2.331044971942901611e-01
-5.494489669799804688e-01 1.267071664333343506e-01 8.447945117950439453e-02
-4.595867693424224854e-01 -2.257272601127624512e-01 -3.191266953945159912e-01
-4.747758507728576660e-01 -2.657906115055084229e-01 -2.620336711406707764e-01
-2.527040243148803711e-01 -1.130704507231712341e-01 -1.128672510385513306e-01
-5.190255641937255859e-01 -2.627850770950317383e-01 2.103588432073593140e-01
-3.297251462936401367e-01 -1.336842179298400879e-01 2.038764655590057373e-01
-7.629823684692382812e-01 7.361251860857009888e-02 -1.041134446859359741e-01
-7.730979919433593750e-01 5.666390806436538696e-02 1.101517826318740845e-01
-7.431780099868774414e-01 -1.989164948463439941e-01 2.766406238079071045e-01
-5.215114355087280273e-01 -9.998182207345962524e-02 -4.154120683670043945e-01
-3.071028292179107666e-01 -7.278941571712493896e-03 1.769763827323913574e-01
-5.023841857910156250e-01 6.601829081773757935e-02 2.457074820995330811e-01
-3.710200190544128418e-01 1.051069572567939758e-01 -6.959588825702667236e-02
-3.036623895168304443e-01 5.545596033334732056e-02 6.556966900825500488e-02
-7.025741934776306152e-01 -2.520562708377838135e-02 -3.623304963111877441e-01
-4.793247878551483154e-01 -1.865583360195159912e-01 -3.708272874355316162e-01
-7.506415247917175293e-01 -3.144447803497314453e-01 -1.348685026168823242e-01
-4.752181768417358398e-01 -2.472877800464630127e-01 -2.979061305522918701e-01
-5.093101859092712402e-01 -1.417794823646545410e-01 3.316673636436462402e-01
-7.316287755966186523e-01 -2.548274397850036621e-01 2.207731604576110840e-01
-5.315132737159729004e-01 -2.167664468288421631e-01 -3.648969829082489014e-01
-8.716002702713012695e-01 -3.329060971736907959e-03 -4.476116970181465149e-03
-8.235482573509216309e-01 1.363937556743621826e-02 -1.801713556051254272e-01
-6.664015054702758789e-01 -2.322356998920440674e-01 -3.558607101440429688e-01
-2.991370260715484619e-01 -1.623522937297821045e-01 -1.948107779026031494e-01
-6.499127149581909180e-01 1.204620525240898132e-01 -5.804862082004547119e-02
-3.421142399311065674e-01 -2.397413849830627441e-01 -5.325282365083694458e-02
-4.136162996292114258e-01 -4.154276475310325623e-02 2.984249889850616455e-01
-5.226684808731079102e-01 -1.957248896360397339e-02 -3.912321329116821289e-01
-5.912323594093322754e-01 1.233104839920997620e-01 8.427518606185913086e-02
-6.335800290107727051e-01 -3.248195648193359375e-01 6.889562308788299561e-02
-5.056255459785461426e-01 -2.208948880434036255e-01 2.678419649600982666e-01
-4.177649617195129395e-01 -7.463595271110534668e-02 -3.735512495040893555e-01
-2.645101249217987061e-01 2.268735319375991821e-02 1.430496573448181152e-03
-9.261074066162109375e-01 -1.519358605146408081e-01 -7.906970381736755371e-02
-3.416784405708312988e-01 -2.201986908912658691e-01 -1.720116287469863892e-01
-2.660681307315826416e-01 -1.481224000453948975e-01 -1.043801009654998779e-01
-5.503771305084228516e-01 9.221652895212173462e-02 -2.484758794307708740e-01
-2.823487818241119385e-01 -1.685886085033416748e-02 1.389292031526565552e-01
-6.974102258682250977e-01 3.917055577039718628e-02 2.394137680530548096e-01
-6.572120189666748047e-01 -2.929094135761260986e-01 -2.641712427139282227e-01
-4.769753515720367432e-01 -2.541315555572509766e-01 1.999749839305877686e-01
-7.175585031509399414e-01 -3.229431211948394775e-01 -1.294152885675430298e-01
-6.390097141265869141e-01 6.780282407999038696e-02 -2.749813497066497803e-01
-6.456772685050964355e-01 -1.308448016643524170e-01 3.431411087512969971e-01
-6.887071728706359863e-01 8.942633867263793945e-04 -3.461319804191589355e-01
-5.476202964782714844e-01 2.896539866924285889e-03 3.195731937885284424e-01
-8.921188116073608398e-01 -8.686497807502746582e-02 -1.874127835035324097e-01
-7.649766206741333008e-01 -2.826865911483764648e-01 -2.301049232482910156e-01
-7.018294334411621094e-01 -7.183860242366790771e-02 -3.892612457275390625e-01
-2.830706238746643066e-01 -1.234505176544189453e-01 -2.041301727294921875e-01
-5.369391441345214844e-01 8.040884882211685181e-02 2.253920435905456543e-01
-3.753463625907897949e-01 -1.828237771987915039e-01 2.135352492332458496e-01
-9.284668564796447754e-01 -1.340963840484619141e-01 -1.133020035922527313e-02
-8.144573569297790527e-01 -6.584645807743072510e-02 2.399894297122955322e-01
-4.118394255638122559e-01 2.530594915151596069e-02 2.573093771934509277e-01
-6.362352967262268066e-01 8.599292486906051636e-02 -2.357754111289978027e-01
-6.085821390151977539e-01 -3.275169730186462402e-01 -1.415247470140457153e-01
-8.222849369049072266e-01 4.247555881738662720e-02 -2.053807675838470459e-02
-6.824245452880859375e-01 -2.762136757373809814e-01 2.049488574266433716e-01
-7.844893336296081543e-01 3.104417771100997925e-02 -2.118309140205383301e-01
-8.981168866157531738e-01 -1.096943169832229614e-01 1.223760694265365601e-01
-4.283586442470550537e-01 -2.805100679397583008e-01 6.162194535136222839e-02
-5.047175884246826172e-01 6.611645221710205078e-04 -3.739446997642517090e-01
-8.575702905654907227e-01 -3.751540184020996094e-02 -2.081246078014373779e-01
-2.627142667770385742e-01 8.479550480842590332e-03 4.645447060465812683e-02
-7.638764381408691406e-01 -2.194139808416366577e-01 -3.249742090702056885e-01
-7.455240488052368164e-01 8.819865435361862183e-02 -2.865702286362648010e-02
-8.950763940811157227e-01 -1.529392898082733154e-01 1.294020563364028931e-01
-7.052448987960815430e-01 -3.286160230636596680e-01 5.982570350170135498e-03
-8.484480381011962891e-01 -2.128341495990753174e-01 1.667430400848388672e-01
-6.389181613922119141e-01 -1.625923216342926025e-01 -4.076527059078216553e-01
-7.276800870895385742e-01 -2.385015785694122314e-01 2.452771067619323730e-01
-3.224768936634063721e-01 8.130728453397750854e-02 -3.480265289545059204e-02
-7.914586663246154785e-01 1.392104476690292358e-02 -2.367010265588760376e-01
-3.508725166320800781e-01 7.334149628877639771e-02 -1.736064404249191284e-01
-6.207348108291625977e-01 -1.784829497337341309e-01 3.259194493293762207e-01
-8.375225067138671875e-01 -2.619853913784027100e-01 -1.788535565137863159e-01
-8.972367644309997559e-01 -4.594450443983078003e-02 -9.910464286804199219e-02
-6.625336408615112305e-01 -7.810236513614654541e-02 -4.060424864292144775e-01
-6.264765262603759766e-01 -2.821565568447113037e-01 -2.894231677055358887e-01
-5.658655166625976562e-01 -3.265535533428192139e-01 -1.157045066356658936e-01
-3.677199780941009521e-01 -1.383416950702667236e-01 2.461515665054321289e-01
-2.817376554012298584e-01 -1.748081147670745850e-01 -9.729810059070587158e-02
-4.469870924949645996e-01 6.492491811513900757e-02 2.279792129993438721e-01
-5.529145002365112305e-01 -9.188193082809448242e-02 -4.196138381958007812e-01
-4.911606907844543457e-01 -3.108284622430801392e-02 3.290811181068420410e-01
-7.962338328361511230e-01 4.969162493944168091e-02 -1.276983767747879028e-01
-5.791596770286560059e-01 6.427837163209915161e-02 2.504393458366394043e-01
-7.559161186218261719e-01 -2.728904783725738525e-01 -2.587929964065551758e-01
-5.542618036270141602e-01 -2.138323783874511719e-01 2.919473946094512939e-01
-8.726365566253662109e-01 -2.244241237640380859e-01 1.057256460189819336e-01
-4.054470658302307129e-01 -2.778724431991577148e-01 -5.215145647525787354e-04
-7.575306892395019531e-01 -1.030979156494140625e-01 3.002758920192718506e-01
-5.374248027801513672e-01 1.298287212848663330e-01 -1.105102449655532837e-01
-7.008028626441955566e-01 -8.611625432968139648e-02 3.288632333278656006e-01
-6.031031012535095215e-01 8.675361424684524536e-02 -2.496969103813171387e-01
-8.830164074897766113e-01 -1.088000163435935974e-01 1.564461290836334229e-01
-8.008882999420166016e-01 2.637767046689987183e-02 1.430989950895309448e-01
-5.023812055587768555e-01 -3.640949726104736328e-04 3.156751394271850586e-01
-6.646904945373535156e-01 2.086495608091354370e-02 -3.356716036796569824e-01
-4.380092620849609375e-01 1.201392188668251038e-01 6.816382706165313721e-02
-2.741274237632751465e-01 3.137292712926864624e-02 3.070427849888801575e-02
-6.337084174156188965e-01 -2.525486946105957031e-01 2.519752383232116699e-01
-5.786844491958618164e-01 -3.248855471611022949e-01 4.771314188838005066e-02
-6.173409223556518555e-01 1.281627416610717773e-01 -7.960392162203788757e-03
-6.737031340599060059e-01 1.128835603594779968e-01 -7.515835762023925781e-02
-8.527126312255859375e-01 -1.196302399039268494e-01 2.087893187999725342e-01
-7.568203210830688477e-01 -3.160728812217712402e-01 2.118682861328125000e-02
-5.127177238464355469e-01 1.006813421845436096e-01 -2.260456532239913940e-01
-8.633460402488708496e-01 -2.582443654537200928e-01 -1.206522434949874878e-01
-7.574167251586914062e-01 -1.302962005138397217e-01 -3.687516748905181885e-01
-3.535399436950683594e-01 4.084817320108413696e-02 -2.441075742244720459e-01
-8.093821406364440918e-01 -1.648634374141693115e-01 -3.214786648750305176e-01
-6.965861916542053223e-01 1.794757694005966187e-02 -3.220505118370056152e-01
-3.742517530918121338e-01 7.685659080743789673e-02 -1.980118751525878906e-01
-2.927222549915313721e-01 5.781032890081405640e-02 -2.112997695803642273e-02
-4.960028529167175293e-01 -2.397834062576293945e-01 -3.225413262844085693e-01
-6.599344611167907715e-01 7.474032789468765259e-02 1.999774724245071411e-01
-4.043706059455871582e-01 -1.267216056585311890e-01 -3.588827848434448242e-01
-4.614779949188232422e-01 7.650017738342285156e-03 2.976103127002716064e-01
-4.772324562072753906e-01 -2.811792790889739990e-01 -2.255632281303405762e-01
-5.492139458656311035e-01 1.353152692317962646e-01 -4.419416934251785278e-02
-4.129157960414886475e-01 -2.188810408115386963e-01 2.044513225555419922e-01
-3.803035020828247070e-01 -2.106440812349319458e-02 2.674389183521270752e-01
-3.948231637477874756e-01 -1.609753221273422241e-01 2.553165256977081299e-01
-2.577597200870513916e-01 6.341271102428436279e-03 -8.510353416204452515e-02
-8.334244489669799805e-01 -5.936750769615173340e-02 2.123386412858963013e-01
-5.592907667160034180e-01 1.114106103777885437e-01 1.475942730903625488e-01
-7.018710970878601074e-01 -2.689008712768554688e-01 -2.973568737506866455e-01
-8.580141067504882812e-01 6.566770374774932861e-03 3.646616265177726746e-02
-2.789366841316223145e-01 -7.928594946861267090e-02 -2.168406844139099121e-01
-4.531142413616180420e-01 -1.950255632400512695e-01 2.682463526725769043e-01
-8.913937807083129883e-01 -1.957342773675918579e-01 1.045394390821456909e-01
-5.877830386161804199e-01 1.295470893383026123e-01 4.138946160674095154e-02
-8.507201075553894043e-01 -2.725917100906372070e-01 1.440359279513359070e-02
-3.780221343040466309e-01 -2.520774304866790771e-01 6.669832766056060791e-02
-4.627003967761993408e-01 1.157220676541328430e-01 -1.591369509696960449e-01
-4.452494680881500244e-01 -1.373092234134674072e-01 -3.811310827732086182e-01
-4.600154459476470947e-01 1.002322137355804443e-02 -3.532927334308624268e-01
-8.407877087593078613e-01 -2.729573547840118408e-01 -1.346102505922317505e-01
-6.812369227409362793e-01 -2.526440024375915527e-01 -3.283239305019378662e-01
-7.495869398117065430e-01 8.083837479352951050e-02 5.505274608731269836e-02
-8.581079840660095215e-01 -1.065521612763404846e-01 -2.645744681358337402e-01
-8.559101819992065430e-01 -4.653051495552062988e-03 -1.439310759305953979e-01
-4.825097322463989258e-01 1.336169242858886719e-01 -3.341361880302429199e-04
-7.705718874931335449e-01 -3.155888915061950684e-01 -2.674511261284351349e-02
-3.221348226070404053e-01 -2.208841890096664429e-01 2.541515976190567017e-03
-5.579587221145629883e-01 1.218128278851509094e-01 -1.516742259263992310e-01
-6.894493103027343750e-01 -1.396222710609436035e-01 -4.012351334095001221e-01
-6.329504847526550293e-01 4.365384578704833984e-03 3.090783059597015381e-01
-9.056296348571777344e-01 -2.155067771673202515e-01 2.730302512645721436e-03
-2.719182074069976807e-01 -9.971208870410919189e-02 1.209467053413391113e-01
-4.742216765880584717e-01 -1.327814012765884399e-01 3.226870894432067871e-01
-2.782866954803466797e-01 -1.476709246635437012e-01 -1.599781364202499390e-01
-8.213034868240356445e-01 -1.415393650531768799e-01 2.447924017906188965e-01
-4.145010113716125488e-01 -2.248271703720092773e-01 -2.811128497123718262e-01
-3.848075866699218750e-01 -2.606240510940551758e-01 -1.342086493968963623e-01
-5.726358890533447266e-01 7.925347238779067993e-02 2.253677845001220703e-01
-2.970002293586730957e-01 -1.963399946689605713e-01 -2.715628594160079956e-03
-5.755778551101684570e-01 1.287590265274047852e-01 -1.026951670646667480e-01
-6.127141714096069336e-01 -3.334698379039764404e-01 -5.074469372630119324e-03
-3.779396414756774902e-01 -2.055627107620239258e-01 1.847975701093673706e-01
-7.272641062736511230e-01 5.743891745805740356e-02 1.788163185119628906e-01
-7.741357088088989258e-01 5.337797105312347412e-03 -2.729620933532714844e-01
-2.447369992733001709e-01 -4.617682099342346191e-02 3.742541000247001648e-02
-3.847900629043579102e-01 1.030486747622489929e-01 7.416547834873199463e-02
-8.079731464385986328e-01 3.316535800695419312e-02 1.094009578227996826e-01
-4.336634874343872070e-01 5.530216544866561890e-02 -2.885566353797912598e-01
-7.059195637702941895e-01 9.052477031946182251e-02 1.054465770721435547e-01
-8.232618570327758789e-01 -2.132220864295959473e-01 1.991617232561111450e-01
-6.455853581428527832e-01 9.029880911111831665e-02 1.716364026069641113e-01
-6.120042204856872559e-01 1.259317100048065186e-01 -8.613528311252593994e-02
-3.776193857192993164e-01 9.041256457567214966e-02 1.127330809831619263e-01
-8.186489939689636230e-01 -2.704624831676483154e-01 1.072378158569335938e-01
-2.414623200893402100e-01 -9.466107189655303955e-02 -2.630205079913139343e-02
-4.596027731895446777e-01 -1.574466526508331299e-01 3.030429482460021973e-01
-7.058212161064147949e-01 -1.117245852947235107e-02 2.915573120117187500e-01
-9.050382375717163086e-01 -2.191641181707382202e-01 -6.041539087891578674e-02
-4.746474623680114746e-01 -7.967025041580200195e-03 -3.725556135177612305e-01
-8.600727319717407227e-01 -6.382231414318084717e-02 1.741579025983810425e-01
-3.910178542137145996e-01 -2.477654218673706055e-01 -1.995865851640701294e-01
-7.267004251480102539e-01 -1.894697248935699463e-01 -3.683525323867797852e-01
-6.228602528572082520e-01 3.559840470552444458e-02 2.802618741989135742e-01
-5.004917979240417480e-01 -1.483737975358963013e-01 -4.008911848068237305e-01
-8.162291049957275391e-01 -2.427777647972106934e-01 1.683382093906402588e-01
-6.328701376914978027e-01 2.116848528385162354e-02 -3.477349281311035156e-01
-4.800764620304107666e-01 1.002913340926170349e-01 -2.188397794961929321e-01
-8.116279840469360352e-01 4.554819315671920776e-02 4.236308857798576355e-02
-7.906224131584167480e-01 -2.031099349260330200e-01 -3.178651928901672363e-01
-9.046893119812011719e-01 -1.256840229034423828e-01 -1.755041331052780151e-01
-6.392910480499267578e-01 1.048144176602363586e-01 -1.752014011144638062e-01
-5.580242872238159180e-01 -3.049943447113037109e-01 -2.170702219009399414e-01
-8.295112848281860352e-01 -1.160323619842529297e-02 1.657018065452575684e-01
-3.665640354156494141e-01 -9.144990146160125732e-02 -3.355642259120941162e-01
-7.872265577316284180e-01 -3.538101166486740112e-02 -3.068567812442779541e-01
-8.266631364822387695e-01 -2.916055619716644287e-01 -5.292291566729545593e-02
-5.755870342254638672e-01 6.521903723478317261e-02 -2.997160255908966064e-01
-6.091547012329101562e-01 -1.247234120965003967e-01 3.488567769527435303e-01
-3.344330191612243652e-01 -5.311919748783111572e-02 -2.998297810554504395e-01
-6.583735942840576172e-01 5.051109939813613892e-02 2.457226216793060303e-01
-5.201127529144287109e-01 -3.028565347194671631e-01 1.048113852739334106e-01
-6.987911462783813477e-01 -1.836771368980407715e-01 -3.832693397998809814e-01
-3.383080363273620605e-01 -2.134241759777069092e-01 9.823814034461975098e-02
-6.471594572067260742e-01 -3.085055947303771973e-01 -2.246506065130233765e-01
-5.297097563743591309e-01 1.137799099087715149e-01 1.418373286724090576e-01
-3.626224994659423828e-01 9.854582697153091431e-02 4.475023970007896423e-02
-3.835044801235198975e-01 2.751905471086502075e-02 2.340698540210723877e-01
-4.715553820133209229e-01 -1.282777488231658936e-01 -3.965664505958557129e-01
-6.472752094268798828e-01 -2.999029755592346191e-01 1.587879359722137451e-01
-5.482849478721618652e-01 -2.744786739349365234e-01 -2.893300950527191162e-01
-6.109248995780944824e-01 -2.670826911926269531e-01 2.290152013301849365e-01
-4.410270452499389648e-01 -2.362444996833801270e-01 2.028490602970123291e-01
-8.825287818908691406e-01 -1.789208650588989258e-01 -2.145441323518753052e-01
-4.172480106353759766e-01 5.775407701730728149e-02 2.214427590370178223e-01
-4.832471907138824463e-01 -3.094162344932556152e-01 3.884125500917434692e-03
-4.904273152351379395e-01 1.045887246727943420e-01 1.630828231573104858e-01
-7.642269134521484375e-01 5.166079849004745483e-02 -1.916642487049102783e-01
-2.820461094379425049e-01 -1.796154975891113281e-01 -6.391323357820510864e-02
-5.724058151245117188e-01 -3.306324779987335205e-01 -2.139987796545028687e-02
-5.614945888519287109e-01 -3.294635415077209473e-01 -6.062126159667968750e-02
-4.270747601985931396e-01 1.220317259430885315e-01 3.517947718501091003e-02
-4.936009645462036133e-01 -3.140329420566558838e-01 -7.402028143405914307e-02
-7.167690992355346680e-01 7.658839970827102661e-02 -1.874259263277053833e-01
-8.293639421463012695e-01 -2.876601517200469971e-01 -9.057676792144775391e-02
-2.518787384033203125e-01 -9.613467752933502197e-02 5.767596140503883362e-02
-4.700327217578887939e-01 -9.553766995668411255e-02 3.305989205837249756e-01
-6.766763329505920410e-01 -1.185666918754577637e-01 3.379071652889251709e-01
-4.443717300891876221e-01 -2.603905200958251953e-01 -2.441553920507431030e-01
5.665399432182312012e-01 -2.903736233711242676e-01 2.940888516604900360e-02
4.726113975048065186e-01 -2.412603795528411865e-01 2.794216573238372803e-01
4.924656152725219727e-01 3.220796585083007812e-02 -9.113766998052597046e-02
6.234303116798400879e-01 -1.442267000675201416e-02 1.106129139661788940e-01
5.677366852760314941e-01 -2.313265204429626465e-02 2.303803861141204834e-01
7.003238201141357422e-01 -1.836568713188171387e-01 5.374479666352272034e-02
6.643951535224914551e-01 -4.413073509931564331e-02 8.748298883438110352e-02
4.857749938964843750e-01 -4.154651612043380737e-02 -3.191623091697692871e-01
4.480238556861877441e-01 -2.895612716674804688e-01 7.727795094251632690e-02
3.710718750953674316e-01 -2.524841129779815674e-01 1.386013180017471313e-01
6.418212652206420898e-01 -2.237462848424911499e-01 -2.038232833147048950e-01
5.498893260955810547e-01 -2.934488952159881592e-01 -3.161616250872612000e-02
6.127162575721740723e-01 -2.289409637451171875e-01 -2.392801940441131592e-01
4.142968058586120605e-01 -5.493259429931640625e-02 -2.999155819416046143e-01
5.151191949844360352e-01 9.112983942031860352e-03 1.801774352788925171e-01
6.268244981765747070e-01 -3.525702655315399170e-02 1.714485883712768555e-01
3.080076575279235840e-01 -1.837597638368606567e-01 -1.118603050708770752e-01
3.532544970512390137e-01 -2.521533071994781494e-01 2.646611770614981651e-03
5.281227231025695801e-01 3.144851326942443848e-02 3.161577880382537842e-02
4.452722370624542236e-01 1.964458823204040527e-02 1.328469216823577881e-01
3.449144363403320312e-01 -4.447454214096069336e-02 -1.867320835590362549e-01
2.866904437541961670e-01 -1.406500339508056641e-01 -7.387843728065490723e-02
4.799216091632843018e-01 -2.565804421901702881e-01 -2.317953705787658691e-01
3.347169458866119385e-01 -1.968082785606384277e-01 2.105815857648849487e-01
3.056579530239105225e-01 -2.037186175584793091e-01 -1.853812858462333679e-02
5.370867252349853516e-01 1.428005099296569824e-02 -1.794199496507644653e-01
3.293989896774291992e-01 -1.413307785987854004e-01 -2.187619507312774658e-01
2.932751774787902832e-01 -1.770292222499847412e-01 -4.537392407655715942e-02
4.657886624336242676e-01 2.540650963783264160e-02 -1.340653747320175171e-01
6.923702955245971680e-01 -1.792461723089218140e-01 -1.493437290191650391e-01
4.302556216716766357e-01 2.000948786735534668e-02 -1.292940080165863037e-01
5.651444196701049805e-01 -2.891544699668884277e-01 5.720299854874610901e-02
2.786326110363006592e-01 -1.209900826215744019e-01 4.857235588133335114e-03
6.148732304573059082e-01 -2.624687552452087402e-01 1.180337890982627869e-01
6.797026991844177246e-01 -2.048000693321228027e-01 -1.454302817583084106e-01
4.810577630996704102e-01 1.012898981571197510e-02 1.849043220281600952e-01
3.513703942298889160e-01 -1.937404274940490723e-03 3.434555837884545326e-03
4.128622710704803467e-01 -2.612543106079101562e-01 1.877864301204681396e-01
2.848867774009704590e-01 -1.136205866932868958e-01 1.044081673026084900e-01
6.674165725708007812e-01 -3.348242491483688354e-02 -3.350462391972541809e-02
4.813028275966644287e-01 -2.928484082221984863e-01 -7.043267041444778442e-02
5.060623884201049805e-01 -2.231885194778442383e-01 3.094216287136077881e-01
6.572844982147216797e-01 -2.152454257011413574e-01 -1.890050768852233887e-01
5.375888943672180176e-01 -7.421806454658508301e-02 -3.496356010437011719e-01
3.935808837413787842e-01 9.143576025962829590e-03 -1.206500232219696045e-01
5.472361445426940918e-01 2.683086693286895752e-02 4.544378444552421570e-02
3.644324541091918945e-01 -2.200157195329666138e-01 2.267824858427047729e-01
4.292451143264770508e-01 1.910746097564697266e-03 1.932382881641387939e-01
3.696565032005310059e-01 -1.435309648513793945e-02 -1.648140698671340942e-01
6.554877758026123047e-01 -1.445819884538650513e-01 2.307933866977691650e-01
3.918412327766418457e-01 -1.788259148597717285e-01 -2.914663553237915039e-01
5.642609000205993652e-01 -1.462034434080123901e-01 3.393647968769073486e-01
4.076598584651947021e-01 -2.333174347877502441e-01 -2.300160229206085205e-01
6.778391599655151367e-01 -1.068359464406967163e-01 1.672713309526443481e-01
6.132513880729675293e-01 4.750519990921020508e-03 -6.552296876907348633e-02
3.053086400032043457e-01 -4.485919326543807983e-02 4.402055405080318451e-03
6.395304203033447266e-01 -2.597051262855529785e-01 -4.511857032775878906e-02
3.798531293869018555e-01 -2.124788463115692139e-01 -2.330655008554458618e-01
2.840182185173034668e-01 -9.040082991123199463e-02 -1.831801980733871460e-02
3.707506358623504639e-01 9.237825870513916016e-03 -1.159640378318727016e-03
5.706338882446289062e-01 -1.886386871337890625e-01 -3.306375443935394287e-01
3.743681907653808594e-01 -1.787403374910354614e-01 -2.699255943298339844e-01
4.219770431518554688e-01 -2.796428799629211426e-01 -7.820121198892593384e-02
5.769386291503906250e-01 -2.768098711967468262e-01 -1.304261833429336548e-01
3.369074463844299316e-01 -4.094225168228149414e-02 1.744050830602645874e-01
6.536136865615844727e-01 -2.092791348695755005e-02 -1.540919113904237747e-02
5.861109495162963867e-01 -2.580384612083435059e-01 -1.961518824100494385e-01
3.131504654884338379e-01 -3.573544323444366455e-02 3.603228181600570679e-02
6.830306649208068848e-01 -9.844896197319030762e-02 -1.938773840665817261e-01
4.885066449642181396e-01 -2.453735768795013428e-01 -2.612605392932891846e-01
3.681232333183288574e-01 5.679413676261901855e-03 -5.257470905780792236e-02
4.535151124000549316e-01 3.012298047542572021e-02 -8.697079867124557495e-02
5.083706974983215332e-01 -2.713634371757507324e-01 -1.933197379112243652e-01
6.076766848564147949e-01 -6.694625318050384521e-02 2.593423426151275635e-01
3.229245543479919434e-01 -2.232466936111450195e-01 -3.564574569463729858e-02
4.339740872383117676e-01 -2.443524599075317383e-01 -2.327743023633956909e-01
5.820316672325134277e-01 1.444339752197265625e-02 -1.095077842473983765e-01
3.949978053569793701e-01 -2.711599469184875488e-01 -6.116237863898277283e-02
5.910237431526184082e-01 -2.401430457830429077e-01 2.285854518413543701e-01
7.134914994239807129e-01 -1.322095543146133423e-01 -1.778857037425041199e-02
5.816153883934020996e-01 -4.821066558361053467e-02 2.632237076759338379e-01
6.228774785995483398e-01 -2.337194979190826416e-01 -2.140814661979675293e-01
4.609701633453369141e-01 -2.763037085533142090e-01 1.772052496671676636e-01
6.066508293151855469e-01 -2.635843455791473389e-01 -1.439176499843597412e-01
4.021854698657989502e-01 -1.955412328243255615e-02 2.293747067451477051e-01
4.237924218177795410e-01 -2.852004468441009521e-01 -2.032161504030227661e-02
3.464262783527374268e-01 -2.335305958986282349e-01 1.450467705726623535e-01
5.664646625518798828e-01 -2.261022627353668213e-01 2.778494954109191895e-01
3.847783207893371582e-01 -1.831463575363159180e-01 3.045197427272796631e-01
3.764245510101318359e-01 -2.502810359001159668e-01 1.629446148872375488e-01
6.301202774047851562e-01 -5.577366054058074951e-02 2.085041254758834839e-01
7.025777697563171387e-01 -1.355887055397033691e-01 9.112869203090667725e-02
6.243683695793151855e-01 -2.655674815177917480e-01 -7.946458458900451660e-02
5.165489912033081055e-01 -2.700610756874084473e-01 2.070752680301666260e-01
6.159150004386901855e-01 3.003314137458801270e-03 1.994698680937290192e-02
5.294857025146484375e-01 -5.075508356094360352e-02 -3.290022909641265869e-01
6.877293586730957031e-01 -6.799878925085067749e-02 5.719408020377159119e-02
3.052173852920532227e-01 -8.221581578254699707e-02 -1.355730295181274414e-01
3.976497054100036621e-01 -8.958311378955841064e-02 -3.128192126750946045e-01
5.962028503417968750e-01 -2.771262526512145996e-01 -8.740316331386566162e-02
6.112236380577087402e-01 -3.987731784582138062e-02 2.104759663343429565e-01
5.640949606895446777e-01 -9.883514046669006348e-02 -3.542515337467193604e-01
5.009833574295043945e-01 -2.824983000755310059e-01 -1.470398604869842529e-01
6.021463274955749512e-01 1.126661896705627441e-02 -1.258066762238740921e-02
6.959525346755981445e-01 -1.986349821090698242e-01 -7.188523560762405396e-02
5.994809269905090332e-01 -1.748163402080535889e-01 -3.224133849143981934e-01
3.802078664302825928e-01 -2.439311891794204712e-01 -1.585444509983062744e-01
4.003005027770996094e-01 1.863144338130950928e-02 6.365975737571716309e-02
6.280148029327392578e-01 -2.754135429859161377e-02 1.469603031873703003e-01
4.340612292289733887e-01 -2.621724307537078857e-01 -1.825091838836669922e-01
3.656189441680908203e-01 -4.390329122543334961e-04 9.586740285158157349e-02
5.337366461753845215e-01 -2.442288994789123535e-01 -2.641388177871704102e-01
3.399774730205535889e-01 -2.398671507835388184e-01 -3.168844804167747498e-02
2.979591190814971924e-01 -6.454157084226608276e-02 8.788751065731048584e-02
6.603269577026367188e-01 -1.953959017992019653e-01 1.868127584457397461e-01
4.236998260021209717e-01 1.921659708023071289e-02 1.119206994771957397e-01
5.259432196617126465e-01 2.210812270641326904e-02 1.148706600069999695e-01
4.612673819065093994e-01 -7.395629584789276123e-02 3.387032151222229004e-01
6.704787611961364746e-01 -5.491178482770919800e-02 -1.543417125940322876e-01
5.582832694053649902e-01 -1.355543732643127441e-03 1.815422028303146362e-01
5.480893254280090332e-01 -2.623599171638488770e-01 2.146463096141815186e-01
4.675956964492797852e-01 -2.321156412363052368e-01 -2.801143825054168701e-01
6.079001426696777344e-01 -9.863200783729553223e-02 -3.232929706573486328e-01
7.066472172737121582e-01 -1.546676456928253174e-01 -1.086206212639808655e-01
3.776943981647491455e-01 1.201130449771881104e-02 -2.927847765386104584e-02
5.061079263687133789e-01 -2.964740693569183350e-01 -3.968580812215805054e-02
5.120914578437805176e-01 -2.931242585182189941e-01 9.307925403118133545e-02
3.558251857757568359e-01 -1.900287419557571411e-01 2.608117461204528809e-01
4.494307637214660645e-01 -2.870302796363830566e-01 1.050249040126800537e-01
5.577960610389709473e-01 2.689026296138763428e-02 -5.586338229477405548e-03
6.860305070877075195e-01 -6.984893977642059326e-02 -1.297664940357208252e-01
4.451342225074768066e-01 -2.912849187850952148e-01 -6.143476814031600952e-03
5.569355487823486328e-01 2.653264999389648438e-02 -5.446025729179382324e-02
4.384481310844421387e-01 -8.261419832706451416e-02 -3.402580022811889648e-01
5.442136526107788086e-01 3.008802235126495361e-02 -3.150181099772453308e-02
5.546312332153320312e-01 2.228952944278717041e-02 -1.126515492796897888e-01
5.139792561531066895e-01 -8.899986743927001953e-03 2.341977953910827637e-01
5.346314311027526855e-01 -2.911210954189300537e-01 -8.587139099836349487e-02
3.446918427944183350e-01 -1.460552066564559937e-01 2.754797637462615967e-01
7.022691965103149414e-01 -1.589296013116836548e-01 8.432103693485260010e-02
3.250104784965515137e-01 -2.469169348478317261e-02 5.364488437771797180e-02
6.025415658950805664e-01 -2.779067158699035645e-01 -5.389468371868133545e-02
2.949866354465484619e-01 -1.876883804798126221e-01 -1.257200376130640507e-03
6.419606208801269531e-01 -2.739185094833374023e-02 1.069949790835380554e-01
4.790360927581787109e-01 -2.718400359153747559e-01 2.020684778690338135e-01
5.826226472854614258e-01 1.902817189693450928e-02 -5.591041408479213715e-04
3.250159621238708496e-01 -6.243383139371871948e-02 -1.693521142005920410e-01
3.463457822799682617e-01 -2.433135658502578735e-01 9.011676162481307983e-02
5.748125314712524414e-01 -2.706995010375976562e-01 -1.625209152698516846e-01
4.404532313346862793e-01 1.244246959686279297e-02 -1.771430522203445435e-01
2.884134054183959961e-01 -8.267756551504135132e-02 -4.420974105596542358e-02
4.657550156116485596e-01 -1.387508958578109741e-02 -2.673708200454711914e-01
6.264632344245910645e-01 -9.828463196754455566e-03 -1.283101588487625122e-01
6.692771911621093750e-01 -3.708660602569580078e-02 1.270995289087295532e-02
5.553049445152282715e-01 -2.795350551605224609e-02 -2.850611805915832520e-01
5.132531523704528809e-01 1.611872017383575439e-02 1.535652875900268555e-01
6.538185477256774902e-01 -1.007401570677757263e-01 -2.637335360050201416e-01
5.868378281593322754e-01 -2.787634134292602539e-01 9.514943510293960571e-02
4.116215705871582031e-01 -3.776651620864868164e-02 -2.748214006423950195e-01
4.917620122432708740e-01 -1.514737010002136230e-01 -3.665493726730346680e-01
6.373178362846374512e-01 -7.876570522785186768e-02 -2.727456390857696533e-01
6.430810689926147461e-01 -2.503279447555541992e-01 8.664911985397338867e-02
5.864285230636596680e-01 1.075044274330139160e-02 7.919385284185409546e-02
5.827976465225219727e-01 -2.016221284866333008e-01 -3.099243342876434326e-01
3.585383296012878418e-01 -2.544792294502258301e-01 -2.304885908961296082e-02
4.439044594764709473e-01 3.155222535133361816e-02 -4.845622926950454712e-02
5.385077595710754395e-01 -2.916504740715026855e-01 8.506453782320022583e-02
3.625358641147613525e-01 -2.237342149019241333e-01 -1.790918558835983276e-01
6.796771287918090820e-01 -6.130129098892211914e-02 7.904263585805892944e-02
3.825809061527252197e-01 -1.067575514316558838e-01 -3.035090565681457520e-01
2.934478223323822021e-01 -1.685248315334320068e-01 1.150262728333473206e-01
4.733988344669342041e-01 -2.961278557777404785e-01 9.259587153792381287e-03
2.790338397026062012e-01 -1.286960691213607788e-01 4.625901579856872559e-02
5.612158775329589844e-01 -2.134433090686798096e-01 -3.073372840881347656e-01
5.193092823028564453e-01 1.179699599742889404e-02 -1.992385685443878174e-01
3.496254086494445801e-01 -7.649011909961700439e-02 2.580812871456146240e-01
3.939170837402343750e-01 -8.998267352581024170e-03 1.914573162794113159e-01
4.955275356769561768e-01 -2.131155878305435181e-02 2.668220102787017822e-01
4.356548786163330078e-01 -1.597705632448196411e-01 -3.418145477771759033e-01
6.901473402976989746e-01 -6.513592600822448730e-02 -7.945983856916427612e-02
3.751228153705596924e-01 -2.624273896217346191e-01 8.755111694335937500e-02
5.351032614707946777e-01 -1.800103634595870972e-01 3.429536521434783936e-01
3.964990079402923584e-01 -2.120172381401062012e-01 2.833119630813598633e-01
4.065536856651306152e-01 -1.684863567352294922e-01 3.331263065338134766e-01
4.300447702407836914e-01 -1.157787889242172241e-01 -3.467999100685119629e-01
3.800235092639923096e-01 -2.485770732164382935e-02 -2.121404409408569336e-01
5.214810967445373535e-01 -2.969880104064941406e-01 -1.873768307268619537e-02
5.001052021980285645e-01 -1.859497874975204468e-01 3.483105897903442383e-01
2.803048491477966309e-01 -1.248304322361946106e-01 -2.865115366876125336e-02
3.589974641799926758e-01 -7.743763923645019531e-02 -2.566754519939422607e-01
5.179489850997924805e-01 -1.536570936441421509e-01 -3.670041859149932861e-01
6.668912172317504883e-01 -2.130884230136871338e-01 -1.679595261812210083e-01
4.660241901874542236e-01 -8.014835417270660400e-02 -3.511985242366790771e-01
7.014965415000915527e-01 -9.637699276208877563e-02 5.357817187905311584e-02
7.100763320922851562e-01 -1.159200668334960938e-01 1.933327876031398773e-02
3.180003762245178223e-01 -1.274899393320083618e-01 2.277393937110900879e-01
6.106424331665039062e-01 -2.067817002534866333e-02 1.635255962610244751e-01
6.917871236801147461e-01 -8.897636830806732178e-02 9.404651075601577759e-02
4.502803385257720947e-01 7.272303104400634766e-03 -2.037270665168762207e-01
5.557018518447875977e-01 -7.463269680738449097e-02 3.167181611061096191e-01
5.087797641754150391e-01 3.165006637573242188e-04 2.112989276647567749e-01
3.776874542236328125e-01 -3.140031546354293823e-02 2.277495265007019043e-01
4.614915847778320312e-01 -5.654138326644897461e-02 -3.301874995231628418e-01
3.921448290348052979e-01 -2.223228812217712402e-01 2.620058059692382812e-01
5.697033405303955078e-01 8.978649973869323730e-03 -1.674169749021530151e-01
6.720478534698486328e-01 -2.264167368412017822e-01 -1.010625585913658142e-01
4.032966196537017822e-01 -2.768022418022155762e-01 7.379238307476043701e-02
5.705918073654174805e-01 -7.103738188743591309e-02 -3.329183161258697510e-01
3.199102878570556641e-01 -1.385327577590942383e-01 -1.979556381702423096e-01
5.732548832893371582e-01 -4.657208919525146484e-03 -2.147657573223114014e-01
3.866035342216491699e-01 -4.567398130893707275e-02 -2.592727839946746826e-01
6.843531131744384766e-01 -2.043067812919616699e-01 9.073469042778015137e-02
3.268597722053527832e-01 -2.305151522159576416e-01 3.463223204016685486e-02
3.331737220287322998e-01 -1.541043072938919067e-02 1.443459279835224152e-02
4.218438863754272461e-01 2.641668915748596191e-02 4.417974129319190979e-02
6.618040800094604492e-01 -1.331674307584762573e-01 -2.592850327491760254e-01
3.540301918983459473e-01 -2.009173482656478882e-02 -1.458197981119155884e-01
4.866466224193572998e-01 -2.890664041042327881e-01 -1.048882380127906799e-01
4.663515388965606689e-01 -2.971199899911880493e-02 -2.969229221343994141e-01
3.948621153831481934e-01 -1.444271951913833618e-01 3.329574465751647949e-01
6.742773652076721191e-01 -1.228368058800697327e-01 1.864647269248962402e-01
7.132138609886169434e-01 -1.316978484392166138e-01 -4.607949778437614441e-02
4.758989214897155762e-01 -3.043915331363677979e-02 2.849911451339721680e-01
5.514977574348449707e-01 -2.938953638076782227e-01 -4.864370916038751602e-03
6.083014607429504395e-01 -2.236734330654144287e-01 2.379552125930786133e-01
3.261820971965789795e-01 -9.214890003204345703e-02 -2.054809331893920898e-01
5.044366717338562012e-01 -1.890092790126800537e-01 -3.450279533863067627e-01
6.433282494544982910e-01 -1.911845505237579346e-01 -2.562447488307952881e-01
3.296386003494262695e-01 -1.571554988622665405e-01 2.439195513725280762e-01
5.581141710281372070e-01 8.443161845207214355e-03 1.453433781862258911e-01
5.749819278717041016e-01 -1.169618070125579834e-01 3.288840949535369873e-01
5.365977883338928223e-01 -1.896638423204421997e-02 2.462118566036224365e-01
4.958249926567077637e-01 -2.855393290519714355e-01 1.462855190038681030e-01
4.482549428939819336e-01 1.387044787406921387e-03 2.061894088983535767e-01
3.924630582332611084e-01 -2.433614581823348999e-01 2.156285792589187622e-01
3.208041787147521973e-01 -1.838690638542175293e-01 1.961135417222976685e-01
3.803302049636840820e-01 -6.643232703208923340e-02 -2.765566706657409668e-01
6.474005579948425293e-01 -5.765281617641448975e-02 1.764747351408004761e-01
4.852092564105987549e-01 -6.449558585882186890e-02 -3.442385792732238770e-01
6.992890238761901855e-01 -1.393757760524749756e-01 -1.558608710765838623e-01
5.095103979110717773e-01 -2.906609177589416504e-01 -9.977150708436965942e-02
6.269797086715698242e-01 -4.154011607170104980e-03 -8.126696944236755371e-02
3.287724256515502930e-01 -1.748291403055191040e-01 2.274820953607559204e-01
2.907170057296752930e-01 -1.784415394067764282e-01 5.066486075520515442e-02
3.135297298431396484e-01 -9.500828385353088379e-02 2.032246887683868408e-01
4.527997672557830811e-01 -2.900148630142211914e-01 -5.655329301953315735e-02
4.257348775863647461e-01 -2.672130465507507324e-01 -1.532316505908966064e-01
3.286153674125671387e-01 -2.155224978923797607e-01 1.480403989553451538e-01
2.867546081542968750e-01 -7.880545407533645630e-02 1.643650047481060028e-02
5.863162875175476074e-01 -1.438646316528320312e-01 3.226602375507354736e-01
4.911144375801086426e-01 -4.769146442413330078e-03 2.296012789011001587e-01
5.902755856513977051e-01 -2.167282700538635254e-01 2.700299620628356934e-01
5.838181972503662109e-01 -3.941297531127929688e-03 1.560091078281402588e-01
6.884958744049072266e-01 -2.146182060241699219e-01 -8.199960924685001373e-03
3.087287545204162598e-01 -1.963906586170196533e-01 1.240631565451622009e-01
3.447802066802978516e-01 -6.480550020933151245e-02 2.359279543161392212e-01
4.286885261535644531e-01 -2.709844112396240234e-01 1.697828024625778198e-01
5.621596574783325195e-01 -1.788409352302551270e-01 3.293527364730834961e-01
4.299107193946838379e-01 -1.542231440544128418e-02 -2.496688961982727051e-01
4.026479125022888184e-01 2.162660658359527588e-02 -4.021955281496047974e-02
5.694823861122131348e-01 1.920862495899200439e-02 6.123569980263710022e-02
6.681616306304931641e-01 -2.297163903713226318e-01 7.606585323810577393e-02
3.224393129348754883e-01 -3.132878243923187256e-02 8.579729497432708740e-02
3.286251723766326904e-01 -2.228957861661911011e-01 1.186049729585647583e-01
5.579130053520202637e-01 -2.729239165782928467e-01 1.708269268274307251e-01
5.810242891311645508e-01 -1.915426552295684814e-01 3.062179684638977051e-01
4.260559082031250000e-01 -1.584422141313552856e-01 3.491300344467163086e-01
4.649298787117004395e-01 -2.661427259445190430e-01 -1.961657553911209106e-01
4.733352661132812500e-01 2.137090265750885010e-02 1.369858086109161377e-01
4.886646866798400879e-01 -7.442928850650787354e-03 -2.587238252162933350e-01
3.596597313880920410e-01 -1.115722954273223877e-01 2.954199910163879395e-01
5.034055709838867188e-01 -6.970276683568954468e-02 3.340514898300170898e-01
6.001894474029541016e-01 -2.604175209999084473e-01 -1.688373088836669922e-01
4.049769639968872070e-01 -2.662547230720520020e-01 1.539323180913925171e-01
3.069026470184326172e-01 -1.766548156738281250e-01 1.629745513200759888e-01
4.280879795551300049e-01 -2.740242183208465576e-01 -1.257326751947402954e-01
4.244315922260284424e-01 -2.074470818042755127e-01 3.115141391754150391e-01
6.296904087066650391e-01 -1.216660887002944946e-01 -3.072605133056640625e-01
5.475734472274780273e-01 -2.515710294246673584e-01 -2.427857518196105957e-01
4.272867739200592041e-01 -1.114359721541404724e-01 3.504172563552856445e-01
3.722536563873291016e-01 -2.055338770151138306e-02 1.931025385856628418e-01
4.898321628570556641e-01 -1.038192734122276306e-01 3.591340482234954834e-01
4.219391047954559326e-01 -2.392948865890502930e-01 2.582263052463531494e-01
3.162378966808319092e-01 -1.608607470989227295e-01 -1.737259477376937866e-01
6.584520936012268066e-01 -8.549982309341430664e-02 1.946845352649688721e-01
3.473537862300872803e-01 -2.260811030864715576e-01 -1.346979737281799316e-01
6.473743915557861328e-01 -1.401606202125549316e-01 -2.831724584102630615e-01
6.454273462295532227e-01 -2.566744685173034668e-01 3.454260760918259621e-03
4.763529896736145020e-01 -2.920842766761779785e-01 9.411060810089111328e-02
2.822256982326507568e-01 -1.041106879711151123e-01 7.013472169637680054e-02
5.126961469650268555e-01 -2.003455162048339844e-02 -2.852798104286193848e-01
4.604708254337310791e-01 -4.059240967035293579e-02 2.996605038642883301e-01
4.580318629741668701e-01 -2.929299473762512207e-01 -2.868521399796009064e-02
6.986083388328552246e-01 -1.837608218193054199e-01 -1.079236939549446106e-01
4.655226171016693115e-01 3.504395484924316406e-02 -1.975238882005214691e-02
2.842446565628051758e-01 -1.623559445142745972e-01 9.191181510686874390e-03
6.333177685737609863e-01 -6.540492177009582520e-03 4.091592505574226379e-03
5.049152970314025879e-01 2.159146964550018311e-02 1.318095028400421143e-01
3.801039159297943115e-01 -8.857078850269317627e-03 1.699564754962921143e-01
4.836729764938354492e-01 -1.641521453857421875e-01 3.609490990638732910e-01
7.035330533981323242e-01 -1.865425258874893188e-01 1.741953892633318901e-03
6.219519376754760742e-01 -5.301937460899353027e-03 6.612474471330642700e-02
3.573674857616424561e-01 -2.023355364799499512e-01 -2.125207185745239258e-01
3.000420331954956055e-01 -1.217824369668960571e-01 -1.424957662820816040e-01
6.473641991615295410e-01 -1.193036660552024841e-01 2.421734184026718140e-01
6.678510904312133789e-01 -1.424062699079513550e-01 2.050264328718185425e-01
3.270429968833923340e-01 -9.301355481147766113e-02 2.330396026372909546e-01
4.200004339218139648e-01 -2.848811149597167969e-01 1.752703636884689331e-02
6.957861185073852539e-01 -1.427841633558273315e-01 1.220393106341362000e-01
5.260322690010070801e-01 -2.893923521041870117e-01 1.149735897779464722e-01
3.283807039260864258e-01 -6.657709926366806030e-02 2.055149525403976440e-01
7.093657255172729492e-01 -1.570901274681091309e-01 -8.276967704296112061e-02
4.491955041885375977e-01 -2.263034582138061523e-01 2.981929183006286621e-01
4.480758905410766602e-01 -1.245232373476028442e-01 3.608768880367279053e-01
4.939523339271545410e-01 -2.909743785858154297e-01 1.119000911712646484e-01
5.398524999618530273e-01 -2.562305331230163574e-01 2.363383322954177856e-01
3.994827866554260254e-01 -2.772206664085388184e-01 3.609137982130050659e-02
5.368057489395141602e-01 3.023235499858856201e-02 -6.535188853740692139e-02
4.696205258369445801e-01 2.040475606918334961e-02 -1.628891825675964355e-01
6.757020354270935059e-01 -1.037669032812118530e-01 -2.191850244998931885e-01
5.745232701301574707e-01 -1.162579655647277832e-02 1.938691288232803345e-01
6.300585269927978516e-01 -9.702008962631225586e-02 2.579580545425415039e-01
6.387746930122375488e-01 -1.023694127798080444e-01 -2.887620329856872559e-01
6.502657532691955566e-01 -2.411198019981384277e-01 -1.272104382514953613e-01
3.571327328681945801e-01 9.757131338119506836e-04 -2.707259543240070343e-02
4.252523481845855713e-01 -5.387476086616516113e-02 3.056703507900238037e-01
4.660787582397460938e-01 -2.468296587467193604e-01 -2.495414912700653076e-01
6.249506473541259766e-01 -4.455678164958953857e-02 -2.426500469446182251e-01
5.321522951126098633e-01 -2.178967744112014771e-01 3.092125654220581055e-01
4.202320575714111328e-01 -2.759000957012176514e-01 1.313291788101196289e-01
5.949079394340515137e-01 -6.126397103071212769e-02 -3.047431707382202148e-01
2.808453142642974854e-01 -1.027920693159103394e-01 4.552775993943214417e-02
5.507168173789978027e-01 -5.321802943944931030e-02 2.959901988506317139e-01
4.694165885448455811e-01 -2.106370329856872559e-01 3.250335454940795898e-01
5.569857358932495117e-01 -2.152897417545318604e-01 2.996017336845397949e-01
6.502398252487182617e-01 -4.367291182279586792e-02 1.361714154481887817e-01
5.370137691497802734e-01 -1.640443205833435059e-01 -3.599482476711273193e-01
6.643072366714477539e-01 -5.624311417341232300e-02 -1.794845908880233765e-01
7.084169387817382812e-01 -1.021028533577919006e-01 -9.117579087615013123e-03
5.623488426208496094e-01 5.096599459648132324e-03 -1.931416839361190796e-01
5.261204242706298828e-01 -9.300723671913146973e-02 -3.635276257991790771e-01
5.349898934364318848e-01 -2.960734963417053223e-01 2.074287459254264832e-02
4.057389497756958008e-01 -2.631886005401611328e-01 -1.368484944105148315e-01
4.162726998329162598e-01 2.086818218231201172e-02 -9.785898774862289429e-02
4.690747261047363281e-01 -2.556961178779602051e-01 2.469164580106735229e-01
5.674256086349487305e-01 -1.502022296190261841e-01 -3.552658259868621826e-01
5.457785129547119141e-01 -2.261182367801666260e-01 -2.945604622364044189e-01
6.581465005874633789e-01 -2.461769729852676392e-01 -4.574747383594512939e-02
4.655486643314361572e-01 -2.882124185562133789e-01 -9.310582280158996582e-02
5.438501238822937012e-01 -2.799273431301116943e-01 -1.491993069648742676e-01
5.889302492141723633e-01 -2.288267016410827637e-01 -2.647445499897003174e-01
6.676309704780578613e-01 -2.345594167709350586e-01 5.052757263183593750e-02
5.981860160827636719e-01 -3.032021969556808472e-02 -2.519094944000244141e-01
5.930711030960083008e-01 -2.142458409070968628e-01 -2.854735553264617920e-01
6.563036441802978516e-01 -2.783886343240737915e-02 -9.923645108938217163e-02
3.363782763481140137e-01 -9.478086233139038086e-02 -2.289832383394241333e-01
3.420573472976684570e-01 -2.959713339805603027e-02 1.553552746772766113e-01
4.932445287704467773e-01 7.191747426986694336e-03 -2.190670669078826904e-01
2.822489440441131592e-01 -1.301485002040863037e-01 8.764727413654327393e-02
4.777007102966308594e-01 2.659757435321807861e-02 1.079976782202720642e-01
6.396933794021606445e-01 -1.038502901792526245e-02 -4.516593366861343384e-02
4.459342658519744873e-01 2.377702295780181885e-02 1.095996797084808350e-01
5.911684036254882812e-01 3.288090229034423828e-04 -1.704568862915039062e-01
3.747246265411376953e-01 -4.840493202209472656e-04 1.237998083233833313e-01
6.482818126678466797e-01 -2.514324486255645752e-01 -7.306787371635437012e-02
5.367854833602905273e-01 -4.226773977279663086e-03 2.094359844923019409e-01
