2.780104577541351318e-01 -1.031276434659957886e-01 1.586630009114742279e-02
6.642161607742309570e-01 -1.527642160654067993e-01 -3.230556547641754150e-01
7.033985853195190430e-01 5.053628981113433838e-02 6.113649532198905945e-02
4.880130290985107422e-01 -1.943038702011108398e-01 -2.808532118797302246e-01
4.984521567821502686e-01 4.193075001239776611e-02 -9.685543924570083618e-02
3.977500796318054199e-01 -2.154498994350433350e-01 -1.797102391719818115e-01
6.762686371803283691e-01 2.126894891262054443e-02 -1.917779743671417236e-01
7.479498386383056641e-01 -1.038015931844711304e-01 -2.922334372997283936e-01
7.262419462203979492e-01 1.776576042175292969e-02 2.162058055400848389e-01
8.375819921493530273e-01 -2.136504054069519043e-01 4.011587426066398621e-02
3.897424936294555664e-01 -2.565844655036926270e-01 1.845722831785678864e-02
4.407524764537811279e-01 -9.406042098999023438e-02 3.628073930740356445e-01
5.926370620727539062e-01 -1.013153865933418274e-01 -3.426771461963653564e-01
7.572213411331176758e-01 -1.722795665264129639e-01 -2.569590508937835693e-01
5.278058648109436035e-01 -2.585268616676330566e-01 -1.776166260242462158e-01
7.069998383522033691e-01 -2.669022679328918457e-01 -8.264479041099548340e-02
4.558537602424621582e-01 5.407012999057769775e-03 2.514620721340179443e-01
3.647306859493255615e-01 -2.197759598493576050e-02 1.975941658020019531e-01
6.150059700012207031e-01 -2.895258367061614990e-01 8.807955682277679443e-02
5.910528302192687988e-01 4.943595826625823975e-02 -1.111893579363822937e-01
5.498600602149963379e-01 5.571427941322326660e-02 1.120776832103729248e-01
2.843841910362243652e-01 -8.242049068212509155e-02 6.882092356681823730e-02
5.663233995437622070e-01 -2.893009781837463379e-01 -3.829775005578994751e-02
7.902567386627197266e-01 -2.413053065538406372e-01 -3.260570019483566284e-02
7.721483707427978516e-01 -2.517181634902954102e-01 -1.497398316860198975e-02
6.819215416908264160e-01 -2.820000648498535156e-01 3.537672013044357300e-02
2.948247194290161133e-01 -1.764833927154541016e-01 -1.740660145878791809e-02
2.968204021453857422e-01 -8.040989190340042114e-02 -6.633912771940231323e-02
3.810639381408691406e-01 -2.510197162628173828e-01 -7.770873606204986572e-03
5.820175409317016602e-01 -2.852155864238739014e-01 1.439936161041259766e-01
4.243653416633605957e-01 -4.846416413784027100e-03 -1.773146986961364746e-01
4.172258675098419189e-01 -2.227883934974670410e-01 2.640229463577270508e-01
5.289003252983093262e-01 -1.838401108980178833e-01 3.750252127647399902e-01
7.664201855659484863e-01 -2.496003657579421997e-01 -5.879666656255722046e-02
4.500364363193511963e-01 -6.597758829593658447e-02 3.531217575073242188e-01
8.958946466445922852e-01 -9.958428144454956055e-02 1.949466392397880554e-02
3.736274838447570801e-01 -1.994092315435409546e-01 -1.768339276313781738e-01
6.131097674369812012e-01 -6.746418774127960205e-03 3.249210119247436523e-01
6.849197149276733398e-01 5.466875433921813965e-02 5.755184218287467957e-03
8.166886568069458008e-01 -1.321239769458770752e-02 1.678886711597442627e-01
3.262274265289306641e-01 -8.919078856706619263e-02 2.321265637874603271e-01
7.463251948356628418e-01 -2.548172473907470703e-01 -7.838464528322219849e-02
4.889986217021942139e-01 -2.840422987937927246e-01 -1.539713516831398010e-02
3.593521416187286377e-01 -9.126712381839752197e-02 2.861971259117126465e-01
8.882205486297607422e-01 -7.707558572292327881e-02 -2.896868437528610229e-02
4.602714776992797852e-01 -1.966715753078460693e-01 3.368023335933685303e-01
7.036013007164001465e-01 -2.178347706794738770e-01 2.978504896163940430e-01
4.670071005821228027e-01 -2.621229588985443115e-01 -1.265447735786437988e-01
2.800694406032562256e-01 -1.150555014610290527e-01 1.011802554130554199e-01
7.767110466957092285e-01 -1.300363242626190186e-01 -2.661507129669189453e-01
3.372914195060729980e-01 -1.004060134291648865e-01 2.583335041999816895e-01
7.510292530059814453e-01 -2.327924072742462158e-01 2.184134721755981445e-01
3.254272639751434326e-01 -2.457013726234436035e-02 4.369747266173362732e-02
5.341661572456359863e-01 -2.882727384567260742e-01 -3.252146393060684204e-02
6.455876231193542480e-01 -2.611480653285980225e-01 2.303138971328735352e-01
7.470802068710327148e-01 -2.439954131841659546e-01 1.877816915512084961e-01
4.922800660133361816e-01 -9.441186487674713135e-02 -3.206531405448913574e-01
2.995691597461700439e-01 -9.966695308685302734e-02 -9.805434197187423706e-02
4.002395570278167725e-01 -1.483937799930572510e-01 3.315817117691040039e-01
4.277760386466979980e-01 -2.109801173210144043e-01 2.950198650360107422e-01
7.592920064926147461e-01 -2.128793597221374512e-01 2.553021609783172607e-01
5.791871547698974609e-01 -1.382327228784561157e-01 4.046055078506469727e-01
7.896061539649963379e-01 -2.913258969783782959e-03 1.915529072284698486e-01
7.061854004859924316e-01 3.826673328876495361e-02 1.585278511047363281e-01
4.981671869754791260e-01 4.761417210102081299e-02 -5.867312848567962646e-02
5.344863533973693848e-01 -1.499295979738235474e-02 -2.703887820243835449e-01
2.907420694828033447e-01 -1.346234083175659180e-01 1.521370559930801392e-01
5.619712471961975098e-01 -2.131425738334655762e-01 -2.780553400516510010e-01
3.602292537689208984e-01 -2.730588614940643311e-02 -1.306788623332977295e-01
5.115268826484680176e-01 -2.038788199424743652e-01 3.500342965126037598e-01
6.728486418724060059e-01 5.156153440475463867e-02 1.153371855616569519e-01
5.282993912696838379e-01 -2.644175589084625244e-01 2.316506505012512207e-01
5.943621397018432617e-01 -7.369771599769592285e-03 -2.684695720672607422e-01
6.147500872611999512e-01 -2.867640852928161621e-01 -5.017709732055664062e-02
6.212047934532165527e-01 -1.245991662144660950e-01 -3.411529064178466797e-01
3.425585627555847168e-01 -2.049067616462707520e-02 -6.080768257379531860e-02
6.235814094543457031e-01 -2.487256228923797607e-01 -2.076812386512756348e-01
6.387501955032348633e-01 4.275746643543243408e-02 -1.355630755424499512e-01
5.314323306083679199e-01 4.241891205310821533e-02 1.833767592906951904e-01
5.518779754638671875e-01 4.052056372165679932e-02 2.011957466602325439e-01
6.850854158401489258e-01 -2.025579661130905151e-02 -2.689524590969085693e-01
4.673656523227691650e-01 1.903410255908966064e-02 -1.586185395717620850e-01
7.687637209892272949e-01 3.192402422428131104e-02 2.987290546298027039e-02
7.545369267463684082e-01 -2.601791024208068848e-01 4.131352528929710388e-03
3.442372679710388184e-01 -1.223366484045982361e-01 2.735120952129364014e-01
5.282267332077026367e-01 5.746358633041381836e-02 5.110934376716613770e-02
8.921096324920654297e-01 -1.343317180871963501e-01 5.406431108713150024e-02
7.064471840858459473e-01 -2.750836014747619629e-01 -9.475830942392349243e-03
7.486249804496765137e-01 -2.620207667350769043e-01 6.613394618034362793e-02
6.276570558547973633e-01 -2.753689289093017578e-01 -1.157432571053504944e-01
5.673611164093017578e-01 -3.307425975799560547e-02 -3.006486594676971436e-01
5.180990099906921387e-01 -2.889395356178283691e-01 7.544594258069992065e-02
2.914592325687408447e-01 -1.536209136247634888e-01 -5.677331238985061646e-02
7.016768455505371094e-01 -5.408684164285659790e-02 3.529580831527709961e-01
6.705322265625000000e-01 -2.737116813659667969e-01 1.576329469680786133e-01
4.097474813461303711e-01 -2.613702416419982910e-01 1.088359579443931580e-01
3.725698888301849365e-01 -4.264692217111587524e-02 -1.821751892566680908e-01
4.763497710227966309e-01 -2.834128141403198242e-01 1.967695727944374084e-02
4.037764668464660645e-01 -2.273406833410263062e-01 2.387328445911407471e-01
7.848898172378540039e-01 -1.955689042806625366e-01 -1.976079940795898438e-01
5.604720711708068848e-01 -2.858477234840393066e-01 -6.708624958992004395e-02
4.276206493377685547e-01 -2.681703567504882812e-01 -2.585891634225845337e-02
4.310806989669799805e-01 3.273051977157592773e-02 -2.399012818932533264e-02
7.217422723770141602e-01 -8.375026285648345947e-03 2.820459902286529541e-01
4.291980862617492676e-01 3.415159881114959717e-02 1.325314491987228394e-02
4.474412798881530762e-01 -2.755021154880523682e-01 -7.949024438858032227e-03
3.436710238456726074e-01 -1.574398279190063477e-01 2.600021958351135254e-01
7.470639944076538086e-01 3.852634131908416748e-02 6.532942503690719604e-02
6.354387998580932617e-01 4.268062114715576172e-02 1.918466985225677490e-01
6.793479919433593750e-01 -2.729301452636718750e-01 -8.624736964702606201e-02
8.770009279251098633e-01 -1.083137616515159607e-01 1.545832455158233643e-01
4.902894496917724609e-01 -3.115926682949066162e-02 3.395540714263916016e-01
7.410638928413391113e-01 -6.988793611526489258e-04 2.496828734874725342e-01
7.523595094680786133e-01 -1.179623827338218689e-01 3.441770672798156738e-01
5.959550738334655762e-01 -2.356383204460144043e-02 3.510112464427947998e-01
5.544665455818176270e-01 -2.801937162876129150e-01 -1.009922400116920471e-01
3.060875833034515381e-01 -1.931311786174774170e-01 9.704996645450592041e-02
5.546594858169555664e-01 5.344958603382110596e-02 -7.527710497379302979e-02
2.835769355297088623e-01 -1.063325703144073486e-01 -3.825804591178894043e-02
5.922921299934387207e-01 5.634194612503051758e-02 1.237505674362182617e-01
6.608352065086364746e-01 -2.677753567695617676e-01 1.956773996353149414e-01
3.636066019535064697e-01 -3.642985224723815918e-02 2.289217412471771240e-01
7.803475260734558105e-01 -8.172128349542617798e-02 -2.596946060657501221e-01
5.408121943473815918e-01 -2.459262460470199585e-01 -2.147076427936553955e-01
5.349664092063903809e-01 -2.206438183784484863e-01 -2.621101140975952148e-01
4.423170089721679688e-01 -9.726713597774505615e-02 -2.944726943969726562e-01
3.338462114334106445e-01 -1.897769272327423096e-01 -1.230475530028343201e-01
4.574282169342041016e-01 4.339703917503356934e-02 2.879915013909339905e-02
1.914270967245101929e-01 4.143895208835601807e-02 -1.794502735137939453e-01
6.953379511833190918e-02 -2.544040977954864502e-01 1.043887808918952942e-01
-1.631270498037338257e-01 -5.429685115814208984e-02 -2.833485007286071777e-01
-1.925342082977294922e-01 -2.283214405179023743e-02 1.093423590064048767e-01
-3.970707952976226807e-02 1.437346935272216797e-01 -9.610541164875030518e-02
-1.743533313274383545e-01 -1.826280951499938965e-01 1.239907667040824890e-01
-1.720453798770904541e-01 -2.272353321313858032e-01 1.098340749740600586e-02
-5.646339803934097290e-02 -2.569462656974792480e-01 1.464234590530395508e-01
7.388255745172500610e-02 -2.710145115852355957e-01 -1.457209885120391846e-01
1.974440217018127441e-01 -1.580725014209747314e-01 -1.087018549442291260e-01
-5.737992376089096069e-02 -2.899654209613800049e-01 -1.324581354856491089e-01
1.199328824877738953e-01 -2.242109477519989014e-01 -2.195922732353210449e-01
2.068794071674346924e-01 -1.128371953964233398e-01 5.332481861114501953e-02
1.429787576198577881e-01 -1.144776940345764160e-01 -3.263020515441894531e-01
-4.206618666648864746e-02 -2.025842815637588501e-01 2.433712780475616455e-01
3.129519522190093994e-02 -1.785583198070526123e-01 -3.716906011104583740e-01
4.250961542129516602e-02 1.315107345581054688e-01 -2.037401199340820312e-01
1.559768915176391602e-01 -2.141280025243759155e-01 -1.286026090383529663e-01
-8.517120964825153351e-03 -2.976886928081512451e-01 -6.322893500328063965e-02
2.494714409112930298e-02 5.933676660060882568e-02 2.599680125713348389e-01
9.123457968235015869e-02 -2.558603882789611816e-01 5.756074190139770508e-02
2.408203110098838806e-02 -1.972979158163070679e-01 -3.554432094097137451e-01
-1.938362866640090942e-01 -8.445093035697937012e-02 1.397554874420166016e-01
-1.408290416002273560e-01 -1.014272496104240417e-01 -3.263100981712341309e-01
2.108149230480194092e-01 -1.170782446861267090e-01 2.157229185104370117e-02
2.078791260719299316e-01 2.120517194271087646e-03 7.070112973451614380e-02
2.154886573553085327e-01 -1.159866601228713989e-01 -2.230827882885932922e-02
2.119398713111877441e-01 -5.556195229291915894e-02 7.660945504903793335e-02
4.324775189161300659e-02 -2.801183983683586121e-02 3.097679913043975830e-01
-4.639010131359100342e-02 -6.773242354393005371e-02 3.140898644924163818e-01
-3.079167939722537994e-02 -1.214244067668914795e-01 3.074499368667602539e-01
1.962690055370330811e-01 6.360247731208801270e-02 -4.038884490728378296e-02
-1.456212401390075684e-01 -2.282125800848007202e-01 1.040309295058250427e-01
5.928729474544525146e-02 -2.815115451812744141e-01 -1.073239371180534363e-01
5.304943025112152100e-02 1.867370307445526123e-02 2.866827249526977539e-01
-2.102315425872802734e-01 -1.664850711822509766e-01 -5.932071432471275330e-02
-1.844023317098617554e-01 -1.678670644760131836e-01 -2.069802582263946533e-01
1.773409247398376465e-01 -1.050581932067871094e-01 1.578487455844879150e-01
3.667648136615753174e-02 1.477565765380859375e-01 -1.372378766536712646e-01
-2.631286531686782837e-02 4.906521737575531006e-02 -3.458998203277587891e-01
1.681324541568756104e-01 -1.571582853794097900e-01 -2.405428886413574219e-01
2.124540507793426514e-01 -2.857619151473045349e-02 7.208919525146484375e-02
-6.562796980142593384e-02 -4.983323439955711365e-02 3.045903146266937256e-01
-1.534480601549148560e-01 -1.881982535123825073e-01 1.615102291107177734e-01
1.945068985223770142e-01 4.102078825235366821e-02 6.920199096202850342e-02
-1.594519168138504028e-01 -1.178003102540969849e-01 2.079838216304779053e-01
-1.007330790162086487e-01 1.144566088914871216e-01 -1.059096157550811768e-01
1.769839972257614136e-01 -1.799074560403823853e-01 -1.622695326805114746e-01
-1.942788064479827881e-01 -1.679960042238235474e-01 -1.728929281234741211e-01
1.222364604473114014e-01 1.030338704586029053e-01 1.240166500210762024e-01
-6.504447013139724731e-02 -1.857528984546661377e-01 2.537331581115722656e-01
-8.128861337900161743e-02 5.799901485443115234e-02 -2.958474755287170410e-01
1.240639686584472656e-01 -2.452280968427658081e-01 -1.127867549657821655e-01
-7.257712632417678833e-02 -2.916963398456573486e-01 -4.284050315618515015e-02
6.520218681544065475e-03 -1.071083173155784607e-01 -4.129304289817810059e-01
1.134324446320533752e-01 -1.231825500726699829e-01 2.478252649307250977e-01
-3.422842919826507568e-02 -1.651398837566375732e-02 -3.942010104656219482e-01
-1.565205603837966919e-01 -1.480872556567192078e-02 -2.706093192100524902e-01
1.524981111288070679e-01 -8.658915758132934570e-04 -3.093522489070892334e-01
2.704110927879810333e-03 1.495753526687622070e-01 4.673227667808532715e-02
9.340691566467285156e-02 1.222106218338012695e-01 1.139145269989967346e-01
1.381523460149765015e-01 -2.361928224563598633e-01 -4.606402665376663208e-02
1.118129491806030273e-01 -2.490720003843307495e-01 2.663301676511764526e-02
-4.459913820028305054e-02 1.198744326829910278e-01 1.324128508567810059e-01
1.868906766176223755e-01 -3.130850195884704590e-02 1.543690264225006104e-01
-7.710193842649459839e-02 9.763148427009582520e-02 1.538388431072235107e-01
6.185601651668548584e-02 1.133529394865036011e-01 -2.458422482013702393e-01
-1.267992109060287476e-01 -2.085490077733993530e-01 -2.730742692947387695e-01
1.793498694896697998e-01 2.254243195056915283e-02 1.413974463939666748e-01
1.511172652244567871e-01 -2.228552252054214478e-01 -2.443761005997657776e-02
1.097317487001419067e-01 3.210548311471939087e-02 2.404516935348510742e-01
1.247814372181892395e-01 -2.282600700855255127e-01 -1.955323219299316406e-01
-2.057091593742370605e-01 -1.609897464513778687e-01 -1.287107020616531372e-01
-1.939954161643981934e-01 -1.565831527113914490e-02 -1.674252301454544067e-01
6.679165363311767578e-02 -2.023476809263229370e-01 -3.282380402088165283e-01
8.927722275257110596e-02 1.358709037303924561e-01 6.827607750892639160e-02
-9.819763898849487305e-02 -2.794288992881774902e-01 -1.208709925413131714e-01
1.957536488771438599e-01 2.473942190408706665e-02 9.122630208730697632e-02
1.043452471494674683e-01 7.974641025066375732e-02 1.923508048057556152e-01
1.405839473009109497e-01 6.405963003635406494e-02 -2.603664994239807129e-01
-9.795582294464111328e-02 6.216689944267272949e-03 -3.368327319622039795e-01
-1.045629531145095825e-01 3.938599675893783569e-02 -2.943422794342041016e-01
-1.401083022356033325e-01 -2.591034770011901855e-01 -1.210261508822441101e-02
-1.677192933857440948e-02 -7.145021110773086548e-02 3.203195333480834961e-01
1.471550017595291138e-01 -8.900942653417587280e-02 -3.304902017116546631e-01
6.129036843776702881e-02 -2.793579101562500000e-01 8.616596460342407227e-04
-1.732255518436431885e-01 -1.365189254283905029e-01 -2.608276009559631348e-01
-8.362592756748199463e-02 1.274331063032150269e-01 -7.750763744115829468e-02
6.126057356595993042e-02 7.466195523738861084e-02 -3.160759806632995605e-01
1.579719632863998413e-01 9.851279854774475098e-02 -1.371912360191345215e-01
-1.935082376003265381e-01 -6.533248722553253174e-02 -2.154553830623626709e-01
1.328430604189634323e-02 -1.869187355041503906e-01 2.604522109031677246e-01
1.335636675357818604e-01 -1.713704615831375122e-01 -2.915771007537841797e-01
-1.551872342824935913e-01 -3.390881419181823730e-02 2.090498507022857666e-01
-1.998343169689178467e-01 -5.268668755888938904e-02 1.099582985043525696e-01
-8.328779041767120361e-02 -7.694685459136962891e-02 -3.850085139274597168e-01
1.458993405103683472e-01 3.386788815259933472e-02 1.948535442352294922e-01
-1.004706621170043945e-01 -2.732786834239959717e-01 -1.528541147708892822e-01
-4.663386195898056030e-02 -1.782658323645591736e-02 3.041466772556304932e-01
1.268429756164550781e-01 -8.208099007606506348e-02 -3.570751249790191650e-01
1.967775970697402954e-01 1.001430302858352661e-02 -2.072848379611968994e-01
-3.630273044109344482e-02 1.478687673807144165e-01 -4.318341240286827087e-02
-1.291212886571884155e-01 -1.427304446697235107e-01 -3.294354677200317383e-01
1.123759746551513672e-01 1.378581672906875610e-01 -3.490783646702766418e-02
-1.360791772603988647e-01 8.788834512233734131e-02 -1.022940054535865784e-01
-3.104978241026401520e-02 -2.863340079784393311e-01 -1.726431548595428467e-01
-1.587262898683547974e-01 -2.454252094030380249e-01 -6.122218817472457886e-02
-9.480859339237213135e-02 -2.571695148944854736e-01 -2.204998135566711426e-01
-2.262385748326778412e-02 -9.714887291193008423e-02 -4.119114577770233154e-01
-2.018660008907318115e-01 -4.980884492397308350e-03 2.470046281814575195e-02
-1.676530092954635620e-01 5.571597814559936523e-02 -8.792544901371002197e-02
1.259774267673492432e-01 1.271516084671020508e-01 1.928010582923889160e-02
1.587660014629364014e-01 -1.949645876884460449e-01 7.117187231779098511e-02
6.019184738397598267e-02 -1.364570856094360352e-01 2.828861176967620850e-01
-1.816569268703460693e-01 4.027284681797027588e-03 1.101381257176399231e-01
8.720836043357849121e-02 -1.328462064266204834e-01 2.666073143482208252e-01
2.022838443517684937e-01 5.283819139003753662e-02 -6.498488783836364746e-02
-5.752261728048324585e-02 -2.447480112314224243e-01 1.728633642196655273e-01
1.411352157592773438e-01 -2.202465236186981201e-01 -1.717840135097503662e-01
2.236004322767257690e-01 -6.524420529603958130e-02 -1.125052943825721741e-01
8.259361237287521362e-02 1.007882356643676758e-01 -2.604187726974487305e-01
-1.208517178893089294e-01 -2.687933444976806641e-01 1.147243753075599670e-02
-1.737610846757888794e-01 4.752548784017562866e-02 1.927497237920761108e-02
6.843318790197372437e-02 -2.662390768527984619e-01 6.254847347736358643e-02
2.058224976062774658e-01 -1.292049884796142578e-03 -1.870877444744110107e-01
-6.405229866504669189e-02 1.372462809085845947e-01 7.511749863624572754e-04
1.419840287417173386e-02 1.711007952690124512e-02 -3.831753134727478027e-01
1.489829421043395996e-01 -2.055953145027160645e-01 -1.939213573932647705e-01
-1.616159975528717041e-01 1.283494383096694946e-02 -2.279398143291473389e-01
6.507878005504608154e-02 -2.669134140014648438e-01 -1.862032413482666016e-01
6.888409703969955444e-02 -2.796163260936737061e-01 -6.248669326305389404e-02
1.727988198399543762e-02 -2.937534749507904053e-01 -9.375876188278198242e-02
-7.804376631975173950e-02 -4.830546677112579346e-03 2.812524437904357910e-01
9.814758598804473877e-02 -3.528974950313568115e-02 2.809680402278900146e-01
2.009025812149047852e-01 -2.390708401799201965e-02 -2.200443744659423828e-01
1.290297806262969971e-01 -3.502555564045906067e-02 -3.527377247810363770e-01
-9.643272310495376587e-02 1.219222247600555420e-01 -2.354904823005199432e-02
1.994440555572509766e-01 -1.074439436197280884e-01 -2.071020007133483887e-01
-1.792773455381393433e-01 -2.030688971281051636e-01 6.823954731225967407e-02
7.468964904546737671e-02 -2.692232728004455566e-01 3.311720490455627441e-02
-7.755262777209281921e-03 -2.546710669994354248e-01 1.594606041908264160e-01
-2.107030898332595825e-01 -9.720903635025024414e-02 -1.582526862621307373e-01
1.501237750053405762e-01 -2.352597564458847046e-02 -3.235841691493988037e-01
-1.598736494779586792e-01 -1.028754115104675293e-01 -2.966444790363311768e-01
8.936172723770141602e-02 -2.254171669483184814e-01 1.507921814918518066e-01
9.782581031322479248e-02 -2.340876907110214233e-01 -2.366648912429809570e-01
1.636239588260650635e-01 -1.181165874004364014e-01 1.773551106452941895e-01
6.268536299467086792e-02 1.489868462085723877e-01 -1.093337237834930420e-01
1.070191431790590286e-02 1.559070646762847900e-01 -2.277823537588119507e-02
8.739918470382690430e-03 1.372225582599639893e-01 -1.837107539176940918e-01
1.782784759998321533e-01 -5.118888616561889648e-02 -2.825739383697509766e-01
9.888543188571929932e-02 -1.747681349515914917e-01 -3.323735594749450684e-01
-1.300767958164215088e-01 -2.463124841451644897e-01 8.807726949453353882e-02
-1.632405072450637817e-01 5.712652206420898438e-02 4.423627257347106934e-02
-2.213200479745864868e-01 -9.272348880767822266e-02 -3.023594617843627930e-04
-3.776021301746368408e-02 -2.564092576503753662e-01 -2.651890218257904053e-01
2.072827666997909546e-01 1.955878734588623047e-02 4.965573549270629883e-02
-2.224063575267791748e-01 -9.871058911085128784e-02 -2.608819678425788879e-02
-1.408606022596359253e-02 -1.915103346109390259e-01 2.590174674987792969e-01
1.640493720769882202e-01 -9.482108801603317261e-02 -3.019638955593109131e-01
1.468736082315444946e-01 5.411900579929351807e-02 1.711062490940093994e-01
1.104968935251235962e-01 -2.560952901840209961e-01 -2.395956963300704956e-02
-1.087776273488998413e-01 4.734072834253311157e-02 2.037656903266906738e-01
-1.553527265787124634e-01 3.586588054895401001e-02 1.339484453201293945e-01
9.306577593088150024e-02 1.412612646818161011e-01 -1.088758781552314758e-01
-4.192570596933364868e-02 1.090273261070251465e-01 1.639768481254577637e-01
9.480769187211990356e-02 6.359894573688507080e-02 -3.116396069526672363e-01
-2.036811262369155884e-01 -1.809719949960708618e-01 -1.191257685422897339e-02
1.164946928620338440e-01 -1.564452052116394043e-01 -3.308491408824920654e-01
2.114457078278064728e-03 -9.932602941989898682e-02 3.164817690849304199e-01
-1.525470465421676636e-01 -1.851101368665695190e-01 -2.612588405609130859e-01
-1.294917911291122437e-01 -2.544425725936889648e-01 -1.637223362922668457e-01
7.682012766599655151e-02 -1.117858290672302246e-01 2.855820059776306152e-01
1.804755628108978271e-01 -1.112434267997741699e-01 -2.592805922031402588e-01
9.886681288480758667e-02 -1.509688347578048706e-01 -3.537024855613708496e-01
-1.289549022912979126e-01 -2.020350471138954163e-02 -3.197568356990814209e-01
-1.981321256607770920e-03 7.974213361740112305e-02 -3.137560486793518066e-01
4.819289594888687134e-02 -5.783552303910255432e-02 3.116436898708343506e-01
-1.481867209076881409e-02 -2.320723235607147217e-01 2.044616341590881348e-01
1.978237777948379517e-01 -1.510019153356552124e-01 1.707103103399276733e-02
-7.196358591318130493e-02 -3.705747425556182861e-03 -3.666910827159881592e-01
9.870421886444091797e-02 -2.602494359016418457e-01 8.326053619384765625e-03
-1.803487241268157959e-01 -1.437260955572128296e-02 1.390441060066223145e-01
-1.528107374906539917e-01 6.336423754692077637e-02 7.102498412132263184e-02
-1.483567357063293457e-01 7.124020159244537354e-02 -1.272146403789520264e-01
-1.372443735599517822e-01 9.187659621238708496e-02 -3.668435290455818176e-02
5.056097637861967087e-03 -1.406625211238861084e-01 -4.013343751430511475e-01
-1.032776162028312683e-01 -1.971410363912582397e-01 2.159481048583984375e-01
1.328633725643157959e-01 -2.201655507087707520e-01 7.781533151865005493e-02
-1.730543971061706543e-01 -3.974143415689468384e-02 -2.549273967742919922e-01
-7.755532115697860718e-02 1.108707785606384277e-01 1.159432604908943176e-01
3.452408313751220703e-02 -1.709790229797363281e-01 2.691261172294616699e-01
1.311009004712104797e-02 -1.551165580749511719e-01 2.882780730724334717e-01
-1.402635723352432251e-01 -1.037731766700744629e-02 -2.957184016704559326e-01
1.830310076475143433e-01 -1.447184085845947266e-01 9.905350953340530396e-02
1.275907903909683228e-01 -5.097717791795730591e-02 2.539376318454742432e-01
-1.278634518384933472e-01 2.676479518413543701e-02 2.024992406368255615e-01
-1.751405745744705200e-02 5.646264553070068359e-02 2.603231072425842285e-01
-2.096820473670959473e-01 -3.544332832098007202e-02 4.253738373517990112e-02
3.592175990343093872e-02 1.246432512998580933e-01 1.480718851089477539e-01
-2.880100533366203308e-02 -1.635844707489013672e-01 -3.854066133499145508e-01
3.436167538166046143e-02 -2.869140505790710449e-01 1.039195805788040161e-02
1.365766525268554688e-01 -7.243501394987106323e-02 2.410902380943298340e-01
1.337476670742034912e-01 -2.021214365959167480e-01 -2.418254315853118896e-01
-1.105370521545410156e-01 1.114143580198287964e-01 -7.361608743667602539e-02
-2.106598168611526489e-01 -8.995530009269714355e-02 7.856573909521102905e-02
6.582981441169977188e-03 -2.929822206497192383e-01 -1.222114488482475281e-01
1.778413504362106323e-01 3.068628162145614624e-02 -2.353269159793853760e-01
-1.998783946037292480e-01 -1.908935010433197021e-01 -3.493238985538482666e-02
-3.085638396441936493e-02 1.483869701623916626e-01 -6.928840279579162598e-02
-2.192809730768203735e-01 -1.131968051195144653e-01 -9.551294147968292236e-02
2.251933962106704712e-01 -2.366373687982559204e-02 -2.904520183801651001e-02
-9.495948255062103271e-02 -1.068147718906402588e-01 -3.749167323112487793e-01
-6.039936095476150513e-02 -2.305053472518920898e-01 -3.039656877517700195e-01
-5.906244367361068726e-02 1.390576809644699097e-01 -7.229149341583251953e-02
-2.154767364263534546e-01 -3.884297609329223633e-02 -5.886529013514518738e-02
7.404854893684387207e-02 8.918610215187072754e-02 2.031376659870147705e-01
-1.867818236351013184e-01 3.177370876073837280e-02 -3.402901068329811096e-02
4.887668415904045105e-03 -2.846791148185729980e-01 5.912208557128906250e-02
2.282539010047912598e-02 -8.066929876804351807e-03 -3.984308540821075439e-01
1.078058704733848572e-01 8.474811911582946777e-02 -2.682821452617645264e-01
3.056743927299976349e-02 7.161207497119903564e-02 -3.276181519031524658e-01
-9.766057133674621582e-02 3.007753938436508179e-02 2.374728620052337646e-01
-2.223480939865112305e-01 -8.749990165233612061e-02 -5.257685109972953796e-02
-2.605875954031944275e-02 9.502398967742919922e-02 -2.785465717315673828e-01
-9.529151767492294312e-02 -2.754999995231628418e-01 4.484005272388458252e-02
-1.837323457002639771e-01 -4.897688329219818115e-02 1.570003926753997803e-01
1.451811790466308594e-01 -2.443991601467132568e-03 2.208370268344879150e-01
1.363893598318099976e-01 -2.325607836246490479e-01 1.031265035271644592e-02
-1.393093317747116089e-01 -1.731716692447662354e-01 2.012328803539276123e-01
1.717945039272308350e-01 9.491494297981262207e-02 -6.653664261102676392e-02
1.170255169272422791e-01 -1.439601480960845947e-01 2.285932004451751709e-01
1.956661343574523926e-01 -1.407759189605712891e-01 5.695983022451400757e-02
8.168308436870574951e-02 -2.389070242643356323e-01 1.303310394287109375e-01
2.102659940719604492e-01 -7.568744570016860962e-02 -1.884303987026214600e-01
1.886931955814361572e-01 5.889363586902618408e-02 5.224916338920593262e-02
2.132548987865447998e-01 -4.636685922741889954e-02 -1.813949048519134521e-01
-1.579887270927429199e-01 -2.257287353277206421e-01 7.825247198343276978e-02
-1.507810950279235840e-01 -2.474547475576400757e-01 1.602666079998016357e-02
-2.017904072999954224e-02 1.351083070039749146e-01 1.027501150965690613e-01
1.144945323467254639e-01 -8.651692420244216919e-03 2.595265507698059082e-01
1.578268408775329590e-01 4.383351653814315796e-02 -2.601479887962341309e-01
5.160151422023773193e-02 1.312860995531082153e-01 1.229780539870262146e-01
-2.470193617045879364e-02 1.802889257669448853e-02 -3.757138550281524658e-01
-1.959954947233200073e-01 -4.103928059339523315e-02 -1.909392774105072021e-01
-8.995428681373596191e-02 -2.237767726182937622e-01 -2.932101488113403320e-01
1.500378400087356567e-01 3.106888383626937866e-02 -2.875090837478637695e-01
7.183209806680679321e-02 -2.574512958526611328e-01 -2.106155455112457275e-01
-1.291829645633697510e-01 -7.309727370738983154e-03 2.322423458099365234e-01
1.433089971542358398e-01 9.825798869132995605e-02 -1.828171610832214355e-01
1.022716537117958069e-01 -1.176103577017784119e-02 -3.687868118286132812e-01
-7.859961688518524170e-02 7.296000421047210693e-02 -2.748281061649322510e-01
8.681777119636535645e-02 9.728457033634185791e-02 1.795894503593444824e-01
-7.886492460966110229e-02 -2.566320896148681641e-01 -2.396638095378875732e-01
-4.114548861980438232e-02 1.289117336273193359e-01 -1.765882968902587891e-01
-2.085944414138793945e-01 -1.343146264553070068e-01 -1.510055512189865112e-01
6.489003449678421021e-02 1.421554535627365112e-01 -1.492640376091003418e-01
1.361591517925262451e-01 1.479934155941009521e-02 -3.204637467861175537e-01
-8.795876055955886841e-04 9.493394196033477783e-02 -2.888578772544860840e-01
-1.035666093230247498e-01 -4.058876633644104004e-02 -3.596560955047607422e-01
-2.148827910423278809e-01 -4.442558065056800842e-02 1.499050483107566833e-02
1.676314175128936768e-01 -2.034696042537689209e-01 -1.091567277908325195e-01
1.343308016657829285e-02 -2.149009257555007935e-01 -3.369338214397430420e-01
-4.967429488897323608e-02 2.219298481941223145e-02 2.799858748912811279e-01
-1.808773130178451538e-01 3.197742998600006104e-02 4.381816089153289795e-02
6.337241083383560181e-02 1.439884006977081299e-01 6.326963752508163452e-02
-9.231493622064590454e-02 -2.695120871067047119e-01 7.686225324869155884e-02
-2.024473436176776886e-02 -2.933470308780670166e-01 -1.327298730611801147e-01
-1.743248403072357178e-01 1.752340048551559448e-02 -1.830756068229675293e-01
2.242609262466430664e-01 -6.094112619757652283e-02 -3.756318241357803345e-03
1.011099219322204590e-01 -2.598447799682617188e-01 -1.222735568881034851e-01
8.976535499095916748e-02 -6.660714745521545410e-03 2.795083224773406982e-01
1.799245178699493408e-01 6.542886793613433838e-02 -1.669412255287170410e-01
-5.509126931428909302e-02 4.459941387176513672e-02 2.570454478263854980e-01
7.761560846120119095e-03 3.584197163581848145e-02 2.830111980438232422e-01
7.775744795799255371e-02 -1.658195853233337402e-01 2.481563091278076172e-01
9.980831295251846313e-02 -7.376091927289962769e-02 2.794882655143737793e-01
1.293194144964218140e-01 1.122181862592697144e-01 8.295693248510360718e-02
3.048557974398136139e-02 -1.579484343528747559e-01 -3.877311348915100098e-01
9.355676174163818359e-02 5.458974838256835938e-02 2.340189814567565918e-01
1.743980497121810913e-01 -1.713611036539077759e-01 -1.960297524929046631e-01
-1.004682853817939758e-01 -2.661793828010559082e-01 -1.834371387958526611e-01
1.353691071271896362e-01 -1.583824157714843750e-01 1.887769699096679688e-01
-1.733479052782058716e-01 -2.215948402881622314e-01 -1.284233927726745605e-01
8.225812762975692749e-02 4.206424206495285034e-02 -3.442020118236541748e-01
3.312563896179199219e-02 -7.938511669635772705e-02 3.151698112487792969e-01
-1.707451045513153076e-01 -3.095899522304534912e-02 1.771467030048370361e-01
-1.242343857884407043e-01 -2.404179573059082031e-01 -2.180558443069458008e-01
-1.184044331312179565e-01 4.190126061439514160e-02 -2.711448073387145996e-01
2.066327035427093506e-01 -1.417692750692367554e-01 -3.350833803415298462e-02
1.931390464305877686e-01 -1.672772169113159180e-01 -1.989214122295379639e-02
-1.862032860517501831e-01 -1.583621501922607422e-01 1.236320361495018005e-01
5.377177149057388306e-02 -1.633834987878799438e-01 -3.753212094306945801e-01
-1.393960267305374146e-01 -1.328800022602081299e-01 2.306996881961822510e-01
4.582622647285461426e-02 -2.875791788101196289e-01 -8.073706924915313721e-02
1.953664422035217285e-01 -4.782766103744506836e-02 1.340622603893280029e-01
3.779774159193038940e-02 1.386099755764007568e-01 1.034136340022087097e-01
-1.712611913681030273e-01 -7.243232429027557373e-02 1.922701299190521240e-01
2.193283140659332275e-01 -1.009684652090072632e-01 -9.736303240060806274e-02
-2.096613124012947083e-02 1.108997762203216553e-01 -2.476435601711273193e-01
-2.435248717665672302e-02 8.287201821804046631e-02 -3.009016215801239014e-01
-1.403077393770217896e-01 8.494094014167785645e-02 2.798478305339813232e-02
-1.695625483989715576e-01 -1.294955015182495117e-01 1.847586631774902344e-01
5.533896386623382568e-02 -1.900117695331573486e-01 -3.502699732780456543e-01
-1.350840777158737183e-01 -2.121383845806121826e-01 1.565996408462524414e-01
-1.638337224721908569e-02 1.250733286142349243e-01 -2.124928832054138184e-01
-1.756524294614791870e-02 1.197903901338577271e-01 1.532215774059295654e-01
3.438569605350494385e-02 1.458406150341033936e-01 7.291973382234573364e-02
-8.559816330671310425e-02 -2.415584921836853027e-01 -2.665036320686340332e-01
4.099958389997482300e-02 -1.935085058212280273e-01 2.428496778011322021e-01
1.313962638378143311e-01 1.146632879972457886e-01 -1.549557000398635864e-01
1.149793192744255066e-01 8.961430191993713379e-02 1.634915769100189209e-01
-2.771203592419624329e-02 8.940854668617248535e-02 2.119480371475219727e-01
2.828051894903182983e-02 1.551120281219482422e-01 4.284542053937911987e-03
7.451183348894119263e-02 -2.130226492881774902e-01 -3.067437410354614258e-01
-8.901725709438323975e-02 -1.473014056682586670e-01 2.708512842655181885e-01
2.010551840066909790e-01 -2.366305515170097351e-02 1.131072416901588440e-01
1.848012208938598633e-01 -1.723917871713638306e-01 2.541844546794891357e-02
9.358838200569152832e-03 -2.898629903793334961e-01 2.593009173870086670e-02
-2.048604339361190796e-01 -4.647451266646385193e-02 -1.600044965744018555e-01
-1.187425553798675537e-01 -2.444143593311309814e-02 2.550808489322662354e-01
-2.430022135376930237e-02 1.036369204521179199e-01 1.872115433216094971e-01
-1.434305310249328613e-01 -2.194534838199615479e-01 1.284221112728118896e-01
-1.616204530000686646e-01 6.619395315647125244e-02 -5.622974410653114319e-02
-2.106549441814422607e-01 -4.613680392503738403e-02 -1.279057711362838745e-01
1.161440741270780563e-02 1.509493291378021240e-01 -1.147498339414596558e-01
9.825747460126876831e-02 1.279145181179046631e-01 -1.697203516960144043e-01
1.716115623712539673e-01 -1.934227198362350464e-01 1.781238615512847900e-02
1.085591912269592285e-01 1.391122043132781982e-01 -6.385925412178039551e-02
-1.477994918823242188e-01 -1.476370245218276978e-01 2.103924453258514404e-01
-1.395707875490188599e-01 6.820334494113922119e-02 -1.718859970569610596e-01
-2.146551758050918579e-01 -1.522657573223114014e-01 -2.581701613962650299e-02
2.212441116571426392e-01 -9.806811064481735229e-02 -5.042617768049240112e-02
-2.025010585784912109e-01 -1.741981804370880127e-01 2.894864231348037720e-02
-1.541543453931808472e-01 5.104654282331466675e-02 1.040679290890693665e-01
-1.214784309267997742e-01 -2.643707990646362305e-01 3.734920918941497803e-02
-5.079921334981918335e-02 -1.567717194557189941e-01 2.834102213382720947e-01
8.479642868041992188e-02 -2.614282667636871338e-01 -1.693955361843109131e-01
8.101190626621246338e-02 1.149957478046417236e-01 1.470235884189605713e-01
2.315335348248481750e-02 1.270324587821960449e-01 -2.197335362434387207e-01
-2.053142040967941284e-01 -8.651153743267059326e-02 -1.811613440513610840e-01
-1.166232377290725708e-01 -5.398463085293769836e-02 2.672883868217468262e-01
6.986687332391738892e-02 8.741667866706848145e-02 -2.927679121494293213e-01
-1.164179593324661255e-01 -1.068156510591506958e-01 2.660733461380004883e-01
-7.246671244502067566e-03 -6.282478570938110352e-02 -4.144676625728607178e-01
-8.022134006023406982e-02 -2.553463578224182129e-01 1.343075931072235107e-01
-1.693307459354400635e-01 -2.340138405561447144e-01 -2.175185084342956543e-02
6.922779232263565063e-02 5.911426246166229248e-02 2.455704510211944580e-01
-5.203839391469955444e-02 -2.173381149768829346e-01 -3.268989324569702148e-01
2.216775901615619659e-02 1.547766625881195068e-01 -8.243036270141601562e-02
-6.841679662466049194e-02 1.120133846998214722e-01 -1.972695589065551758e-01
8.806603029370307922e-03 -1.162684336304664612e-02 3.109854161739349365e-01
-1.150410920381546021e-01 1.429792493581771851e-02 -3.096504807472229004e-01
1.154602766036987305e-01 3.390267491340637207e-02 -3.267383277416229248e-01
-1.566422916948795319e-02 -2.818897962570190430e-01 -1.939645409584045410e-01
-1.169514507055282593e-01 9.225469827651977539e-02 9.125741571187973022e-02
1.942651532590389252e-02 1.027914434671401978e-01 1.986474394798278809e-01
2.005944252014160156e-01 -9.825527667999267578e-02 9.706684201955795288e-02
-2.201145738363265991e-01 -1.274356245994567871e-01 -3.423026576638221741e-02
1.856994330883026123e-01 -8.152277022600173950e-02 1.514317691326141357e-01
3.279299661517143250e-02 3.957624733448028564e-02 2.774516344070434570e-01
1.938334107398986816e-01 -1.676512211561203003e-01 -8.550152182579040527e-02
8.291999995708465576e-02 -4.985085874795913696e-02 -3.929026126861572266e-01
1.389261186122894287e-01 -1.335375010967254639e-01 2.076325118541717529e-01
6.372476369142532349e-02 1.506436318159103394e-01 1.518663763999938965e-02
2.653895877301692963e-02 6.102018058300018311e-03 3.010990023612976074e-01
4.460632055997848511e-02 -1.127992123365402222e-01 3.023560047149658203e-01
-5.111728608608245850e-02 -2.215912938117980957e-01 2.154252231121063232e-01
1.442864388227462769e-01 -2.204073816537857056e-01 3.649971634149551392e-02
5.806855112314224243e-02 1.531020253896713257e-01 -7.244129478931427002e-02
2.107105106115341187e-01 -1.278950124979019165e-01 -1.066586524248123169e-01
1.126417368650436401e-01 -2.488049715757369995e-01 -1.471151262521743774e-01
-5.351606756448745728e-02 8.595404028892517090e-02 -2.763192653656005859e-01
-5.799111723899841309e-02 -1.894287765026092529e-01 -3.552390336990356445e-01
-1.101705506443977356e-01 6.136268377304077148e-02 1.801776587963104248e-01
1.493408232927322388e-01 -1.324198544025421143e-01 -3.050888776779174805e-01
2.048767507076263428e-01 4.458298534154891968e-02 -9.329755604267120361e-02
2.170079499483108521e-01 6.513833999633789062e-03 -1.140031889081001282e-01
-6.177677214145660400e-02 -2.817316949367523193e-01 -1.739207506179809570e-01
-2.951366640627384186e-02 6.478509306907653809e-02 -3.252315819263458252e-01
-1.201079934835433960e-01 6.643025577068328857e-02 1.536170840263366699e-01
-3.752753138542175293e-02 -1.826923489570617676e-01 2.656289637088775635e-01
-3.480141609907150269e-02 -7.068822532892227173e-02 -4.092838764190673828e-01
-2.301110327243804932e-02 2.078272402286529541e-03 3.020650744438171387e-01
-9.191288799047470093e-02 -2.853916883468627930e-01 -8.023183047771453857e-02
2.070522308349609375e-01 3.436703234910964966e-02 -1.170052140951156616e-01
-1.301266700029373169e-01 -1.787014603614807129e-01 -3.030437827110290527e-01
1.676284819841384888e-01 -4.591448232531547546e-02 1.961031854152679443e-01
-1.369924694299697876e-01 -9.993989765644073486e-02 2.450077235698699951e-01
-1.105595603585243225e-01 -8.382374793291091919e-02 2.751372158527374268e-01
7.343483716249465942e-02 -1.908819079399108887e-01 2.241725027561187744e-01
4.376000165939331055e-02 1.932078599929809570e-02 -3.785622417926788330e-01
-5.303383618593215942e-02 1.000662147998809814e-01 -2.478213906288146973e-01
-1.833035796880722046e-01 -1.222179830074310303e-01 1.589258909225463867e-01
-1.924162209033966064e-01 -1.247290074825286865e-01 1.338215172290802002e-01
9.524044394493103027e-02 -2.428163141012191772e-01 9.679148346185684204e-02
2.253555357456207275e-01 -6.618955731391906738e-02 -8.734261989593505859e-02
1.926869451999664307e-01 -4.074524343013763428e-02 -2.485269308090209961e-01
-1.291449368000030518e-01 -2.005661875009536743e-01 1.828844249248504639e-01
2.173383831977844238e-01 -7.837977260351181030e-02 3.777830302715301514e-02
-1.895010173320770264e-01 8.520439267158508301e-03 -1.392913162708282471e-01
1.389849185943603516e-01 1.225115656852722168e-01 -2.079871669411659241e-02
1.503173708915710449e-01 1.002423316240310669e-01 6.772425770759582520e-02
-1.030928865075111389e-01 -1.305558681488037109e-01 -3.619336485862731934e-01
5.962330102920532227e-02 1.107049882411956787e-01 1.719807982444763184e-01
1.282455399632453918e-02 1.314745694398880005e-01 1.298537552356719971e-01
-2.109593152999877930e-02 -2.965989708900451660e-01 -1.000213101506233215e-01
1.894386410713195801e-01 1.977543532848358154e-02 1.174700185656547546e-01
-6.281729787588119507e-02 -2.435997128486633301e-01 -2.799991965293884277e-01
-7.494838535785675049e-02 -2.067535072565078735e-01 2.249278426170349121e-01
7.548436522483825684e-02 -2.758186161518096924e-01 -2.859657816588878632e-02
1.649126857519149780e-01 5.168780684471130371e-03 1.851468086242675781e-01
2.067880630493164062e-01 -1.109382957220077515e-01 -1.724692285060882568e-01
-3.773453831672668457e-02 1.469833254814147949e-01 -9.408153593540191650e-03
-2.021460533142089844e-01 -1.290107369422912598e-01 -1.835553050041198730e-01
-4.494509100914001465e-02 1.299256086349487305e-01 9.687059372663497925e-02
5.370299518108367920e-02 5.328723043203353882e-02 -3.452357649803161621e-01
-7.694868370890617371e-03 -2.952411472797393799e-01 -4.936739802360534668e-03
1.840781122446060181e-01 7.743823528289794922e-02 -9.851965308189392090e-02
-4.648850113153457642e-02 -2.954521179199218750e-01 -2.039502747356891632e-02
-1.777619589120149612e-03 8.303260803222656250e-02 2.298896610736846924e-01
2.188094705343246460e-01 -1.841503381729125977e-02 -1.392706632614135742e-01
1.693242192268371582e-01 6.404154002666473389e-02 -2.029335498809814453e-01
-6.531383097171783447e-02 -8.323439955711364746e-02 3.059051632881164551e-01
-1.208029314875602722e-01 7.912412285804748535e-02 1.223334297537803650e-01
-1.836113929748535156e-01 -1.450162231922149658e-01 -2.309662699699401855e-01
3.586249798536300659e-02 -2.293330430984497070e-01 1.937274634838104248e-01
-7.143562287092208862e-02 -2.907536923885345459e-01 -9.517763555049896240e-02
2.094294875860214233e-01 -1.363445967435836792e-01 -6.502176076173782349e-02
2.242930829524993896e-01 -2.410658448934555054e-02 -9.598137438297271729e-02
1.842664629220962524e-01 -5.430571734905242920e-03 -2.540147900581359863e-01
1.904381662607192993e-01 6.197507679462432861e-02 -1.299736499786376953e-01
-1.583892703056335449e-01 -7.323086261749267578e-02 2.156582176685333252e-01
-1.736398190259933472e-01 3.439955413341522217e-02 -1.447556614875793457e-01
4.133134335279464722e-02 -1.183983236551284790e-01 -4.043379724025726318e-01
1.745611280202865601e-01 -6.589522957801818848e-02 1.811383664608001709e-01
1.652071774005889893e-01 3.940824419260025024e-02 1.548882424831390381e-01
-1.863240748643875122e-01 -3.948741778731346130e-02 -2.207536995410919189e-01
1.135959103703498840e-01 -1.228763461112976074e-01 -3.572488427162170410e-01
-4.770150780677795410e-02 -2.964361011981964111e-01 -6.177733093500137329e-02
6.019654870033264160e-02 -9.363735467195510864e-02 -4.037761390209197998e-01
8.350130915641784668e-02 -2.128591239452362061e-01 1.820280551910400391e-01
1.230981126427650452e-01 5.082994699478149414e-02 -3.010662794113159180e-01
1.871750503778457642e-01 3.583763539791107178e-02 -2.032780051231384277e-01
-2.015289813280105591e-01 -1.869439706206321716e-02 6.298415362834930420e-02
7.591740041971206665e-02 1.451351940631866455e-01 3.866835683584213257e-02
-1.031600013375282288e-01 -1.784783601760864258e-01 2.360858917236328125e-01
1.678936332464218140e-01 -1.691483706235885620e-01 1.028785035014152527e-01
9.997855871915817261e-03 5.357120186090469360e-02 -3.497062325477600098e-01
1.728208065032958984e-01 4.442608356475830078e-02 1.314826905727386475e-01
-1.646941006183624268e-01 -2.204550802707672119e-01 -1.690961122512817383e-01
-1.746930181980133057e-01 -6.876923143863677979e-03 -2.203093469142913818e-01
-5.719003081321716309e-02 1.330655962228775024e-01 -1.297920048236846924e-01
-1.967265456914901733e-01 -1.482975631952285767e-01 1.013653352856636047e-01
3.321467339992523193e-02 -2.837607264518737793e-01 -1.541738659143447876e-01
-2.202325910329818726e-01 -1.244353726506233215e-01 -6.160797551274299622e-02
1.368192285299301147e-01 -1.855017393827438354e-01 1.481825411319732666e-01
1.161904260516166687e-02 -2.580214142799377441e-01 -2.608790099620819092e-01
-2.144819498062133789e-01 -1.167593151330947876e-01 4.954833537340164185e-02
-1.651632040739059448e-01 -2.076368033885955811e-01 -1.984963119029998779e-01
-1.644500903785228729e-02 -1.816905438899993896e-01 -3.737488687038421631e-01
-7.577726989984512329e-02 -2.279348522424697876e-01 1.935185194015502930e-01
-1.964764595031738281e-01 -1.848242580890655518e-01 -1.269953399896621704e-01
1.857759207487106323e-01 -8.137772977352142334e-02 -2.623403072357177734e-01
-3.161744028329849243e-02 -2.891344130039215088e-01 4.324787855148315430e-02
1.466966867446899414e-01 -1.780813634395599365e-01 -2.582045495510101318e-01
-1.143938153982162476e-01 -2.009347826242446899e-01 -2.990364134311676025e-01
1.955514401197433472e-02 -2.632686495780944824e-01 1.279576718807220459e-01
2.185028344392776489e-01 -3.669612109661102295e-03 1.639192551374435425e-02
-4.629100859165191650e-02 -1.193485707044601440e-01 -4.006798565387725830e-01
-1.288482546806335449e-01 -2.682379484176635742e-01 -4.743611067533493042e-02
1.105429381132125854e-01 -2.045835554599761963e-01 1.606450974941253662e-01
2.146349996328353882e-01 2.512121200561523438e-02 -4.030353203415870667e-02
-4.894958436489105225e-02 -2.817172408103942871e-01 7.213385403156280518e-02
1.896368861198425293e-01 -4.461124539375305176e-03 1.368550658226013184e-01
-2.193849682807922363e-01 -6.923668831586837769e-02 8.685886859893798828e-03
1.376765817403793335e-01 -2.301779091358184814e-01 -1.404387950897216797e-01
1.292984485626220703e-01 -1.791663169860839844e-01 1.717712879180908203e-01
1.683351993560791016e-01 7.761225104331970215e-02 8.016694337129592896e-02
1.831819862127304077e-01 -1.375777274370193481e-01 -2.259643077850341797e-01
-2.148476243019104004e-01 -3.555528819561004639e-02 -2.107896655797958374e-02
-3.854011744260787964e-02 6.507717072963714600e-02 2.424423992633819580e-01
-2.147204726934432983e-01 -1.429440379142761230e-01 -9.609590470790863037e-02
-2.201934605836868286e-01 -7.094266265630722046e-02 -7.660794258117675781e-02
5.504576489329338074e-03 -2.717033624649047852e-01 -2.255488634109497070e-01
-1.830940693616867065e-01 -1.975965052843093872e-01 -1.601797342300415039e-01
9.341663122177124023e-02 -1.158600524067878723e-01 -3.781698048114776611e-01
-2.025233060121536255e-01 -6.620645523071289062e-03 -9.632743895053863525e-02
-1.301733255386352539e-01 -2.658389210700988770e-01 -9.142525494098663330e-02
-1.332464814186096191e-01 -5.544105172157287598e-02 -3.312222957611083984e-01
-1.418214142322540283e-01 -3.586956113576889038e-02 2.310302555561065674e-01
-2.020136415958404541e-01 -1.466322690248489380e-02 -1.241914033889770508e-01
-1.219099164009094238e-01 8.638413250446319580e-02 -1.663466989994049072e-01
-1.115383431315422058e-01 -2.776306271553039551e-01 -6.479101628065109253e-02
1.086394488811492920e-01 -2.584982514381408691e-01 -7.398024201393127441e-02
-1.980589628219604492e-01 9.565383195877075195e-03 -8.630558848381042480e-03
7.603251188993453979e-02 2.119892835617065430e-02 -3.655243217945098877e-01
-1.487061381340026855e-01 2.876348048448562622e-02 1.617479026317596436e-01
