3.176722228527069092e-01 -2.589069604873657227e-01 -1.080602407455444336e-03
3.072472512722015381e-01 -2.254747152328491211e-01 1.191402822732925415e-01
1.765818744897842407e-01 -2.319967001676559448e-01 3.469328284263610840e-01
2.510546147823333740e-01 -2.235958576202392578e-01 2.295998781919479370e-01
1.578677445650100708e-01 -2.248098999261856079e-01 7.936790585517883301e-02
7.948157191276550293e-02 -2.554851770401000977e-01 -3.291885256767272949e-01
2.746430933475494385e-01 -2.612592577934265137e-01 -3.027588725090026855e-01
2.568019032478332520e-01 -2.458179891109466553e-01 4.487078189849853516e-01
2.900796532630920410e-01 -2.248386442661285400e-01 -4.612735658884048462e-02
1.173196807503700256e-01 -2.578991055488586426e-01 3.741452842950820923e-02
2.876370549201965332e-01 -2.612944841384887695e-01 7.689438760280609131e-02
1.727624982595443726e-01 -2.650230824947357178e-01 -7.954707741737365723e-02
1.158693507313728333e-01 -2.595358490943908691e-01 -2.839586883783340454e-02
1.886523365974426270e-01 -2.653824985027313232e-01 -6.727377325296401978e-02
2.962376475334167480e-01 -2.256090342998504639e-01 2.356005758047103882e-01
2.991096675395965576e-01 -2.337624728679656982e-01 -3.115665614604949951e-01
2.046061754226684570e-01 -2.284996509552001953e-01 -3.737695217132568359e-01
1.198484972119331360e-01 -2.624176740646362305e-01 -2.166334986686706543e-01
1.227911189198493958e-01 -2.593393027782440186e-01 1.584269106388092041e-02
1.829456686973571777e-01 -2.248562276363372803e-01 1.961751133203506470e-01
3.504283726215362549e-01 -2.521768510341644287e-01 6.455075740814208984e-02
8.206430077552795410e-02 -2.354720830917358398e-01 -4.845204204320907593e-02
2.355179488658905029e-01 -2.315323650836944580e-01 -4.164261221885681152e-01
2.788405418395996094e-01 -2.233107686042785645e-01 5.335800349712371826e-02
2.286496609449386597e-01 -2.411506026983261108e-01 -5.498633980751037598e-01
2.054528146982192993e-01 -2.605036795139312744e-01 -4.906767010688781738e-01
1.321791410446166992e-01 -2.320277839899063110e-01 2.123994082212448120e-01
9.685315191745758057e-02 -2.528055310249328613e-01 5.660884082317352295e-02
2.435445785522460938e-01 -2.357196360826492310e-01 -4.737287759780883789e-01
1.790537387132644653e-01 -2.273179292678833008e-01 -3.352089524269104004e-01
3.239353895187377930e-01 -2.339287400245666504e-01 -2.125919312238693237e-01
2.298666983842849731e-01 -2.244806587696075439e-01 -2.125724554061889648e-01
2.169612050056457520e-01 -2.247048169374465942e-01 2.631226778030395508e-01
9.943965077400207520e-02 -2.307055145502090454e-01 -1.059470400214195251e-01
2.972534298896789551e-01 -2.607377767562866211e-01 5.840185284614562988e-02
3.074732124805450439e-01 -2.586047947406768799e-01 -2.202254682779312134e-01
2.700240015983581543e-01 -2.637853920459747314e-01 -1.392782032489776611e-01
2.145764678716659546e-01 -2.328638583421707153e-01 -4.642703533172607422e-01
1.958852410316467285e-01 -2.224862575531005859e-01 -6.305786967277526855e-02
2.290088385343551636e-01 -2.223863452672958374e-01 -7.371838390827178955e-02
2.602144479751586914e-01 -2.615486383438110352e-01 1.443279385566711426e-01
2.255638092756271362e-01 -2.515846788883209229e-01 -5.698894262313842773e-01
8.592127263545989990e-02 -2.354399263858795166e-01 -3.141754865646362305e-01
2.727335989475250244e-01 -2.385414391756057739e-01 -4.498159289360046387e-01
3.292194008827209473e-01 -2.292742431163787842e-01 -2.490076422691345215e-02
9.761332720518112183e-02 -2.353905588388442993e-01 -3.857235908508300781e-01
2.000569850206375122e-01 -2.303958088159561157e-01 -4.231424927711486816e-01
1.618659049272537231e-01 -2.605430781841278076e-01 -4.998191595077514648e-01
1.766936630010604858e-01 -2.588193714618682861e-01 1.943986266851425171e-01
1.607619076967239380e-01 -2.643926739692687988e-01 -3.490251898765563965e-01
1.863949447870254517e-01 -2.253208160400390625e-01 -2.610008120536804199e-01
1.220021992921829224e-01 -2.492305189371109009e-01 -5.794627070426940918e-01
3.654847741127014160e-01 -2.444141507148742676e-01 2.983646094799041748e-02
2.324504554271697998e-01 -2.282873392105102539e-01 3.718373179435729980e-01
2.560226023197174072e-01 -2.224482893943786621e-01 4.719495773315429688e-03
2.473030090332031250e-01 -2.565662264823913574e-01 -4.914277195930480957e-01
8.950955420732498169e-02 -2.388963699340820312e-01 -4.255519509315490723e-01
2.900488972663879395e-01 -2.350734323263168335e-01 -3.617610335350036621e-01
2.912732362747192383e-01 -2.593674361705780029e-01 -2.912369370460510254e-01
2.388014942407608032e-01 -2.643291652202606201e-01 2.416028827428817749e-02
2.824833393096923828e-01 -2.252701520919799805e-01 2.643777132034301758e-01
6.972925364971160889e-02 -2.529428005218505859e-01 -2.299292385578155518e-01
1.861818581819534302e-01 -2.275361716747283936e-01 2.906781435012817383e-01
2.736932635307312012e-01 -2.241481840610504150e-01 -8.420973271131515503e-02
8.175329864025115967e-02 -2.564583420753479004e-01 -2.121734470129013062e-01
1.598996520042419434e-01 -2.285875529050827026e-01 -3.585530519485473633e-01
1.749596893787384033e-01 -2.233259081840515137e-01 -9.024566411972045898e-02
2.822380661964416504e-01 -2.234802991151809692e-01 7.314449548721313477e-02
2.384954392910003662e-01 -2.647098004817962646e-01 -2.686906456947326660e-01
3.589471578598022461e-01 -2.359785884618759155e-01 1.692701131105422974e-01
1.311554610729217529e-01 -2.624301314353942871e-01 -8.872621506452560425e-02
1.644636392593383789e-01 -2.248372137546539307e-01 1.210440993309020996e-01
1.173987910151481628e-01 -2.388946712017059326e-01 2.261893004179000854e-01
1.224241778254508972e-01 -2.535531222820281982e-01 1.572560817003250122e-01
3.015587031841278076e-01 -2.281205058097839355e-01 3.189671039581298828e-01
3.412513136863708496e-01 -2.489307969808578491e-01 2.698366641998291016e-01
1.616553962230682373e-01 -2.651593387126922607e-01 -2.707119584083557129e-01
2.595159709453582764e-01 -2.575097680091857910e-01 -4.488928318023681641e-01
2.704860270023345947e-01 -2.590505182743072510e-01 -3.862813115119934082e-01
2.408193200826644897e-01 -2.619251310825347900e-01 -3.951480984687805176e-01
3.256578445434570312e-01 -2.500371932983398438e-01 3.138956427574157715e-01
2.499422729015350342e-01 -2.247328013181686401e-01 -1.906034797430038452e-01
1.540609896183013916e-01 -2.321638762950897217e-01 2.913516163825988770e-01
3.241943120956420898e-01 -2.284834980964660645e-01 2.291927486658096313e-01
1.224108561873435974e-01 -2.295671999454498291e-01 9.961867332458496094e-02
8.216649293899536133e-02 -2.368699312210083008e-01 -3.332937359809875488e-01
2.712869942188262939e-01 -2.601245939731597900e-01 1.833145767450332642e-01
2.076030671596527100e-01 -2.643083333969116211e-01 3.530047833919525146e-02
3.069435954093933105e-01 -2.556936144828796387e-01 -3.091704249382019043e-01
1.749247014522552490e-01 -2.346464544534683228e-01 -5.078393816947937012e-01
1.049729138612747192e-01 -2.298002243041992188e-01 -1.400269567966461182e-01
1.850508749485015869e-01 -2.523824870586395264e-01 3.295109868049621582e-01
3.236632347106933594e-01 -2.275711148977279663e-01 1.612128168344497681e-01
1.218398585915565491e-01 -2.371058315038681030e-01 -4.948634505271911621e-01
3.191491365432739258e-01 -2.488581836223602295e-01 3.510401844978332520e-01
3.033731579780578613e-01 -2.496862858533859253e-01 3.733512163162231445e-01
2.233861386775970459e-01 -2.534969449043273926e-01 3.546320796012878418e-01
2.691780328750610352e-01 -2.230893969535827637e-01 1.520448327064514160e-01
8.035367727279663086e-02 -2.559632062911987305e-01 -3.103740811347961426e-01
2.600236535072326660e-01 -2.262642979621887207e-01 3.291398286819458008e-01
1.916097700595855713e-01 -2.240080833435058594e-01 -1.960040926933288574e-01
1.936733722686767578e-01 -2.509278953075408936e-01 3.604115843772888184e-01
2.071691155433654785e-01 -2.655105590820312500e-01 -5.500737577676773071e-02
1.468461453914642334e-01 -2.627189755439758301e-01 -4.109613299369812012e-01
2.225270569324493408e-01 -2.551126480102539062e-01 3.270142078399658203e-01
2.114402353763580322e-01 -2.224956154823303223e-01 -9.268600493669509888e-02
1.150373816490173340e-01 -2.603566050529479980e-01 -7.252984493970870972e-02
2.585647404193878174e-01 -2.638878226280212402e-01 7.326990365982055664e-03
1.269593238830566406e-01 -2.585778832435607910e-01 5.959744751453399658e-02
3.391935825347900391e-01 -2.302552014589309692e-01 1.759065389633178711e-01
1.247131004929542542e-01 -2.434920817613601685e-01 2.575674653053283691e-01
3.011824190616607666e-01 -2.282695472240447998e-01 -1.642291992902755737e-01
1.528486013412475586e-01 -2.265848815441131592e-01 1.526087075471878052e-01
1.946838796138763428e-01 -2.601170837879180908e-01 -5.074515342712402344e-01
1.787944734096527100e-01 -2.262945026159286499e-01 -2.966615557670593262e-01
1.869465410709381104e-01 -2.246806919574737549e-01 -2.298109233379364014e-01
1.046541184186935425e-01 -2.314999997615814209e-01 3.897402435541152954e-02
1.432337164878845215e-01 -2.582359611988067627e-01 -5.302982330322265625e-01
1.311956942081451416e-01 -2.299785017967224121e-01 -3.451160788536071777e-01
9.760449826717376709e-02 -2.566385865211486816e-01 -3.537679836153984070e-02
1.322884112596511841e-01 -2.262937426567077637e-01 -5.687564983963966370e-02
1.913416832685470581e-01 -2.658661007881164551e-01 -2.534608244895935059e-01
1.763941496610641479e-01 -2.367033064365386963e-01 -5.382939577102661133e-01
1.013070791959762573e-01 -2.601612508296966553e-01 -2.253866642713546753e-01
1.039219051599502563e-01 -2.597457766532897949e-01 -3.605368137359619141e-01
3.224355578422546387e-01 -2.397893667221069336e-01 -3.021454513072967529e-01
1.960936039686203003e-01 -2.224883288145065308e-01 7.145588099956512451e-02
1.844153106212615967e-01 -2.313058972358703613e-01 -4.458175301551818848e-01
2.138748764991760254e-01 -2.262398153543472290e-01 3.076159358024597168e-01
2.757445275783538818e-01 -2.447842508554458618e-01 -4.812759757041931152e-01
2.647064030170440674e-01 -2.640506029129028320e-01 -1.655391454696655273e-01
2.326452881097793579e-01 -2.565249502658843994e-01 3.039150834083557129e-01
1.885210275650024414e-01 -2.566020190715789795e-01 2.641336321830749512e-01
1.799063086509704590e-01 -2.644892930984497070e-01 -3.686279058456420898e-01
2.790786027908325195e-01 -2.285183817148208618e-01 -2.540774941444396973e-01
3.150769472122192383e-01 -2.294510602951049805e-01 -1.367222964763641357e-01
2.230295091867446899e-01 -2.639298141002655029e-01 -3.590991497039794922e-01
3.573948144912719727e-01 -2.419424206018447876e-01 2.510867118835449219e-01
1.811606436967849731e-01 -2.228431850671768188e-01 8.461132645606994629e-03
3.546294867992401123e-01 -2.498594522476196289e-01 1.365878283977508545e-01
3.266386389732360840e-01 -2.297909557819366455e-01 -7.438065111637115479e-02
2.269675135612487793e-01 -2.618855237960815430e-01 1.535135805606842041e-01
2.998337447643280029e-01 -2.611178755760192871e-01 -1.091521233320236206e-01
2.637174725532531738e-01 -2.618181705474853516e-01 1.258008331060409546e-01
1.916511058807373047e-01 -2.634660899639129639e-01 6.143997609615325928e-02
3.126432895660400391e-01 -2.596769928932189941e-01 -4.249130561947822571e-02
2.569820582866668701e-01 -2.232790142297744751e-01 2.036175876855850220e-01
2.250344753265380859e-01 -2.218684256076812744e-01 3.953599929809570312e-02
2.236066609621047974e-01 -2.234735190868377686e-01 2.168671935796737671e-01
2.827658355236053467e-01 -2.618646025657653809e-01 -2.265857607126235962e-01
1.933042109012603760e-01 -2.561416625976562500e-01 -5.680767297744750977e-01
1.852704286575317383e-01 -2.542142868041992188e-01 3.025930523872375488e-01
3.622949719429016113e-01 -2.464292794466018677e-01 -1.529611647129058838e-02
2.851131558418273926e-01 -2.494863569736480713e-01 4.005177617073059082e-01
2.929512858390808105e-01 -2.539027333259582520e-01 3.195267915725708008e-01
1.375179439783096313e-01 -2.260580211877822876e-01 9.163580834865570068e-03
2.484244704246520996e-01 -2.307827174663543701e-01 -3.810217976570129395e-01
2.115154415369033813e-01 -2.587471008300781250e-01 -5.174674987792968750e-01
1.943448036909103394e-01 -2.278623729944229126e-01 3.151090741157531738e-01
8.914622664451599121e-02 -2.580731809139251709e-01 -2.891969680786132812e-01
2.834883630275726318e-01 -2.358132451772689819e-01 -3.909005522727966309e-01
2.847019433975219727e-01 -2.280386239290237427e-01 -2.212156653404235840e-01
1.575856804847717285e-01 -2.604257464408874512e-01 1.056814491748809814e-01
1.370685100555419922e-01 -2.512518763542175293e-01 2.387754768133163452e-01
2.550351619720458984e-01 -2.631832957267761230e-01 -2.999613881111145020e-01
1.086516976356506348e-01 -2.602027654647827148e-01 -1.149988174438476562e-01
1.942283213138580322e-01 -2.237864136695861816e-01 1.769516021013259888e-01
8.806791901588439941e-02 -2.567691504955291748e-01 -3.717129230499267578e-01
2.448477745056152344e-01 -2.583038806915283203e-01 -4.704309701919555664e-01
1.504166424274444580e-01 -2.280005216598510742e-01 1.926125138998031616e-01
2.375653088092803955e-01 -2.636895477771759033e-01 6.707113981246948242e-02
1.938552111387252808e-01 -2.223855257034301758e-01 2.755159884691238403e-02
2.302084863185882568e-01 -2.625204026699066162e-01 1.280464529991149902e-01
2.414454817771911621e-01 -2.606227695941925049e-01 1.961512118577957153e-01
2.523198127746582031e-01 -2.403955459594726562e-01 4.694523811340332031e-01
3.332504630088806152e-01 -2.543546557426452637e-01 -1.681751906871795654e-01
1.472360938787460327e-01 -2.303466796875000000e-01 -3.933928012847900391e-01
2.300855368375778198e-01 -2.608103156089782715e-01 -4.489658474922180176e-01
1.999243199825286865e-01 -2.251755595207214355e-01 2.517210841178894043e-01
1.356295645236968994e-01 -2.633732259273529053e-01 -1.354164332151412964e-01
8.494374155998229980e-02 -2.375365793704986572e-01 -3.721978664398193359e-01
2.041806578636169434e-01 -2.581624984741210938e-01 2.495523542165756226e-01
1.008730903267860413e-01 -2.322899699211120605e-01 -2.968354821205139160e-01
2.351776957511901855e-01 -2.227258682250976562e-01 -9.695297479629516602e-02
1.168306916952133179e-01 -2.568097412586212158e-01 -5.072904229164123535e-01
1.452957391738891602e-01 -2.560864388942718506e-01 1.835331469774246216e-01
1.431158632040023804e-01 -2.351491898298263550e-01 -4.956084489822387695e-01
2.531861662864685059e-01 -2.267622500658035278e-01 -2.641554474830627441e-01
1.130418032407760620e-01 -2.350246608257293701e-01 -4.343826174736022949e-01
2.172446399927139282e-01 -2.231949418783187866e-01 -1.512186229228973389e-01
2.608741819858551025e-01 -2.609095573425292969e-01 -3.686524033546447754e-01
2.089197337627410889e-01 -2.659725844860076904e-01 -2.211573123931884766e-01
1.013011708855628967e-01 -2.596976757049560547e-01 -3.368587493896484375e-01
8.265528082847595215e-02 -2.563579976558685303e-01 -1.784186065196990967e-01
2.014158666133880615e-01 -2.628365159034729004e-01 1.018481403589248657e-01
7.707752287387847900e-02 -2.358985543251037598e-01 -2.126411199569702148e-01
1.575246453285217285e-01 -2.391125559806823730e-01 -5.623027682304382324e-01
2.086589932441711426e-01 -2.386642843484878540e-01 -5.488274097442626953e-01
3.536146283149719238e-01 -2.449848204851150513e-01 -1.396305114030838013e-01
3.079024553298950195e-01 -2.333332002162933350e-01 4.008301496505737305e-01
2.222742587327957153e-01 -2.630925178527832031e-01 1.031412482261657715e-01
3.350039422512054443e-01 -2.451742440462112427e-01 -2.659759521484375000e-01
2.500878870487213135e-01 -2.486809045076370239e-01 4.245430231094360352e-01
2.533125877380371094e-01 -2.520962655544281006e-01 3.828871250152587891e-01
1.825922429561614990e-01 -2.640236914157867432e-01 -3.935233950614929199e-01
2.485434263944625854e-01 -2.234682440757751465e-01 -1.239970475435256958e-01
3.457546234130859375e-01 -2.399700731039047241e-01 -1.792140901088714600e-01
1.091971024870872498e-01 -2.292102277278900146e-01 -7.001305371522903442e-02
2.931353449821472168e-01 -2.618634998798370361e-01 -3.703613579273223877e-02
1.117235869169235229e-01 -2.599403858184814453e-01 -4.038978815078735352e-01
2.667819261550903320e-01 -2.230758070945739746e-01 -2.291444316506385803e-02
2.656376659870147705e-01 -2.625810205936431885e-01 8.032648265361785889e-02
2.730368971824645996e-01 -2.601547837257385254e-01 -3.478798270225524902e-01
3.123622238636016846e-01 -2.264573574066162109e-01 6.925821304321289062e-03
2.147119939327239990e-01 -2.219278514385223389e-01 2.173382043838500977e-02
1.322709023952484131e-01 -2.281514704227447510e-01 -2.708564400672912598e-01
1.709636449813842773e-01 -2.562968432903289795e-01 -5.728000998497009277e-01
1.590313017368316650e-01 -2.547710537910461426e-01 2.433371096849441528e-01
1.875154674053192139e-01 -2.654039561748504639e-01 -3.071124851703643799e-01
2.292951196432113647e-01 -2.228882163763046265e-01 -1.189635619521141052e-01
3.189508914947509766e-01 -2.524554133415222168e-01 2.884248495101928711e-01
1.202770471572875977e-01 -2.288461923599243164e-01 -2.450471073389053345e-01
1.967819482088088989e-01 -2.651530504226684570e-01 -3.263967633247375488e-01
1.491056382656097412e-01 -2.623625397682189941e-01 3.711566329002380371e-03
3.618380427360534668e-01 -2.449310272932052612e-01 -4.630438238382339478e-02
1.834643632173538208e-01 -2.659409046173095703e-01 -2.002834081649780273e-01
2.486768066883087158e-01 -2.223352193832397461e-01 -1.610604301095008850e-02
3.019865155220031738e-01 -2.255467921495437622e-01 1.988822966814041138e-01
1.651047617197036743e-01 -2.433840781450271606e-01 -5.994657278060913086e-01
1.079611703753471375e-01 -2.351114600896835327e-01 1.487639099359512329e-01
1.995966881513595581e-01 -2.623807787895202637e-01 -4.480096101760864258e-01
2.436793595552444458e-01 -2.240020930767059326e-01 -1.666675806045532227e-01
2.469101697206497192e-01 -2.601037025451660156e-01 -4.296677708625793457e-01
1.762790679931640625e-01 -2.409008443355560303e-01 -5.829947590827941895e-01
2.216092944145202637e-01 -2.226954698562622070e-01 1.651214361190795898e-01
1.568417549133300781e-01 -2.650876641273498535e-01 -2.322943806648254395e-01
2.580575346946716309e-01 -2.310067564249038696e-01 4.210419058799743652e-01
1.936482042074203491e-01 -2.633505165576934814e-01 -4.193564653396606445e-01
2.393544763326644897e-01 -2.254372835159301758e-01 -2.408271580934524536e-01
1.693609058856964111e-01 -2.624645829200744629e-01 -4.502520561218261719e-01
8.853048086166381836e-02 -2.328354567289352417e-01 -1.243365556001663208e-01
1.718560010194778442e-01 -2.236081957817077637e-01 6.274448335170745850e-02
7.853503525257110596e-02 -2.405435293912887573e-01 1.982330530881881714e-02
9.774441272020339966e-02 -2.557913064956665039e-01 -7.771655917167663574e-03
2.517577111721038818e-01 -2.222032696008682251e-01 3.983946889638900757e-02
1.203498989343643188e-01 -2.606904208660125732e-01 -5.473364889621734619e-02
1.734587997198104858e-01 -2.236850559711456299e-01 -1.293502748012542725e-01
2.127811908721923828e-01 -2.272190898656845093e-01 -3.319281935691833496e-01
3.579095900058746338e-01 -2.360376566648483276e-01 1.913685947656631470e-01
2.624018788337707520e-01 -2.633801102638244629e-01 -2.531936764717102051e-01
1.833788752555847168e-01 -2.640935480594635010e-01 1.450423151254653931e-02
2.919328212738037109e-01 -2.596843242645263672e-01 1.478647589683532715e-01
1.474993824958801270e-01 -2.253410518169403076e-01 -1.532418131828308105e-01
1.091751530766487122e-01 -2.611286342144012451e-01 -2.934589982032775879e-01
1.533375084400177002e-01 -2.292955666780471802e-01 2.377817481756210327e-01
2.394184321165084839e-01 -2.654063105583190918e-01 -1.621704846620559692e-01
2.082364708185195923e-01 -2.358048856258392334e-01 -5.152413845062255859e-01
1.040787622332572937e-01 -2.304504811763763428e-01 -2.567638829350471497e-02
1.926445066928863525e-01 -2.489534467458724976e-01 3.799282312393188477e-01
2.242030948400497437e-01 -2.287059128284454346e-01 -3.652244806289672852e-01
3.572871387004852295e-01 -2.400119751691818237e-01 -8.512704819440841675e-02
1.626305580139160156e-01 -2.641777694225311279e-01 -4.915847629308700562e-02
2.832837998867034912e-01 -2.573263049125671387e-01 2.533791065216064453e-01
2.328730076551437378e-01 -2.250824868679046631e-01 2.914533615112304688e-01
3.054781556129455566e-01 -2.301400750875473022e-01 3.578650951385498047e-01
1.575538516044616699e-01 -2.244821488857269287e-01 4.468614608049392700e-02
1.450376510620117188e-01 -2.644495069980621338e-01 -2.092522233724594116e-01
2.630476057529449463e-01 -2.592568993568420410e-01 2.247088402509689331e-01
8.735989034175872803e-02 -2.578162252902984619e-01 -2.599874734878540039e-01
-2.898556888103485107e-01 2.553395628929138184e-01 2.574322521686553955e-01
-2.755202949047088623e-01 1.882937103509902954e-01 4.901356995105743408e-01
-2.783979475498199463e-01 1.675162911415100098e-01 3.987395167350769043e-01
-2.569137811660766602e-01 3.438166379928588867e-01 3.361425399780273438e-01
-2.544125020503997803e-01 2.668309211730957031e-01 3.232764005661010742e-01
-2.821830213069915771e-01 1.919890642166137695e-01 3.971184492111206055e-01
-2.833885848522186279e-01 1.515240222215652466e-01 -4.486049339175224304e-02
-2.751076817512512207e-01 3.913722336292266846e-01 -5.033636093139648438e-01
-2.584583461284637451e-01 3.688279688358306885e-01 3.306210935115814209e-01
-2.809264063835144043e-01 1.662468463182449341e-01 3.379725515842437744e-01
-2.559874653816223145e-01 3.185575902462005615e-01 3.454413115978240967e-01
-2.503225207328796387e-01 2.229658067226409912e-01 -9.569767117500305176e-02
-2.889001369476318359e-01 3.910176157951354980e-01 -1.743727624416351318e-01
-2.547842264175415039e-01 1.592473685741424561e-01 1.311246007680892944e-01
-2.901282906532287598e-01 3.964546024799346924e-01 7.360240817070007324e-02
-2.920681238174438477e-01 3.439813554286956787e-01 8.123695105314254761e-02
-2.610283792018890381e-01 3.783644437789916992e-01 3.808823525905609131e-01
-2.896988093852996826e-01 3.571291863918304443e-01 -2.165977805852890015e-01
-2.848716676235198975e-01 2.815765142440795898e-01 -4.261734783649444580e-01
-2.592307329177856445e-01 3.858873248100280762e-01 3.055061697959899902e-01
-2.621588110923767090e-01 1.075975000858306885e-01 -1.267735809087753296e-01
-2.865326702594757080e-01 4.366518855094909668e-01 -3.592694550752639771e-02
-2.521288692951202393e-01 2.690459489822387695e-01 -3.275678753852844238e-01
-2.510489523410797119e-01 3.190901875495910645e-01 -1.380366683006286621e-01
-2.673344910144805908e-01 3.894950747489929199e-01 4.682143628597259521e-01
-2.899903059005737305e-01 3.952175974845886230e-01 1.235049664974212646e-01
-2.592399120330810547e-01 1.914445161819458008e-01 3.923116922378540039e-01
-2.537959516048431396e-01 3.729366064071655273e-01 1.210542302578687668e-02
-2.849124372005462646e-01 3.198718428611755371e-01 -4.303538799285888672e-01
-2.516945600509643555e-01 2.322783768177032471e-01 -2.829089760780334473e-01
-2.590785920619964600e-01 4.022575318813323975e-01 -3.153032660484313965e-01
-2.590982615947723389e-01 4.272603392601013184e-01 1.329245325177907944e-02
-2.530635595321655273e-01 3.025206625461578369e-01 -3.494435846805572510e-01
-2.912615239620208740e-01 3.322394788265228271e-01 2.249880135059356689e-01
-2.605311870574951172e-01 3.010992705821990967e-01 4.815013110637664795e-01
-2.522114217281341553e-01 3.468977808952331543e-01 -1.268334537744522095e-01
-2.827246189117431641e-01 1.630038768053054810e-01 2.577471435070037842e-01
-2.913560271263122559e-01 2.747334539890289307e-01 -8.661546558141708374e-02
-2.766503989696502686e-01 1.637258529663085938e-01 -3.959585428237915039e-01
-2.532372474670410156e-01 1.825956404209136963e-01 -2.479138374328613281e-01
-2.846564054489135742e-01 2.430977076292037964e-01 -3.925374448299407959e-01
-2.556306719779968262e-01 3.943300247192382812e-01 3.738063946366310120e-02
-2.898499369621276855e-01 3.681692481040954590e-01 2.607036232948303223e-01
-2.555998563766479492e-01 3.789314925670623779e-01 1.606787294149398804e-01
-2.510304749011993408e-01 2.004774510860443115e-01 -8.951972424983978271e-02
-2.507458627223968506e-01 3.134460747241973877e-01 -1.539341732859611511e-02
-2.830542623996734619e-01 1.908095777034759521e-01 3.694861233234405518e-01
-2.600027024745941162e-01 3.918133378028869629e-01 -3.878791332244873047e-01
-2.803618609905242920e-01 3.251804411411285400e-01 5.528824329376220703e-01
-2.512463629245758057e-01 2.021405994892120361e-01 -1.558824032545089722e-01
-2.704471051692962646e-01 2.096006423234939575e-01 -5.592138767242431641e-01
-2.527937889099121094e-01 2.258455455303192139e-01 -3.352555930614471436e-01
-2.892987430095672607e-01 4.068147242069244385e-01 -3.644882142543792725e-02
-2.534764111042022705e-01 2.120855152606964111e-01 2.400795668363571167e-01
-2.551860809326171875e-01 3.625717759132385254e-01 -3.090247213840484619e-01
-2.557679414749145508e-01 3.972685933113098145e-01 1.208270806819200516e-02
-2.506274580955505371e-01 2.826930582523345947e-01 8.512457460165023804e-02
-2.507128417491912842e-01 2.110902369022369385e-01 -3.146045375615358353e-03
-2.514160871505737305e-01 2.579768896102905273e-01 -2.848224937915802002e-01
-2.901497781276702881e-01 2.974511981010437012e-01 3.035205602645874023e-01
-2.503235340118408203e-01 2.879633903503417969e-01 2.938788384199142456e-02
-2.535781264305114746e-01 1.640956997871398926e-01 6.166032701730728149e-02
-2.568488717079162598e-01 2.079669386148452759e-01 3.595677614212036133e-01
-2.604647874832153320e-01 4.054150283336639404e-01 2.743845582008361816e-01
-2.545192539691925049e-01 3.835944831371307373e-01 -9.536886215209960938e-02
-2.546184957027435303e-01 3.130904734134674072e-01 -4.014332890510559082e-01
-2.672725915908813477e-01 4.599005579948425293e-01 1.619884222745895386e-01
-2.521156072616577148e-01 3.316315412521362305e-01 -2.169624567031860352e-01
-2.882245182991027832e-01 2.023564130067825317e-01 -5.478831008076667786e-02
-2.752815783023834229e-01 2.348487228155136108e-01 -5.584980249404907227e-01
-2.795845568180084229e-01 1.281577348709106445e-01 1.064223125576972961e-01
-2.836731374263763428e-01 1.524180471897125244e-01 5.572318285703659058e-02
-2.513939440250396729e-01 2.998526096343994141e-01 1.317695975303649902e-01
-2.794626951217651367e-01 2.992067635059356689e-01 -5.423691272735595703e-01
-2.826657593250274658e-01 2.357494980096817017e-01 -4.363757967948913574e-01
-2.812318503856658936e-01 4.430538713932037354e-01 2.925291061401367188e-01
-2.580037415027618408e-01 4.123164415359497070e-01 1.034185290336608887e-01
-2.809289395809173584e-01 2.688702940940856934e-01 -5.084538459777832031e-01
-2.887187600135803223e-01 2.132421284914016724e-01 -8.872397989034652710e-02
-2.703349590301513672e-01 3.436918556690216064e-01 5.649545192718505859e-01
-2.558158338069915771e-01 3.488138318061828613e-01 -3.787501454353332520e-01
-2.585115432739257812e-01 1.192235797643661499e-01 -4.459964111447334290e-02
-2.530160844326019287e-01 1.798836588859558105e-01 -2.193399220705032349e-01
-2.561712861061096191e-01 1.369872838258743286e-01 -1.352177262306213379e-01
-2.512369751930236816e-01 2.156837582588195801e-01 9.721031785011291504e-02
-2.548220157623291016e-01 3.774340748786926270e-01 -2.100773751735687256e-01
-2.796567082405090332e-01 1.287193000316619873e-01 -7.719937711954116821e-02
-2.623853087425231934e-01 4.480664134025573730e-01 2.226142957806587219e-02
-2.764412462711334229e-01 4.721331000328063965e-01 -1.444293260574340820e-01
-2.576894164085388184e-01 3.968894481658935547e-01 1.924041956663131714e-01
-2.783448100090026855e-01 4.622835516929626465e-01 2.204947918653488159e-01
-2.766285240650177002e-01 4.691118597984313965e-01 1.809298694133758545e-01
-2.550268769264221191e-01 2.264679670333862305e-01 -4.215928316116333008e-01
-2.685712277889251709e-01 4.636893272399902344e-01 -1.978868842124938965e-01
-2.561417520046234131e-01 2.722410559654235840e-01 3.825868368148803711e-01
-2.570627033710479736e-01 3.543628752231597900e-01 -4.087279438972473145e-01
-2.767921090126037598e-01 1.244063526391983032e-01 -1.904732286930084229e-01
-2.609877586364746094e-01 3.688296079635620117e-01 -4.733631610870361328e-01
-2.512196898460388184e-01 3.083864748477935791e-01 -2.117508053779602051e-01
-2.660227119922637939e-01 1.155103594064712524e-01 -2.697975337505340576e-01
-2.706151008605957031e-01 3.793398737907409668e-01 5.167925357818603516e-01
-2.586940824985504150e-01 4.248055219650268555e-01 -9.880843572318553925e-03
-2.850663959980010986e-01 1.947034597396850586e-01 3.120071589946746826e-01
-2.610817551612854004e-01 2.069940268993377686e-01 -5.190942883491516113e-01
-2.854984998703002930e-01 2.380262464284896851e-01 4.155184626579284668e-01
-2.771650254726409912e-01 3.019703030586242676e-01 -5.716067552566528320e-01
-2.897576987743377686e-01 2.547992467880249023e-01 -1.824088841676712036e-01
-2.630181908607482910e-01 4.455686807632446289e-01 -1.838573366403579712e-01
-2.810854017734527588e-01 1.436382979154586792e-01 -1.563783437013626099e-01
-2.502243220806121826e-01 2.257471084594726562e-01 -7.067666947841644287e-02
-2.850804030895233154e-01 3.467725217342376709e-01 -4.096428453922271729e-01
-2.839871048927307129e-01 3.191482126712799072e-01 5.026381015777587891e-01
-2.554035484790802002e-01 1.413332074880599976e-01 1.244070474058389664e-02
-2.547384798526763916e-01 1.668936908245086670e-01 -2.650764286518096924e-01
-2.552905678749084473e-01 2.838768064975738525e-01 3.514208793640136719e-01
-2.512630224227905273e-01 3.290980756282806396e-01 -3.492755442857742310e-02
-2.854430079460144043e-01 3.734590411186218262e-01 -3.645347654819488525e-01
-2.518220543861389160e-01 2.438846826553344727e-01 -3.033392429351806641e-01
-2.789501845836639404e-01 1.288006007671356201e-01 1.617393046617507935e-01
-2.896269261837005615e-01 2.401279509067535400e-01 -1.449177563190460205e-01
-2.620498836040496826e-01 4.120762050151824951e-01 -3.649233877658843994e-01
-2.920611500740051270e-01 3.339554071426391602e-01 1.245767325162887573e-01
-2.792771756649017334e-01 1.736380010843276978e-01 -3.739910423755645752e-01
-2.827096283435821533e-01 2.907745242118835449e-01 5.260543823242187500e-01
-2.545551955699920654e-01 1.719236969947814941e-01 1.808815747499465942e-01
-2.882769703865051270e-01 2.653744518756866455e-01 3.612613677978515625e-01
-2.895936667919158936e-01 3.985674381256103516e-01 1.494380682706832886e-01
-2.593330144882202148e-01 2.674267590045928955e-01 4.647887051105499268e-01
-2.746319174766540527e-01 1.334341317415237427e-01 3.133146762847900391e-01
-2.635193765163421631e-01 1.686373054981231689e-01 4.174215197563171387e-01
-2.905291616916656494e-01 2.982008159160614014e-01 2.811547219753265381e-01
-2.875847816467285156e-01 2.142581343650817871e-01 2.641035616397857666e-01
-2.565461695194244385e-01 3.941002190113067627e-01 1.357798427343368530e-01
-2.520157098770141602e-01 2.119726389646530151e-01 1.536822617053985596e-01
-2.608213722705841064e-01 2.793717682361602783e-01 4.941690862178802490e-01
-2.917753458023071289e-01 3.548623919486999512e-01 -1.426604017615318298e-02
-2.835016846656799316e-01 4.578053057193756104e-01 2.722590416669845581e-02
-2.634025812149047852e-01 1.378338336944580078e-01 -3.669791519641876221e-01
-2.808671891689300537e-01 1.513470858335494995e-01 -2.250104844570159912e-01
-2.875407636165618896e-01 4.151288270950317383e-01 -1.492735743522644043e-01
-2.667528688907623291e-01 4.673149585723876953e-01 -1.663927920162677765e-02
-2.498759329319000244e-01 2.527522444725036621e-01 -5.347193405032157898e-02
-2.506024241447448730e-01 2.259108275175094604e-01 5.224949494004249573e-02
-2.791426777839660645e-01 1.853738278150558472e-01 -4.122773110866546631e-01
-2.567125260829925537e-01 2.500119209289550781e-01 3.959055244922637939e-01
-2.644876241683959961e-01 3.015896081924438477e-01 5.444234609603881836e-01
-2.675965428352355957e-01 2.523032426834106445e-01 -6.040917634963989258e-01
-2.865409851074218750e-01 4.286657571792602539e-01 -1.268605440855026245e-01
-2.831648886203765869e-01 3.954365849494934082e-01 -3.811840713024139404e-01
-2.900135517120361328e-01 3.767348527908325195e-01 2.237157672643661499e-01
-2.522181868553161621e-01 3.385530710220336914e-01 -1.936949789524078369e-01
-2.654904127120971680e-01 4.523172974586486816e-01 -2.213655561208724976e-01
-2.915875315666198730e-01 3.345400989055633545e-01 -1.039720848202705383e-01
-2.563109397888183594e-01 3.872994184494018555e-01 -2.576196789741516113e-01
-2.868057489395141602e-01 1.817455291748046875e-01 6.699204444885253906e-02
-2.904794216156005859e-01 2.925486862659454346e-01 -1.971863061189651489e-01
-2.513549327850341797e-01 3.224426805973052979e-01 5.198096856474876404e-02
-2.617417573928833008e-01 1.643706411123275757e-01 -4.393831491470336914e-01
-2.518436908721923828e-01 2.930569350719451904e-01 1.783230304718017578e-01
-2.545706927776336670e-01 3.782231807708740234e-01 7.443104684352874756e-02
-2.572533190250396729e-01 1.363208144903182983e-01 1.258619278669357300e-01
-2.662001848220825195e-01 1.241738051176071167e-01 2.862053811550140381e-01
-2.537845671176910400e-01 3.514893352985382080e-01 -2.691874206066131592e-01
-2.853280305862426758e-01 3.370491862297058105e-01 4.656859338283538818e-01
-2.886816859245300293e-01 3.790694773197174072e-01 -2.253400683403015137e-01
-2.916617095470428467e-01 3.089081048965454102e-01 -1.069644093513488770e-01
-2.569060623645782471e-01 2.093872427940368652e-01 -4.497843384742736816e-01
-2.617352008819580078e-01 4.371619522571563721e-01 1.319569349288940430e-01
-2.669649720191955566e-01 1.093552112579345703e-01 1.955860406160354614e-01
-2.882957756519317627e-01 2.524310350418090820e-01 -2.658446729183197021e-01
-2.650561928749084473e-01 3.469927608966827393e-01 5.136546492576599121e-01
-2.883941829204559326e-01 2.217212617397308350e-01 2.429178953170776367e-01
-2.569352984428405762e-01 1.653336584568023682e-01 -3.458684384822845459e-01
-2.609680891036987305e-01 1.147477179765701294e-01 -1.748540252447128296e-01
-2.543633282184600830e-01 2.519615292549133301e-01 -4.197548329830169678e-01
-2.809265255928039551e-01 1.415044665336608887e-01 1.848865449428558350e-01
-2.813649177551269531e-01 2.516925036907196045e-01 5.232877731323242188e-01
-2.804901003837585449e-01 2.446457147598266602e-01 -4.953143596649169922e-01
-2.503628730773925781e-01 2.776182591915130615e-01 -1.804588139057159424e-01
-2.898123264312744141e-01 2.264085412025451660e-01 1.186417937278747559e-01
-2.538047432899475098e-01 2.894426882266998291e-01 -3.946413993835449219e-01
-2.626305222511291504e-01 2.985772788524627686e-01 5.197001695632934570e-01
-2.508227825164794922e-01 2.858749926090240479e-01 -2.221376895904541016e-01
-2.530622780323028564e-01 3.157283961772918701e-01 2.186785489320755005e-01
-2.546784281730651855e-01 1.577387601137161255e-01 -2.098986208438873291e-01
-2.524240612983703613e-01 3.534735143184661865e-01 -4.753792285919189453e-02
-2.559795677661895752e-01 3.666075468063354492e-01 2.364248484373092651e-01
-2.875756919384002686e-01 1.915862709283828735e-01 9.187638014554977417e-02
-2.916840016841888428e-01 2.724781334400177002e-01 -1.806162670254707336e-02
-2.795625627040863037e-01 4.276019334793090820e-01 3.834837377071380615e-01
-2.597451210021972656e-01 3.423125743865966797e-01 4.220372140407562256e-01
-2.902200222015380859e-01 3.331550061702728271e-01 2.958353161811828613e-01
-2.803666591644287109e-01 1.647352576255798340e-01 -3.113042116165161133e-01
-2.704364061355590820e-01 4.382540881633758545e-01 3.501586019992828369e-01
-2.835364937782287598e-01 2.626314163208007812e-01 4.955749809741973877e-01
-2.923470437526702881e-01 3.144303262233734131e-01 5.204640701413154602e-02
-2.882192432880401611e-01 1.988191157579421997e-01 1.132614631205797195e-02
-2.865284681320190430e-01 2.041887789964675903e-01 -2.160318195819854736e-01
-2.532856762409210205e-01 2.542365491390228271e-01 2.741961479187011719e-01
-2.897801399230957031e-01 2.687020003795623779e-01 2.915987074375152588e-01
-2.614303231239318848e-01 1.999151408672332764e-01 4.495124518871307373e-01
-2.876571714878082275e-01 2.505367100238800049e-01 -2.930930554866790771e-01
-2.534027695655822754e-01 2.985084652900695801e-01 2.625984549522399902e-01
-2.837647497653961182e-01 3.626776337623596191e-01 4.714121222496032715e-01
-2.660404443740844727e-01 2.045179903507232666e-01 5.132035017013549805e-01
-2.543492019176483154e-01 2.140829861164093018e-01 -3.822647631168365479e-01
-2.654506266117095947e-01 2.644036710262298584e-01 5.578989386558532715e-01
-2.729973793029785156e-01 3.439337015151977539e-01 -5.812671184539794922e-01
-2.877546250820159912e-01 3.513441681861877441e-01 3.845740556716918945e-01
-2.903294265270233154e-01 3.338752388954162598e-01 -2.081734389066696167e-01
-2.898395061492919922e-01 4.010673165321350098e-01 2.426245249807834625e-03
-2.523362040519714355e-01 3.516081571578979492e-01 -8.212186396121978760e-02
-2.917628288269042969e-01 3.586401343345642090e-01 2.001581713557243347e-02
-2.819338142871856689e-01 2.255239039659500122e-01 4.789609909057617188e-01
-2.710746228694915771e-01 4.474202990531921387e-01 3.137101829051971436e-01
-2.528857886791229248e-01 1.865076422691345215e-01 1.344653517007827759e-01
-2.909737527370452881e-01 2.870268523693084717e-01 2.382904142141342163e-01
-2.918093800544738770e-01 2.997150421142578125e-01 -8.114933967590332031e-02
-2.834464609622955322e-01 3.954055011272430420e-01 4.178547859191894531e-01
-2.581582963466644287e-01 3.511520624160766602e-01 -4.471900165081024170e-01
-2.594427466392517090e-01 1.441185027360916138e-01 2.580121457576751709e-01
-2.539183199405670166e-01 2.442190498113632202e-01 2.972969710826873779e-01
-2.530682981014251709e-01 1.682539433240890503e-01 3.561983257532119751e-02
-2.867992520332336426e-01 2.261440604925155640e-01 -2.771631777286529541e-01
-2.550989389419555664e-01 2.874356508255004883e-01 -4.410798549652099609e-01
-2.529574632644653320e-01 3.280977010726928711e-01 -2.940202951431274414e-01
-2.770099639892578125e-01 1.942413449287414551e-01 -4.726048111915588379e-01
-2.851296663284301758e-01 2.050806283950805664e-01 3.469181358814239502e-01
-2.563157975673675537e-01 1.657652258872985840e-01 2.392367720603942871e-01
-2.898175120353698730e-01 3.869460225105285645e-01 1.974313259124755859e-01
-2.866898477077484131e-01 3.901890814304351807e-01 3.469771444797515869e-01
-2.624599039554595947e-01 4.456001520156860352e-01 8.127265423536300659e-02
-2.607269287109375000e-01 3.090261220932006836e-01 -5.505430698394775391e-01
-2.875440418720245361e-01 3.349551856517791748e-01 4.072361290454864502e-01
-2.651858925819396973e-01 4.230461120605468750e-01 3.327709734439849854e-01
-2.603819966316223145e-01 2.757788300514221191e-01 -5.569940805435180664e-01
-2.526405751705169678e-01 2.121373713016510010e-01 -3.035022318363189697e-01
-2.512423396110534668e-01 2.632797360420227051e-01 1.558961272239685059e-01
-2.895914912223815918e-01 3.866427540779113770e-01 -1.417711228132247925e-01
-2.547484040260314941e-01 2.960838973522186279e-01 3.237208724021911621e-01
-2.876922488212585449e-01 3.590369522571563721e-01 -3.099500834941864014e-01
-2.537073194980621338e-01 1.612265110015869141e-01 -1.504916399717330933e-01
-2.881805896759033203e-01 3.050900101661682129e-01 -3.236882984638214111e-01
-2.912647724151611328e-01 2.863411903381347656e-01 -1.243587285280227661e-01
-2.676589190959930420e-01 4.275066852569580078e-01 -3.981729149818420410e-01
-2.909547984600067139e-01 3.791961669921875000e-01 9.650828689336776733e-02
-2.644605338573455811e-01 3.581781685352325439e-01 4.892217218875885010e-01
-2.911458909511566162e-01 2.724401056766510010e-01 1.925265491008758545e-01
-2.502390742301940918e-01 2.365679442882537842e-01 -1.449578404426574707e-01
-2.634251713752746582e-01 2.304288148880004883e-01 5.156778693199157715e-01
-2.889322042465209961e-01 2.963372766971588135e-01 3.624325394630432129e-01
-2.754943668842315674e-01 4.130872189998626709e-01 -4.506934285163879395e-01
-2.907193005084991455e-01 3.536977469921112061e-01 2.349186688661575317e-01
-2.624112963676452637e-01 4.446955323219299316e-01 -1.564866155385971069e-01
-2.573479413986206055e-01 1.526632010936737061e-01 -3.085947632789611816e-01
-2.551809251308441162e-01 2.471107542514801025e-01 3.466453552246093750e-01
-2.755751907825469971e-01 1.093192398548126221e-01 -2.279043756425380707e-02
-2.597268521785736084e-01 4.120661318302154541e-01 -2.903012633323669434e-01
-2.696741521358489990e-01 1.049552708864212036e-01 1.587130129337310791e-01
-2.663117051124572754e-01 1.250182390213012695e-01 -3.269642591476440430e-01
-2.812507748603820801e-01 1.582494080066680908e-01 2.893942296504974365e-01
-2.561869323253631592e-01 1.389830857515335083e-01 7.436969131231307983e-02
-2.690277993679046631e-01 4.476777315139770508e-01 -3.196891844272613525e-01
-2.813622951507568359e-01 4.339346289634704590e-01 -3.016961514949798584e-01
-2.915080189704895020e-01 2.685644626617431641e-01 1.247757375240325928e-01
-2.760646343231201172e-01 4.783125519752502441e-01 1.207932364195585251e-02
-2.589756548404693604e-01 2.644198834896087646e-01 -5.343030691146850586e-01
-2.697266936302185059e-01 3.617981076240539551e-01 5.395178794860839844e-01
-2.540234327316284180e-01 3.588570952415466309e-01 1.474351286888122559e-01
-2.846099138259887695e-01 3.978267908096313477e-01 -3.372050821781158447e-01
-2.845814228057861328e-01 2.554833292961120605e-01 4.655078649520874023e-01
-2.645974159240722656e-01 4.539610743522644043e-01 1.129654049873352051e-01
-2.856392264366149902e-01 3.806138038635253906e-01 4.003909826278686523e-01
-2.535424232482910156e-01 1.589029729366302490e-01 -2.274852991104125977e-02
-2.918058931827545166e-01 3.358157873153686523e-01 -7.458759844303131104e-02
-2.602477967739105225e-01 1.124805808067321777e-01 -9.681759029626846313e-02
-2.889924645423889160e-01 3.065710067749023438e-01 -2.881578505039215088e-01
-2.626580595970153809e-01 2.597288489341735840e-01 -5.809915661811828613e-01
-2.877773344516754150e-01 2.285691350698471069e-01 -2.338124215602874756e-01
-2.909375429153442383e-01 2.467254102230072021e-01 2.030396088957786560e-02
-2.548391222953796387e-01 3.784234821796417236e-01 1.018323600292205811e-01
-2.869933545589447021e-01 2.367003411054611206e-01 3.614402711391448975e-01
-2.904334962368011475e-01 2.601236701011657715e-01 2.257870137691497803e-01
-2.544965744018554688e-01 3.407014906406402588e-01 2.404798120260238647e-01
-2.638079524040222168e-01 2.783872187137603760e-01 -5.941311120986938477e-01
-2.641120851039886475e-01 1.112907975912094116e-01 -2.200545221567153931e-01
-2.908929884433746338e-01 3.332748115062713623e-01 2.528475224971771240e-01
-2.583294808864593506e-01 1.784421503543853760e-01 3.419392108917236328e-01
-2.882370352745056152e-01 4.113804697990417480e-01 1.877941191196441650e-01
-2.563874125480651855e-01 3.630551397800445557e-01 2.674039304256439209e-01
-2.856741845607757568e-01 4.415679275989532471e-01 -6.721518933773040771e-02
-2.705376744270324707e-01 1.694998145103454590e-01 -4.799536764621734619e-01
-2.828383743762969971e-01 1.513243466615676880e-01 -1.072704344987869263e-01
-2.650709748268127441e-01 4.591951370239257812e-01 6.239025294780731201e-02
-2.549870908260345459e-01 3.450722992420196533e-01 -3.544327914714813232e-01
-2.570632994174957275e-01 2.618620097637176514e-01 -4.964732527732849121e-01
-2.567975223064422607e-01 3.781512677669525146e-01 -3.260887861251831055e-01
-2.847420573234558105e-01 1.729342341423034668e-01 -1.553344577550888062e-01
-2.792980670928955078e-01 3.412339687347412109e-01 -5.287070274353027344e-01
-2.850032746791839600e-01 4.180816411972045898e-01 3.101245760917663574e-01
-2.530374526977539062e-01 3.459060192108154297e-01 1.262911111116409302e-01
-2.893769443035125732e-01 4.064547419548034668e-01 9.925886243581771851e-02
-2.856940627098083496e-01 1.697922945022583008e-01 3.307995572686195374e-02
-2.571675479412078857e-01 4.105598032474517822e-01 -1.184987127780914307e-01
-2.511780560016632080e-01 2.285967469215393066e-01 1.225925832986831665e-01
-2.512228488922119141e-01 2.396707534790039062e-01 -2.591809034347534180e-01
-2.615186274051666260e-01 4.204535484313964844e-01 2.405241131782531738e-01
-2.883192896842956543e-01 2.132237553596496582e-01 2.056927233934402466e-01
-2.533236742019653320e-01 1.630069017410278320e-01 -1.137542352080345154e-01
-2.502948641777038574e-01 2.854123413562774658e-01 -1.541881263256072998e-01
-2.626028060913085938e-01 4.353528022766113281e-01 1.910811513662338257e-01
-2.600911259651184082e-01 1.977083384990692139e-01 -4.911792278289794922e-01
-2.778506577014923096e-01 1.190220117568969727e-01 8.301962912082672119e-02
-2.561361193656921387e-01 4.021790623664855957e-01 -7.801951467990875244e-02
-2.839803695678710938e-01 3.119542300701141357e-01 -4.555887281894683838e-01
-2.887769937515258789e-01 3.329320251941680908e-01 3.644689619541168213e-01
-2.898612320423126221e-01 3.636311888694763184e-01 -1.936107724905014038e-01
-2.602483928203582764e-01 4.360558986663818359e-01 -6.331960111856460571e-02
-2.821206152439117432e-01 1.677706837654113770e-01 -2.633104622364044189e-01
-2.516695559024810791e-01 1.960062384605407715e-01 6.394413858652114868e-02
-2.839189171791076660e-01 2.796631157398223877e-01 -4.502821862697601318e-01
-2.820686697959899902e-01 2.961057424545288086e-01 -4.972862899303436279e-01
-2.898132205009460449e-01 3.245242536067962646e-01 3.229016363620758057e-01
-2.840211391448974609e-01 1.955860257148742676e-01 -3.018428385257720947e-01
-2.503826916217803955e-01 2.581494450569152832e-01 -1.939463615417480469e-01
-2.554821670055389404e-01 1.455594897270202637e-01 -1.716581583023071289e-01
-2.850463092327117920e-01 4.487024545669555664e-01 -3.081228584051132202e-03
-2.678247094154357910e-01 4.046810269355773926e-01 4.363373517990112305e-01
-2.610110342502593994e-01 3.335768580436706543e-01 4.625723958015441895e-01
-2.922553718090057373e-01 3.130739629268646240e-01 -1.028724387288093567e-02
-2.506834864616394043e-01 2.989073395729064941e-01 5.460049957036972046e-02
-2.801052331924438477e-01 4.696758985519409180e-01 8.169949054718017578e-02
-2.555390894412994385e-01 3.362556695938110352e-01 2.989244163036346436e-01
-2.503623366355895996e-01 2.738048732280731201e-01 6.303158402442932129e-02
-2.920725941658020020e-01 2.862479984760284424e-01 2.028000354766845703e-02
-2.610740363597869873e-01 3.968967795372009277e-01 3.269733488559722900e-01
-2.512979507446289062e-01 1.936101317405700684e-01 -4.947970062494277954e-02
-2.900833189487457275e-01 2.296620309352874756e-01 -1.156246848404407501e-02
-2.551419138908386230e-01 1.870331466197967529e-01 -3.533406555652618408e-01
-2.915136218070983887e-01 3.458135128021240234e-01 1.786295324563980103e-01
-2.893550992012023926e-01 3.258911073207855225e-01 -2.680468559265136719e-01
-2.888461053371429443e-01 2.793453931808471680e-01 -2.787513434886932373e-01
-2.863553464412689209e-01 1.938386261463165283e-01 -1.763562113046646118e-01
-2.510160505771636963e-01 2.759460210800170898e-01 1.319667398929595947e-01
-2.528670132160186768e-01 3.566497862339019775e-01 -1.480677872896194458e-01
-2.503369450569152832e-01 2.474779486656188965e-01 5.971542000770568848e-02
-2.612886726856231689e-01 4.408710896968841553e-01 4.452901706099510193e-02
-2.501677572727203369e-01 2.652356922626495361e-01 4.032205045223236084e-02
-2.850141525268554688e-01 2.184557020664215088e-01 3.888236284255981445e-01
-2.616888284683227539e-01 4.450911581516265869e-01 -2.954978868365287781e-02
-2.888974845409393311e-01 3.550900518894195557e-01 -2.627865374088287354e-01
-2.822982072830200195e-01 3.177765607833862305e-01 -4.912060499191284180e-01
-2.904890477657318115e-01 2.441169023513793945e-01 1.515243649482727051e-01
-2.556288838386535645e-01 3.126437366008758545e-01 -4.364328086376190186e-01
-2.605265080928802490e-01 3.789513707160949707e-01 -4.395987689495086670e-01
-2.918086946010589600e-01 2.738809883594512939e-01 7.443502545356750488e-02
-2.839091718196868896e-01 3.822485804557800293e-01 4.369064271450042725e-01
-2.832960784435272217e-01 4.317356348037719727e-01 -2.589998841285705566e-01
