3.780486583709716797e-01 -2.515344694256782532e-02 -1.168919950723648071e-01
4.400426447391510010e-01 1.099185943603515625e-01 -1.805405616760253906e-01
3.784774839878082275e-01 -2.770702168345451355e-02 -2.217876017093658447e-01
3.811313211917877197e-01 -6.775577086955308914e-03 -2.973090708255767822e-01
5.593912601470947266e-01 -7.647125516086816788e-03 -1.793565154075622559e-01
4.825974106788635254e-01 1.206499561667442322e-01 -2.270379066467285156e-01
4.999184608459472656e-01 1.750496402382850647e-02 -6.929944157600402832e-01
5.343779325485229492e-01 9.026897698640823364e-02 1.396903395652770996e-01
5.318570733070373535e-01 -1.003362983465194702e-01 9.281819313764572144e-02
5.282512903213500977e-01 5.160392075777053833e-02 4.312261343002319336e-01
4.230397641658782959e-01 -1.351575553417205811e-01 -9.139805287122726440e-02
5.119166374206542969e-01 1.127600520849227905e-01 7.977484911680221558e-02
4.622659385204315186e-01 -1.422522664070129395e-01 1.212028190493583679e-01
5.499846935272216797e-01 1.345799583941698074e-02 -3.550269305706024170e-01
4.552647471427917480e-01 -9.165354818105697632e-02 -6.293694972991943359e-01
4.046140611171722412e-01 -1.100609749555587769e-01 6.687153130769729614e-02
4.861494600772857666e-01 -1.244985833764076233e-01 2.898482382297515869e-01
4.011931419372558594e-01 4.055637121200561523e-02 -4.580154120922088623e-01
4.006938636302947998e-01 2.965073287487030029e-02 -4.996998608112335205e-01
4.479098618030548096e-01 1.085532009601593018e-01 -3.178107440471649170e-01
4.268534779548645020e-01 -1.258425861597061157e-01 1.683091521263122559e-01
5.620343089103698730e-01 2.179184183478355408e-02 -7.136322557926177979e-03
5.169323086738586426e-01 4.282784834504127502e-02 -5.855394005775451660e-01
5.477535724639892578e-01 -6.572697777301073074e-03 -3.849001824855804443e-01
5.326277017593383789e-01 -4.654235765337944031e-02 -4.721800088882446289e-01
4.587720632553100586e-01 -5.926399305462837219e-02 5.660514831542968750e-01
5.429550409317016602e-01 -4.132275283336639404e-02 3.631940186023712158e-01
4.782531261444091797e-01 1.209916695952415466e-01 6.062731891870498657e-02
5.043940544128417969e-01 7.101946324110031128e-02 4.522119164466857910e-01
3.827751874923706055e-01 8.859726600348949432e-03 -1.980457454919815063e-02
4.223708808422088623e-01 8.765145391225814819e-02 9.109488874673843384e-02
4.043071866035461426e-01 -8.478733152151107788e-02 -4.817935526371002197e-01
5.279243588447570801e-01 -9.765468537807464600e-02 -2.466213405132293701e-01
5.343983769416809082e-01 -9.850921481847763062e-02 -2.780071645975112915e-02
4.029677212238311768e-01 -1.107079088687896729e-01 2.257662266492843628e-02
5.590711832046508789e-01 3.434731811285018921e-02 1.090438589453697205e-01
4.414770901203155518e-01 -1.195092350244522095e-01 3.034655153751373291e-01
4.234500229358673096e-01 8.432640135288238525e-02 1.443120837211608887e-01
3.941394090652465820e-01 4.519470408558845520e-02 1.840407401323318481e-02
5.294032692909240723e-01 8.717896789312362671e-02 -3.058455288410186768e-01
5.396193265914916992e-01 3.342428430914878845e-02 4.040915369987487793e-01
4.285178780555725098e-01 4.459079355001449585e-02 4.090595245361328125e-01
4.573533236980438232e-01 -1.444750428199768066e-01 6.963958591222763062e-02
5.156153440475463867e-01 4.396383650600910187e-03 -6.368010044097900391e-01
3.967280089855194092e-01 -9.308110922574996948e-02 -3.436679244041442871e-01
5.286008119583129883e-01 9.398488700389862061e-02 1.770821511745452881e-01
4.866443872451782227e-01 -6.806097924709320068e-02 -6.609923839569091797e-01
5.330923795700073242e-01 -1.906441152095794678e-02 -5.185701847076416016e-01
4.196226596832275391e-01 8.941440284252166748e-02 -2.631117701530456543e-01
5.513226389884948730e-01 2.362253144383430481e-02 -3.234729170799255371e-01
4.772579669952392578e-01 -1.383431702852249146e-01 1.607291996479034424e-01
4.433408379554748535e-01 -1.439412832260131836e-01 2.848289906978607178e-03
5.407682061195373535e-01 -7.516422122716903687e-02 2.245191931724548340e-01
5.528247356414794922e-01 2.076322585344314575e-02 2.906882762908935547e-01
3.810292482376098633e-01 -3.444973379373550415e-02 2.660734206438064575e-02
5.120119452476501465e-01 -1.076167076826095581e-01 2.942633926868438721e-01
3.886362612247467041e-01 -4.228918254375457764e-02 1.718266606330871582e-01
5.409759283065795898e-01 -3.522396832704544067e-02 3.975498974323272705e-01
4.248049259185791016e-01 -3.978930786252021790e-02 -6.984294652938842773e-01
5.522664785385131836e-01 -5.372033268213272095e-02 1.519484519958496094e-01
4.119037091732025146e-01 5.684198439121246338e-02 -4.836820065975189209e-01
5.053067803382873535e-01 7.799681276082992554e-02 -5.260650515556335449e-01
4.256101846694946289e-01 -5.041418969631195068e-02 4.756987094879150391e-01
3.822853267192840576e-01 -8.057210594415664673e-03 -3.343403041362762451e-01
4.729946851730346680e-01 -1.435269713401794434e-01 -1.869874298572540283e-01
3.853681385517120361e-01 2.406112477183341980e-02 -2.415068149566650391e-01
4.422863721847534180e-01 4.351583123207092285e-02 4.789977073669433594e-01
4.834920465946197510e-01 -1.417064964771270752e-01 4.684931039810180664e-02
3.786004781723022461e-01 -1.239128410816192627e-02 -1.866195648908615112e-01
5.611114501953125000e-01 2.831228449940681458e-02 4.105695337057113647e-02
3.956508636474609375e-01 -4.032943025231361389e-02 2.649540007114410400e-01
5.533760786056518555e-01 -7.374510169029235840e-03 -3.050430119037628174e-01
4.015959203243255615e-01 8.677029050886631012e-03 2.986977100372314453e-01
5.098273158073425293e-01 1.106270030140876770e-01 -2.474313676357269287e-01
4.241142868995666504e-01 -1.087432131171226501e-01 -4.836650788784027100e-01
4.361824691295623779e-01 8.279767632484436035e-02 -4.968774914741516113e-01
5.243195891380310059e-01 -1.030101329088211060e-01 2.100618481636047363e-01
4.150776863098144531e-01 -7.136785984039306641e-02 3.757015466690063477e-01
5.219627022743225098e-01 -4.661330953240394592e-02 -5.536419749259948730e-01
5.459285974502563477e-01 -4.282074794173240662e-02 -3.364074528217315674e-01
4.106845259666442871e-01 7.238412648439407349e-02 -3.479924201965332031e-01
5.538796782493591309e-01 5.947607010602951050e-02 3.091196715831756592e-02
4.416921734809875488e-01 1.068571209907531738e-01 -2.888045608997344971e-01
4.147274792194366455e-01 -8.604037016630172729e-02 3.267935812473297119e-01
4.684608578681945801e-01 -1.453007161617279053e-01 -1.602845042943954468e-01
5.206477642059326172e-01 8.046643435955047607e-02 -4.293259680271148682e-01
5.321660637855529785e-01 -7.727593928575515747e-02 -3.508919477462768555e-01
5.355364084243774414e-01 3.464048355817794800e-02 -4.778469204902648926e-01
5.130796432495117188e-01 1.010203808546066284e-01 2.363153398036956787e-01
3.815337717533111572e-01 2.362691797316074371e-03 -2.705397605895996094e-01
4.147464931011199951e-01 -1.279738694429397583e-01 -5.771708860993385315e-02
3.905444741249084473e-01 -3.775191679596900940e-02 -4.778967499732971191e-01
4.597385227680206299e-01 7.055038958787918091e-02 4.427101016044616699e-01
5.511904358863830566e-01 3.756202012300491333e-02 -2.914297282695770264e-01
5.252791047096252441e-01 -8.612588047981262207e-02 3.370468914508819580e-01
4.304473102092742920e-01 -2.877094969153404236e-02 -7.239503860473632812e-01
5.281380414962768555e-01 4.418144747614860535e-02 -5.143322348594665527e-01
5.107203722000122070e-01 -6.856494396924972534e-02 4.967038631439208984e-01
5.384771227836608887e-01 9.020653367042541504e-02 2.142182737588882446e-02
3.889690339565277100e-01 9.599025361239910126e-03 1.310915648937225342e-01
5.414383411407470703e-01 -6.507865339517593384e-02 -2.981663942337036133e-01
4.130305647850036621e-01 5.393524467945098877e-02 -5.091561079025268555e-01
3.998425602912902832e-01 -5.728016421198844910e-02 2.834679186344146729e-01
4.089043140411376953e-01 6.377100199460983276e-02 -4.041312932968139648e-01
4.338310360908508301e-01 -1.033519729971885681e-01 -5.502404570579528809e-01
4.071316123008728027e-01 -2.908571437001228333e-02 -6.254364848136901855e-01
4.909053742885589600e-01 -1.254811882972717285e-01 2.623226642608642578e-01
3.999306559562683105e-01 5.915208719670772552e-03 -5.546178817749023438e-01
4.244513511657714844e-01 -7.427792251110076904e-02 -6.321935653686523438e-01
4.002037942409515381e-01 4.265315085649490356e-02 1.589975655078887939e-01
3.796069025993347168e-01 -1.073284354060888290e-02 -2.510061860084533691e-01
4.160665571689605713e-01 -1.278573125600814819e-01 -2.046668827533721924e-01
4.445946514606475830e-01 8.739467710256576538e-02 2.934526205062866211e-01
4.975813329219818115e-01 9.146044403314590454e-02 3.622620701789855957e-01
4.145905077457427979e-01 4.694380797445774078e-03 -6.554912328720092773e-01
5.473204851150512695e-01 1.237962860614061356e-02 3.679280877113342285e-01
4.691543579101562500e-01 -1.152031868696212769e-01 -5.050417780876159668e-01
5.379294753074645996e-01 7.585200667381286621e-02 2.368207573890686035e-01
4.689975082874298096e-01 2.506065741181373596e-02 5.852680206298828125e-01
4.332665503025054932e-01 6.368774175643920898e-02 -5.868185758590698242e-01
4.701671302318572998e-01 1.849846914410591125e-02 -7.484911084175109863e-01
5.249953866004943848e-01 8.727844804525375366e-02 -3.506187498569488525e-01
4.116268157958984375e-01 -1.229692399501800537e-01 3.045603632926940918e-03
4.907470643520355225e-01 1.211770549416542053e-01 -1.852982640266418457e-01
5.566851496696472168e-01 5.103336274623870850e-02 -7.150702178478240967e-03
9.956085681915283203e-02 -3.349952995777130127e-01 -1.536387056112289429e-01
-5.562397241592407227e-01 -2.216036617755889893e-01 -5.723844766616821289e-01
1.363880336284637451e-01 -1.735463440418243408e-01 3.475887775421142578e-01
-1.484063267707824707e-01 -1.907440721988677979e-01 6.721950769424438477e-01
1.052612066268920898e-02 -2.193885892629623413e-01 7.198311686515808105e-01
-4.397415220737457275e-01 -1.671078354120254517e-01 -2.396896332502365112e-01
-1.470055133104324341e-01 -1.671595275402069092e-01 5.082375407218933105e-01
-3.377574384212493896e-01 -1.568987369537353516e-01 3.353076279163360596e-01
-5.407571792602539062e-01 -3.086537122726440430e-01 5.663391351699829102e-01
2.207744121551513672e-01 -2.972350716590881348e-01 -3.032431602478027344e-01
-8.189442157745361328e-01 -3.143959045410156250e-01 1.615168899297714233e-01
5.769950151443481445e-02 -1.610224694013595581e-01 4.653807729482650757e-02
-6.488083302974700928e-02 -3.353934884071350098e-01 -3.993358314037322998e-01
-8.243428468704223633e-01 -2.667929530143737793e-01 3.900306820869445801e-01
-2.475285530090332031e-02 -3.135128915309906006e-01 5.654779672622680664e-01
-2.963898777961730957e-01 -1.561494469642639160e-01 -1.302777677774429321e-01
-1.891759037971496582e-02 -3.476734161376953125e-01 1.684421300888061523e-01
-6.080092787742614746e-01 -3.284868896007537842e-01 3.882007300853729248e-01
5.574622750282287598e-02 -2.709451019763946533e-01 -5.669434070587158203e-01
-3.956263661384582520e-01 -3.557865619659423828e-01 -2.779929041862487793e-01
-4.053781032562255859e-01 -3.376674652099609375e-01 -4.872542023658752441e-01
-7.664721012115478516e-01 -1.974524855613708496e-01 -1.437726318836212158e-01
1.560493409633636475e-01 -1.854797601699829102e-01 -2.036167681217193604e-01
-3.542629182338714600e-01 -1.554963588714599609e-01 2.893757522106170654e-01
-6.471234560012817383e-02 -3.539159595966339111e-01 -7.297586649656295776e-03
-8.551770448684692383e-02 -3.542156219482421875e-01 9.343487024307250977e-02
-1.099275350570678711e-01 -1.875843405723571777e-01 -4.448094964027404785e-01
-4.057545065879821777e-01 -1.560636311769485474e-01 2.385945767164230347e-01
-4.016493260860443115e-01 -2.142293453216552734e-01 7.185530066490173340e-01
-3.124852478504180908e-02 -1.998722702264785767e-01 6.822497248649597168e-01
-5.440183877944946289e-01 -3.437900245189666748e-01 -3.703841269016265869e-01
-3.521523475646972656e-01 -1.641082465648651123e-01 4.399345219135284424e-01
-3.132492899894714355e-01 -1.780612170696258545e-01 -4.036224484443664551e-01
-8.359774351119995117e-01 -2.383525967597961426e-01 -3.365833163261413574e-01
2.636147439479827881e-01 -2.966240644454956055e-01 -2.117623537778854370e-01
3.521862328052520752e-01 -2.147668004035949707e-01 8.604984730482101440e-02
-7.512925267219543457e-01 -1.901619136333465576e-01 -2.023879066109657288e-02
-5.431348085403442383e-01 -2.376767098903656006e-01 -6.268265843391418457e-01
-6.793935596942901611e-02 -1.599677354097366333e-01 3.868787586688995361e-01
-1.143071353435516357e-01 -1.527256667613983154e-01 2.683222293853759766e-03
-5.573912262916564941e-01 -3.475142121315002441e-01 -3.079171478748321533e-01
5.312821269035339355e-02 -1.599436998367309570e-01 1.744074076414108276e-01
-2.103706598281860352e-01 -1.583835482597351074e-01 -1.774871051311492920e-01
-5.139285326004028320e-01 -1.607191860675811768e-01 6.507489085197448730e-02
1.726194620132446289e-01 -2.866149544715881348e-01 5.448035597801208496e-01
-2.791737616062164307e-01 -3.267352581024169922e-01 5.467807650566101074e-01
-6.441041231155395508e-01 -2.049395889043807983e-01 5.137921571731567383e-01
-6.185214519500732422e-01 -1.721007227897644043e-01 -5.156115069985389709e-02
-4.033342003822326660e-01 -1.709097474813461304e-01 -3.093664646148681641e-01
-1.564997732639312744e-01 -3.051803112030029297e-01 -6.179903149604797363e-01
1.577327549457550049e-01 -1.934310197830200195e-01 -2.719328701496124268e-01
-4.498983621597290039e-01 -3.294142484664916992e-01 4.895038008689880371e-01
-6.917220354080200195e-01 -1.914351284503936768e-01 -2.446063905954360962e-01
-9.081224203109741211e-01 -2.879270613193511963e-01 -1.370934844017028809e-01
3.015358746051788330e-01 -2.932670116424560547e-01 2.548229396343231201e-01
-5.919792652130126953e-01 -3.522783815860748291e-01 -1.223579198122024536e-01
3.002925813198089600e-01 -2.163882553577423096e-01 -1.687719374895095825e-01
-1.878682971000671387e-01 -1.545969545841217041e-01 3.341838419437408447e-01
6.072422862052917480e-02 -3.431493937969207764e-01 1.810780726373195648e-02
-2.152151316404342651e-01 -1.524686515331268311e-01 2.811799347400665283e-01
-1.635330915451049805e-01 -3.572818040847778320e-01 1.213199943304061890e-01
-2.285122573375701904e-01 -1.500788033008575439e-01 1.679173260927200317e-01
-8.610559701919555664e-01 -2.986648082733154297e-01 -2.635181546211242676e-01
3.514268100261688232e-01 -2.170240134000778198e-01 2.225885689258575439e-01
2.695921957492828369e-01 -3.090046048164367676e-01 9.446913003921508789e-02
1.742650270462036133e-01 -2.046730816364288330e-01 -3.249584138393402100e-01
-2.612910866737365723e-01 -2.423284947872161865e-01 -6.819379925727844238e-01
1.006695628166198730e-02 -3.481050729751586914e-01 1.650696992874145508e-02
-6.489309072494506836e-01 -3.478780388832092285e-01 -4.813235625624656677e-02
-6.419157981872558594e-01 -3.370310664176940918e-01 2.594318687915802002e-01
-2.832136452198028564e-01 -3.614299297332763672e-01 -1.146671473979949951e-01
-4.866601228713989258e-01 -1.726860702037811279e-01 4.364090859889984131e-01
-1.548221707344055176e-02 -3.318169713020324707e-01 -3.852838873863220215e-01
2.814761102199554443e-01 -2.592294514179229736e-01 4.836813211441040039e-01
1.040237247943878174e-01 -3.367678225040435791e-01 -8.603239059448242188e-02
-7.377666831016540527e-01 -1.895340085029602051e-01 1.768527179956436157e-01
-2.073508501052856445e-02 -1.856606006622314453e-01 -3.861909806728363037e-01
-6.900459527969360352e-03 -3.246020078659057617e-01 -4.345004856586456299e-01
-3.549215793609619141e-01 -1.534931808710098267e-01 -1.650400459766387939e-02
-5.582838654518127441e-01 -3.540079593658447266e-01 5.743069574236869812e-02
-1.770240068435668945e-01 -1.699517071247100830e-01 -3.211676776409149170e-01
-4.364550113677978516e-01 -2.038531005382537842e-01 -5.454388260841369629e-01
-7.958847284317016602e-01 -2.272816002368927002e-01 -3.589054048061370850e-01
-4.544302821159362793e-01 -3.213139772415161133e-01 5.424637198448181152e-01
3.411270081996917725e-01 -2.859422564506530762e-01 1.303119063377380371e-01
-6.000319719314575195e-01 -3.332570493221282959e-01 -4.293759763240814209e-01
-3.604855537414550781e-01 -3.421977162361145020e-01 -4.542824625968933105e-01
3.811075389385223389e-01 -2.606981098651885986e-01 1.169176697731018066e-01
-8.088371753692626953e-01 -2.233630120754241943e-01 3.453207314014434814e-01
-8.560210466384887695e-01 -2.227607369422912598e-01 -1.769274920225143433e-01
-8.919839859008789062e-01 -2.376087009906768799e-01 1.700054407119750977e-01
1.577719449996948242e-01 -2.278835475444793701e-01 -4.390295445919036865e-01
-3.739084303379058838e-01 -3.429425358772277832e-01 3.968192934989929199e-01
7.553219795227050781e-02 -3.383015394210815430e-01 1.847016960382461548e-01
3.020092844963073730e-02 -3.392521142959594727e-01 -2.358245998620986938e-01
-6.008692383766174316e-01 -1.724832653999328613e-01 -1.167098432779312134e-01
-7.922422885894775391e-01 -2.377077490091323853e-01 -4.108057022094726562e-01
-7.271773219108581543e-01 -3.374382853507995605e-01 -1.457447260618209839e-01
-3.261973857879638672e-01 -3.581489026546478271e-01 -2.371760159730911255e-01
-8.155455589294433594e-01 -2.035731673240661621e-01 7.603490352630615234e-02
-4.027287662029266357e-02 -3.519726395606994629e-01 4.621643573045730591e-02
-3.880150318145751953e-01 -1.537410914897918701e-01 3.470991551876068115e-02
-5.256786346435546875e-01 -1.636089831590652466e-01 2.201612293720245361e-01
-5.331879854202270508e-01 -3.506715893745422363e-01 1.922873854637145996e-01
-4.609561860561370850e-01 -3.516620099544525146e-01 -3.205174505710601807e-01
2.582856714725494385e-01 -3.066905438899993896e-01 2.314443290233612061e-01
-2.710400521755218506e-01 -1.855645179748535156e-01 -4.629812836647033691e-01
-6.286883354187011719e-02 -3.389966487884521484e-01 3.721472620964050293e-01
-2.066704034805297852e-01 -3.392260670661926270e-01 4.376192986965179443e-01
-2.977323234081268311e-01 -1.510289013385772705e-01 4.206549748778343201e-02
-1.175564527511596680e-02 -2.498438656330108643e-01 -6.104909777641296387e-01
-8.337140083312988281e-01 -2.826458513736724854e-01 3.384618461132049561e-01
-5.174623727798461914e-01 -1.677104830741882324e-01 -1.704959571361541748e-01
-3.613933920860290527e-01 -2.870991528034210205e-01 -6.899535655975341797e-01
4.635468125343322754e-02 -1.772047579288482666e-01 -2.599697709083557129e-01
-7.447487115859985352e-02 -1.577542424201965332e-01 -9.922398626804351807e-02
1.978585720062255859e-01 -3.163577914237976074e-01 2.751709520816802979e-01
-3.164118826389312744e-01 -3.325573801994323730e-01 5.014880895614624023e-01
-1.655926704406738281e-01 -3.470256328582763672e-01 -3.519595861434936523e-01
1.571053266525268555e-02 -1.668995916843414307e-01 -1.667230725288391113e-01
-3.110935688018798828e-01 -3.389332890510559082e-01 4.472548365592956543e-01
-5.997755527496337891e-01 -3.522404730319976807e-01 -5.805952474474906921e-02
-7.616336345672607422e-01 -3.333514332771301270e-01 -5.904239788651466370e-02
-6.757916212081909180e-01 -3.037155270576477051e-01 4.798046052455902100e-01
-6.875798702239990234e-01 -3.116148710250854492e-01 4.242682158946990967e-01
2.097687721252441406e-01 -3.206966221332550049e-01 -5.444423481822013855e-02
-6.708108186721801758e-01 -3.374090194702148438e-01 -3.010198771953582764e-01
1.825310587882995605e-01 -2.974985539913177490e-01 4.761545956134796143e-01
-4.763673543930053711e-01 -3.388219475746154785e-01 -4.582521915435791016e-01
6.619000434875488281e-02 -2.171238809823989868e-01 -4.892625212669372559e-01
1.008445024490356445e-02 -1.577531099319458008e-01 3.582447767257690430e-02
1.543750166893005371e-01 -2.012531608343124390e-01 5.636156797409057617e-01
1.026364862918853760e-01 -1.643998324871063232e-01 8.989568054676055908e-02
-1.059083044528961182e-01 -1.714442670345306396e-01 -3.114843070507049561e-01
-5.556461811065673828e-01 -1.684100031852722168e-01 2.739936709403991699e-01
-7.750579118728637695e-01 -3.291272521018981934e-01 -1.640105098485946655e-01
-4.860603213310241699e-01 -3.529575467109680176e-01 1.991497129201889038e-01
-7.990851402282714844e-01 -2.118788063526153564e-01 -2.399399727582931519e-01
-2.270774841308593750e-01 -1.499320864677429199e-01 8.498775959014892578e-02
-6.521830558776855469e-01 -1.913213431835174561e-01 -3.064889907836914062e-01
-4.515438973903656006e-01 -1.587902605533599854e-01 -5.891479179263114929e-02
-4.298419058322906494e-01 -3.605632185935974121e-01 2.305629849433898926e-02
-5.761325955390930176e-01 -2.841198444366455078e-01 6.321058273315429688e-01
-6.836564540863037109e-01 -3.236454129219055176e-01 3.421251475811004639e-01
2.552632391452789307e-01 -1.882496774196624756e-01 1.298961043357849121e-02
3.096708357334136963e-01 -2.001036703586578369e-01 2.064073681831359863e-01
-4.010819792747497559e-01 -3.557457327842712402e-01 2.052875310182571411e-01
-8.475899696350097656e-01 -2.121447175741195679e-01 -1.191120594739913940e-02
-8.505332469940185547e-01 -2.129456996917724609e-01 4.493511840701103210e-02
-3.684995770454406738e-01 -3.167366683483123779e-01 -6.105434894561767578e-01
3.271975219249725342e-01 -2.088867574930191040e-01 2.617699503898620605e-01
-2.988509535789489746e-01 -3.380514383316040039e-01 -4.861859679222106934e-01
-2.254008054733276367e-01 -1.510434895753860474e-01 2.288918942213058472e-01
-2.982791960239410400e-01 -1.699877381324768066e-01 5.250747799873352051e-01
-5.236898064613342285e-01 -3.571251332759857178e-01 -8.311612904071807861e-02
-4.537646472454071045e-02 -1.966827660799026489e-01 -4.701493978500366211e-01
-7.764755189418792725e-02 -1.639755517244338989e-01 4.504354596138000488e-01
-5.841239690780639648e-01 -1.952358782291412354e-01 -4.131722152233123779e-01
-2.005372643470764160e-01 -3.566099703311920166e-01 -2.157358080148696899e-01
-1.960352063179016113e-02 -1.768173277378082275e-01 -3.128192722797393799e-01
-6.729055643081665039e-01 -1.951554715633392334e-01 4.112565219402313232e-01
1.068683862686157227e-01 -1.998525559902191162e-01 6.015448570251464844e-01
-4.752357602119445801e-01 -1.878823935985565186e-01 5.715475678443908691e-01
-2.016425579786300659e-01 -1.713151633739471436e-01 5.510686635971069336e-01
2.879422605037689209e-01 -2.536597251892089844e-01 -2.946569919586181641e-01
-3.964067399501800537e-01 -3.614625334739685059e-01 -9.077528119087219238e-02
-7.616175413131713867e-01 -2.096171975135803223e-01 -3.006809651851654053e-01
3.610876500606536865e-01 -2.699587345123291016e-01 2.212218642234802246e-01
-4.394882023334503174e-01 -1.627095341682434082e-01 -1.683797687292098999e-01
8.099862933158874512e-02 -1.962421834468841553e-01 -3.776831626892089844e-01
-5.234721899032592773e-01 -1.988650858402252197e-01 -4.799827337265014648e-01
-6.135528087615966797e-01 -3.445857465267181396e-01 1.891300231218338013e-01
-1.585322916507720947e-01 -3.358272612094879150e-01 4.568713903427124023e-01
-5.342355966567993164e-01 -3.298357129096984863e-01 4.387481808662414551e-01
-4.358965158462524414e-01 -2.053423523902893066e-01 6.770258545875549316e-01
-4.054972529411315918e-01 -1.765849292278289795e-01 5.352422595024108887e-01
-1.606852114200592041e-01 -3.305677771568298340e-01 5.032302737236022949e-01
-7.197468280792236328e-01 -2.467542439699172974e-01 -5.241653919219970703e-01
2.189993858337402344e-01 -1.862958073616027832e-01 3.487723469734191895e-01
-3.744355440139770508e-01 -3.620443642139434814e-01 -2.798385545611381531e-02
-6.452875137329101562e-01 -3.373381197452545166e-01 -3.405268788337707520e-01
-1.921564340591430664e-02 -1.594447195529937744e-01 -7.390145957469940186e-02
-7.365880012512207031e-01 -3.188359439373016357e-01 3.040133416652679443e-01
2.920064032077789307e-01 -2.218933999538421631e-01 -2.175298184156417847e-01
3.170060813426971436e-01 -2.582133114337921143e-01 4.167571365833282471e-01
-3.110606968402862549e-01 -1.678835004568099976e-01 -3.043026030063629150e-01
-4.891877472400665283e-01 -2.036785036325454712e-01 -5.247967839241027832e-01
-5.805287361145019531e-01 -1.892812103033065796e-01 4.883683323860168457e-01
-2.496376931667327881e-01 -3.574419021606445312e-01 1.830372214317321777e-01
-3.573655486106872559e-01 -3.280788064002990723e-01 -5.555149912834167480e-01
-2.544406652450561523e-01 -1.707528233528137207e-01 5.418351888656616211e-01
-8.259912729263305664e-01 -3.186800479888916016e-01 -1.532689779996871948e-01
-1.677919775247573853e-01 -1.650754809379577637e-01 -2.638206481933593750e-01
-8.690985441207885742e-01 -2.632665336132049561e-01 2.986491918563842773e-01
1.230328083038330078e-01 -1.751199960708618164e-01 -1.324696242809295654e-01
-1.146008819341659546e-01 -1.781804263591766357e-01 -3.769964575767517090e-01
3.825941681861877441e-02 -1.649512648582458496e-01 -1.048736721277236938e-01
2.662068903446197510e-01 -2.097096741199493408e-01 4.467224478721618652e-01
1.049347519874572754e-01 -3.063947558403015137e-01 -4.268394112586975098e-01
-5.589531660079956055e-01 -1.726489365100860596e-01 3.439520895481109619e-01
1.798499524593353271e-01 -1.778749525547027588e-01 -5.002696439623832703e-02
-3.117905557155609131e-02 -1.554154753684997559e-01 2.303366810083389282e-01
-7.578561305999755859e-01 -1.965662837028503418e-01 2.365011423826217651e-01
-6.630595922470092773e-01 -2.122649848461151123e-01 -4.513664841651916504e-01
-1.727650314569473267e-01 -2.107223421335220337e-01 -5.826100111007690430e-01
-5.960738658905029297e-01 -2.841226160526275635e-01 -6.282662749290466309e-01
-3.741723299026489258e-01 -3.504222631454467773e-01 3.054448068141937256e-01
2.248611748218536377e-01 -1.812782883644104004e-01 4.954526200890541077e-02
-6.208257675170898438e-01 -3.490742743015289307e-01 -1.621515750885009766e-01
-3.062857985496520996e-01 -3.622164130210876465e-01 -9.750723838806152344e-04
-5.206477642059326172e-01 -2.136622518301010132e-01 6.563172340393066406e-01
-8.125059604644775391e-01 -2.056967914104461670e-01 -1.081426143646240234e-01
-6.006944179534912109e-01 -2.123229205608367920e-01 -5.045990943908691406e-01
7.456690073013305664e-03 -1.565852165222167969e-01 1.469588279724121094e-01
-1.512401998043060303e-01 -1.585005223751068115e-01 -1.630012691020965576e-01
-6.913407444953918457e-01 -3.408811390399932861e-01 -1.883703470230102539e-01
-4.188618063926696777e-01 -3.093495070934295654e-01 6.202560663223266602e-01
-6.268583238124847412e-02 -3.085100650787353516e-01 -5.612087249755859375e-01
-7.366119325160980225e-02 -1.795287430286407471e-01 5.920643210411071777e-01
-1.188311725854873657e-01 -3.149579763412475586e-01 -5.647842884063720703e-01
-2.789531648159027100e-01 -1.502912193536758423e-01 9.384820610284805298e-02
-5.537179708480834961e-01 -3.189160823822021484e-01 -5.512725710868835449e-01
-3.760753273963928223e-01 -1.605135798454284668e-01 -1.777729392051696777e-01
1.074335575103759766e-01 -1.646299660205841064e-01 1.482941359281539917e-01
-7.645887136459350586e-01 -2.131525129079818726e-01 3.790510594844818115e-01
2.051194906234741211e-01 -1.962042450904846191e-01 4.703481793403625488e-01
-1.576058566570281982e-01 -1.507459282875061035e-01 1.908483654260635376e-01
3.638187348842620850e-01 -2.204197794198989868e-01 1.367114484310150146e-01
3.273496031761169434e-02 -3.166267275810241699e-01 5.057184100151062012e-01
-1.329805701971054077e-01 -3.576962053775787354e-01 1.943756267428398132e-02
-2.440349310636520386e-01 -3.367547094821929932e-01 4.667020738124847412e-01
-6.145415306091308594e-01 -3.496167659759521484e-01 6.105385348200798035e-02
-2.960005700588226318e-01 -3.612026274204254150e-01 7.348465919494628906e-02
-1.200625300407409668e-02 -3.025406002998352051e-01 6.186230778694152832e-01
-6.193546056747436523e-01 -1.919372081756591797e-01 -3.525815010070800781e-01
-6.307306289672851562e-01 -1.996670961380004883e-01 -4.029659628868103027e-01
-7.017180919647216797e-01 -3.360554575920104980e-01 1.626975089311599731e-01
-2.381475269794464111e-01 -3.506028056144714355e-01 -3.439924418926239014e-01
-3.114779591560363770e-01 -3.601492643356323242e-01 -1.803368031978607178e-01
-1.994852125644683838e-01 -3.601388335227966309e-01 3.214880079030990601e-02
1.988898217678070068e-01 -3.239841461181640625e-01 4.417910426855087280e-02
-3.323579132556915283e-01 -2.111158519983291626e-01 -5.974270105361938477e-01
-8.347138166427612305e-01 -3.021152913570404053e-01 2.365661412477493286e-01
3.599569499492645264e-01 -2.728319168090820312e-01 -2.588882669806480408e-02
-7.521135807037353516e-01 -2.990871667861938477e-01 4.088335335254669189e-01
1.665894389152526855e-01 -3.218678534030914307e-01 -1.981089115142822266e-01
-2.896027266979217529e-01 -3.012646436691284180e-01 -6.599512696266174316e-01
-2.780658304691314697e-01 -1.858024746179580688e-01 6.427621245384216309e-01
1.125380992889404297e-01 -1.756178140640258789e-01 4.180766642093658447e-01
1.803524792194366455e-01 -1.841157376766204834e-01 4.061180353164672852e-01
-1.853454709053039551e-01 -1.597387194633483887e-01 4.241099357604980469e-01
-2.363643944263458252e-01 -3.603777289390563965e-01 7.733598351478576660e-02
-7.756441831588745117e-02 -1.525008678436279297e-01 9.396428614854812622e-02
-7.098684310913085938e-01 -1.878989040851593018e-01 2.491953670978546143e-01
-6.223104894161224365e-02 -3.472031652927398682e-01 -2.496614903211593628e-01
-7.920022010803222656e-01 -1.978078186511993408e-01 1.285857334733009338e-02
2.668859064579010010e-01 -1.928993612527847290e-01 2.954599857330322266e-01
-6.092581748962402344e-01 -2.300007045269012451e-01 6.300461888313293457e-01
-7.955048084259033203e-01 -2.036385685205459595e-01 2.076681703329086304e-01
-1.023371219635009766e-01 -1.518907845020294189e-01 1.857586950063705444e-01
8.491128683090209961e-03 -1.906651258468627930e-01 6.232642531394958496e-01
-4.457728266716003418e-01 -3.399718403816223145e-01 4.006031751632690430e-01
-8.655580282211303711e-01 -3.060010671615600586e-01 8.533942699432373047e-02
2.334518730640411377e-01 -2.715710103511810303e-01 5.254600644111633301e-01
3.422773778438568115e-01 -2.367387861013412476e-01 -1.447803676128387451e-01
-3.936301469802856445e-01 -1.566571593284606934e-01 -7.815958559513092041e-02
-2.184479981660842896e-01 -2.861165106296539307e-01 7.332996726036071777e-01
2.960132658481597900e-01 -2.990368008613586426e-01 -6.436219811439514160e-02
3.381306827068328857e-01 -2.315984368324279785e-01 3.657352626323699951e-01
-3.394243717193603516e-01 -3.539760112762451172e-01 2.582883238792419434e-01
-4.296573996543884277e-01 -1.559945940971374512e-01 1.044607907533645630e-02
7.299643754959106445e-02 -1.742689311504364014e-01 -1.968367993831634521e-01
-8.415399491786956787e-02 -3.152013123035430908e-01 5.837786793708801270e-01
5.112782120704650879e-02 -3.225089907646179199e-01 -3.890301585197448730e-01
3.045307695865631104e-01 -1.974862813949584961e-01 1.426987797021865845e-01
-5.546665787696838379e-01 -2.090278267860412598e-01 6.166387796401977539e-01
1.956582963466644287e-01 -2.215739339590072632e-01 -3.750260770320892334e-01
-7.939946651458740234e-01 -3.273543715476989746e-01 -1.723511889576911926e-02
-6.797532439231872559e-01 -2.589026093482971191e-01 5.864158272743225098e-01
-4.673728942871093750e-01 -3.201091885566711426e-01 -5.796973109245300293e-01
-1.315003931522369385e-01 -3.468967378139495850e-01 3.162312805652618408e-01
-3.853696286678314209e-01 -2.205969095230102539e-01 -6.262654662132263184e-01
-3.552740812301635742e-01 -2.021521776914596558e-01 6.974089741706848145e-01
2.995881736278533936e-01 -1.972211897373199463e-01 5.733026936650276184e-02
-4.121819734573364258e-01 -3.443035483360290527e-01 -4.277960658073425293e-01
-1.897236108779907227e-01 -3.600407838821411133e-01 -4.496518895030021667e-02
-7.643261551856994629e-02 -3.470958769321441650e-01 2.672042846679687500e-01
-8.344948291778564453e-04 -1.700645089149475098e-01 -2.260732799768447876e-01
1.551094949245452881e-01 -1.699702292680740356e-01 1.503331214189529419e-01
-1.338161826133728027e-01 -3.390535414218902588e-01 -4.171155095100402832e-01
-3.142800927162170410e-01 -2.750346958637237549e-01 7.539457678794860840e-01
-2.300321757793426514e-01 -1.673057675361633301e-01 -3.013644516468048096e-01
-5.551228523254394531e-01 -1.662791073322296143e-01 -6.467562913894653320e-02
-5.571002960205078125e-01 -1.645428091287612915e-01 2.777311205863952637e-02
1.686737537384033203e-01 -1.754473447799682617e-01 3.035117983818054199e-01
2.560411393642425537e-01 -2.880972027778625488e-01 4.165340662002563477e-01
5.788505077362060547e-03 -3.439807891845703125e-01 -1.956088989973068237e-01
-1.598856002092361450e-01 -3.523131310939788818e-01 2.446742355823516846e-01
-4.495150148868560791e-01 -1.564611196517944336e-01 1.245370954275131226e-01
-6.941597461700439453e-01 -3.179531097412109375e-01 -4.465153515338897705e-01
-2.629363536834716797e-02 -1.759085655212402344e-01 5.448732972145080566e-01
8.173698186874389648e-02 -1.673149168491363525e-01 -7.559522986412048340e-02
-8.749959468841552734e-01 -2.251952290534973145e-01 -1.174306422472000122e-01
1.814162135124206543e-01 -3.127688765525817871e-01 -2.669337987899780273e-01
-6.144387722015380859e-01 -3.506708443164825439e-01 6.181068718433380127e-03
2.135291695594787598e-01 -1.784252226352691650e-01 1.711934804916381836e-01
-9.221011400222778320e-02 -3.274631798267364502e-01 5.022464394569396973e-01
-6.044638156890869141e-01 -1.746731996536254883e-01 2.910618185997009277e-01
-4.447003006935119629e-01 -3.323158323764801025e-01 -5.173706412315368652e-01
-2.097720801830291748e-01 -3.367519676685333252e-01 -4.743494391441345215e-01
-4.573549628257751465e-01 -1.747187077999114990e-01 4.835026860237121582e-01
-6.790744066238403320e-01 -1.791242659091949463e-01 1.518950611352920532e-01
-6.832634806632995605e-01 -3.108186125755310059e-01 -4.952484965324401855e-01
1.476529240608215332e-02 -3.276132643222808838e-01 4.290166497230529785e-01
-1.855558902025222778e-01 -1.500256061553955078e-01 1.465156972408294678e-01
-7.958780527114868164e-01 -3.104175627231597900e-01 2.624186575412750244e-01
-8.114552497863769531e-01 -2.214154303073883057e-01 -2.923051118850708008e-01
-3.418495357036590576e-01 -3.605215251445770264e-01 1.016585007309913635e-01
-1.021052747964859009e-01 -3.482404351234436035e-01 -2.812283337116241455e-01
-1.666997373104095459e-01 -1.975369900465011597e-01 -5.211343765258789062e-01
-1.661688834428787231e-01 -2.318426817655563354e-01 -6.453613042831420898e-01
-3.236431479454040527e-01 -3.463375270366668701e-01 3.682774603366851807e-01
-6.419320106506347656e-01 -1.761958897113800049e-01 2.223739176988601685e-01
-6.609648466110229492e-03 -1.671380996704101562e-01 4.447230994701385498e-01
-5.417569875717163086e-01 -1.673544943332672119e-01 -1.241859644651412964e-01
-3.088915348052978516e-02 -3.504394590854644775e-01 1.014176607131958008e-01
-1.141299009323120117e-01 -3.442136347293853760e-01 -3.482890129089355469e-01
-4.117203652858734131e-01 -2.969381809234619141e-01 6.732032299041748047e-01
-7.350365519523620605e-01 -1.871183812618255615e-01 1.039773598313331604e-01
-8.149942159652709961e-01 -3.199731111526489258e-01 8.702793717384338379e-02
-3.408900201320648193e-01 -1.518643796443939209e-01 5.709943175315856934e-02
1.865568757057189941e-02 -3.355141580104827881e-01 -3.063298165798187256e-01
9.789142012596130371e-02 -3.387471437454223633e-01 5.502651631832122803e-02
-1.266666501760482788e-01 -1.550308614969253540e-01 -7.919982075691223145e-02
-3.944211304187774658e-01 -3.607079982757568359e-01 -1.417725384235382080e-01
-8.165545463562011719e-01 -3.227943181991577148e-01 -6.575286388397216797e-02
1.390414535999298096e-01 -3.317549228668212891e-01 1.453575342893600464e-01
-5.721977353096008301e-02 -3.435233235359191895e-01 -3.007444739341735840e-01
-2.216110974550247192e-01 -3.450846374034881592e-01 -4.032115638256072998e-01
-2.447721213102340698e-01 -1.789885461330413818e-01 -4.130787253379821777e-01
-4.793353080749511719e-01 -3.077985942363739014e-01 6.034148931503295898e-01
-1.123498827219009399e-01 -3.563954234123229980e-01 -7.148936390876770020e-02
-4.175577759742736816e-01 -3.371745944023132324e-01 4.390881657600402832e-01
-6.434428095817565918e-01 -3.449363708496093750e-01 1.208856701850891113e-01
4.345566034317016602e-02 -3.160860836505889893e-01 -4.408875107765197754e-01
-3.698950409889221191e-01 -3.229704499244689941e-01 5.599424839019775391e-01
-2.886562645435333252e-01 -1.534297019243240356e-01 -6.574910879135131836e-02
-2.893750071525573730e-01 -3.534583747386932373e-01 2.700492739677429199e-01
-3.705272972583770752e-01 -3.526059985160827637e-01 -3.358174562454223633e-01
2.570454180240631104e-01 -1.918908804655075073e-01 -5.106957629323005676e-02
-5.094006657600402832e-01 -3.429398536682128906e-01 3.297637403011322021e-01
-8.641656637191772461e-01 -3.041855692863464355e-01 -2.032096832990646362e-01
-1.341655701398849487e-01 -1.551912128925323486e-01 3.325973451137542725e-01
-3.998665213584899902e-01 -3.317996859550476074e-01 4.901324510574340820e-01
2.234821021556854248e-01 -2.110837399959564209e-01 5.226492881774902344e-01
-2.574657499790191650e-01 -2.215573191642761230e-01 7.674501538276672363e-01
-2.960891127586364746e-01 -1.515147536993026733e-01 2.106144428253173828e-01
-5.005647242069244385e-02 -2.726887762546539307e-01 7.347294092178344727e-01
-2.542354166507720947e-01 -3.599183559417724609e-01 -1.622812002897262573e-01
1.332832276821136475e-01 -3.274329602718353271e-01 2.618825137615203857e-01
9.520715475082397461e-02 -2.795943021774291992e-01 6.411023736000061035e-01
-3.910411894321441650e-01 -1.771492660045623779e-01 -3.778770267963409424e-01
-5.903965234756469727e-01 -3.089917004108428955e-01 5.305812954902648926e-01
-6.580093502998352051e-02 -1.765136718750000000e-01 -3.394041061401367188e-01
-8.044922351837158203e-01 -2.880735993385314941e-01 -4.259281754493713379e-01
-8.621424436569213867e-01 -3.037620484828948975e-01 1.330613791942596436e-01
2.251058816909790039e-01 -3.010769784450531006e-01 3.822415173053741455e-01
-4.983024597167968750e-01 -2.977793216705322266e-01 -6.464185714721679688e-01
7.402285933494567871e-02 -3.151702284812927246e-01 4.797569811344146729e-01
1.248270273208618164e-03 -2.102329581975936890e-01 -5.081288814544677734e-01
-5.469344854354858398e-01 -1.634307205677032471e-01 1.049666851758956909e-01
-4.802249670028686523e-01 -3.578564822673797607e-01 7.415419816970825195e-02
-2.272094041109085083e-01 -2.073820978403091431e-01 -5.789083242416381836e-01
8.899706602096557617e-02 -1.872131377458572388e-01 5.472548007965087891e-01
-1.293850541114807129e-01 -2.219936549663543701e-01 -6.091901063919067383e-01
1.402513980865478516e-01 -2.644293606281280518e-01 6.426580548286437988e-01
-6.354112625122070312e-01 -3.122158348560333252e-01 -5.300906300544738770e-01
1.076794564723968506e-01 -2.923341393470764160e-01 -4.805841445922851562e-01
-6.530033946037292480e-01 -1.812914609909057617e-01 2.926543056964874268e-01
-8.613587617874145508e-01 -2.896154224872589111e-01 -3.100881874561309814e-01
-2.387908697128295898e-01 -3.589694797992706299e-01 1.351033598184585571e-01
-8.966149389743804932e-02 -2.125038802623748779e-01 -5.629844665527343750e-01
-5.227355957031250000e-01 -3.361821472644805908e-01 3.915235400199890137e-01
5.561444163322448730e-02 -1.609388887882232666e-01 2.281220555305480957e-01
-5.146753191947937012e-01 -3.548093438148498535e-01 1.210953742265701294e-01
-1.537501513957977295e-01 -3.534242808818817139e-01 -2.422807663679122925e-01
-5.851224660873413086e-01 -1.747690141201019287e-01 -1.924447268247604370e-01
-6.495850682258605957e-01 -2.887883186340332031e-01 -5.881769657135009766e-01
-4.010996222496032715e-01 -1.686830520629882812e-01 4.634974598884582520e-01
6.787860393524169922e-02 -3.421581089496612549e-01 -2.924577519297599792e-02
-4.410722851753234863e-01 -2.370931506156921387e-01 -6.603387594223022461e-01
-4.568936824798583984e-01 -1.610513925552368164e-01 -1.135833561420440674e-01
3.602654635906219482e-01 -2.448074370622634888e-01 3.112158477306365967e-01
-8.355093002319335938e-01 -2.119198292493820190e-01 1.570189893245697021e-01
-7.219659090042114258e-01 -2.271531969308853149e-01 -4.616207480430603027e-01
-2.346991002559661865e-02 -1.548543274402618408e-01 1.071938872337341309e-01
-3.437389135360717773e-01 -2.950721085071563721e-01 6.965386271476745605e-01
9.242594242095947266e-03 -3.472777903079986572e-01 -8.628815412521362305e-02
1.486358642578125000e-01 -3.320755660533905029e-01 1.561229862272739410e-02
-7.332570552825927734e-01 -2.880178987979888916e-01 4.774500429630279541e-01
-7.778135538101196289e-01 -3.231962025165557861e-01 -2.625452876091003418e-01
-1.788493096828460693e-01 -3.563073873519897461e-01 1.690071374177932739e-01
-5.432778596878051758e-01 -3.072606325149536133e-01 -6.031169295310974121e-01
7.783830165863037109e-02 -3.289914429187774658e-01 3.410540223121643066e-01
-8.478995561599731445e-01 -3.142761588096618652e-01 -1.109667569398880005e-01
2.567496895790100098e-02 -1.917025744915008545e-01 -3.953376412391662598e-01
-7.986091077327728271e-02 -1.604917049407958984e-01 -1.556744873523712158e-01
-2.584289014339447021e-01 -3.432717919349670410e-01 -4.334820210933685303e-01
-7.393911480903625488e-01 -1.893066912889480591e-01 -6.993807852268218994e-02
-5.153554677963256836e-01 -1.613615453243255615e-01 1.588185280561447144e-01
-7.176443338394165039e-01 -3.393292129039764404e-01 1.429208368062973022e-02
-7.386435568332672119e-02 -1.532451510429382324e-01 4.410411044955253601e-02
-6.509295105934143066e-01 -1.747799515724182129e-01 7.268339395523071289e-04
-6.757596731185913086e-01 -3.283288478851318359e-01 -3.929272890090942383e-01
-2.544445693492889404e-01 -3.448171019554138184e-01 3.859528601169586182e-01
-6.251872181892395020e-01 -1.823679804801940918e-01 -2.417522519826889038e-01
-5.615250468254089355e-01 -3.520449101924896240e-01 -2.123841792345046997e-01
-1.683776378631591797e-01 -1.518580317497253418e-01 2.533797025680541992e-01
-2.923551201820373535e-02 -3.490446507930755615e-01 -1.476023197174072266e-01
-8.794908523559570312e-01 -2.384880334138870239e-01 2.262165248394012451e-01
-4.472404122352600098e-01 -3.489041030406951904e-01 -3.656046390533447266e-01
2.828981578350067139e-01 -3.028262555599212646e-01 1.887413114309310913e-01
4.081657528877258301e-02 -3.396975398063659668e-01 2.347467839717864990e-01
-5.307838916778564453e-01 -2.874812483787536621e-01 6.510630846023559570e-01
-8.932749032974243164e-01 -2.329520881175994873e-01 1.199538111686706543e-01
-7.220186591148376465e-01 -3.372322320938110352e-01 7.330092042684555054e-02
2.011384367942810059e-01 -3.207297325134277344e-01 1.828439980745315552e-01
-3.555070459842681885e-01 -1.521025151014328003e-01 1.156493872404098511e-01
-8.144564628601074219e-01 -2.042061984539031982e-01 -5.659727379679679871e-02
-4.190929234027862549e-01 -1.883787810802459717e-01 6.082869768142700195e-01
9.484121203422546387e-02 -3.226431608200073242e-01 3.899209797382354736e-01
-5.650446414947509766e-01 -3.516356348991394043e-01 1.217249482870101929e-01
1.529335975646972656e-03 -3.408111333847045898e-01 2.793858349323272705e-01
-7.872636616230010986e-02 -1.548118293285369873e-01 -2.825183048844337463e-02
1.735954284667968750e-01 -2.887723743915557861e-01 -4.144419729709625244e-01
-1.621163189411163330e-01 -1.502842903137207031e-01 9.950044751167297363e-02
1.533693075180053711e-01 -3.142168521881103516e-01 3.893477916717529297e-01
-3.366542160511016846e-01 -1.531993150711059570e-01 2.374201118946075439e-01
-1.757945716381072998e-01 -1.818513274192810059e-01 6.265065670013427734e-01
-2.582989335060119629e-01 -2.176525145769119263e-01 -6.211831569671630859e-01
-9.288612604141235352e-01 -2.732012271881103516e-01 -3.819567337632179260e-02
-1.124169677495956421e-01 -3.531379997730255127e-01 1.805899888277053833e-01
-5.847600102424621582e-02 -3.038856685161590576e-01 6.339862346649169922e-01
-6.297829151153564453e-01 -3.182120621204376221e-01 4.440570175647735596e-01
-1.688558757305145264e-01 -3.241499066352844238e-01 -5.415443778038024902e-01
-6.064763069152832031e-01 -3.372865915298461914e-01 3.027682602405548096e-01
1.488926708698272705e-01 -3.080509305000305176e-01 -3.591445386409759521e-01
1.658771336078643799e-01 -3.270784318447113037e-01 -1.020830124616622925e-01
1.085141003131866455e-01 -1.824770122766494751e-01 4.923751652240753174e-01
2.535394132137298584e-01 -2.638180255889892578e-01 -3.507674634456634521e-01
3.925880789756774902e-02 -1.861999332904815674e-01 -3.456967473030090332e-01
-7.448474168777465820e-01 -3.248024582862854004e-01 2.281549721956253052e-01
-2.443247586488723755e-01 -3.550328016281127930e-01 2.341293543577194214e-01
3.355971872806549072e-01 -2.098897099494934082e-01 2.919621020555496216e-02
9.154450893402099609e-02 -2.061070948839187622e-01 -4.221480190753936768e-01
-5.689746141433715820e-02 -3.483351469039916992e-01 2.190845161676406860e-01
-5.659694671630859375e-01 -3.389212787151336670e-01 3.273093998432159424e-01
-2.242039591073989868e-01 -3.605432808399200439e-01 -9.934133291244506836e-02
7.917088270187377930e-02 -2.219918668270111084e-01 6.877439618110656738e-01
2.159275412559509277e-01 -1.860734820365905762e-01 -8.868980407714843750e-02
-4.908597469329833984e-01 -1.679396629333496094e-01 3.712626397609710693e-01
-6.196260452270507812e-01 -3.468646705150604248e-01 -2.286728471517562866e-01
-4.109371900558471680e-01 -3.464844822883605957e-01 3.443217873573303223e-01
-4.471619129180908203e-01 -3.604085147380828857e-01 -6.963223218917846680e-02
2.155131399631500244e-01 -1.998415440320968628e-01 -2.316244095563888550e-01
-8.985776901245117188e-01 -2.556397914886474609e-01 -2.345504909753799438e-01
-5.989238023757934570e-01 -2.962272465229034424e-01 5.789345502853393555e-01
-3.222059607505798340e-01 -3.200542330741882324e-01 -5.961565971374511719e-01
-4.327950775623321533e-01 -3.520105183124542236e-01 2.561821639537811279e-01
-3.062309324741363525e-01 -1.911908686161041260e-01 -4.988608956336975098e-01
1.279465258121490479e-01 -2.990927696228027344e-01 5.310111045837402344e-01
2.019035518169403076e-01 -3.174259662628173828e-01 -1.607894897460937500e-01
-5.592622756958007812e-01 -1.794053018093109131e-01 4.269733130931854248e-01
1.663649082183837891e-01 -3.105604350566864014e-01 -3.137021958827972412e-01
-5.127725005149841309e-01 -2.509366273880004883e-01 -6.626345515251159668e-01
-4.054140746593475342e-01 -1.619684994220733643e-01 3.714242875576019287e-01
-7.573229074478149414e-01 -2.296761125326156616e-01 4.634590148925781250e-01
-5.317813754081726074e-01 -3.450282514095306396e-01 2.845196127891540527e-01
-4.687205255031585693e-01 -1.824889183044433594e-01 -3.907307088375091553e-01
-3.233071565628051758e-01 -3.621656298637390137e-01 -7.728150486946105957e-02
-3.133656382560729980e-01 -2.187148928642272949e-01 7.540352344512939453e-01
-1.025572419166564941e-02 -1.607250869274139404e-01 3.491480350494384766e-01
7.808575034141540527e-02 -2.387005686759948730e-01 -5.358251333236694336e-01
-8.807340860366821289e-01 -3.039595782756805420e-01 6.890628486871719360e-03
-6.650084257125854492e-01 -1.880322098731994629e-01 3.568878471851348877e-01
1.734697818756103516e-02 -3.136149048805236816e-01 -4.795261621475219727e-01
3.570074737071990967e-01 -2.606394588947296143e-01 -1.050512492656707764e-01
6.881731748580932617e-02 -3.008196353912353516e-01 5.747768282890319824e-01
-2.014415860176086426e-01 -3.053407669067382812e-01 6.630777716636657715e-01
-4.600266218185424805e-01 -2.306059598922729492e-01 7.256431579589843750e-01
-6.023871898651123047e-01 -3.079064786434173584e-01 -5.696995854377746582e-01
-7.687053680419921875e-01 -3.302305936813354492e-01 6.285893917083740234e-02
-2.735489606857299805e-01 -1.764404475688934326e-01 5.839645266532897949e-01
-7.740288972854614258e-03 -2.257625460624694824e-01 -5.657077431678771973e-01
-2.312446534633636475e-01 -1.547986716032028198e-01 -1.097945868968963623e-01
-6.098363399505615234e-01 -3.260672986507415771e-01 -4.751020073890686035e-01
-7.662446498870849609e-01 -2.433960437774658203e-01 -4.643436074256896973e-01
1.051241159439086914e-01 -3.223876655101776123e-01 -3.161644637584686279e-01
