6.370848417282104492e-02 3.301152586936950684e-02 -4.258248507976531982e-01
1.260069161653518677e-01 -4.929727688431739807e-02 4.305436313152313232e-01
-1.089081615209579468e-01 -2.923856675624847412e-02 4.929218441247940063e-02
1.825432479381561279e-01 -5.673212185502052307e-02 -8.358325064182281494e-02
6.718337535858154297e-03 2.322160080075263977e-02 3.314621448516845703e-01
1.520850807428359985e-01 -9.150607511401176453e-04 4.157736599445343018e-01
-1.224348694086074829e-02 3.941795229911804199e-02 -3.660824596881866455e-01
2.089068740606307983e-01 -4.439069889485836029e-03 1.201440319418907166e-01
2.051789313554763794e-02 3.921771422028541565e-02 -1.503449678421020508e-02
-7.280934602022171021e-03 3.863534331321716309e-02 -3.986003696918487549e-01
1.919142007827758789e-01 -3.365798294544219971e-02 3.685393333435058594e-01
-5.525271221995353699e-02 -4.027219861745834351e-02 -5.312427282333374023e-01
-3.944661840796470642e-02 -4.696111381053924561e-02 -4.746608138084411621e-01
1.712476611137390137e-01 -5.837220698595046997e-02 1.492392420768737793e-01
9.281238913536071777e-02 -4.958996921777725220e-02 4.466151297092437744e-01
1.187813878059387207e-01 2.708252146840095520e-02 8.446604758501052856e-02
-1.164565384387969971e-01 -2.250336855649948120e-02 7.206835597753524780e-02
-2.622381225228309631e-02 -4.567375779151916504e-02 -5.367481708526611328e-01
2.867123857140541077e-02 4.026134312152862549e-02 -1.194007694721221924e-01
1.803325414657592773e-01 1.148569025099277496e-02 5.067908018827438354e-02
1.677184402942657471e-01 -5.449480190873146057e-02 2.695279717445373535e-01
1.091669797897338867e-01 1.797562278807163239e-02 3.237638771533966064e-01
8.614717423915863037e-02 1.972646266222000122e-02 3.446193337440490723e-01
2.177551016211509705e-02 -2.328892983496189117e-02 -7.701311707496643066e-01
1.607876718044281006e-01 1.923404261469841003e-02 -6.764508783817291260e-02
1.263436228036880493e-01 -6.236705183982849121e-02 2.187401354312896729e-01
1.522562801837921143e-01 -6.876450497657060623e-03 4.543339908123016357e-01
-8.603285253047943115e-02 3.422215208411216736e-02 -2.867732346057891846e-01
-4.339075461030006409e-02 -2.019740827381610870e-02 -7.351415753364562988e-01
3.234119713306427002e-02 -3.338849544525146484e-02 5.214311480522155762e-01
1.381455212831497192e-01 -2.982214465737342834e-02 5.194281339645385742e-01
5.718897283077239990e-02 -6.703290343284606934e-02 -7.403229922056198120e-02
-6.214936450123786926e-02 3.254090622067451477e-02 -4.908808469772338867e-01
7.412153482437133789e-02 -4.277484118938446045e-02 4.998255670070648193e-01
6.280338019132614136e-02 3.578595817089080811e-02 -3.368922770023345947e-01
1.894357427954673767e-02 -6.250801682472229004e-02 -2.503881156444549561e-01
2.857461571693420410e-03 2.370591089129447937e-02 -6.677005887031555176e-01
2.513776160776615143e-02 -4.214984178543090820e-02 4.592454731464385986e-01
8.943547308444976807e-02 -3.456582129001617432e-02 5.442751646041870117e-01
-7.260571420192718506e-02 3.561029210686683655e-02 -1.053078845143318176e-01
9.533633291721343994e-02 2.440980076789855957e-02 2.512844800949096680e-01
9.495399892330169678e-03 3.873904794454574585e-02 1.475765556097030640e-02
6.985297799110412598e-02 -4.619137197732925415e-02 4.721551239490509033e-01
2.015434056520462036e-01 -4.722430557012557983e-02 -1.740522980690002441e-01
1.052577793598175049e-01 -5.299646779894828796e-02 4.068538844585418701e-01
1.303285360336303711e-01 -6.529985368251800537e-02 -1.000197082757949829e-01
5.074374377727508545e-02 3.665374964475631714e-02 3.845082968473434448e-02
-7.184123992919921875e-02 1.156089454889297485e-02 2.915994226932525635e-01
-3.528222441673278809e-04 3.969271853566169739e-02 -3.014373779296875000e-02
-1.161297410726547241e-01 -2.014524862170219421e-02 9.834524244070053101e-02
-7.960791885852813721e-02 -4.275307804346084595e-02 3.827198594808578491e-02
2.831197530031204224e-02 2.334638684988021851e-02 -6.539551615715026855e-01
5.241526290774345398e-02 -6.361484527587890625e-02 1.747228801250457764e-01
1.004410535097122192e-01 -5.061697959899902344e-02 -5.211755037307739258e-01
1.945179514586925507e-02 1.485414989292621613e-02 4.239728748798370361e-01
7.329609990119934082e-02 3.603265807032585144e-02 -3.970429301261901855e-02
-1.370965540409088135e-01 6.920522078871726990e-03 -4.582557827234268188e-02
2.032452523708343506e-01 -3.273783996701240540e-02 -3.219832181930541992e-01
7.620035111904144287e-02 -1.943889819085597992e-02 -7.487799525260925293e-01
1.182798855006694794e-02 -4.000815749168395996e-02 -6.602228283882141113e-01
4.076547920703887939e-04 -5.435505881905555725e-02 2.526747286319732666e-01
-1.048816367983818054e-02 -5.554363504052162170e-02 -3.833588361740112305e-01
1.286506503820419312e-01 5.653645843267440796e-03 4.207930862903594971e-01
5.977328866720199585e-02 3.806179389357566833e-02 -1.939749419689178467e-01
-3.827570751309394836e-02 -2.830009348690509796e-02 4.101841747760772705e-01
9.948375821113586426e-02 2.051601558923721313e-02 -5.383586287498474121e-01
-9.692227840423583984e-02 3.140189498662948608e-02 -1.441769003868103027e-01
-4.005092009902000427e-02 3.877320140600204468e-02 -7.034428417682647705e-02
-7.084652781486511230e-03 4.122304916381835938e-02 -1.784166097640991211e-01
1.363028734922409058e-01 2.074450999498367310e-02 1.711526811122894287e-01
7.748740911483764648e-02 -6.566761434078216553e-02 1.391655802726745605e-01
1.475761532783508301e-01 1.254999265074729919e-02 -4.404261708259582520e-01
1.928403601050376892e-02 -5.779147148132324219e-02 -4.052417576313018799e-01
1.811870634555816650e-01 -4.874818772077560425e-02 3.006404340267181396e-01
1.677060872316360474e-01 -5.372333526611328125e-02 -2.878558337688446045e-01
1.930304318666458130e-01 6.481502205133438110e-03 -1.358171403408050537e-01
2.510112151503562927e-02 2.831098437309265137e-02 -5.961845517158508301e-01
1.326329708099365234e-01 -5.090884864330291748e-02 -4.552866220474243164e-01
-1.082618385553359985e-01 -1.291751209646463394e-02 1.919049322605133057e-01
9.811734780669212341e-03 -5.446813628077507019e-02 -4.606478512287139893e-01
8.880093693733215332e-02 -1.957269385457038879e-02 5.701668262481689453e-01
-4.980843514204025269e-03 -6.142803654074668884e-02 -9.775556623935699463e-02
1.498529314994812012e-01 -5.985913798213005066e-02 -2.325661331415176392e-01
4.030526429414749146e-02 -5.740676447749137878e-02 -4.408091902732849121e-01
1.112611293792724609e-01 2.033859491348266602e-02 -4.977646172046661377e-01
-4.149351641535758972e-02 3.594770282506942749e-02 -4.539652466773986816e-01
2.076236158609390259e-02 -6.436239928007125854e-02 -2.859888970851898193e-02
2.256663590669631958e-01 -2.610136941075325012e-02 -1.075023263692855835e-01
-1.270147264003753662e-01 -1.928892731666564941e-02 4.326477646827697754e-04
1.336349695920944214e-01 3.004524856805801392e-03 -5.889880657196044922e-01
6.173402070999145508e-03 4.023541510105133057e-02 -3.129455745220184326e-01
7.398328930139541626e-02 -3.327958658337593079e-02 -6.994246840476989746e-01
-3.137095645070075989e-02 1.774648018181324005e-02 -7.128261327743530273e-01
-3.827281668782234192e-02 3.864732757210731506e-02 -3.645638525485992432e-01
2.115603387355804443e-01 -3.974233753979206085e-03 5.092506855726242065e-02
-4.158126935362815857e-02 3.131179884076118469e-02 1.438063085079193115e-01
1.003195643424987793e-01 5.909666419029235840e-03 4.673948585987091064e-01
7.377189397811889648e-02 -5.741257965564727783e-02 -4.452284276485443115e-01
-1.167482584714889526e-01 9.033206850290298462e-03 1.109379157423973083e-01
4.850193113088607788e-02 3.911700472235679626e-02 -1.389605998992919922e-01
-5.672978982329368591e-02 -1.520686503499746323e-02 3.990516364574432373e-01
-7.205231487751007080e-02 1.905341073870658875e-02 2.290261089801788330e-01
6.283772736787796021e-02 3.649369254708290100e-02 -3.026905357837677002e-01
-5.181616917252540588e-02 3.897434100508689880e-02 -1.674910336732864380e-01
6.682585924863815308e-02 3.735028207302093506e-02 -1.140903159976005554e-01
-6.921400129795074463e-02 3.152260184288024902e-02 5.059254914522171021e-02
1.341101676225662231e-01 2.326371520757675171e-02 1.112164631485939026e-01
1.178516596555709839e-01 -3.561217337846755981e-03 5.042355656623840332e-01
-4.176515713334083557e-02 -5.461722984910011292e-02 -3.098841756582260132e-02
2.005860209465026855e-01 -2.368198707699775696e-03 1.819577813148498535e-01
3.195409849286079407e-02 3.103670850396156311e-02 -5.440006852149963379e-01
5.841543152928352356e-02 2.090613171458244324e-02 3.599738776683807373e-01
1.837900280952453613e-02 -5.449628829956054688e-02 3.034319877624511719e-01
9.204019606113433838e-02 -3.167927265167236328e-03 5.300912261009216309e-01
1.972319334745407104e-01 -4.702543839812278748e-02 2.332760393619537354e-01
3.699095547199249268e-02 3.874901682138442993e-02 -3.125357329845428467e-01
1.091805994510650635e-01 2.967976033687591553e-02 4.540448635816574097e-02
-1.270663589239120483e-01 2.042036503553390503e-02 -1.380645334720611572e-01
1.339330896735191345e-02 4.099320992827415466e-02 -2.078608572483062744e-01
1.382255107164382935e-01 -6.349112838506698608e-02 1.421871185302734375e-01
-5.234694108366966248e-02 -5.069103091955184937e-02 4.726649075746536255e-02
1.534581780433654785e-01 -4.666361212730407715e-02 4.101852476596832275e-01
9.963613748550415039e-02 3.104640915989875793e-02 -3.033661246299743652e-01
6.819024682044982910e-02 2.288425713777542114e-02 -5.946612358093261719e-01
1.699474453926086426e-01 -5.765072628855705261e-02 -1.780254840850830078e-01
-7.920512557029724121e-02 -3.369950503110885620e-02 -5.288628339767456055e-01
-5.754658207297325134e-02 -5.055532231926918030e-02 -2.539952993392944336e-01
1.805916875600814819e-01 -1.084972918033599854e-02 -4.609037339687347412e-01
-7.884128391742706299e-02 -3.668575361371040344e-02 -4.855848252773284912e-01
1.681371331214904785e-01 -5.529060959815979004e-02 -2.531196475028991699e-01
1.269343048334121704e-01 1.649687625467777252e-02 2.956615984439849854e-01
1.152631193399429321e-01 -6.403814256191253662e-02 1.868731975555419922e-01
-8.820253610610961914e-02 -3.178282082080841064e-02 1.761906743049621582e-01
-1.307907402515411377e-01 -1.931878738105297089e-02 -5.326838418841362000e-02
-4.645716026425361633e-02 3.869309276342391968e-02 -3.326995074748992920e-01
-7.888971269130706787e-02 -3.234646096825599670e-02 2.239238321781158447e-01
-1.176541000604629517e-01 2.593846619129180908e-02 -2.401020228862762451e-01
9.760045260190963745e-02 3.327148407697677612e-02 -9.399206936359405518e-02
5.633465945720672607e-03 7.878258824348449707e-03 4.635193645954132080e-01
1.736888885498046875e-01 -1.442717388272285461e-02 4.265317022800445557e-01
8.476520329713821411e-02 1.626834273338317871e-02 -6.276948451995849609e-01
2.097562700510025024e-01 -2.055799961090087891e-02 -2.987463474273681641e-01
-8.429451286792755127e-02 2.436111867427825928e-02 1.184734329581260681e-01
1.511926651000976562e-01 -4.856061190366744995e-02 -4.308142066001892090e-01
1.734055727720260620e-01 3.255419433116912842e-03 2.920083701610565186e-01
-5.818266421556472778e-03 -4.722576960921287537e-02 -5.560935735702514648e-01
-4.419929906725883484e-02 -2.906644716858863831e-02 -6.804016232490539551e-01
-1.238078922033309937e-01 -2.691349387168884277e-02 -2.536790668964385986e-01
-1.771216094493865967e-02 3.480890393257141113e-02 1.148538962006568909e-01
9.898841381072998047e-05 3.387220576405525208e-02 1.548036038875579834e-01
1.420547813177108765e-01 8.348701521754264832e-03 -5.154401659965515137e-01
-6.623150408267974854e-02 -3.441265970468521118e-02 -5.713717341423034668e-01
-1.397219598293304443e-01 -1.457465905696153641e-02 -1.571894437074661255e-01
-3.101729974150657654e-02 -3.879996389150619507e-02 -6.161761283874511719e-01
1.907758414745330811e-04 -4.149951040744781494e-02 -6.350882053375244141e-01
2.138003334403038025e-02 -6.127591431140899658e-02 -3.094697594642639160e-01
9.905382245779037476e-02 -6.430129706859588623e-02 -2.550480067729949951e-01
1.928717941045761108e-01 -2.494712360203266144e-03 -3.276968300342559814e-01
3.653739765286445618e-02 2.478886768221855164e-02 3.185825943946838379e-01
-6.825816631317138672e-02 1.627582870423793793e-02 2.668579518795013428e-01
1.793509721755981445e-01 -5.368337407708168030e-02 -2.194156348705291748e-01
-9.830705821514129639e-02 2.506798878312110901e-02 3.466657549142837524e-02
2.032731622457504272e-01 -4.347069188952445984e-03 -2.514746189117431641e-01
8.876734226942062378e-02 -6.764692813158035278e-02 -4.436492174863815308e-02
1.920673698186874390e-01 -1.428271923214197159e-02 -4.084498584270477295e-01
3.163006156682968140e-03 3.625366091728210449e-02 9.732685238122940063e-02
-2.013453468680381775e-02 -5.908706039190292358e-02 -7.662834227085113525e-02
-1.041268706321716309e-01 -2.210222184658050537e-03 2.218293249607086182e-01
1.032781004905700684e-01 -3.964699059724807739e-02 -6.223774552345275879e-01
-1.299025863409042358e-01 -2.212108671665191650e-02 -1.028036400675773621e-01
-6.542859971523284912e-02 2.962223812937736511e-02 -5.386395454406738281e-01
-9.474255144596099854e-02 2.939143031835556030e-02 -4.078881442546844482e-02
3.260120749473571777e-03 2.685488760471343994e-02 2.812680900096893311e-01
-9.393395483493804932e-02 -4.081335291266441345e-02 -1.848428994417190552e-01
6.871643662452697754e-02 -2.903929352760314941e-02 -7.257201671600341797e-01
-6.063826009631156921e-02 -4.054123535752296448e-02 -5.064034461975097656e-01
1.246747523546218872e-01 -6.614866852760314941e-02 -5.680269002914428711e-02
9.390072524547576904e-02 2.198451757431030273e-02 2.970929443836212158e-01
-8.265250921249389648e-02 -3.872660547494888306e-02 1.088657900691032410e-01
-1.070035398006439209e-01 2.752771228551864624e-02 -9.639292210340499878e-02
4.623291268944740295e-02 -5.420816689729690552e-02 -5.020678043365478516e-01
-1.285214871168136597e-01 -5.144527181982994080e-03 -5.041903853416442871e-01
5.529949069023132324e-02 -6.676563620567321777e-02 -1.127101629972457886e-01
-3.057623282074928284e-02 -5.494505539536476135e-02 7.917318493127822876e-02
-3.011606261134147644e-02 2.504498139023780823e-02 2.647134363651275635e-01
-2.779717370867729187e-02 3.127223998308181763e-02 -5.675164461135864258e-01
-3.853175789117813110e-03 1.415685936808586121e-02 -7.441012859344482422e-01
1.639341413974761963e-01 1.743612810969352722e-02 -1.794146001338958740e-01
1.307586431503295898e-01 -4.126802086830139160e-03 -6.318664550781250000e-01
1.575114578008651733e-01 1.030421070754528046e-02 -4.150320887565612793e-01
1.795650869607925415e-01 -3.443503752350807190e-02 4.128710925579071045e-01
1.826113909482955933e-01 -1.505959220230579376e-02 3.967112004756927490e-01
8.501452207565307617e-02 -6.349406391382217407e-02 -2.975468635559082031e-01
-9.171062707901000977e-02 -3.500986844301223755e-02 -4.379150867462158203e-01
7.016664743423461914e-02 -5.827706679701805115e-02 3.255346715450286865e-01
1.552651971578598022e-01 -6.235589459538459778e-02 -8.867375552654266357e-02
-1.098061501979827881e-01 2.353705838322639465e-02 -4.546046853065490723e-01
-1.028914153575897217e-01 -3.376967459917068481e-02 2.200689166784286499e-02
-1.112051010131835938e-01 1.969875395298004150e-02 -5.041806101799011230e-01
1.601785868406295776e-01 1.519010961055755615e-02 1.550849080085754395e-01
1.057789772748947144e-01 -5.780156329274177551e-02 3.392589986324310303e-01
4.060776159167289734e-02 -2.854830585420131683e-02 -7.445955872535705566e-01
2.179751843214035034e-01 -1.614809408783912659e-02 -1.977411508560180664e-01
7.108464092016220093e-02 3.609994426369667053e-02 -2.665428519248962402e-01
1.100003160536289215e-02 -5.304403603076934814e-02 -4.897123575210571289e-01
8.460091799497604370e-02 3.138713538646697998e-02 1.152577623724937439e-01
8.253398537635803223e-02 2.185090631246566772e-02 3.202111721038818359e-01
-1.203357726335525513e-01 -2.395360544323921204e-02 -4.000902473926544189e-01
4.874009266495704651e-02 -6.631323695182800293e-02 1.895716041326522827e-02
-3.529589250683784485e-02 3.608093410730361938e-02 4.760911315679550171e-02
5.521133542060852051e-03 2.051284536719322205e-02 3.612635433673858643e-01
-1.225199550390243530e-03 -3.535399958491325378e-02 -6.906895041465759277e-01
-6.738287210464477539e-02 7.630795240402221680e-03 3.282499015331268311e-01
7.369013875722885132e-02 -6.752012670040130615e-02 -1.216009259223937988e-02
1.332693845033645630e-01 2.472264692187309265e-02 6.132640689611434937e-02
1.358672231435775757e-02 -2.933329902589321136e-02 -7.402929067611694336e-01
2.152795046567916870e-01 -4.438497126102447510e-02 4.362165927886962891e-04
1.077794283628463745e-01 -6.558510661125183105e-02 -1.845635622739791870e-01
5.209189280867576599e-02 -6.591747701168060303e-02 -1.790382564067840576e-01
-9.899910539388656616e-03 3.788315877318382263e-02 3.723867982625961304e-02
8.864294737577438354e-03 -5.005951225757598877e-02 -5.362864732742309570e-01
-1.049983948469161987e-01 -2.549489960074424744e-02 -4.997763633728027344e-01
-9.717471897602081299e-02 6.286662071943283081e-03 -6.498572826385498047e-01
-8.228391408920288086e-02 -4.316448420286178589e-02 -2.958790659904479980e-01
1.176242232322692871e-01 1.391783729195594788e-02 -5.547190308570861816e-01
-2.286608889698982239e-02 -5.751087516546249390e-02 3.082477301359176636e-02
-1.351111978292465210e-01 4.430025815963745117e-03 -7.420770823955535889e-03
1.208871304988861084e-01 2.108682319521903992e-02 -4.428354203701019287e-01
4.570358991622924805e-02 1.200744509696960449e-02 -7.273328304290771484e-01
-3.742790594696998596e-02 3.983481228351593018e-02 -2.911881506443023682e-01
-1.015947610139846802e-01 2.223608642816543579e-02 6.274027377367019653e-02
2.134056538343429565e-01 -4.404379054903984070e-03 -2.986278384923934937e-02
-5.576861277222633362e-02 -4.859158769249916077e-02 -3.531101346015930176e-01
1.498137265443801880e-01 -6.069204956293106079e-02 1.962807774543762207e-01
4.101286083459854126e-02 -4.321455955505371094e-02 -6.399227380752563477e-01
-2.422079071402549744e-02 4.516035318374633789e-03 4.415291845798492432e-01
9.245029091835021973e-02 -4.569678381085395813e-02 -5.857873558998107910e-01
2.299623005092144012e-02 3.512303158640861511e-02 1.280764639377593994e-01
1.668312847614288330e-01 -1.649348996579647064e-03 -4.829918146133422852e-01
1.687583625316619873e-01 1.070312596857547760e-02 1.974696815013885498e-01
9.014279395341873169e-02 3.165343776345252991e-02 -3.450062274932861328e-01
1.242153197526931763e-01 2.521799504756927490e-02 -3.263292312622070312e-01
7.399219274520874023e-02 -6.107167899608612061e-02 -3.687035441398620605e-01
2.211460173130035400e-01 -3.282869234681129456e-02 1.643033921718597412e-01
-3.893536701798439026e-02 4.013087600469589233e-02 -1.949265748262405396e-01
1.763843894004821777e-01 1.104478724300861359e-02 1.227455958724021912e-01
-3.878930583596229553e-02 -4.106134921312332153e-02 -5.706573724746704102e-01
3.984471410512924194e-02 -5.115669220685958862e-02 3.931279480457305908e-01
-5.741715803742408752e-02 -3.924479708075523376e-02 2.525675594806671143e-01
1.267968267202377319e-01 1.828441396355628967e-02 2.662813961505889893e-01
-1.012647002935409546e-01 -3.800459206104278564e-02 -1.373212635517120361e-01
5.150346830487251282e-02 3.839069604873657227e-02 -6.648775935173034668e-02
1.363731771707534790e-01 -6.263115257024765015e-02 -2.053085267543792725e-01
2.039190828800201416e-01 -4.461745917797088623e-02 -1.995587795972824097e-01
6.251448392868041992e-02 -5.536860227584838867e-02 -4.842849671840667725e-01
-5.382225289940834045e-02 -4.785523936152458191e-02 -3.875510096549987793e-01
1.780180037021636963e-01 -5.526507645845413208e-02 1.986284554004669189e-01
-2.684796229004859924e-02 -5.159909278154373169e-02 -4.229150414466857910e-01
-3.615466877818107605e-02 -3.933751955628395081e-02 3.367873728275299072e-01
1.159120649099349976e-01 -1.051804795861244202e-02 5.352607369422912598e-01
-2.335431799292564392e-02 -4.832122102379798889e-02 -5.006029009819030762e-01
6.942246109247207642e-03 -5.748407542705535889e-02 2.080310881137847900e-01
4.859455302357673645e-02 2.896715328097343445e-02 2.454236447811126709e-01
1.559873484075069427e-02 3.491275757551193237e-02 -4.883767068386077881e-01
-5.137589201331138611e-02 3.541685268282890320e-02 1.817215234041213989e-02
4.957815259695053101e-02 -4.920272529125213623e-02 4.277540743350982666e-01
-3.382201120257377625e-02 3.774771839380264282e-02 -3.414593636989593506e-03
3.405246138572692871e-02 -5.547271296381950378e-02 3.223291039466857910e-01
1.426119953393936157e-01 -5.936861783266067505e-02 2.558499872684478760e-01
8.599750697612762451e-03 -6.292076408863067627e-02 -1.472980976104736328e-01
5.144145339727401733e-03 -4.649589210748672485e-02 3.806530833244323730e-01
8.339755237102508545e-02 -6.226903572678565979e-02 2.517634928226470947e-01
1.282411366701126099e-01 -4.394671320915222168e-02 -5.405630469322204590e-01
1.566796302795410156e-01 1.698739081621170044e-02 -2.917047441005706787e-01
1.599486768245697021e-01 1.474583707749843597e-02 -3.191459774971008301e-01
-1.249276399612426758e-01 2.240870520472526550e-02 -3.054452240467071533e-01
-1.024319827556610107e-01 -3.614722937345504761e-02 -4.452513903379440308e-02
1.148930788040161133e-01 2.973908558487892151e-02 -2.129454612731933594e-01
1.586931943893432617e-01 -6.115891970694065094e-03 -5.426586866378784180e-01
-5.747206509113311768e-03 -7.153907790780067444e-04 4.900607764720916748e-01
-1.448570489883422852e-01 -2.728357911109924316e-03 -3.210305273532867432e-01
1.994562521576881409e-02 -6.311337649822235107e-02 -2.231897711753845215e-01
-1.226350516080856323e-01 2.271616086363792419e-02 -3.417978584766387939e-01
2.146277725696563721e-01 -1.026133913546800613e-02 1.469442546367645264e-01
5.263086408376693726e-03 3.652406483888626099e-02 -4.584356844425201416e-01
1.532199978828430176e-01 -3.790829330682754517e-02 -5.204648971557617188e-01
4.067193716764450073e-03 3.738017752766609192e-02 6.384035199880599976e-02
-6.956921517848968506e-02 3.660103306174278259e-02 -1.405182927846908569e-01
6.136295571923255920e-02 -2.076854370534420013e-02 5.710483789443969727e-01
-6.228154525160789490e-02 3.545338660478591919e-02 -3.025006502866744995e-02
1.105937808752059937e-01 -6.709664314985275269e-02 -1.571214199066162109e-02
-3.342963382601737976e-02 2.702860161662101746e-02 -6.240199804306030273e-01
-7.630003988742828369e-02 3.474675491452217102e-02 -3.636706173419952393e-01
-4.030333086848258972e-02 1.811672374606132507e-02 3.209786415100097656e-01
1.773948520421981812e-01 1.034221239387989044e-02 -2.550382316112518311e-01
2.122443169355392456e-03 -6.041311100125312805e-02 -2.685184776782989502e-01
2.506409399211406708e-02 -3.671790286898612976e-02 4.956420958042144775e-01
-5.413893982768058777e-02 -5.239757522940635681e-02 -1.302521824836730957e-01
9.238017350435256958e-02 2.945744246244430542e-02 1.439511775970458984e-01
-9.481599926948547363e-02 1.727699302136898041e-02 -6.004504561424255371e-01
1.731725633144378662e-01 -4.165059700608253479e-02 -4.197605848312377930e-01
-2.320197597146034241e-02 3.949229419231414795e-02 -5.211646109819412231e-02
3.845025226473808289e-02 -6.060219183564186096e-02 -3.643112182617187500e-01
-5.820704624056816101e-02 2.776178345084190369e-02 1.611373722553253174e-01
1.057639271020889282e-01 -6.054429337382316589e-02 2.884451746940612793e-01
1.733443439006805420e-01 4.915468394756317139e-03 -3.856751322746276855e-01
1.427754163742065430e-01 8.127762004733085632e-03 3.576894402503967285e-01
-1.110702753067016602e-02 -5.000263825058937073e-02 2.890233099460601807e-01
3.385531157255172729e-02 2.240577712655067444e-02 3.501683771610260010e-01
-2.167381718754768372e-02 -5.874415487051010132e-02 -1.487292498350143433e-01
-6.654641032218933105e-02 2.122978866100311279e-02 -6.411420106887817383e-01
-1.396115124225616455e-01 3.127850592136383057e-03 -4.092137813568115234e-01
-4.098593071103096008e-02 -5.507542937994003296e-02 -6.176788732409477234e-02
-8.471058309078216553e-02 3.378225490450859070e-02 -3.394441008567810059e-01
3.382462635636329651e-02 3.446715325117111206e-02 -4.702496230602264404e-01
1.381599456071853638e-01 1.716738939285278320e-02 2.408215105533599854e-01
1.248562932014465332e-01 -3.100541606545448303e-02 -6.321629285812377930e-01
2.053105533123016357e-01 -4.544312134385108948e-02 1.911670565605163574e-01
-1.021005064249038696e-01 -1.408615801483392715e-02 -6.090613603591918945e-01
-3.545656800270080566e-04 -2.834173664450645447e-02 4.954180419445037842e-01
1.108667701482772827e-01 -6.241406500339508057e-02 -2.918187975883483887e-01
1.873893663287162781e-02 3.714428097009658813e-02 -4.245945811271667480e-01
1.944219470024108887e-01 -3.778785467147827148e-02 3.386731445789337158e-01
2.201251089572906494e-01 -4.053009301424026489e-02 5.050563067197799683e-02
-4.074129834771156311e-02 -5.513755604624748230e-02 -1.722022444009780884e-01
2.086586952209472656e-01 -1.432062126696109772e-03 -7.766631245613098145e-02
-1.454637795686721802e-01 3.828726708889007568e-03 -2.933452725410461426e-01
9.031556546688079834e-02 -6.494295597076416016e-02 1.744335591793060303e-01
2.746500074863433838e-02 -4.818491265177726746e-02 -5.802760720252990723e-01
2.126927673816680908e-01 -5.287035368382930756e-03 -1.220782473683357239e-01
-2.756460383534431458e-02 -4.988880455493927002e-02 2.268250584602355957e-01
-5.760993808507919312e-03 3.355422243475914001e-02 -5.315814018249511719e-01
-2.226449921727180481e-02 -5.515876412391662598e-02 1.301842629909515381e-01
-4.014753922820091248e-02 2.754759788513183594e-02 2.105072438716888428e-01
6.103195250034332275e-02 1.053003035485744476e-02 4.627476632595062256e-01
1.219335645437240601e-01 -5.827102065086364746e-02 -3.640588521957397461e-01
1.244449317455291748e-01 2.686125412583351135e-02 -2.618526518344879150e-01
-4.241934791207313538e-02 -3.211881220340728760e-02 3.755243420600891113e-01
1.620401442050933838e-02 -5.777702480554580688e-02 2.332630753517150879e-01
-1.269446462392807007e-01 1.605920121073722839e-02 -4.366360306739807129e-01
2.990610897541046143e-03 -5.940540134906768799e-02 1.355928182601928711e-01
2.997131831943988800e-02 3.943927958607673645e-02 -4.701575636863708496e-02
8.892057090997695923e-02 -6.343504786491394043e-02 2.226316630840301514e-01
6.631566584110260010e-02 -5.915332585573196411e-02 -4.134058654308319092e-01
1.483024656772613525e-01 -6.389775872230529785e-02 -9.991593658924102783e-03
-4.970987513661384583e-02 1.824531704187393188e-02 -6.920071840286254883e-01
-6.134950742125511169e-02 2.865400537848472595e-02 -5.635042786598205566e-01
-5.677567049860954285e-02 -1.985629275441169739e-02 -7.130332589149475098e-01
-9.602694213390350342e-02 -1.330957468599081039e-02 2.550051808357238770e-01
-1.422023028135299683e-02 -5.190943926572799683e-02 -4.574294686317443848e-01
1.777252703905105591e-01 1.133200712502002716e-02 9.742856770753860474e-02
-2.933492138981819153e-02 3.998234868049621582e-02 -1.020580008625984192e-01
-4.094696417450904846e-02 -4.959881678223609924e-02 1.644073724746704102e-01
-1.042961627244949341e-01 -2.764649689197540283e-02 -4.754907488822937012e-01
-4.985894635319709778e-02 -3.427111543715000153e-03 -7.638115882873535156e-01
1.731517910957336426e-01 2.743676304817199707e-04 -4.350460767745971680e-01
2.122721448540687561e-02 1.632752642035484314e-02 -7.214353680610656738e-01
1.815703213214874268e-01 -5.761969462037086487e-02 -2.943107485771179199e-02
-9.666028618812561035e-02 -3.969075158238410950e-02 -2.090214341878890991e-01
-7.248951494693756104e-02 -2.472260035574436188e-03 -7.249579429626464844e-01
1.404837965965270996e-01 -6.014956533908843994e-02 -2.653424143791198730e-01
7.627394050359725952e-03 2.686622738838195801e-02 -6.298847198486328125e-01
-5.286446586251258850e-02 2.661017701029777527e-02 -6.070115566253662109e-01
8.070088922977447510e-03 -7.456878200173377991e-03 -8.011869192123413086e-01
1.268372237682342529e-01 6.675198674201965332e-04 4.640204608440399170e-01
-5.588814988732337952e-02 -4.995062574744224548e-02 -3.026635348796844482e-01
-1.322693526744842529e-01 -5.373035557568073273e-03 -4.743498861789703369e-01
-9.642931818962097168e-02 3.219496086239814758e-02 -2.620166242122650146e-01
2.645164728164672852e-03 4.084960743784904480e-02 -1.106514930725097656e-01
1.491130888462066650e-01 -3.149513155221939087e-02 4.976886808872222900e-01
1.202335208654403687e-01 -6.567195057868957520e-02 -1.347960233688354492e-01
1.061065047979354858e-01 -6.261387467384338379e-02 2.399292588233947754e-01
8.171208202838897705e-02 -6.538280844688415527e-02 -2.321535795927047729e-01
-1.433485597372055054e-01 -1.003208570182323456e-02 -2.674597501754760742e-01
-6.966969370841979980e-02 -3.881480544805526733e-02 1.947179436683654785e-01
1.319231539964675903e-01 -5.823913961648941040e-02 -3.384813666343688965e-01
-1.319130510091781616e-02 2.858231589198112488e-02 2.398542463779449463e-01
1.477712839841842651e-01 -6.340262293815612793e-02 8.547700196504592896e-02
-9.668186306953430176e-02 1.499712280929088593e-02 1.718980967998504639e-01
-1.437518000602722168e-01 -1.844523474574089050e-03 -1.092308163642883301e-01
1.442001014947891235e-02 -4.321404546499252319e-02 4.323149025440216064e-01
-1.193864271044731140e-02 -5.986804515123367310e-02 -1.471117138862609863e-03
1.070229709148406982e-01 -6.168067082762718201e-02 -3.190454542636871338e-01
4.895346239209175110e-02 2.667642757296562195e-02 2.846488356590270996e-01
1.247662603855133057e-01 2.835868671536445618e-02 -9.648308157920837402e-02
3.329490870237350464e-02 3.280327469110488892e-02 1.791368722915649414e-01
1.910770833492279053e-01 4.236474633216857910e-04 2.202174365520477295e-01
9.554128348827362061e-02 -6.746841967105865479e-02 1.227550953626632690e-02
1.596841961145401001e-01 1.940786093473434448e-02 -1.277123540639877319e-01
1.733166873455047607e-01 6.936660036444664001e-03 2.381980419158935547e-01
2.366978488862514496e-02 -6.426183879375457764e-02 1.996772736310958862e-02
1.837439090013504028e-01 1.110906712710857391e-02 -1.956181973218917847e-02
2.136575281620025635e-01 -1.964477449655532837e-02 2.404593825340270996e-01
5.149465054273605347e-02 3.785349056124687195e-02 -2.586174756288528442e-02
-1.128130406141281128e-01 2.236783877015113831e-02 -1.760001480579376221e-02
-7.681864500045776367e-02 -2.412584237754344940e-02 -6.361337900161743164e-01
3.350464999675750732e-02 -5.232325941324234009e-02 3.680208325386047363e-01
4.345100373029708862e-02 -3.630491718649864197e-02 -6.976459026336669922e-01
7.449090480804443359e-02 -3.961288183927536011e-02 -6.570483446121215820e-01
-4.189665243029594421e-02 -5.504470691084861755e-02 -9.144445508718490601e-02
-4.237236455082893372e-02 3.942237049341201782e-02 -1.264575719833374023e-01
8.591924607753753662e-02 -6.672719120979309082e-02 8.965680748224258423e-02
4.777700453996658325e-02 -6.410252302885055542e-02 1.452248096466064453e-01
2.195188961923122406e-02 9.659104049205780029e-03 -7.600523233413696289e-01
1.810245960950851440e-01 -3.476626239717006683e-03 3.283935487270355225e-01
5.885800346732139587e-02 1.732915081083774567e-02 4.010072052478790283e-01
3.159240633249282837e-02 3.700618445873260498e-02 -4.034242928028106689e-01
1.819527745246887207e-01 1.169605553150177002e-02 -1.140694618225097656e-01
-1.051543354988098145e-01 2.934500202536582947e-02 -3.228820562362670898e-01
1.807072013616561890e-01 1.183173060417175293e-02 2.218396216630935669e-02
1.241423934698104858e-01 2.823507413268089294e-02 -4.534397274255752563e-02
-7.206483185291290283e-02 3.669233992695808411e-02 -1.930476129055023193e-01
-1.238131970167160034e-01 4.769189283251762390e-03 8.748928457498550415e-02
4.976280033588409424e-02 3.103502467274665833e-02 2.031443715095520020e-01
-8.827327191829681396e-02 2.823773771524429321e-03 -6.835721731185913086e-01
4.631962999701499939e-02 3.326933458447456360e-02 1.490005403757095337e-01
-5.887885764241218567e-02 -2.916012890636920929e-02 1.184928566217422485e-01
5.917111784219741821e-02 -5.534983426332473755e-02 -1.464032828807830811e-01
-3.977950289845466614e-02 -4.061874747276306152e-02 -1.133108213543891907e-01
1.397332996129989624e-01 -1.384553685784339905e-02 -6.736800819635391235e-02
-6.719090044498443604e-02 -2.850756794214248657e-02 -2.577820420265197754e-02
1.318736672401428223e-01 -7.703312486410140991e-02 1.460933983325958252e-01
1.129086017608642578e-01 -1.064589023590087891e-01 6.387812644243240356e-02
1.358026862144470215e-01 2.206595614552497864e-02 -3.996683657169342041e-02
1.104756630957126617e-02 -1.419836431741714478e-01 2.115331590175628662e-04
8.530028909444808960e-02 -1.041079312562942505e-01 1.777547299861907959e-01
-4.417153820395469666e-02 -1.989640295505523682e-03 8.690487593412399292e-02
5.394909530878067017e-03 2.471309527754783630e-02 -6.157944351434707642e-02
5.351812765002250671e-02 5.056336894631385803e-02 5.183971300721168518e-02
1.181319057941436768e-01 -8.032782375812530518e-02 -5.079435557126998901e-02
6.162568181753158569e-02 3.680041804909706116e-02 1.467804908752441406e-01
-7.693596184253692627e-02 -1.004223674535751343e-01 -2.091014385223388672e-02
2.279997617006301880e-02 1.057023182511329651e-02 1.861804127693176270e-01
9.372988343238830566e-02 2.720240876078605652e-02 1.734557747840881348e-01
5.238973349332809448e-02 -1.258010119199752808e-01 -3.914065659046173096e-02
1.320513784885406494e-01 3.082897886633872986e-02 1.259910166263580322e-01
-8.517907559871673584e-02 -8.962734043598175049e-02 5.049069598317146301e-02
6.803758442401885986e-04 -1.178120225667953491e-01 1.864695847034454346e-01
-6.763562560081481934e-02 -3.441735357046127319e-02 9.651762247085571289e-02
1.020444110035896301e-01 2.027710154652595520e-02 -9.009801596403121948e-02
-7.523150742053985596e-02 -6.690457463264465332e-02 -5.154045671224594116e-02
-1.778710633516311646e-03 -1.425311416387557983e-01 1.014328673481941223e-01
9.043344110250473022e-02 -6.944425404071807861e-03 -1.265339255332946777e-01
3.929563984274864197e-02 2.818418666720390320e-02 1.588192731142044067e-01
-3.088774904608726501e-02 -1.415192782878875732e-01 2.972931228578090668e-02
1.552807837724685669e-01 -1.918346062302589417e-02 -2.667492628097534180e-02
1.030487120151519775e-01 -9.969297796487808228e-03 -1.178633794188499451e-01
5.780478194355964661e-02 -1.776788011193275452e-02 -1.468265652656555176e-01
8.582287281751632690e-02 -7.930707931518554688e-02 -1.056673005223274231e-01
-1.706406474113464355e-02 7.566746324300765991e-03 -7.590029388666152954e-02
1.817774213850498199e-02 -1.390673071146011353e-01 1.218692511320114136e-01
5.587307736277580261e-02 2.626892179250717163e-03 -1.322515606880187988e-01
6.354747712612152100e-02 2.969169244170188904e-02 -8.879423886537551880e-02
5.661599338054656982e-02 -9.886313974857330322e-02 -1.040122583508491516e-01
5.483267828822135925e-02 4.585519805550575256e-02 1.019648611545562744e-01
1.095516085624694824e-01 -8.036172389984130859e-02 -6.893484294414520264e-02
-3.417534753680229187e-02 -1.171028912067413330e-01 1.609795987606048584e-01
-3.212355449795722961e-02 -7.521703839302062988e-03 -8.330079168081283569e-02
-5.905592814087867737e-02 -1.554983854293823242e-02 -1.903171837329864502e-02
6.937433034181594849e-02 -1.181873083114624023e-01 1.594468653202056885e-01
6.300523132085800171e-02 -1.171530485153198242e-01 -5.495125800371170044e-02
1.620479226112365723e-01 -4.045481234788894653e-02 9.481498599052429199e-02
1.310902833938598633e-01 -8.985129743814468384e-02 8.711037039756774902e-02
-5.351824685931205750e-02 -2.833134867250919342e-02 1.333112716674804688e-01
1.573313921689987183e-01 -3.037866204977035522e-02 1.361320316791534424e-01
1.653596758842468262e-02 4.052424803376197815e-02 4.459686949849128723e-02
1.673309504985809326e-01 -2.120067179203033447e-02 5.163830891251564026e-02
-7.161994278430938721e-02 -2.911240607500076294e-02 1.192459091544151306e-02
-7.468757033348083496e-02 -8.490678668022155762e-02 1.156432256102561951e-01
1.177974045276641846e-04 -1.622933894395828247e-02 -1.343216001987457275e-01
1.178388893604278564e-01 4.727712646126747131e-02 5.726540833711624146e-02
6.630804389715194702e-02 5.243905261158943176e-02 4.440074786543846130e-02
-6.701132655143737793e-02 -5.618607252836227417e-02 -7.123374193906784058e-02
3.870292380452156067e-02 -1.318146884441375732e-01 1.432448178529739380e-01
1.537706851959228516e-01 -3.485958278179168701e-02 -2.324300259351730347e-02
8.841866254806518555e-02 -1.147587299346923828e-01 1.364030987024307251e-01
7.284371554851531982e-02 -1.293272674083709717e-01 8.199682831764221191e-02
7.440015673637390137e-03 -1.104469001293182373e-01 -1.039988473057746887e-01
1.594928205013275146e-01 -2.933747693896293640e-02 -4.663158208131790161e-03
-1.543064042925834656e-02 -1.075625419616699219e-01 -1.041649952530860901e-01
1.023781374096870422e-01 -8.349032700061798096e-02 1.952200233936309814e-01
-5.092083290219306946e-02 -1.299502551555633545e-01 -7.825184613466262817e-03
9.845339506864547729e-02 -3.310669958591461182e-02 2.310715615749359131e-01
2.178722992539405823e-02 -1.390549540519714355e-01 -1.146239414811134338e-02
-2.224972471594810486e-02 -3.303907066583633423e-02 -1.290195286273956299e-01
-6.442259997129440308e-03 -1.288807541131973267e-01 1.580068320035934448e-01
-4.159325733780860901e-02 -1.020107418298721313e-02 1.257642805576324463e-01
1.015012711286544800e-01 -1.117858737707138062e-01 1.071873158216476440e-01
8.859357237815856934e-02 2.171849086880683899e-02 1.863545477390289307e-01
-5.174357071518898010e-02 -9.443603456020355225e-02 1.646645963191986084e-01
-6.638556718826293945e-03 -6.806313991546630859e-02 -1.435864865779876709e-01
4.847384989261627197e-02 3.349334374070167542e-02 -7.580162584781646729e-02
8.854021877050399780e-02 5.127694830298423767e-02 5.927722901105880737e-03
8.655477315187454224e-03 -1.857944391667842865e-02 2.163023650646209717e-01
5.020777136087417603e-02 -1.342600136995315552e-01 1.151501983404159546e-01
-3.701069578528404236e-02 -1.054121479392051697e-01 1.753937304019927979e-01
5.128964409232139587e-02 -1.214332580566406250e-01 1.692375242710113525e-01
-1.509121060371398926e-02 -1.445071101188659668e-01 6.571761518716812134e-02
8.542376011610031128e-02 -7.018456608057022095e-02 2.276873588562011719e-01
-7.299657166004180908e-02 -9.747522324323654175e-02 1.108618751168251038e-01
7.342706620693206787e-02 -3.391617164015769958e-02 2.423534691333770752e-01
1.572161018848419189e-01 -5.442012101411819458e-02 4.438395425677299500e-02
-6.034515425562858582e-02 -6.914911419153213501e-02 1.556884050369262695e-01
2.160205319523811340e-02 -2.923724055290222168e-02 2.334509491920471191e-01
-8.024160563945770264e-02 -4.543675854802131653e-02 3.098975494503974915e-02
1.911932975053787231e-02 4.164002463221549988e-02 2.415270358324050903e-02
1.252444088459014893e-01 -7.634587585926055908e-02 1.661964505910873413e-01
-6.589969992637634277e-02 -2.061706781387329102e-02 4.221281409263610840e-02
1.607986539602279663e-01 -4.763885959982872009e-02 5.568293854594230652e-02
-2.927451208233833313e-02 1.525912806391716003e-02 4.872611165046691895e-02
-6.948986649513244629e-02 -4.892593994736671448e-02 1.167646944522857666e-01
7.023169100284576416e-02 -9.511578083038330078e-02 2.105686366558074951e-01
1.287372112274169922e-01 -8.417953550815582275e-02 -7.320355623960494995e-03
1.570924967527389526e-01 1.338796690106391907e-02 1.004360616207122803e-01
1.101278364658355713e-01 -1.081521809101104736e-01 8.004388213157653809e-02
1.561985611915588379e-01 -1.514154858887195587e-02 1.423087865114212036e-01
4.793963208794593811e-02 -1.341382712125778198e-01 -4.860278218984603882e-03
1.558129936456680298e-01 1.790305599570274353e-02 1.982203498482704163e-02
6.285203993320465088e-02 -1.164168566465377808e-01 1.728648245334625244e-01
-1.048525050282478333e-02 2.295517548918724060e-02 9.106797724962234497e-02
-5.321078002452850342e-03 1.597025990486145020e-02 1.348427832126617432e-01
9.462093561887741089e-02 -9.203860908746719360e-02 -7.201997190713882446e-02
7.176262140274047852e-02 3.612497076392173767e-02 -7.169245928525924683e-02
-3.516217693686485291e-02 -1.507559418678283691e-02 1.526924371719360352e-01
1.210218481719493866e-02 9.594932198524475098e-04 -1.224598512053489685e-01
-3.656937554478645325e-02 6.269067525863647461e-03 7.909817993640899658e-02
5.800954997539520264e-02 -3.321613371372222900e-02 -1.507814228534698486e-01
-6.488315761089324951e-03 3.001659736037254333e-02 4.067412391304969788e-02
1.116670519113540649e-01 3.148554638028144836e-02 -5.849022418260574341e-02
1.231359094381332397e-01 -8.196347951889038086e-02 -3.365535289049148560e-02
6.381561607122421265e-02 2.612615749239921570e-02 1.771648824214935303e-01
-2.378493174910545349e-02 1.595607399940490723e-02 -2.377568930387496948e-02
8.914431929588317871e-02 4.496066644787788391e-02 -3.490063548088073730e-02
-7.121022045612335205e-02 -7.590997964143753052e-02 1.286772638559341431e-01
1.299949139356613159e-01 4.246180132031440735e-02 5.541674792766571045e-02
-5.944130942225456238e-02 -7.771354168653488159e-02 -8.887001127004623413e-02
9.572809934616088867e-02 -1.624411903321743011e-02 2.272266149520874023e-01
-2.589122578501701355e-02 1.817945018410682678e-02 1.839185319840908051e-02
-7.895423471927642822e-02 -7.187024503946304321e-02 -3.851172327995300293e-02
-3.185532987117767334e-03 -1.283808797597885132e-01 -6.247301399707794189e-02
1.109294444322586060e-01 -2.611238509416580200e-02 -1.128096804022789001e-01
1.386186331510543823e-01 -6.108780950307846069e-02 -3.549914062023162842e-02
-1.092676073312759399e-02 2.689669653773307800e-02 3.508746623992919922e-03
-7.849052548408508301e-02 -4.694601148366928101e-02 6.727388501167297363e-02
-5.343884602189064026e-02 -2.716073952615261078e-02 -7.299985736608505249e-02
-4.320159554481506348e-03 3.001749888062477112e-02 6.169109791517257690e-02
1.207702308893203735e-01 -9.556335955858230591e-02 9.696505963802337646e-03
3.114781901240348816e-02 -9.745459258556365967e-02 -1.202469393610954285e-01
-3.219959512352943420e-02 8.461933583021163940e-03 -3.156191110610961914e-02
1.333744265139102936e-02 -1.173064559698104858e-01 -8.993624895811080933e-02
2.690120600163936615e-02 -1.306814402341842651e-01 -4.672969877719879150e-02
6.058117002248764038e-02 -1.343751847743988037e-01 7.782799005508422852e-02
1.086209416389465332e-01 2.342593297362327576e-02 -7.866719365119934082e-02
-4.529318585991859436e-02 -3.234213963150978088e-02 -9.750769287347793579e-02
1.377089023590087891e-01 -6.254331767559051514e-02 1.602102220058441162e-01
6.202872842550277710e-02 4.104196652770042419e-02 1.313052177429199219e-01
-3.309404477477073669e-02 -3.067578002810478210e-02 1.800238490104675293e-01
-3.153127059340476990e-02 -4.911627620458602905e-03 1.381419301033020020e-01
1.265823841094970703e-01 -9.430705010890960693e-02 4.349774867296218872e-02
3.014905005693435669e-02 1.738512888550758362e-02 -1.057990863919258118e-01
1.440318673849105835e-01 3.151593729853630066e-02 1.920940913259983063e-02
-2.266187220811843872e-03 -1.247657835483551025e-01 1.705439537763595581e-01
1.251819282770156860e-01 -9.444463998079299927e-02 9.850203245878219604e-02
1.167095452547073364e-01 4.694657400250434875e-02 2.121386863291263580e-02
1.028864532709121704e-01 4.930416867136955261e-02 8.029726147651672363e-02
1.497987210750579834e-01 2.183349058032035828e-02 1.709047704935073853e-03
-5.494303628802299500e-02 -1.479331776499748230e-02 9.225812554359436035e-02
5.447887256741523743e-02 -7.094513624906539917e-02 2.408488988876342773e-01
1.085303127765655518e-01 -3.716541081666946411e-02 2.233276069164276123e-01
-4.318789020180702209e-02 -5.819806456565856934e-02 -1.155109331011772156e-01
1.070333421230316162e-01 4.479535296559333801e-02 -1.789260655641555786e-02
9.381723403930664062e-02 -1.175089627504348755e-01 9.834174811840057373e-02
-1.334890723228454590e-03 1.178152859210968018e-03 1.780765950679779053e-01
1.440725177526473999e-01 -6.110695749521255493e-02 1.429612934589385986e-01
7.917334139347076416e-02 -1.129055619239807129e-01 -4.266411066055297852e-02
4.356622695922851562e-03 -1.406728178262710571e-01 1.151165589690208435e-01
-4.042336717247962952e-02 -1.213783025741577148e-01 1.434297561645507812e-01
-2.687233313918113708e-02 -9.300355613231658936e-02 -1.161368414759635925e-01
1.651297956705093384e-01 1.995712518692016602e-03 4.648274183273315430e-02
6.966959685087203979e-02 -1.090276539325714111e-01 -6.918909400701522827e-02
6.094176322221755981e-03 -1.441997140645980835e-01 1.795216649770736694e-02
-4.375658929347991943e-03 2.667795494198799133e-02 -2.990996837615966797e-02
2.915325760841369629e-02 -2.320374734699726105e-02 -1.507312059402465820e-01
-1.843165606260299683e-02 -2.124643512070178986e-02 1.905480325222015381e-01
1.464324742555618286e-01 2.970948442816734314e-02 8.256995677947998047e-02
1.203975677490234375e-01 4.260311648249626160e-02 9.743987023830413818e-02
1.000512391328811646e-03 -9.897433221340179443e-02 -1.209376081824302673e-01
-7.702644914388656616e-03 -7.662832736968994141e-03 1.853650510311126709e-01
7.523497939109802246e-02 -1.698211207985877991e-02 2.348148524761199951e-01
2.938034944236278534e-02 -8.237940073013305664e-02 2.350557446479797363e-01
-5.670973286032676697e-02 -1.178856045007705688e-01 1.199880018830299377e-01
1.104744672775268555e-01 -9.430959820747375488e-02 -3.280514478683471680e-02
1.352945715188980103e-01 3.599623218178749084e-02 4.786301404237747192e-03
-1.291220262646675110e-02 -8.607982099056243896e-02 2.153114080429077148e-01
-4.077871516346931458e-02 -2.930919267237186432e-02 1.645848751068115234e-01
9.086025506258010864e-02 4.350521042943000793e-02 1.245352029800415039e-01
8.307459950447082520e-02 -1.238311231136322021e-01 9.277467429637908936e-02
5.387994647026062012e-02 -9.222392737865447998e-02 2.231382131576538086e-01
2.711911685764789581e-02 2.911168709397315979e-02 -7.472594827413558960e-02
-8.382660150527954102e-02 -6.751190125942230225e-02 6.903222203254699707e-02
1.145739555358886719e-01 1.293240860104560852e-02 -8.774242550134658813e-02
7.546196132898330688e-02 -1.257996410131454468e-01 1.244878768920898438e-02
1.413407772779464722e-01 1.891459897160530090e-02 1.390995830297470093e-01
8.822473883628845215e-02 -2.908275835216045380e-02 -1.344883441925048828e-01
1.312757581472396851e-01 -2.962660044431686401e-03 -7.876349240541458130e-02
1.347350329160690308e-01 -1.062978059053421021e-03 1.802001893520355225e-01
2.152472361922264099e-02 -1.349896192550659180e-01 1.403286159038543701e-01
9.188824892044067383e-02 -1.161937564611434937e-01 6.231460720300674438e-03
5.085906758904457092e-02 -1.182848960161209106e-01 -6.609576940536499023e-02
-2.427877858281135559e-02 -1.415856927633285522e-01 8.414138108491897583e-02
1.649824231863021851e-01 -2.641189843416213989e-03 2.927495352923870087e-02
7.526260614395141602e-02 5.081978067755699158e-02 -3.302305936813354492e-03
1.030803620815277100e-01 -1.096741259098052979e-01 1.094406098127365112e-02
-5.331436172127723694e-02 -3.675833344459533691e-02 -8.669725805521011353e-02
1.301268488168716431e-02 -8.511105179786682129e-02 2.296970486640930176e-01
-7.823954522609710693e-02 -4.212081432342529297e-02 7.317505776882171631e-03
1.077034771442413330e-01 -5.281740427017211914e-02 2.196602523326873779e-01
1.168429702520370483e-01 -7.289379835128784180e-03 -1.017793193459510803e-01
4.127889871597290039e-03 -1.240230202674865723e-01 -7.491730153560638428e-02
-1.974209025502204895e-02 -6.685014069080352783e-02 2.152178883552551270e-01
5.307360738515853882e-02 4.794948920607566833e-02 8.463861048221588135e-02
9.907296299934387207e-02 1.345649361610412598e-03 2.116742432117462158e-01
-8.918024599552154541e-03 -1.104066669940948486e-01 1.941248476505279541e-01
7.069221138954162598e-02 8.456662297248840332e-03 -1.230764016509056091e-01
-4.780143499374389648e-03 -7.378785312175750732e-02 2.262098789215087891e-01
4.568351432681083679e-02 4.872680827975273132e-02 1.098794862627983093e-02
-5.314337834715843201e-02 -5.594667047262191772e-03 6.422255188226699829e-03
