5.519322156906127930e-01 -4.727401733398437500e-01 -6.313608288764953613e-01
-8.558237552642822266e-02 -5.170345902442932129e-01 -6.796677112579345703e-01
2.739020287990570068e-01 -5.051531791687011719e-01 -6.332983374595642090e-01
-2.793574929237365723e-01 -4.486353695392608643e-01 -6.448224782943725586e-01
-2.168578505516052246e-01 -5.022784471511840820e-01 -6.429209709167480469e-01
3.557888269424438477e-01 -4.189963340759277344e-01 -6.196790337562561035e-01
1.410963088274002075e-01 -5.073834657669067383e-01 -6.326320171356201172e-01
5.149613618850708008e-01 -3.998905122280120850e-01 -6.325114965438842773e-01
1.918280571699142456e-01 -4.663949608802795410e-01 -6.911652088165283203e-01
1.895561218261718750e-01 -3.960999250411987305e-01 -6.617082953453063965e-01
6.351438164710998535e-02 -5.276264548301696777e-01 -6.488900780677795410e-01
3.830011188983917236e-01 -5.192990303039550781e-01 -6.715649366378784180e-01
3.972241282463073730e-01 -4.666339457035064697e-01 -6.220656633377075195e-01
-2.868621051311492920e-02 -4.175972342491149902e-01 -6.278414130210876465e-01
9.054985642433166504e-02 -4.809830784797668457e-01 -6.911851167678833008e-01
-2.683316767215728760e-01 -4.931197166442871094e-01 -6.721801757812500000e-01
6.316443085670471191e-01 -4.750967025756835938e-01 -6.726009845733642578e-01
-6.951314210891723633e-02 -4.936878979206085205e-01 -6.868056058883666992e-01
7.305914163589477539e-02 -5.064361095428466797e-01 -6.879861354827880859e-01
9.572365134954452515e-02 -5.092882513999938965e-01 -6.337329745292663574e-01
3.435263037681579590e-02 -4.365372061729431152e-01 -6.822672486305236816e-01
7.191619277000427246e-02 -4.212058782577514648e-01 -6.216031312942504883e-01
-1.400734484195709229e-02 -4.169617295265197754e-01 -6.271598935127258301e-01
4.573993682861328125e-01 -4.290878772735595703e-01 -6.799586415290832520e-01
-4.695653915405273438e-02 -5.167887210845947266e-01 -6.815677285194396973e-01
-3.863847255706787109e-02 -5.113704204559326172e-01 -6.373410820960998535e-01
4.232434630393981934e-01 -5.081346035003662109e-01 -6.784996986389160156e-01
2.438716888427734375e-01 -5.201389193534851074e-01 -6.435036063194274902e-01
1.441728174686431885e-01 -4.390231072902679443e-01 -6.174299120903015137e-01
1.980988085269927979e-01 -4.256462454795837402e-01 -6.815175414085388184e-01
2.964403927326202393e-01 -4.862993359565734863e-01 -6.251863837242126465e-01
-2.182268798351287842e-01 -5.003260374069213867e-01 -6.764723658561706543e-01
1.440017521381378174e-01 -5.110713839530944824e-01 -6.868178844451904297e-01
1.261411607265472412e-01 -4.217305183410644531e-01 -6.199633479118347168e-01
4.403120279312133789e-01 -4.525876641273498535e-01 -6.858574151992797852e-01
5.815844535827636719e-01 -4.019623398780822754e-01 -6.564607024192810059e-01
2.265332192182540894e-01 -4.728032052516937256e-01 -6.203605532646179199e-01
1.313279569149017334e-02 -4.988349080085754395e-01 -6.885994076728820801e-01
1.926895827054977417e-01 -4.445265829563140869e-01 -6.875639557838439941e-01
3.147432208061218262e-02 -5.291918516159057617e-01 -6.744963526725769043e-01
3.210960626602172852e-01 -4.047898054122924805e-01 -6.235217452049255371e-01
-1.802536845207214355e-02 -5.153594017028808594e-01 -6.393032073974609375e-01
-5.009737610816955566e-02 -5.270084142684936523e-01 -6.519344449043273926e-01
2.455542981624603271e-01 -5.296686291694641113e-01 -6.674721240997314453e-01
-1.479648649692535400e-01 -4.634560346603393555e-01 -6.275267601013183594e-01
9.854517877101898193e-02 -4.989956915378570557e-01 -6.898004412651062012e-01
5.037767887115478516e-01 -4.907526373863220215e-01 -6.362662911415100098e-01
-1.510120630264282227e-01 -4.995225369930267334e-01 -6.363209486007690430e-01
-9.142822027206420898e-02 -4.098093509674072266e-01 -6.444470286369323730e-01
4.634159803390502930e-01 -5.032671689987182617e-01 -6.417765021324157715e-01
1.159444376826286316e-01 -4.048013389110565186e-01 -6.267153620719909668e-01
5.186191797256469727e-01 -4.712168574333190918e-01 -6.831091046333312988e-01
4.085332453250885010e-01 -4.370386898517608643e-01 -6.190915107727050781e-01
2.210504859685897827e-01 -4.676441550254821777e-01 -6.912233233451843262e-01
3.161064386367797852e-01 -5.081465244293212891e-01 -6.365422606468200684e-01
4.921573400497436523e-01 -3.925815820693969727e-01 -6.394576430320739746e-01
-6.349587440490722656e-02 -4.739901721477508545e-01 -6.871314048767089844e-01
-2.654850482940673828e-02 -4.217260777950286865e-01 -6.724374890327453613e-01
-1.757451593875885010e-01 -4.443456232547760010e-01 -6.306536793708801270e-01
4.404090642929077148e-01 -4.262743890285491943e-01 -6.795191168785095215e-01
3.548497557640075684e-01 -4.542827010154724121e-01 -6.883164048194885254e-01
4.527206420898437500e-01 -4.819335341453552246e-01 -6.288802623748779297e-01
9.697888791561126709e-02 -4.455250501632690430e-01 -6.866623759269714355e-01
6.520539522171020508e-01 -4.622694849967956543e-01 -6.725480556488037109e-01
1.733303517103195190e-01 -4.205647110939025879e-01 -6.193505525588989258e-01
5.472989082336425781e-01 -4.473043084144592285e-01 -6.251904368400573730e-01
2.058180719614028931e-01 -4.059649407863616943e-01 -6.709997057914733887e-01
-2.763878107070922852e-01 -4.524579942226409912e-01 -6.640245318412780762e-01
2.398148924112319946e-01 -4.019469022750854492e-01 -6.250936388969421387e-01
4.279976487159729004e-01 -3.945617079734802246e-01 -6.598322391510009766e-01
3.535175919532775879e-01 -4.147476255893707275e-01 -6.764346957206726074e-01
-1.037019193172454834e-01 -4.734784960746765137e-01 -6.853580474853515625e-01
-3.077906966209411621e-01 -4.555329084396362305e-01 -6.537170410156250000e-01
4.060445427894592285e-01 -4.035223424434661865e-01 -6.687353253364562988e-01
1.835826337337493896e-01 -5.180870890617370605e-01 -6.833338141441345215e-01
6.973983049392700195e-01 -4.569269418716430664e-01 -6.420645117759704590e-01
6.368035078048706055e-01 -4.165131747722625732e-01 -6.631422638893127441e-01
7.271237671375274658e-02 -4.386773705482482910e-01 -6.841152906417846680e-01
3.155934810638427734e-01 -4.602701067924499512e-01 -6.189824938774108887e-01
3.648119568824768066e-01 -4.580640792846679688e-01 -6.196028590202331543e-01
-6.098872423171997070e-02 -5.036326646804809570e-01 -6.339141130447387695e-01
2.711433172225952148e-01 -4.532031416893005371e-01 -6.892588734626770020e-01
4.490993022918701172e-01 -5.156692266464233398e-01 -6.577490568161010742e-01
4.859650135040283203e-01 -4.304757416248321533e-01 -6.218254566192626953e-01
5.887109637260437012e-01 -4.371187388896942139e-01 -6.758226752281188965e-01
4.288061559200286865e-01 -4.631998538970947266e-01 -6.872110366821289062e-01
2.083680033683776855e-01 -5.312292575836181641e-01 -6.602289676666259766e-01
2.992580831050872803e-02 -4.882234334945678711e-01 -6.900411844253540039e-01
-2.614100575447082520e-01 -4.720316827297210693e-01 -6.378876566886901855e-01
1.420789361000061035e-01 -5.253312587738037109e-01 -6.463227272033691406e-01
1.532722711563110352e-01 -4.152796566486358643e-01 -6.758407354354858398e-01
-1.411035954952239990e-01 -5.249470472335815430e-01 -6.647998690605163574e-01
4.482685327529907227e-01 -4.863799512386322021e-01 -6.850452423095703125e-01
1.080614477396011353e-01 -5.284219384193420410e-01 -6.498419046401977539e-01
3.131556510925292969e-01 -5.001676678657531738e-01 -6.873075366020202637e-01
-4.683777689933776855e-03 -4.072777926921844482e-01 -6.326857805252075195e-01
-1.689353883266448975e-01 -4.304647743701934814e-01 -6.347106695175170898e-01
3.447047472000122070e-01 -5.228434205055236816e-01 -6.541635394096374512e-01
1.200453415513038635e-01 -4.461942911148071289e-01 -6.176276206970214844e-01
6.560832262039184570e-03 -4.181731939315795898e-01 -6.720913052558898926e-01
3.219063282012939453e-01 -4.308802485466003418e-01 -6.177251935005187988e-01
4.231789708137512207e-01 -4.498268961906433105e-01 -6.201232671737670898e-01
-9.374588727951049805e-03 -4.476960301399230957e-01 -6.207401752471923828e-01
6.534419059753417969e-01 -4.726265668869018555e-01 -6.420532464981079102e-01
6.301631033420562744e-02 -4.079264104366302490e-01 -6.273635625839233398e-01
-2.227985262870788574e-01 -4.589335918426513672e-01 -6.744090318679809570e-01
-2.756045758724212646e-01 -5.023844242095947266e-01 -6.521055698394775391e-01
-1.140871942043304443e-01 -4.454067349433898926e-01 -6.258463859558105469e-01
1.388161778450012207e-01 -4.340199828147888184e-01 -6.839042305946350098e-01
2.615711092948913574e-01 -3.874192535877227783e-01 -6.473535895347595215e-01
6.235074996948242188e-01 -4.210700392723083496e-01 -6.672506928443908691e-01
5.663832426071166992e-01 -4.663843214511871338e-01 -6.302734017372131348e-01
-5.415090918540954590e-02 -4.713321626186370850e-01 -6.239017844200134277e-01
1.391987502574920654e-02 -4.522394537925720215e-01 -6.863009929656982422e-01
5.035851001739501953e-01 -4.694674015045166016e-01 -6.272243857383728027e-01
4.119372665882110596e-01 -3.918653428554534912e-01 -6.343297362327575684e-01
-2.548041641712188721e-01 -4.665235579013824463e-01 -6.729273796081542969e-01
4.970265924930572510e-02 -4.394220709800720215e-01 -6.192915439605712891e-01
8.301261812448501587e-02 -5.257919430732727051e-01 -6.787694096565246582e-01
5.019604563713073730e-01 -4.540001749992370605e-01 -6.835845112800598145e-01
1.367478072643280029e-02 -5.070179700851440430e-01 -6.335186958312988281e-01
1.772188544273376465e-01 -5.319509506225585938e-01 -6.674360036849975586e-01
-1.107443571090698242e-01 -4.314449429512023926e-01 -6.284506916999816895e-01
2.412562370300292969e-01 -4.246214032173156738e-01 -6.813836693763732910e-01
8.132616430521011353e-02 -5.146850347518920898e-01 -6.371385455131530762e-01
7.849685102701187134e-02 -4.517813026905059814e-01 -6.878065466880798340e-01
4.107788801193237305e-01 -5.149448513984680176e-01 -6.489912867546081543e-01
-1.476847231388092041e-01 -4.572697877883911133e-01 -6.800883412361145020e-01
1.014245823025703430e-01 -4.336722791194915771e-01 -6.185442805290222168e-01
4.820789396762847900e-01 -5.096879005432128906e-01 -6.702343821525573730e-01
5.759150981903076172e-01 -4.535413980484008789e-01 -6.278694868087768555e-01
-6.900960206985473633e-02 -4.290086328983306885e-01 -6.261978745460510254e-01
7.503919303417205811e-02 -4.963576197624206543e-01 -6.277490258216857910e-01
-6.104007363319396973e-02 -5.178955197334289551e-01 -6.427372097969055176e-01
3.394769430160522461e-01 -4.002619683742523193e-01 -6.259009838104248047e-01
3.735700249671936035e-01 -4.356945157051086426e-01 -6.841157674789428711e-01
3.746751546859741211e-01 -5.000246167182922363e-01 -6.339149475097656250e-01
3.663370609283447266e-01 -4.806898236274719238e-01 -6.889785528182983398e-01
1.520922333002090454e-01 -3.914098441600799561e-01 -6.512094140052795410e-01
-5.733841657638549805e-02 -4.057092070579528809e-01 -6.485646367073059082e-01
6.958067417144775391e-01 -4.425294399261474609e-01 -6.386114954948425293e-01
-2.522464692592620850e-01 -4.473302066326141357e-01 -6.654322743415832520e-01
6.208732724189758301e-01 -4.482426345348358154e-01 -6.305107474327087402e-01
3.560405671596527100e-01 -5.171111226081848145e-01 -6.465094685554504395e-01
3.133408427238464355e-01 -4.195719659328460693e-01 -6.190866231918334961e-01
5.950902402400970459e-02 -5.306138992309570312e-01 -6.730524301528930664e-01
1.557645201683044434e-02 -4.772934317588806152e-01 -6.897829771041870117e-01
1.846244484186172485e-01 -4.782795906066894531e-01 -6.916910409927368164e-01
1.731223315000534058e-01 -5.043227672576904297e-01 -6.311720609664916992e-01
1.605769693851470947e-01 -4.371685385704040527e-01 -6.852452754974365234e-01
3.066059947013854980e-02 -4.627161622047424316e-01 -6.202596426010131836e-01
-4.987952113151550293e-02 -4.248729944229125977e-01 -6.728969216346740723e-01
2.243761718273162842e-02 -4.211584627628326416e-01 -6.747306585311889648e-01
2.906571328639984131e-01 -4.090377092361450195e-01 -6.217486858367919922e-01
5.359158515930175781e-01 -4.831025004386901855e-01 -6.346220374107360840e-01
1.879279315471649170e-01 -4.353477060794830322e-01 -6.171857118606567383e-01
6.679139733314514160e-01 -4.741346240043640137e-01 -6.667890548706054688e-01
3.468394279479980469e-01 -3.877025842666625977e-01 -6.396903395652770996e-01
-3.235338628292083740e-02 -5.240888595581054688e-01 -6.472839713096618652e-01
5.590659379959106445e-01 -4.900951087474822998e-01 -6.410100460052490234e-01
3.775253295898437500e-01 -3.900219798088073730e-01 -6.550189852714538574e-01
1.200399622321128845e-01 -5.331498384475708008e-01 -6.611818075180053711e-01
-1.330905258655548096e-01 -5.221049785614013672e-01 -6.519922614097595215e-01
3.274272084236145020e-01 -5.156627893447875977e-01 -6.430761814117431641e-01
4.246661961078643799e-01 -4.879233241081237793e-01 -6.300452351570129395e-01
-7.808667421340942383e-02 -4.910531640052795410e-01 -6.295044422149658203e-01
5.053208470344543457e-01 -5.068362355232238770e-01 -6.510129570960998535e-01
-1.614461839199066162e-01 -5.084631443023681641e-01 -6.418393254280090332e-01
6.967506408691406250e-01 -4.358977377414703369e-01 -6.641391515731811523e-01
-5.203688144683837891e-02 -4.191685914993286133e-01 -6.287870407104492188e-01
6.672686934471130371e-01 -4.597617685794830322e-01 -6.707992553710937500e-01
2.975918650627136230e-01 -4.256369173526763916e-01 -6.817260384559631348e-01
-2.886942625045776367e-01 -4.600357115268707275e-01 -6.423906683921813965e-01
3.822616934776306152e-01 -4.147395491600036621e-01 -6.210524439811706543e-01
3.713639974594116211e-01 -3.951976299285888672e-01 -6.297699213027954102e-01
-8.637985587120056152e-02 -4.373441338539123535e-01 -6.770356297492980957e-01
1.534810662269592285e-01 -4.516678452491760254e-01 -6.888660192489624023e-01
3.285206556320190430e-01 -3.870369195938110352e-01 -6.477710008621215820e-01
9.585440158843994141e-03 -4.373751580715179443e-01 -6.817080378532409668e-01
6.467968225479125977e-02 -4.644201993942260742e-01 -6.897280216217041016e-01
-1.816462576389312744e-01 -5.140864849090576172e-01 -6.480345129966735840e-01
1.207846403121948242e-01 -4.127890169620513916e-01 -6.734994649887084961e-01
-2.340147197246551514e-01 -5.009983181953430176e-01 -6.745345592498779297e-01
4.214082062244415283e-01 -4.336647391319274902e-01 -6.824521422386169434e-01
7.103657722473144531e-01 -4.374358952045440674e-01 -6.412673592567443848e-01
-1.367423832416534424e-01 -5.017271041870117188e-01 -6.364964842796325684e-01
8.781144767999649048e-02 -4.735729694366455078e-01 -6.209297776222229004e-01
1.469439268112182617e-01 -4.941141605377197266e-01 -6.265121102333068848e-01
-1.448220610618591309e-01 -4.174237549304962158e-01 -6.436533331871032715e-01
3.922359049320220947e-01 -4.799805581569671631e-01 -6.882173418998718262e-01
-2.648135721683502197e-01 -4.893611669540405273e-01 -6.422720551490783691e-01
6.463180780410766602e-01 -4.371294081211090088e-01 -6.320680379867553711e-01
-1.439251899719238281e-01 -4.707700610160827637e-01 -6.829241514205932617e-01
1.262220740318298340e-01 -4.605147242546081543e-01 -6.901108622550964355e-01
6.454302072525024414e-01 -4.416480064392089844e-01 -6.721217036247253418e-01
4.697735905647277832e-01 -4.081193804740905762e-01 -6.698073744773864746e-01
1.183508634567260742e-01 -4.324711263179779053e-01 -6.829811334609985352e-01
-1.239703595638275146e-01 -4.553832709789276123e-01 -6.810809969902038574e-01
-3.686335682868957520e-02 -4.787450730800628662e-01 -6.247114539146423340e-01
-9.908458590507507324e-02 -5.030568838119506836e-01 -6.840764880180358887e-01
3.433098196983337402e-01 -4.039287865161895752e-01 -6.701061129570007324e-01
-1.822335422039031982e-01 -5.024351477622985840e-01 -6.791192293167114258e-01
5.037668943405151367e-01 -4.285619556903839111e-01 -6.227129101753234863e-01
-2.690251171588897705e-02 -4.684233069419860840e-01 -6.878778338432312012e-01
-5.215188264846801758e-01 2.529334649443626404e-02 -2.840618491172790527e-01
-5.153056383132934570e-01 2.052284777164459229e-02 1.174935251474380493e-01
-5.449826717376708984e-01 -3.208278864622116089e-02 -2.446883916854858398e-02
-4.931016266345977783e-01 -9.049615263938903809e-02 6.751600503921508789e-01
-4.838732182979583740e-01 -3.712981566786766052e-02 -3.068891167640686035e-01
-4.898598492145538330e-01 -2.630945295095443726e-02 3.667582571506500244e-01
-5.337990522384643555e-01 -7.034899294376373291e-02 3.636492490768432617e-01
-4.931407570838928223e-01 -2.668404579162597656e-02 4.502831697463989258e-01
-4.995300173759460449e-01 -5.285956710577011108e-02 7.373535633087158203e-01
-5.140359997749328613e-01 -8.059342205524444580e-02 1.959338784217834473e-03
-4.946848750114440918e-01 -4.256357252597808838e-02 6.203634142875671387e-01
-4.919446706771850586e-01 -5.699850618839263916e-03 -7.544280588626861572e-02
-4.744163453578948975e-01 -5.527031794190406799e-02 -2.248600125312805176e-02
-5.452301502227783203e-01 -4.436903074383735657e-02 1.825240552425384521e-01
-5.335171222686767578e-01 -5.055632814764976501e-02 -8.034704625606536865e-02
-4.840504527091979980e-01 -8.311922103166580200e-02 5.837627053260803223e-01
-5.106689929962158203e-01 -3.815204650163650513e-02 7.689952850341796875e-01
-5.018742680549621582e-01 -1.353774219751358032e-03 2.821624279022216797e-01
-5.309579968452453613e-01 4.941929131746292114e-03 5.639034509658813477e-01
-5.349792242050170898e-01 3.163940459489822388e-02 -2.012285441160202026e-01
-4.841754436492919922e-01 -4.709653183817863464e-02 4.491798877716064453e-01
-5.031795501708984375e-01 -1.010572090744972229e-01 3.679729700088500977e-01
-4.959205687046051025e-01 -3.556471318006515503e-03 -3.015643358230590820e-01
-5.191978216171264648e-01 -8.217483758926391602e-02 1.341300904750823975e-01
-4.767470359802246094e-01 -7.244478166103363037e-02 3.969767093658447266e-01
-5.461944341659545898e-01 -3.067161887884140015e-02 -4.942327737808227539e-03
-5.382962822914123535e-01 -2.306642383337020874e-02 7.446908950805664062e-01
-4.803796708583831787e-01 -5.794776231050491333e-02 4.339216947555541992e-01
-4.795701503753662109e-01 -4.214135557413101196e-02 2.379176616668701172e-01
-4.972074925899505615e-01 8.022077381610870361e-04 -2.502323985099792480e-01
-5.545977950096130371e-01 1.688354834914207458e-02 3.267575800418853760e-02
-5.568364262580871582e-01 6.616111844778060913e-03 2.729479670524597168e-01
-4.982609748840332031e-01 3.739833831787109375e-03 -1.982868462800979614e-01
-4.849528074264526367e-01 -5.439981073141098022e-02 5.228769779205322266e-01
-4.973032176494598389e-01 -7.348343729972839355e-02 7.575108408927917480e-01
-5.007697939872741699e-01 -3.210359811782836914e-02 6.311044692993164062e-01
-5.238216519355773926e-01 -8.418383449316024780e-02 3.984322547912597656e-01
-5.315765142440795898e-01 -1.443879306316375732e-02 -3.850002884864807129e-01
-4.832395315170288086e-01 -2.657685801386833191e-02 1.100146323442459106e-01
-5.341556072235107422e-01 -7.047004997730255127e-02 4.475741982460021973e-01
-4.954018890857696533e-01 -9.333105385303497314e-02 2.641715109348297119e-02
-5.196902155876159668e-01 -5.263496190309524536e-02 -2.706223130226135254e-01
-5.353998541831970215e-01 -4.870204627513885498e-02 -6.296190619468688965e-02
-5.182669758796691895e-01 1.264837384223937988e-02 3.536900579929351807e-01
-5.341758728027343750e-01 1.525609195232391357e-02 -3.752668499946594238e-01
-5.413767099380493164e-01 -1.188641600310802460e-02 6.832795143127441406e-01
-4.844361841678619385e-01 -1.010441631078720093e-01 4.058782458305358887e-01
-4.910473823547363281e-01 -7.984565570950508118e-03 -2.851992845535278320e-03
-5.491662025451660156e-01 -3.740105032920837402e-02 2.495244741439819336e-01
-5.406541228294372559e-01 3.032685071229934692e-02 -1.858639270067214966e-01
-4.735970795154571533e-01 -7.577136158943176270e-02 2.511067390441894531e-01
-4.738733172416687012e-01 -5.854810029268264771e-02 1.238012164831161499e-01
-4.737461209297180176e-01 -7.399141788482666016e-02 9.863272309303283691e-03
-5.445869565010070801e-01 -4.084649309515953064e-02 8.573209494352340698e-02
-5.002648830413818359e-01 -5.948608368635177612e-02 7.660592198371887207e-01
-5.026243329048156738e-01 -9.920918196439743042e-02 2.492631673812866211e-01
-4.872608482837677002e-01 -1.825125329196453094e-02 -2.396480590105056763e-01
-5.030278563499450684e-01 -9.194727987051010132e-02 7.070581912994384766e-01
-5.016822814941406250e-01 -3.553667664527893066e-02 -4.590163826942443848e-01
-4.784163832664489746e-01 -7.266619801521301270e-02 4.506377577781677246e-01
-5.475797057151794434e-01 3.075466305017471313e-02 1.989948749542236328e-02
-4.913181066513061523e-01 -3.730472549796104431e-02 5.207791328430175781e-01
-5.315375328063964844e-01 3.261681646108627319e-02 -1.600120514631271362e-01
-4.923615455627441406e-01 -4.229416698217391968e-02 5.807353258132934570e-01
-5.270835757255554199e-01 -7.997438311576843262e-02 5.414164662361145020e-01
-5.162264704704284668e-01 1.359684765338897705e-02 -4.090711474418640137e-01
-5.214741230010986328e-01 2.876473963260650635e-02 -9.547962248325347900e-02
-4.986718595027923584e-01 -2.843279391527175903e-03 2.212879508733749390e-01
-5.188785195350646973e-01 -8.840606361627578735e-02 5.883675217628479004e-01
-5.147904157638549805e-01 -6.051202118396759033e-02 -2.472225874662399292e-01
-5.454897880554199219e-01 9.254299104213714600e-03 -2.464980036020278931e-01
-5.088741183280944824e-01 -3.589484840631484985e-03 4.553090929985046387e-01
-5.343890190124511719e-01 2.370000630617141724e-02 -3.229504227638244629e-01
-4.780525565147399902e-01 -5.437644571065902710e-02 3.279224932193756104e-01
-4.887997210025787354e-01 -1.303992792963981628e-02 4.476061463356018066e-02
-5.324077606201171875e-01 3.310777246952056885e-02 -1.408867090940475464e-01
-5.421156883239746094e-01 3.329643607139587402e-02 5.783892422914505005e-02
-5.282473564147949219e-01 3.237639367580413818e-02 -7.743264734745025635e-02
-5.021463632583618164e-01 -5.422258377075195312e-02 -3.729891180992126465e-01
-5.300096869468688965e-01 3.072554618120193481e-02 -2.210582941770553589e-01
-5.092116594314575195e-01 1.823703572154045105e-02 -9.497536718845367432e-02
-4.776556789875030518e-01 -3.997681289911270142e-02 2.506683766841888428e-02
-5.432795286178588867e-01 -5.382354557514190674e-02 4.415546059608459473e-01
-4.891441166400909424e-01 -1.029414832592010498e-01 4.418762326240539551e-01
-5.488647818565368652e-01 -2.539798244833946228e-02 6.148324012756347656e-01
-5.517007708549499512e-01 -3.172276169061660767e-02 4.075185656547546387e-01
-4.974927902221679688e-01 -6.702995300292968750e-02 -2.887488603591918945e-01
-5.014995336532592773e-01 -3.873411193490028381e-02 6.867312192916870117e-01
-5.361819267272949219e-01 3.378512710332870483e-02 -1.145073026418685913e-01
-4.748277068138122559e-01 -5.536391586065292358e-02 1.663378030061721802e-01
-5.567221045494079590e-01 4.914119839668273926e-03 1.259317547082901001e-01
-4.939559996128082275e-01 -7.905779778957366943e-02 7.228547334671020508e-01
-5.083004832267761230e-01 -8.235992491245269775e-02 -4.697094857692718506e-02
-5.356445312500000000e-01 -6.310938298702239990e-02 6.530022621154785156e-01
-5.421884059906005859e-01 -4.006987065076828003e-02 7.061026096343994141e-01
-5.051692128181457520e-01 1.085473969578742981e-02 -2.839197516441345215e-01
-5.411168932914733887e-01 -2.170255780220031738e-02 -2.091775089502334595e-01
-5.259171128273010254e-01 -7.563090324401855469e-02 1.631318181753158569e-01
-4.950639605522155762e-01 -5.896054208278656006e-04 -1.469039469957351685e-01
-4.919406473636627197e-01 -8.394447714090347290e-02 -1.242146641016006470e-01
-5.048523545265197754e-01 9.015265852212905884e-03 1.309150159358978271e-01
-5.109422206878662109e-01 1.237060129642486572e-02 2.230657637119293213e-01
-4.965749680995941162e-01 -4.588017612695693970e-02 6.683505773544311523e-01
-4.748402833938598633e-01 -8.470727503299713135e-02 8.781339228153228760e-02
-4.983008205890655518e-01 1.251105219125747681e-03 1.002405807375907898e-01
-5.189427137374877930e-01 1.920387893915176392e-02 2.367095500230789185e-01
-4.769178330898284912e-01 -6.799870729446411133e-02 -1.380610615015029907e-01
-5.515083670616149902e-01 -2.041134238243103027e-02 5.549332499504089355e-01
-4.922778904438018799e-01 -8.341586589813232422e-02 6.975510716438293457e-01
-5.498880743980407715e-01 1.700548082590103149e-02 -1.410550326108932495e-01
-5.569287538528442383e-01 -1.906909048557281494e-03 3.141646385192871094e-01
-4.979521334171295166e-01 -8.479221910238265991e-02 7.396917343139648438e-01
-4.738670587539672852e-01 -7.544246315956115723e-02 2.708213329315185547e-01
-5.340008735656738281e-01 -2.292908728122711182e-02 -3.157711029052734375e-01
-4.975359439849853516e-01 -9.659051150083541870e-02 6.449095010757446289e-01
-5.033794641494750977e-01 1.141672208905220032e-02 -8.224807679653167725e-02
-5.211845040321350098e-01 2.847677469253540039e-02 -1.313045471906661987e-01
-5.527667999267578125e-01 -2.315577492117881775e-02 1.660435348749160767e-01
-5.487170219421386719e-01 -2.821433730423450470e-02 4.988883435726165771e-02
-5.105655193328857422e-01 1.629384234547615051e-02 -2.984276413917541504e-01
-4.863055944442749023e-01 -1.688751578330993652e-02 -1.163283139467239380e-01
-4.854697287082672119e-01 -9.764575213193893433e-02 1.150526255369186401e-01
-5.246831178665161133e-01 -2.548191696405410767e-03 6.079488396644592285e-01
-5.464395880699157715e-01 2.929717302322387695e-03 -2.228148430585861206e-01
-5.564807653427124023e-01 -5.234666168689727783e-04 3.531406521797180176e-01
-5.260657668113708496e-01 -8.172294497489929199e-02 4.963428378105163574e-01
-5.121031999588012695e-01 -1.295215077698230743e-02 6.021432876586914062e-01
-5.133185982704162598e-01 2.193220332264900208e-02 -1.793819814920425415e-01
-4.920868575572967529e-01 -5.707779899239540100e-03 -3.767615556716918945e-02
-4.917434453964233398e-01 -8.169848471879959106e-03 6.500399112701416016e-02
-5.567209720611572266e-01 -7.886733859777450562e-03 2.804473638534545898e-01
-4.744460582733154297e-01 -8.077774941921234131e-02 4.420097172260284424e-02
-5.322515368461608887e-01 1.106406748294830322e-02 5.001071095466613770e-01
-5.564094781875610352e-01 1.266755536198616028e-02 1.912272274494171143e-01
-5.042332410812377930e-01 3.889512270689010620e-03 2.392076551914215088e-01
-4.751971065998077393e-01 -8.299145847558975220e-02 3.324096798896789551e-01
-5.456138253211975098e-01 -1.235008426010608673e-02 6.511969566345214844e-01
-4.955876171588897705e-01 -3.259195759892463684e-02 -4.439073204994201660e-01
-5.540603399276733398e-01 -2.768307924270629883e-03 4.667459726333618164e-01
-4.925744831562042236e-01 -1.955350488424301147e-02 3.438222110271453857e-01
-4.765882194042205811e-01 -8.796924352645874023e-02 7.182762771844863892e-02
-5.571585297584533691e-01 -3.336891531944274902e-04 2.079642415046691895e-01
-5.543462038040161133e-01 -2.123800478875637054e-02 3.880060315132141113e-01
-5.231412053108215332e-01 2.824693918228149414e-02 5.264455080032348633e-02
-5.506293177604675293e-01 2.213236317038536072e-02 2.809227108955383301e-01
-5.428931117057800293e-01 -5.441260337829589844e-02 4.733864068984985352e-01
-5.326461791992187500e-01 -6.698781251907348633e-02 6.777854561805725098e-01
-5.103964209556579590e-01 1.927752792835235596e-02 -5.986617505550384521e-02
-5.332506895065307617e-01 -5.639517307281494141e-02 7.662113904953002930e-01
-4.763493239879608154e-01 -4.540303349494934082e-02 7.163823395967483521e-02
-4.829346537590026855e-01 -2.535155788064002991e-02 3.646351397037506104e-02
-4.760734140872955322e-01 -7.245111465454101562e-02 3.722856044769287109e-01
-5.005667209625244141e-01 7.572777569293975830e-03 -1.602164357900619507e-01
-5.012046098709106445e-01 -1.446280628442764282e-03 2.663874924182891846e-01
-5.109458565711975098e-01 -5.997259169816970825e-02 -2.857210636138916016e-01
-5.445625185966491699e-01 3.234191983938217163e-02 -4.511740803718566895e-02
-5.547251105308532715e-01 -4.151612520217895508e-04 4.352549314498901367e-01
-5.212222337722778320e-01 -6.986338645219802856e-02 -5.054755508899688721e-02
-4.930143058300018311e-01 -2.137568965554237366e-02 3.810911178588867188e-01
-4.797527790069580078e-01 -5.819494649767875671e-02 4.174388647079467773e-01
-4.776906371116638184e-01 -6.793527305126190186e-02 -1.558954864740371704e-01
-4.791829586029052734e-01 -3.672085329890251160e-02 -1.260051876306533813e-01
-4.815287888050079346e-01 -3.578102216124534607e-02 2.228144109249114990e-01
-5.129663348197937012e-01 -1.649819687008857727e-02 -4.929199814796447754e-01
-4.777566790580749512e-01 -9.299002587795257568e-02 1.478362381458282471e-01
-4.975986480712890625e-01 -8.709302544593811035e-02 -6.531271338462829590e-02
-5.127566456794738770e-01 1.211784407496452332e-02 2.687416374683380127e-01
-4.829866588115692139e-01 -7.803021371364593506e-02 5.672280788421630859e-01
-5.462489724159240723e-01 3.040587157011032104e-02 -7.326102256774902344e-02
-5.015804767608642578e-01 6.900131702423095703e-03 6.080772727727890015e-02
-5.381418466567993164e-01 -6.365366280078887939e-02 4.021222293376922607e-01
-4.800251424312591553e-01 -4.357539489865303040e-02 2.792920768260955811e-01
-4.880186319351196289e-01 -5.030991137027740479e-02 -3.585216403007507324e-01
-4.873612523078918457e-01 -2.887125313282012939e-02 -3.451381921768188477e-01
-5.241200923919677734e-01 2.693053334951400757e-03 5.502682924270629883e-01
-5.029949545860290527e-01 -5.854314193129539490e-03 3.826863169670104980e-01
-5.084686279296875000e-01 -9.286566078662872314e-02 1.634624302387237549e-01
-5.255063176155090332e-01 -7.929392158985137939e-02 2.535480856895446777e-01
-5.063650608062744141e-01 -1.520569808781147003e-02 5.545686483383178711e-01
-5.488355755805969238e-01 1.231551915407180786e-02 -1.778683811426162720e-01
-4.922112524509429932e-01 -8.746055886149406433e-03 1.121889799833297729e-01
-4.766439497470855713e-01 -5.330225825309753418e-02 2.538951039314270020e-01
-5.323762893676757812e-01 -1.360145211219787598e-02 7.168631553649902344e-01
-5.126814842224121094e-01 -7.254219055175781250e-02 -1.347599178552627563e-01
-5.214787721633911133e-01 2.257692441344261169e-02 2.025351375341415405e-01
-4.981861412525177002e-01 -1.031713262200355530e-01 4.293560981750488281e-01
-5.556520819664001465e-01 1.177166402339935303e-02 2.919044792652130127e-01
-5.185095667839050293e-01 -7.655788213014602661e-02 7.834239602088928223e-01
-5.405242443084716797e-01 -4.661430791020393372e-02 4.175923764705657959e-02
-4.730370640754699707e-01 -6.578814983367919922e-02 5.056455731391906738e-02
-5.559363961219787598e-01 1.370372623205184937e-02 1.006947234272956848e-01
-5.166810750961303711e-01 -4.679016023874282837e-02 -3.467313051223754883e-01
-4.740216434001922607e-01 -5.707503110170364380e-02 2.160847187042236328e-03
-5.351638197898864746e-01 -6.877416372299194336e-02 4.818402528762817383e-01
-5.155522227287292480e-01 -1.545493118464946747e-02 6.574085950851440430e-01
-5.332558751106262207e-01 -6.143615394830703735e-02 7.912509143352508545e-02
-5.342150926589965820e-01 -6.917620450258255005e-02 5.624039173126220703e-01
-5.338763594627380371e-01 2.864322066307067871e-02 -2.661699056625366211e-01
-4.873475730419158936e-01 -6.213439628481864929e-02 -3.028852939605712891e-01
-5.517202615737915039e-01 -2.845669910311698914e-02 4.906978607177734375e-01
-5.466304421424865723e-01 -4.318687692284584045e-02 2.343083918094635010e-01
-5.290846824645996094e-01 -7.052190601825714111e-02 7.100438475608825684e-01
-4.747833609580993652e-01 -8.244298398494720459e-02 3.120813965797424316e-01
-4.854588806629180908e-01 -6.649608910083770752e-02 -2.641347646713256836e-01
-4.957937598228454590e-01 -9.953905642032623291e-02 1.698719561100006104e-01
-5.514600872993469238e-01 -3.011290542781352997e-02 2.265227138996124268e-01
-4.750897586345672607e-01 -5.267748236656188965e-02 -5.739128589630126953e-02
-5.422506332397460938e-01 -4.906251654028892517e-02 6.419556736946105957e-01
-5.131275653839111328e-01 -9.483554959297180176e-02 4.053978323936462402e-01
-5.462191104888916016e-01 1.945462450385093689e-02 -2.102448195219039917e-01
-5.533683896064758301e-01 -1.176759600639343262e-02 4.587621986865997314e-02
-4.946760833263397217e-01 -3.299195319414138794e-02 5.444520115852355957e-01
-5.442934036254882812e-01 1.435485109686851501e-02 4.606574177742004395e-01
-4.879170656204223633e-01 -5.902821570634841919e-02 -3.229073286056518555e-01
-4.952698945999145508e-01 -6.454165279865264893e-02 7.280637621879577637e-01
-5.138542652130126953e-01 -5.086668580770492554e-02 8.307549357414245605e-01
-5.129423141479492188e-01 -3.859230130910873413e-02 -4.225834608078002930e-01
-5.510212779045104980e-01 -1.598908565938472748e-02 5.729559063911437988e-01
-5.144541859626770020e-01 -8.623532205820083618e-02 7.198460698127746582e-01
-5.557180047035217285e-01 1.617624983191490173e-02 1.534456312656402588e-01
-4.752011597156524658e-01 -5.464013665914535522e-02 -8.491651713848114014e-02
-5.396173596382141113e-01 1.967807486653327942e-02 -3.055405020713806152e-01
-5.227271914482116699e-01 -5.979513376951217651e-02 -1.588615626096725464e-01
-5.353610515594482422e-01 -4.070889577269554138e-02 -1.551609486341476440e-01
-5.382593870162963867e-01 9.397462010383605957e-03 5.306049585342407227e-01
-5.155528187751770020e-01 -1.587335020303726196e-03 5.195184946060180664e-01
-4.809374511241912842e-01 -8.055701851844787598e-02 5.233244299888610840e-01
-5.289708971977233887e-01 1.486310362815856934e-02 4.320556521415710449e-01
-5.365947484970092773e-01 3.380052000284194946e-02 3.886978328227996826e-02
-4.991395473480224609e-01 -7.388221472501754761e-02 -2.209262400865554810e-01
-5.368857383728027344e-01 -3.958147391676902771e-02 -1.368349045515060425e-01
-5.248479843139648438e-01 -3.702909499406814575e-02 -3.379372358322143555e-01
-5.117909908294677734e-01 -7.576230168342590332e-02 -1.024898439645767212e-01
-5.209872722625732422e-01 -7.212536782026290894e-02 -1.990886032581329346e-02
-5.147405266761779785e-01 -9.260272979736328125e-02 5.682479739189147949e-01
-5.254312753677368164e-01 9.335551410913467407e-03 4.808132648468017578e-01
-5.206459164619445801e-01 -7.630357146263122559e-02 7.679585814476013184e-01
-5.447228550910949707e-01 -5.004881322383880615e-02 4.898656606674194336e-01
-4.842918813228607178e-01 -5.240997672080993652e-02 4.944755434989929199e-01
-5.214328169822692871e-01 -8.409056067466735840e-02 6.417545080184936523e-01
-5.405253767967224121e-01 -4.815661534667015076e-02 6.691165268421173096e-02
-5.203054547309875488e-01 2.758035063743591309e-02 -2.692805230617523193e-02
-5.285364389419555664e-01 -7.303313910961151123e-02 1.836954653263092041e-01
-5.540635585784912109e-01 4.403531551361083984e-03 -2.198955416679382324e-02
-5.113239288330078125e-01 -7.814411818981170654e-02 -7.442428171634674072e-02
-5.195602178573608398e-01 -1.775328628718852997e-02 7.040876746177673340e-01
-5.527156591415405273e-01 2.428587526082992554e-02 7.974759489297866821e-02
-4.796211123466491699e-01 -9.753290563821792603e-02 2.724567651748657227e-01
-5.227412581443786621e-01 -7.426113635301589966e-02 5.176978558301925659e-02
-4.819435775279998779e-01 -9.823763370513916016e-02 1.821483373641967773e-01
-4.962956309318542480e-01 -2.375156804919242859e-02 4.815592765808105469e-01
-5.112996697425842285e-01 1.237418502569198608e-03 4.267163276672363281e-01
-5.435233712196350098e-01 -5.071441829204559326e-02 2.566413581371307373e-01
-5.196112990379333496e-01 -7.650448381900787354e-02 2.806182205677032471e-02
-4.979715049266815186e-01 4.062604159116744995e-03 -1.250627487897872925e-01
-4.896433055400848389e-01 -4.047982767224311829e-02 -3.923019766807556152e-01
-5.239562988281250000e-01 -8.028115332126617432e-02 6.632727980613708496e-01
-4.816814363002777100e-01 -5.768607929348945618e-02 4.672802686691284180e-01
-5.132749676704406738e-01 -9.488368034362792969e-02 4.377588629722595215e-01
-5.002642273902893066e-01 -9.640644490718841553e-02 1.297987401485443115e-01
-4.893944263458251953e-01 -6.049157679080963135e-02 6.368556022644042969e-01
-5.522756576538085938e-01 -1.984188333153724670e-02 5.308957695960998535e-01
-5.356128811836242676e-01 -5.674870312213897705e-02 7.272615432739257812e-01
-5.472109317779541016e-01 1.685835421085357666e-03 -2.044896334409713745e-01
-4.788141846656799316e-01 -9.093627333641052246e-02 4.249947071075439453e-01
-5.306234359741210938e-01 -2.896800637245178223e-03 -4.222235679626464844e-01
-5.560070276260375977e-01 -1.082234084606170654e-04 3.802867531776428223e-01
-5.146499872207641602e-01 -5.393375083804130554e-02 -3.080555796623229980e-01
-4.893975257873535156e-01 -7.262508571147918701e-02 -2.382756322622299194e-01
-5.319153070449829102e-01 -7.153952121734619141e-02 2.839532196521759033e-01
-5.525406599044799805e-01 -2.912094071507453918e-02 3.710553646087646484e-01
-4.777985215187072754e-01 -4.516623914241790771e-02 -1.577691286802291870e-01
-5.540143251419067383e-01 -2.075970917940139771e-02 2.124716788530349731e-01
-5.134299993515014648e-01 2.146219089627265930e-02 -2.156052738428115845e-01
-5.426525473594665527e-01 4.613738507032394409e-03 -2.913057804107666016e-01
-5.215880274772644043e-01 -2.112822234630584717e-02 -4.469759464263916016e-01
-4.825300872325897217e-01 -4.091931506991386414e-02 3.373399376869201660e-01
-5.292296409606933594e-01 -1.502135768532752991e-02 -4.066138863563537598e-01
-5.210511088371276855e-01 -8.760081231594085693e-02 4.535394906997680664e-01
-5.315270423889160156e-01 -6.508170068264007568e-02 9.896905720233917236e-02
-5.125874876976013184e-01 -8.770733326673507690e-02 1.164354532957077026e-01
-4.811713695526123047e-01 -4.743200168013572693e-02 3.668591380119323730e-01
-5.034284591674804688e-01 -9.984652698040008545e-02 5.539687275886535645e-01
-5.064469575881958008e-01 -6.127168238162994385e-02 8.143799304962158203e-01
-4.855835735797882080e-01 -1.024038493633270264e-01 3.494265377521514893e-01
-4.989162683486938477e-01 -6.498169153928756714e-03 2.995248734951019287e-01
-5.546935200691223145e-01 1.064825803041458130e-03 1.475678384304046631e-02
-4.763067662715911865e-01 -9.005644917488098145e-02 1.326577663421630859e-01
-5.014747977256774902e-01 -9.787975996732711792e-02 1.850638538599014282e-01
-5.178570747375488281e-01 -8.662572503089904785e-02 2.156359404325485229e-01
-5.343953371047973633e-01 -6.912626326084136963e-02 3.449393212795257568e-01
-4.822061657905578613e-01 -2.680099755525588989e-02 1.730832457542419434e-02
-5.115295648574829102e-01 2.027346193790435791e-02 -4.390172660350799561e-02
-5.476332306861877441e-01 -4.168337583541870117e-02 5.156005024909973145e-01
-4.816898405551910400e-01 -2.785620093345642090e-02 -8.422990143299102783e-02
-5.256806015968322754e-01 1.295618712902069092e-04 -4.570078253746032715e-01
-5.402953028678894043e-01 -1.334195025265216827e-02 -2.734290361404418945e-01
-5.483475327491760254e-01 -3.365532681345939636e-02 1.174933537840843201e-01
-4.804504513740539551e-01 -6.582328677177429199e-02 -2.151473909616470337e-01
-4.808447360992431641e-01 -2.997777611017227173e-02 -1.942865550518035889e-02
-4.948882460594177246e-01 -2.127091586589813232e-02 4.233298003673553467e-01
-5.364780426025390625e-01 -9.832987561821937561e-03 -3.438649773597717285e-01
-5.224533677101135254e-01 -6.556210666894912720e-02 -9.082497656345367432e-02
-5.044333934783935547e-01 -7.373295724391937256e-03 -4.643835425376892090e-01
-5.311336517333984375e-01 -3.476874157786369324e-02 -2.765197157859802246e-01
-5.213766694068908691e-01 1.172589510679244995e-02 4.084415733814239502e-01
-4.983509778976440430e-01 3.132153302431106567e-03 -2.318240553140640259e-01
-5.243154764175415039e-01 -8.321252465248107910e-02 3.664759397506713867e-01
-4.977886676788330078e-01 -1.195251941680908203e-02 3.606374859809875488e-01
-4.922508299350738525e-01 -9.742420911788940430e-02 9.751778095960617065e-02
-5.343933701515197754e-01 2.156042680144309998e-02 3.603000640869140625e-01
-4.933466613292694092e-01 -1.097000204026699066e-02 -3.372016549110412598e-01
-5.438970923423767090e-01 1.222238317131996155e-02 -2.710894942283630371e-01
-4.896353185176849365e-01 -1.439141482114791870e-02 1.418152153491973877e-01
-5.456750392913818359e-01 -2.985225617885589600e-02 6.722418665885925293e-01
-4.812916219234466553e-01 -3.526449203491210938e-02 2.016563713550567627e-01
-5.449011921882629395e-01 -5.020263418555259705e-02 3.837299346923828125e-01
-5.567421913146972656e-01 2.650059759616851807e-04 1.438311636447906494e-01
-5.201215147972106934e-01 1.099937409162521362e-02 -4.408478140830993652e-01
-4.809385836124420166e-01 -3.878094628453254700e-02 -2.367884069681167603e-01
-4.913358390331268311e-01 -3.453651070594787598e-02 4.952909946441650391e-01
-5.139886736869812012e-01 2.294259518384933472e-02 -1.162717789411544800e-01
-5.213652253150939941e-01 -2.591662481427192688e-02 7.645337581634521484e-01
-5.537476539611816406e-01 -1.187381148338317871e-02 6.415223330259323120e-02
-4.747656285762786865e-01 -5.843474715948104858e-02 2.086939960718154907e-01
-5.152612924575805664e-01 1.996285840868949890e-02 1.341024935245513916e-01
-5.473616123199462891e-01 -3.850476443767547607e-02 5.818988084793090820e-01
-5.364672541618347168e-01 -2.551136538386344910e-02 -2.634657025337219238e-01
-5.327295660972595215e-01 -3.536955267190933228e-02 8.000956773757934570e-01
-5.341544151306152344e-01 -6.851039826869964600e-02 5.903272032737731934e-01
-5.440832376480102539e-01 -5.038823559880256653e-02 5.357164740562438965e-01
-5.419371724128723145e-01 -2.489324286580085754e-02 7.215455174446105957e-01
-5.209775567054748535e-01 8.395664393901824951e-03 4.521414637565612793e-01
-5.097151398658752441e-01 -9.256836026906967163e-02 6.683598160743713379e-01
-5.513657927513122559e-01 3.229748457670211792e-03 4.936234951019287109e-01
-4.741295576095581055e-01 -7.476371526718139648e-02 2.868039011955261230e-01
-4.733622074127197266e-01 -7.296578586101531982e-02 2.831077575683593750e-02
-5.498329401016235352e-01 1.992644742131233215e-02 3.346264362335205078e-01
-5.376116037368774414e-01 -6.472922861576080322e-02 4.324111938476562500e-01
-5.441281795501708984e-01 -3.077343106269836426e-02 -6.296803057193756104e-02
-4.829979836940765381e-01 -7.532020658254623413e-02 -1.795883923768997192e-01
-5.349222421646118164e-01 -6.793078780174255371e-02 3.253499567508697510e-01
-5.509720444679260254e-01 -1.228081993758678436e-02 -3.915984928607940674e-02
-5.108035802841186523e-01 -9.424772858619689941e-02 2.620601654052734375e-01
-4.960306882858276367e-01 -4.341712221503257751e-03 -3.183359503746032715e-01
-5.514369606971740723e-01 1.580104976892471313e-02 -1.030571609735488892e-01
-5.327413678169250488e-01 2.700528129935264587e-02 2.434267252683639526e-01
-5.500213503837585449e-01 -2.169443853199481964e-02 5.937210321426391602e-01
-5.539005398750305176e-01 -1.700664125382900238e-02 4.742085933685302734e-01
-4.845123887062072754e-01 -3.956035152077674866e-02 3.826938271522521973e-01
-5.404775738716125488e-01 -4.086583107709884644e-02 -4.032604396343231201e-02
-5.376111865043640137e-01 9.046982973814010620e-03 -3.575822114944458008e-01
-5.443181991577148438e-01 -1.948837190866470337e-03 6.078044772148132324e-01
-5.354744791984558105e-01 -4.309495911002159119e-02 7.845916748046875000e-01
-5.521724820137023926e-01 2.182857692241668701e-02 -3.201541304588317871e-02
-4.755517542362213135e-01 -6.030934303998947144e-02 2.759780883789062500e-01
-5.557662844657897949e-01 -1.026283949613571167e-03 3.960690796375274658e-01
-5.421044230461120605e-01 -5.422728508710861206e-02 5.580415725708007812e-01
-5.384496450424194336e-01 3.318702429533004761e-02 8.446567505598068237e-02
-5.052599906921386719e-01 8.062586188316345215e-03 -3.438878655433654785e-01
-5.378882288932800293e-01 -5.667509883642196655e-02 1.362198442220687866e-01
-5.524833798408508301e-01 -2.292526699602603912e-02 1.444127708673477173e-01
-5.520148873329162598e-01 1.948503404855728149e-02 -6.321427226066589355e-02
-4.732272922992706299e-01 -7.284365594387054443e-02 2.147913277149200439e-01
-5.210056304931640625e-01 -7.844102382659912109e-02 9.490923583507537842e-02
-4.791694283485412598e-01 -4.128473252058029175e-02 -1.883155554533004761e-01
-5.525684356689453125e-01 2.356885373592376709e-02 1.780554652214050293e-01
-5.179644823074340820e-01 -8.036617934703826904e-02 6.792231649160385132e-02
-4.916800558567047119e-01 -1.329436153173446655e-02 2.043519616127014160e-01
-5.488678812980651855e-01 -4.001071676611900330e-02 3.274146020412445068e-01
-5.053018331527709961e-01 2.547014504671096802e-03 -4.114727377891540527e-01
-5.132650732994079590e-01 -9.452041238546371460e-02 3.833600282669067383e-01
-4.762691855430603027e-01 -5.006835609674453735e-02 -1.164951771497726440e-01
-5.354326963424682617e-01 2.621277049183845520e-02 2.780852317810058594e-01
-4.913344681262969971e-01 -4.860037565231323242e-02 6.066390275955200195e-01
-5.231981873512268066e-01 1.827379316091537476e-02 3.209453821182250977e-01
-5.096631646156311035e-01 -1.925914175808429718e-02 6.332368850708007812e-01
-5.511968135833740234e-01 -2.969072014093399048e-02 1.960838437080383301e-01
-5.185788869857788086e-01 -8.092638850212097168e-02 7.425439357757568359e-01
-5.504066944122314453e-01 -9.543625637888908386e-03 -7.636351883411407471e-02
-4.877691268920898438e-01 -1.589821279048919678e-02 -2.139378935098648071e-01
-4.730476438999176025e-01 -7.326675951480865479e-02 1.952679604291915894e-01
-5.533646345138549805e-01 -2.520694769918918610e-02 2.731766700744628906e-01
-5.395895242691040039e-01 -1.155280135571956635e-02 -2.930032014846801758e-01
-4.852435886859893799e-01 -9.964931756258010864e-02 4.723649621009826660e-01
-5.082342624664306641e-01 8.104007691144943237e-03 -3.917247056961059570e-01
-5.112931728363037109e-01 8.645873516798019409e-03 3.070341944694519043e-01
-5.179665088653564453e-01 1.890844851732254028e-02 -3.614201545715332031e-01
-4.734220206737518311e-01 -6.271788477897644043e-02 1.447550505399703979e-01
-5.418047308921813965e-01 3.421001136302947998e-03 5.804793834686279297e-01
-5.246616601943969727e-01 1.839140057563781738e-02 3.364956378936767578e-01
-5.148884654045104980e-01 1.767667010426521301e-02 1.887564063072204590e-01
-5.165182948112487793e-01 2.298867702484130859e-02 6.567540019750595093e-02
-5.301188826560974121e-01 -3.881893306970596313e-02 -2.588886618614196777e-01
-5.320196151733398438e-01 2.383798360824584961e-02 3.050559759140014648e-01
-5.259208679199218750e-01 -7.493376731872558594e-02 1.464450657367706299e-01
-4.838771224021911621e-01 -2.216450497508049011e-02 -6.779757142066955566e-02
-5.492926836013793945e-01 -2.842058241367340088e-02 7.540889084339141846e-02
-5.495012998580932617e-01 8.399970829486846924e-04 -1.504421383142471313e-01
-5.559382438659667969e-01 3.109946846961975098e-04 8.247610181570053101e-02
-5.110598802566528320e-01 2.004551142454147339e-02 -1.507093161344528198e-01
-5.473519563674926758e-01 1.551372930407524109e-02 4.255613088607788086e-01
-4.933218359947204590e-01 -9.919373691082000732e-02 1.450350880622863770e-01
-5.188222527503967285e-01 2.611825242638587952e-02 -1.975874453783035278e-01
-5.438398122787475586e-01 2.239809557795524597e-02 -2.336840182542800903e-01
-5.552177429199218750e-01 3.513991832733154297e-04 4.136366844177246094e-01
-4.874086976051330566e-01 -7.547626644372940063e-02 6.426969766616821289e-01
-4.811717271804809570e-01 -9.713927656412124634e-02 1.635889112949371338e-01
-5.434576272964477539e-01 -4.762536659836769104e-02 6.190953850746154785e-01
-5.434761643409729004e-01 2.928292751312255859e-02 2.095288932323455811e-01
-5.469568371772766113e-01 3.035042434930801392e-02 1.240859031677246094e-01
-4.772511720657348633e-01 -6.061909347772598267e-02 -1.719817072153091431e-01
-4.877818822860717773e-01 -1.014587432146072388e-01 2.154465168714523315e-01
-5.560961961746215820e-01 -8.698577061295509338e-03 1.761495321989059448e-01
-5.283522605895996094e-01 -6.944900378584861755e-03 6.634330749511718750e-01
-5.521833300590515137e-01 -2.105458453297615051e-02 9.966278076171875000e-02
-5.005922317504882812e-01 -6.945040076971054077e-02 -2.589021325111389160e-01
-4.765499532222747803e-01 -4.525227472186088562e-02 -7.112424075603485107e-02
