1.652330756187438965e-01 -1.477410346269607544e-01 -7.235480472445487976e-03
3.289265632629394531e-01 -1.450859606266021729e-01 -1.416484713554382324e-01
2.167094349861145020e-01 -1.189727261662483215e-01 -1.487907767295837402e-01
4.145829081535339355e-01 -7.048385217785835266e-03 4.603812098503112793e-02
2.887927889823913574e-01 -1.027505025267601013e-01 -1.848409622907638550e-01
1.574894189834594727e-01 7.569472491741180420e-02 -1.629331409931182861e-01
1.557878255844116211e-01 -6.435627117753028870e-03 -1.682330071926116943e-01
1.409085094928741455e-01 -4.575461894273757935e-02 -1.396588683128356934e-01
2.136239856481552124e-01 -1.311947405338287354e-01 1.042603030800819397e-01
1.985576897859573364e-01 1.029413938522338867e-01 -1.749483644962310791e-01
2.799718677997589111e-01 -1.429247707128524780e-01 9.973894804716110229e-02
3.743775486946105957e-01 -1.409241110086441040e-01 4.245194792747497559e-02
2.880083620548248291e-01 1.539276093244552612e-01 4.293186217546463013e-02
1.294592469930648804e-01 -1.092043146491050720e-02 -1.409392654895782471e-01
2.575392127037048340e-01 -1.274882704019546509e-01 1.162851676344871521e-01
1.514625847339630127e-01 1.124649643898010254e-01 9.673675149679183960e-02
2.941085100173950195e-01 1.730228215456008911e-01 -4.093585163354873657e-02
1.378653645515441895e-01 -6.315595470368862152e-03 1.301878392696380615e-01
2.384148836135864258e-01 -7.154704630374908447e-02 1.491489857435226440e-01
3.620882928371429443e-01 5.185828357934951782e-02 8.901632577180862427e-02
2.595495581626892090e-01 1.099550053477287292e-01 1.118658408522605896e-01
2.627125978469848633e-01 1.421438306570053101e-01 -1.543600857257843018e-01
3.865492939949035645e-01 8.130472898483276367e-02 -1.386640518903732300e-01
1.022833883762359619e-01 -7.595022022724151611e-02 -2.366816252470016479e-02
2.502279281616210938e-01 -1.745094954967498779e-01 -8.158063888549804688e-02
2.109997868537902832e-01 -1.044336035847663879e-01 1.273878663778305054e-01
3.297163844108581543e-01 7.110767066478729248e-02 1.049692705273628235e-01
1.333324313163757324e-01 1.624169945716857910e-02 -1.500578671693801880e-01
2.600494325160980225e-01 -1.856812387704849243e-01 7.922602817416191101e-03
3.287209272384643555e-01 -7.586518675088882446e-02 1.257535219192504883e-01
2.859395146369934082e-01 -1.617930456995964050e-02 -2.173522710800170898e-01
2.807844281196594238e-01 -1.536298245191574097e-01 -1.334529221057891846e-01
7.840852439403533936e-02 1.309518050402402878e-02 -4.898570850491523743e-02
2.167933434247970581e-01 1.070590838789939880e-01 -1.794351488351821899e-01
8.011952042579650879e-02 -4.491892643272876740e-03 -4.650405049324035645e-02
3.182362616062164307e-01 1.028473302721977234e-02 -2.147721648216247559e-01
2.249951511621475220e-01 2.828633040189743042e-02 1.562173664569854736e-01
3.936064839363098145e-01 5.032684653997421265e-02 5.043817311525344849e-02
4.317855238914489746e-01 -6.339766830205917358e-02 5.473041906952857971e-03
2.533780038356781006e-01 8.811672031879425049e-02 1.292999386787414551e-01
2.383541613817214966e-01 1.842913031578063965e-01 -3.144672140479087830e-02
4.388965070247650146e-01 1.103461533784866333e-02 -6.537260860204696655e-02
4.205562472343444824e-01 -2.755516022443771362e-02 3.844285011291503906e-02
3.930037617683410645e-01 -8.458716794848442078e-03 7.831237465143203735e-02
2.958535254001617432e-01 -8.423968404531478882e-02 1.364384591579437256e-01
1.807141900062561035e-01 2.857844904065132141e-02 -1.884056776762008667e-01
3.089146614074707031e-01 -1.237954273819923401e-01 -1.680654734373092651e-01
3.732985258102416992e-01 -1.231008321046829224e-01 6.466913968324661255e-02
2.931075990200042725e-01 -1.237944737076759338e-01 1.144436523318290710e-01
2.636382877826690674e-01 1.575787365436553955e-01 5.174809694290161133e-02
2.008911669254302979e-01 6.612320989370346069e-02 1.427726596593856812e-01
1.575097143650054932e-01 1.530824750661849976e-01 -9.275705367326736450e-02
1.194681376218795776e-01 1.275364607572555542e-01 4.379287362098693848e-02
3.143377602100372314e-01 -1.629355251789093018e-01 6.294182687997817993e-02
1.221295297145843506e-01 1.080937311053276062e-02 -1.366282999515533447e-01
1.258233636617660522e-01 -2.744352817535400391e-02 1.154870316386222839e-01
7.487128674983978271e-02 3.892488405108451843e-02 2.543448098003864288e-02
3.458940386772155762e-01 -8.063522726297378540e-02 -1.892678290605545044e-01
2.512380778789520264e-01 -8.597154170274734497e-02 -1.891408413648605347e-01
8.695106208324432373e-02 -6.521595641970634460e-03 6.306219846010208130e-02
3.884100317955017090e-01 1.068150177597999573e-01 -3.404474258422851562e-02
9.824222326278686523e-02 -5.161708965897560120e-02 -6.030406430363655090e-02
3.770086169242858887e-01 -1.480874270200729370e-01 2.645910345017910004e-02
2.694272398948669434e-01 1.792909204959869385e-01 -6.038635224103927612e-02
4.190803766250610352e-01 2.521655708551406860e-02 2.091543562710285187e-02
1.240353286266326904e-01 -4.663160815834999084e-02 1.053951010107994080e-01
4.127215147018432617e-01 -1.184484586119651794e-01 1.309596002101898193e-03
3.136960566043853760e-01 -1.094515901058912277e-02 -2.156976759433746338e-01
3.125517070293426514e-01 1.295616328716278076e-01 -1.539591550827026367e-01
1.118524819612503052e-01 8.862523362040519714e-03 1.073088422417640686e-01
1.525428593158721924e-01 9.606871753931045532e-02 1.106541082262992859e-01
3.432622551918029785e-01 1.139022260904312134e-01 5.230652540922164917e-02
4.199584722518920898e-01 3.666315600275993347e-02 -1.207900270819664001e-01
7.274402678012847900e-02 2.556403540074825287e-02 1.196793653070926666e-02
8.049722015857696533e-02 -1.868178695440292358e-02 -3.334451839327812195e-02
1.828097999095916748e-01 1.256493777036666870e-01 9.854086488485336304e-02
1.143708229064941406e-01 4.901692271232604980e-02 -1.255856901407241821e-01
3.575170338153839111e-01 1.303749233484268188e-01 -4.294980317354202271e-03
4.002016484737396240e-01 9.344249218702316284e-02 -4.448812082409858704e-02
3.934478759765625000e-01 -7.308803498744964600e-02 7.268463820219039917e-02
1.742861419916152954e-01 1.723143905401229858e-01 6.801364943385124207e-03
3.532777428627014160e-01 5.715425685048103333e-02 -1.892275214195251465e-01
4.378236532211303711e-01 -7.389482855796813965e-02 -7.188493758440017700e-02
4.070162773132324219e-01 7.488663494586944580e-02 -1.023329421877861023e-01
1.066388487815856934e-01 1.183745488524436951e-01 -6.026471033692359924e-02
3.154344558715820312e-01 1.368634700775146484e-01 4.866139590740203857e-02
1.218681186437606812e-01 -2.594966441392898560e-02 -1.258056908845901489e-01
1.251347064971923828e-01 1.473640948534011841e-01 -7.256526499986648560e-03
3.570410013198852539e-01 -1.458646208047866821e-01 5.600686371326446533e-02
1.077930331230163574e-01 -7.955649495124816895e-02 -4.234246909618377686e-02
1.518583297729492188e-01 5.395293235778808594e-02 1.317332983016967773e-01
1.891108900308609009e-01 -1.614276170730590820e-01 -3.257520869374275208e-02
3.755715787410736084e-01 7.221046835184097290e-02 -1.617570072412490845e-01
1.548903286457061768e-01 1.375457346439361572e-01 7.031341642141342163e-02
1.547791510820388794e-01 7.231628149747848511e-02 1.257973760366439819e-01
1.952091455459594727e-01 5.049956031143665314e-03 -1.961417347192764282e-01
1.770918667316436768e-01 -1.108314841985702515e-01 -1.253528892993927002e-01
1.777914911508560181e-01 1.769451647996902466e-01 -2.764371596276760101e-02
4.000227451324462891e-01 -1.442564427852630615e-01 -4.091396927833557129e-02
3.670696318149566650e-01 -1.610858589410781860e-01 -8.577558398246765137e-02
2.105126231908798218e-01 -7.156156748533248901e-02 1.456981003284454346e-01
2.724912762641906738e-01 -9.595941007137298584e-02 -1.876311302185058594e-01
2.231346964836120605e-01 -1.704178899526596069e-01 4.026513546705245972e-02
1.864590793848037720e-01 1.697317957878112793e-01 2.839011512696743011e-02
1.313905715942382812e-01 3.394432738423347473e-02 1.237954422831535339e-01
4.274988770484924316e-01 4.667937755584716797e-02 -5.928414314985275269e-02
2.223205119371414185e-01 -1.692346185445785522e-01 -6.992594152688980103e-02
3.971482813358306885e-01 -1.112888231873512268e-01 -1.313599348068237305e-01
1.941540837287902832e-01 -1.147623509168624878e-01 1.119568273425102234e-01
3.630105555057525635e-01 2.149832621216773987e-02 -1.955836117267608643e-01
1.283039152622222900e-01 -9.271047264337539673e-02 -7.684484124183654785e-02
1.131250709295272827e-01 -3.488614037632942200e-02 -1.078746989369392395e-01
7.769836485385894775e-02 1.151513541117310524e-03 3.560905903577804565e-02
1.259419173002243042e-01 5.848360434174537659e-02 -1.380842924118041992e-01
1.607206165790557861e-01 -8.609224855899810791e-02 -1.329572945833206177e-01
3.493092656135559082e-01 9.205400943756103516e-03 -2.047147452831268311e-01
1.269703358411788940e-01 1.204182803630828857e-01 -1.000318899750709534e-01
3.004419803619384766e-01 -1.838954165577888489e-02 1.472425460815429688e-01
3.429000079631805420e-01 -4.251104593276977539e-02 -2.039524167776107788e-01
4.096297025680541992e-01 -1.214237585663795471e-01 -9.490594267845153809e-02
3.445135354995727539e-01 1.472517251968383789e-01 -4.481299966573715210e-02
1.594113409519195557e-01 1.693170666694641113e-01 -3.748999908566474915e-02
1.313980668783187866e-01 1.424470245838165283e-01 -7.169471681118011475e-02
4.123019576072692871e-01 -1.086078137159347534e-01 -1.099201887845993042e-01
1.161582320928573608e-01 -8.893349207937717438e-03 1.100833490490913391e-01
4.233201146125793457e-01 -4.725086688995361328e-02 3.196407109498977661e-02
3.246156573295593262e-01 -5.900734663009643555e-02 -2.042188942432403564e-01
9.523344039916992188e-02 -3.486546501517295837e-02 -7.061926275491714478e-02
3.310402035713195801e-01 8.624515682458877563e-02 9.305328875780105591e-02
2.658891677856445312e-01 -5.653404071927070618e-02 1.520609557628631592e-01
1.705009043216705322e-01 1.066239699721336365e-01 -1.566225886344909668e-01
3.497245907783508301e-01 1.311555653810501099e-01 1.161983050405979156e-02
1.539891064167022705e-01 -3.627895936369895935e-02 -1.576087325811386108e-01
1.087342649698257446e-01 -6.854327023029327393e-02 6.204225122928619385e-02
3.547260165214538574e-01 -5.575383082032203674e-02 -1.957701891660690308e-01
2.813552618026733398e-01 1.385384518653154373e-02 -2.182976603507995605e-01
2.450588941574096680e-01 -1.584976613521575928e-01 7.833386212587356567e-02
2.450442314147949219e-01 1.033627614378929138e-01 1.204536184668540955e-01
3.692518472671508789e-01 -3.330295905470848083e-02 -1.936103701591491699e-01
1.800709217786788940e-01 1.564477682113647461e-01 -1.098564341664314270e-01
3.778977990150451660e-01 -1.217654421925544739e-01 -1.407822221517562866e-01
1.904306411743164062e-01 -9.776473790407180786e-02 1.242694780230522156e-01
8.327843248844146729e-02 1.588893495500087738e-02 -6.666333228349685669e-02
3.911578655242919922e-01 -9.890929609537124634e-02 6.250531971454620361e-02
3.253958821296691895e-01 1.476084887981414795e-01 1.374796219170093536e-02
3.953087925910949707e-01 8.052884042263031006e-02 -1.236800551414489746e-01
2.222427427768707275e-01 1.844310015439987183e-01 -4.164738208055496216e-02
1.890373528003692627e-01 -1.617839634418487549e-01 1.190778426826000214e-02
1.748185306787490845e-01 1.590110063552856445e-01 4.727751016616821289e-02
2.247801274061203003e-01 1.246038079261779785e-01 -1.687141209840774536e-01
3.242743909358978271e-01 -1.847482919692993164e-01 -1.087445579469203949e-02
2.509388029575347900e-01 9.211718291044235229e-02 -1.952657997608184814e-01
3.018708229064941406e-01 1.381416320800781250e-01 5.897527188062667847e-02
3.485639989376068115e-01 -5.228089168667793274e-02 1.195095553994178772e-01
3.722701072692871094e-01 -3.070459328591823578e-02 1.023878231644630432e-01
2.578776776790618896e-01 6.974136084318161011e-02 1.385622620582580566e-01
3.735735416412353516e-01 7.009174674749374390e-02 6.275935471057891846e-02
3.324517011642456055e-01 -1.046748608350753784e-01 1.107573285698890686e-01
4.338291287422180176e-01 -4.869939014315605164e-02 -1.112070530652999878e-01
1.338809728622436523e-01 9.786581248044967651e-02 9.629935771226882935e-02
2.726797759532928467e-01 8.613312244415283203e-02 -1.991818100214004517e-01
3.799207806587219238e-01 5.108574405312538147e-03 9.036739170551300049e-02
4.419496953487396240e-01 -5.046588554978370667e-02 -7.411476224660873413e-02
2.363692671060562134e-01 1.076806709170341492e-01 -1.839466840028762817e-01
3.584786057472229004e-01 -1.212438419461250305e-01 8.092401176691055298e-02
2.075746953487396240e-01 -7.414213567972183228e-02 -1.779846549034118652e-01
3.825221657752990723e-01 -1.063998267054557800e-01 -1.514847874641418457e-01
1.961374133825302124e-01 1.364565640687942505e-01 9.007455408573150635e-02
1.745274662971496582e-01 -1.535648256540298462e-01 7.615895941853523254e-03
4.313010275363922119e-01 -7.948454469442367554e-02 -9.658828377723693848e-02
4.085876345634460449e-01 -1.111024897545576096e-02 -1.603642553091049194e-01
3.890379667282104492e-01 1.031012311577796936e-01 -9.129738062620162964e-02
1.528153717517852783e-01 -1.535033714026212692e-02 1.389266550540924072e-01
1.333561986684799194e-01 1.169403046369552612e-01 7.769551128149032593e-02
2.984597682952880859e-01 -1.747622787952423096e-01 -9.619351476430892944e-02
3.203161954879760742e-01 -1.856697052717208862e-01 -4.338604211807250977e-02
1.799759268760681152e-01 1.034178286790847778e-01 1.170812025666236877e-01
2.961042821407318115e-01 -1.891336441040039062e-01 -1.539478078484535217e-02
1.026839613914489746e-01 -7.807705551385879517e-02 1.425704546272754669e-02
2.285092771053314209e-01 -1.657581478357315063e-01 -8.640167862176895142e-02
1.030112206935882568e-01 -1.898043043911457062e-02 -9.892475605010986328e-02
2.134541571140289307e-01 -1.529600024223327637e-01 -9.969130903482437134e-02
1.292445361614227295e-01 1.409414261579513550e-01 3.347986936569213867e-02
3.289980590343475342e-01 1.305586993694305420e-01 -1.408730149269104004e-01
9.126068651676177979e-02 8.172159083187580109e-03 7.659292221069335938e-02
2.498570382595062256e-01 -1.799107640981674194e-01 2.949489094316959381e-02
2.064554989337921143e-01 5.046636611223220825e-02 1.493162363767623901e-01
3.655663728713989258e-01 1.134181842207908630e-01 1.913112960755825043e-02
9.114006161689758301e-02 3.496693819761276245e-02 7.553640007972717285e-02
1.247930675745010376e-01 -7.433022558689117432e-02 -9.456279873847961426e-02
1.782122850418090820e-01 -1.386636644601821899e-01 -8.471148461103439331e-02
1.766653060913085938e-01 -8.688137680292129517e-02 -1.477930247783660889e-01
2.455875277519226074e-01 1.270348876714706421e-01 9.945674985647201538e-02
3.050049245357513428e-01 5.389965325593948364e-02 1.292317956686019897e-01
1.678604185581207275e-01 -1.318164356052875519e-02 1.468328386545181274e-01
4.411045610904693604e-01 -9.815221419557929039e-04 -4.648942500352859497e-02
3.333208560943603516e-01 1.543586701154708862e-01 -5.854661017656326294e-02
2.308599501848220825e-01 -1.074524223804473877e-01 -1.668222546577453613e-01
1.076968163251876831e-01 5.057143978774547577e-03 -1.154737398028373718e-01
4.077496528625488281e-01 -1.328542381525039673e-01 -6.934510916471481323e-02
3.876061439514160156e-01 1.030302569270133972e-01 -1.411658059805631638e-02
1.785212159156799316e-01 -2.459517680108547211e-02 -1.810809224843978882e-01
3.958709239959716797e-01 8.075411431491374969e-03 7.031903415918350220e-02
7.973852753639221191e-02 5.342561379075050354e-02 3.941741585731506348e-02
2.969789505004882812e-01 -1.842127889394760132e-01 -6.678603589534759521e-02
3.336797356605529785e-01 4.835168272256851196e-02 -2.025681287050247192e-01
1.203044801950454712e-01 -1.010402590036392212e-01 -3.190762549638748169e-02
4.096890687942504883e-01 6.933891028165817261e-02 -8.896250277757644653e-03
1.483045816421508789e-01 -1.037902906537055969e-01 -9.740896522998809814e-02
2.026440948247909546e-01 1.038990318775177002e-01 1.214127168059349060e-01
2.184337228536605835e-01 -1.389519125223159790e-01 -1.264443099498748779e-01
7.236349582672119141e-02 3.221166878938674927e-02 -9.816469624638557434e-03
3.291584551334381104e-01 1.698270998895168304e-02 1.287823319435119629e-01
3.128031492233276367e-01 1.650981009006500244e-01 -3.704788908362388611e-02
1.410062313079833984e-01 1.434491574764251709e-01 -8.755393326282501221e-02
3.586145639419555664e-01 -7.118307054042816162e-02 1.077308282256126404e-01
1.014951020479202271e-01 1.532994909211993217e-03 9.305410832166671753e-02
1.271313875913619995e-01 8.094042539596557617e-02 -1.311335414648056030e-01
9.403109550476074219e-02 -6.218882650136947632e-02 -1.450876798480749130e-02
1.178354173898696899e-01 -7.715942710638046265e-02 -7.688480615615844727e-02
1.662089228630065918e-01 -1.119106635451316833e-01 9.492043405771255493e-02
4.437255859375000000e-01 -3.566906228661537170e-02 -6.429051607847213745e-02
2.789922952651977539e-01 -1.797634065151214600e-01 -8.057889342308044434e-02
4.343882799148559570e-01 -5.422757007181644440e-03 -2.331558614969253540e-03
2.744437158107757568e-01 1.767704337835311890e-01 -1.399869751185178757e-02
2.011207640171051025e-01 -1.631886512041091919e-01 3.583632409572601318e-02
9.390084445476531982e-02 -5.979021638631820679e-02 2.322588302195072174e-02
1.712880432605743408e-01 1.392520368099212646e-01 7.815894484519958496e-02
3.353086709976196289e-01 -2.219167537987232208e-03 1.286951601505279541e-01
2.596997916698455811e-01 -1.873911321163177490e-01 -1.431483216583728790e-02
3.156613111495971680e-01 -1.205113977193832397e-01 1.088970378041267395e-01
1.940089464187622070e-01 1.563232541084289551e-01 6.126484274864196777e-02
1.905713230371475220e-01 3.942452371120452881e-02 1.499345004558563232e-01
1.201303452253341675e-01 1.430189013481140137e-01 -2.601681090891361237e-02
1.660970002412796021e-01 5.744574218988418579e-02 -1.748990416526794434e-01
1.630453765392303467e-01 -1.019929498434066772e-01 -1.197624132037162781e-01
3.792376518249511719e-01 8.976619690656661987e-02 3.255286812782287598e-02
3.621125519275665283e-01 -1.059509590268135071e-01 8.893403410911560059e-02
2.051574885845184326e-01 -1.710847467184066772e-01 -6.572399288415908813e-03
3.319263160228729248e-01 3.691598773002624512e-02 1.207817122340202332e-01
2.817851305007934570e-01 -1.633048504590988159e-01 7.267836481332778931e-02
1.742295771837234497e-01 -1.503470987081527710e-01 -4.218753427267074585e-02
4.270043075084686279e-01 -8.823540061712265015e-02 6.451848894357681274e-04
3.458702862262725830e-01 -1.792110204696655273e-01 -3.262481838464736938e-02
1.970609724521636963e-01 -1.470596939325332642e-01 -9.342455118894577026e-02
2.214841842651367188e-01 -1.628847420215606689e-01 5.913940817117691040e-02
4.007986783981323242e-01 8.936122059822082520e-02 -8.726801723241806030e-02
2.811949253082275391e-01 -1.873084604740142822e-01 6.806658580899238586e-03
3.805613517761230469e-01 -5.190778523683547974e-02 -1.822443157434463501e-01
4.286198616027832031e-01 -3.816287592053413391e-02 -1.269510388374328613e-01
7.367430627346038818e-02 5.833286792039871216e-03 -1.214943639934062958e-02
9.777760505676269531e-02 4.975488409399986267e-02 -9.880980849266052246e-02
3.279035687446594238e-01 -3.032088465988636017e-02 -2.106932699680328369e-01
4.161151647567749023e-01 2.448384091258049011e-02 -1.382558494806289673e-01
9.140624105930328369e-02 8.091766387224197388e-02 5.062977969646453857e-02
4.159163832664489746e-01 1.062870398163795471e-02 3.685612976551055908e-02
2.538441717624664307e-01 1.798764765262603760e-01 -7.381066679954528809e-02
2.478085756301879883e-01 2.920951507985591888e-02 1.547035276889801025e-01
2.057417780160903931e-01 -1.554545164108276367e-01 6.270204484462738037e-02
3.044019639492034912e-01 1.529176533222198486e-01 -1.213092282414436340e-01
1.230150759220123291e-01 -6.112437322735786438e-02 9.476781636476516724e-02
2.011988759040832520e-01 1.422489732503890991e-01 -1.429260373115539551e-01
2.821740210056304932e-01 1.680806577205657959e-01 -1.004500612616539001e-01
2.738761603832244873e-01 -4.331698175519704819e-03 1.549085229635238647e-01
4.126261472702026367e-01 -7.270237803459167480e-02 -1.415135860443115234e-01
1.322371959686279297e-01 -1.181895807385444641e-01 -1.109936647117137909e-02
1.929923892021179199e-01 1.808925569057464600e-01 -3.542809933423995972e-02
2.882733941078186035e-01 -1.334568858146667480e-01 -1.588535606861114502e-01
2.136093527078628540e-01 6.876980513334274292e-02 -1.965160220861434937e-01
1.929402351379394531e-01 -4.311610758304595947e-02 1.507046222686767578e-01
1.653610765933990479e-01 6.259539164602756500e-03 1.464505493640899658e-01
4.398192167282104492e-01 -3.842258825898170471e-02 -1.606764271855354309e-02
1.677049100399017334e-01 -1.413296014070510864e-01 4.467088729143142700e-02
4.117485880851745605e-01 -9.866225719451904297e-02 2.942332066595554352e-02
3.401431441307067871e-01 -1.700766533613204956e-01 -9.183890372514724731e-02
4.068434834480285645e-01 6.532133556902408600e-03 5.473977327346801758e-02
3.308172225952148438e-01 -1.692969650030136108e-01 4.009808599948883057e-02
4.364921450614929199e-01 -2.494780533015727997e-02 -2.846771851181983948e-03
1.422071456909179688e-01 -6.113667041063308716e-02 -1.316081583499908447e-01
1.236792504787445068e-01 -1.066963821649551392e-01 2.080346457660198212e-02
3.227567672729492188e-01 1.494674682617187500e-01 -1.101254075765609741e-01
1.210129559040069580e-01 5.879760161042213440e-02 1.078137233853340149e-01
1.129477471113204956e-01 7.181121408939361572e-02 -1.164923086762428284e-01
3.764612972736358643e-01 -6.452227383852005005e-02 9.400440752506256104e-02
3.837120532989501953e-01 5.219729989767074585e-02 -1.671617478132247925e-01
3.532595932483673096e-01 -9.994157403707504272e-02 -1.750198155641555786e-01
1.378759145736694336e-01 -3.673144057393074036e-02 1.233610287308692932e-01
2.873969674110412598e-01 3.767400234937667847e-02 1.429171860218048096e-01
4.293640255928039551e-01 -1.008458212018013000e-01 -5.836924910545349121e-02
2.205213606357574463e-01 -4.628552868962287903e-02 1.554047167301177979e-01
7.920086383819580078e-02 7.494881004095077515e-02 5.025023594498634338e-03
1.888653635978698730e-01 1.789302974939346313e-01 -1.037298515439033508e-02
2.446231395006179810e-01 -3.891288116574287415e-02 -2.073519229888916016e-01
3.534925580024719238e-01 1.395710706710815430e-01 -7.383856922388076782e-02
4.392960667610168457e-01 -4.979617893695831299e-02 -9.112782776355743408e-02
1.984170526266098022e-01 1.778218001127243042e-01 7.227284833788871765e-03
1.697110533714294434e-01 -1.499400138854980469e-01 -2.478250116109848022e-02
1.927241683006286621e-01 -4.101985320448875427e-02 -1.848275363445281982e-01
3.917455971240997314e-01 -1.416975911706686020e-02 -1.785507649183273315e-01
3.808167576789855957e-01 1.151745244860649109e-01 -7.684298604726791382e-02
2.986575067043304443e-01 -1.531317681074142456e-01 8.348654210567474365e-02
9.747478365898132324e-02 9.031054377555847168e-02 -7.562524825334548950e-02
2.955193519592285156e-01 -3.952494636178016663e-02 -2.131460160017013550e-01
8.870275318622589111e-02 -3.836815804243087769e-02 -4.472083598375320435e-02
3.789424300193786621e-01 -1.619856357574462891e-01 -3.843818977475166321e-02
2.955310344696044922e-01 1.714435517787933350e-01 -6.618481874465942383e-02
1.992874443531036377e-01 1.216936260461807251e-01 -1.620966494083404541e-01
1.725003719329833984e-01 2.825061790645122528e-02 1.471294909715652466e-01
3.614870905876159668e-01 1.266781687736511230e-01 -1.025203615427017212e-01
1.237637400627136230e-01 -1.007260233163833618e-01 4.276651889085769653e-02
3.681621551513671875e-01 8.942210674285888672e-02 -1.540443450212478638e-01
3.401277065277099609e-01 -1.385975778102874756e-01 7.913696020841598511e-02
1.507756710052490234e-01 9.182274341583251953e-02 -1.499650329351425171e-01
3.806848824024200439e-01 4.111083224415779114e-02 7.467349618673324585e-02
1.051336824893951416e-01 -4.246016964316368103e-02 -8.746907114982604980e-02
3.098363876342773438e-01 -1.076766923069953918e-01 -1.810142397880554199e-01
2.581517696380615234e-01 1.665270477533340454e-01 -1.153837367892265320e-01
1.421447098255157471e-01 -1.284192502498626709e-01 -8.769221603870391846e-04
4.095971584320068359e-01 2.661241963505744934e-02 3.995099663734436035e-02
1.877946555614471436e-01 1.703342944383621216e-01 -8.595654368400573730e-02
1.966153979301452637e-01 -8.791433274745941162e-02 -1.624171286821365356e-01
3.809410929679870605e-01 1.165286228060722351e-01 -4.858658090233802795e-02
2.512363791465759277e-01 1.363874180242419243e-03 -2.153563797473907471e-01
1.813357472419738770e-01 4.723240435123443604e-02 -1.867263466119766235e-01
2.574020922183990479e-01 -1.702151298522949219e-01 -9.673620760440826416e-02
3.104667663574218750e-01 9.862555190920829773e-03 1.403145343065261841e-01
3.797363042831420898e-01 -8.829580247402191162e-02 -1.668163985013961792e-01
2.823846936225891113e-01 6.517260521650314331e-02 1.336509287357330322e-01
3.006336688995361328e-01 1.457743942737579346e-01 -1.373474299907684326e-01
2.446858733892440796e-01 5.217164382338523865e-02 1.483114212751388550e-01
3.686154186725616455e-01 -1.640362888574600220e-01 6.423760205507278442e-04
3.348577618598937988e-01 -1.816828735172748566e-04 -2.108343690633773804e-01
2.431900948286056519e-01 1.624934524297714233e-01 -1.248255968093872070e-01
8.213360607624053955e-02 3.346306085586547852e-02 5.529972165822982788e-02
3.937691152095794678e-01 -1.430333703756332397e-01 -8.379110693931579590e-02
2.113668024539947510e-01 1.748865544795989990e-01 2.334478311240673065e-02
1.978079676628112793e-01 7.476408034563064575e-02 -1.880270093679428101e-01
1.339048892259597778e-01 9.673237055540084839e-02 -1.300822943449020386e-01
1.768302917480468750e-01 -1.273228079080581665e-01 8.501631766557693481e-02
2.238003611564636230e-01 -7.468912750482559204e-02 -1.856873780488967896e-01
2.794196009635925293e-01 1.512560695409774780e-01 -1.381489783525466919e-01
8.278831839561462402e-02 1.064137089997529984e-02 5.723761767148971558e-02
1.120663583278656006e-01 3.961127996444702148e-02 1.046831980347633362e-01
3.817851841449737549e-01 -1.341207325458526611e-02 9.195846319198608398e-02
1.608349978923797607e-01 3.725216537714004517e-02 -1.744041889905929565e-01
2.357544600963592529e-01 -1.795000731945037842e-01 -4.708524048328399658e-02
3.049445450305938721e-01 -1.885358691215515137e-01 -3.121803700923919678e-02
1.560620069503784180e-01 -1.366021782159805298e-01 3.040580637753009796e-02
2.049004137516021729e-01 -1.056210696697235107e-01 -1.538144797086715698e-01
1.098153889179229736e-01 -5.054572224617004395e-02 8.287206292152404785e-02
4.414399862289428711e-01 -5.302492901682853699e-02 -3.229456394910812378e-02
1.217224895954132080e-01 -8.626477420330047607e-02 6.582405418157577515e-02
2.449300736188888550e-01 4.826781526207923889e-02 -2.103817015886306763e-01
3.141497671604156494e-01 -1.663965433835983276e-01 -1.121804341673851013e-01
4.418296217918395996e-01 -3.369761258363723755e-02 -8.354776352643966675e-02
2.302352041006088257e-01 -1.439509540796279907e-01 9.509083628654479980e-02
8.682104945182800293e-02 5.018647015094757080e-02 -7.445138692855834961e-02
2.278683334589004517e-01 -1.543253064155578613e-01 7.919069379568099976e-02
1.414274722337722778e-01 1.584231555461883545e-01 -2.978965640068054199e-04
1.031992584466934204e-01 1.166383400559425354e-01 2.646085433661937714e-02
3.286446034908294678e-01 7.865180820226669312e-02 -1.907174587249755859e-01
3.104519248008728027e-01 -1.521453261375427246e-01 -1.361498534679412842e-01
2.255306839942932129e-01 -8.824566006660461426e-02 1.406021714210510254e-01
1.266905665397644043e-01 -1.025201752781867981e-01 -5.310195684432983398e-02
2.363451272249221802e-01 1.232313830405473709e-02 -2.122773379087448120e-01
4.045764803886413574e-01 6.209851056337356567e-02 -1.287903934717178345e-01
4.206589162349700928e-01 -8.112894743680953979e-02 -1.223499327898025513e-01
2.968950867652893066e-01 -1.724656820297241211e-01 5.249509960412979126e-02
3.911137878894805908e-01 1.403238717466592789e-02 -1.755515933036804199e-01
3.389927148818969727e-01 1.014437749981880188e-01 7.195556908845901489e-02
7.369710505008697510e-02 5.012748017907142639e-02 -1.718550920486450195e-04
1.888615787029266357e-01 -1.503819376230239868e-01 5.570189654827117920e-02
1.635546982288360596e-01 -1.380104869604110718e-01 -5.829231068491935730e-02
8.880905807018280029e-02 -3.944149985909461975e-02 4.134895652532577515e-02
2.006421983242034912e-01 -1.612222790718078613e-01 -6.298083066940307617e-02
1.633352488279342651e-01 -7.415419816970825195e-02 1.245924457907676697e-01
2.063629925251007080e-01 1.501657515764236450e-01 7.365228235721588135e-02
3.365349173545837402e-01 -1.627103239297866821e-01 -1.109514907002449036e-01
2.563714087009429932e-01 -1.842646300792694092e-01 -4.910425841808319092e-02
2.628556191921234131e-01 1.751427203416824341e-01 -8.960914611816406250e-02
2.996123731136322021e-01 -1.872871220111846924e-01 -4.985551536083221436e-02
3.994876742362976074e-01 -4.735551774501800537e-02 -1.672930121421813965e-01
4.213291704654693604e-01 5.864650011062622070e-02 -4.233879223465919495e-02
3.713728785514831543e-01 -9.047536551952362061e-02 8.923667669296264648e-02
1.112044900655746460e-01 -9.218595921993255615e-02 -7.767476141452789307e-03
2.570656836032867432e-01 1.663692891597747803e-01 3.681431710720062256e-02
3.161886930465698242e-01 8.732553571462631226e-02 1.030703559517860413e-01
1.258042454719543457e-01 -6.249713152647018433e-02 -1.079712286591529846e-01
3.164718449115753174e-01 1.039169132709503174e-01 8.881105482578277588e-02
1.528732329607009888e-01 -1.109164729714393616e-01 8.146772533655166626e-02
4.267284274101257324e-01 3.748291730880737305e-02 -9.780617058277130127e-02
2.298339903354644775e-01 8.959722518920898438e-02 -1.929190754890441895e-01
4.117080867290496826e-01 -4.574995860457420349e-02 5.360954254865646362e-02
3.047137558460235596e-01 1.639758348464965820e-01 -4.094442352652549744e-03
7.625013589859008789e-02 6.464622914791107178e-02 -1.045905053615570068e-02
2.075874358415603638e-01 1.613432914018630981e-01 -1.185423284769058228e-01
3.599969744682312012e-01 -9.182663634419441223e-03 -2.005254775285720825e-01
2.101383656263351440e-01 8.359489589929580688e-02 1.351384818553924561e-01
2.031071931123733521e-01 -1.649659126996994019e-02 1.572855263948440552e-01
3.537785410881042480e-01 7.925951480865478516e-02 -1.757860481739044189e-01
4.322486817836761475e-01 1.411978807300329208e-02 -9.184177964925765991e-03
3.150634765625000000e-01 9.547235816717147827e-02 -1.853656023740768433e-01
9.707184135913848877e-02 1.154983118176460266e-01 -1.114035584032535553e-02
1.959418803453445435e-01 8.103963918983936310e-03 1.559499800205230713e-01
3.488111495971679688e-01 7.066404074430465698e-02 8.953722566366195679e-02
8.826781809329986572e-02 9.716684371232986450e-02 -2.923347055912017822e-02
2.943924963474273682e-01 1.293871551752090454e-01 7.641997188329696655e-02
2.524633407592773438e-01 -1.104897558689117432e-01 1.293619126081466675e-01
2.141806781291961670e-01 4.644493386149406433e-02 -2.023415267467498779e-01
3.903821706771850586e-01 -7.053752988576889038e-02 -1.676349788904190063e-01
3.373332619667053223e-01 -1.811058968305587769e-01 -4.887211322784423828e-02
2.291525453329086304e-01 1.443385332822799683e-01 8.192820101976394653e-02
3.570998013019561768e-01 1.381871998310089111e-01 -5.236103013157844543e-02
3.504927456378936768e-01 1.035265475511550903e-01 -1.568120568990707397e-01
2.893801927566528320e-01 1.295561343431472778e-01 -1.637530475854873657e-01
2.733943462371826172e-01 -4.292975366115570068e-02 -2.114624083042144775e-01
4.048995971679687500e-01 -1.927977055311203003e-02 6.398596614599227905e-02
4.189639091491699219e-01 -1.021863054484128952e-02 -1.452672332525253296e-01
2.427095174789428711e-01 1.298775225877761841e-01 -1.672696769237518311e-01
2.814935445785522461e-01 7.018616050481796265e-02 -2.060470879077911377e-01
3.330487608909606934e-01 1.084090545773506165e-01 -1.652746349573135376e-01
3.544581830501556396e-01 -1.738531887531280518e-01 -5.770188570022583008e-02
2.417806982994079590e-01 1.582530587911605835e-01 5.866328626871109009e-02
4.009236991405487061e-01 -1.208915412425994873e-01 -1.138333603739738464e-01
3.074087798595428467e-01 1.152981370687484741e-01 -1.720121502876281738e-01
3.264023661613464355e-01 -1.815071254968643188e-01 -6.385736912488937378e-02
8.558490872383117676e-02 -4.047850146889686584e-02 -2.238623797893524170e-02
3.486611247062683105e-01 2.691593952476978302e-02 1.123898997902870178e-01
2.540895938873291016e-01 -1.129853725433349609e-01 -1.710878163576126099e-01
8.632916212081909180e-02 -4.322141781449317932e-02 1.899014227092266083e-02
2.853419780731201172e-01 -1.891966164112091064e-01 -3.252062574028968811e-02
3.209189772605895996e-01 -8.142138272523880005e-02 -1.955049335956573486e-01
2.687010765075683594e-01 1.184588819742202759e-01 -1.779314875602722168e-01
9.608931839466094971e-02 9.712969511747360229e-02 4.257570952177047729e-02
2.757917940616607666e-01 1.368400603532791138e-01 7.764941453933715820e-02
4.366828799247741699e-01 -2.678005397319793701e-02 -1.066721677780151367e-01
2.302044481039047241e-01 1.149870827794075012e-01 1.130679324269294739e-01
1.127974390983581543e-01 1.320023983716964722e-01 1.473587565124034882e-02
2.182911932468414307e-01 1.640663146972656250e-01 5.067177861928939819e-02
2.295617908239364624e-01 -1.336091905832290649e-01 -1.403639912605285645e-01
4.226191937923431396e-01 -1.095107123255729675e-01 -1.836433261632919312e-02
4.065136909484863281e-01 1.259782165288925171e-02 -1.584318727254867554e-01
8.583568036556243896e-02 3.211770579218864441e-02 -7.510860264301300049e-02
2.820192873477935791e-01 9.023100882768630981e-02 1.190936490893363953e-01
3.696219623088836670e-01 1.823407039046287537e-02 9.700391441583633423e-02
1.201659888029098511e-01 1.258047372102737427e-01 -8.052815496921539307e-02
1.519517898559570312e-01 1.609956026077270508e-01 -6.273125857114791870e-02
1.291487365961074829e-01 1.494513899087905884e-01 -4.040670394897460938e-02
4.395278096199035645e-01 -9.279269725084304810e-03 -2.245684713125228882e-02
1.344247460365295410e-01 -1.159649863839149475e-01 3.320996463298797607e-02
1.801316291093826294e-01 7.718212157487869263e-02 -1.778872460126876831e-01
3.202822208404541016e-01 1.146162673830986023e-01 7.467044889926910400e-02
3.117117583751678467e-01 -9.526077657938003540e-02 1.258564144372940063e-01
3.155429363250732422e-01 6.933218985795974731e-02 1.154942736029624939e-01
4.348418116569519043e-01 5.373211577534675598e-03 -1.017716601490974426e-01
2.475442737340927124e-01 -1.435741633176803589e-01 9.939045459032058716e-02
3.961940407752990723e-01 8.927088975906372070e-02 -6.654180586338043213e-03
3.638647198677062988e-01 1.301826685667037964e-01 -2.586333081126213074e-02
3.934887647628784180e-01 -1.337280422449111938e-01 2.206135354936122894e-02
2.267906516790390015e-01 1.330377757549285889e-01 9.575879573822021484e-02
7.434591650962829590e-02 1.133351679891347885e-02 2.187961153686046600e-02
3.451525270938873291e-01 -1.782446205615997314e-01 -1.125922612845897675e-02
4.008294641971588135e-01 -1.095533818006515503e-01 3.960947692394256592e-02
1.396434456110000610e-01 -6.429052352905273438e-02 1.115637794137001038e-01
1.432423442602157593e-01 2.200721763074398041e-02 1.337948739528656006e-01
3.872188925743103027e-01 -1.268086284399032593e-01 4.275120049715042114e-02
4.018353521823883057e-01 9.132651239633560181e-02 -6.830643862485885620e-02
4.430125653743743896e-01 -1.533628813922405243e-02 -6.567349284887313843e-02
3.034423589706420898e-01 -5.636467039585113525e-02 -2.079394012689590454e-01
2.350483834743499756e-01 1.427769064903259277e-01 -1.527105718851089478e-01
3.414042592048645020e-01 9.157286584377288818e-02 -1.749691963195800781e-01
3.315838873386383057e-01 1.544062644243240356e-01 -3.004828281700611115e-02
4.230686426162719727e-01 3.733182698488235474e-02 -2.416338771581649780e-03
2.594181299209594727e-01 3.585807234048843384e-02 -2.147854715585708618e-01
9.784305095672607422e-02 3.266446059569716454e-03 -9.785530716180801392e-02
1.534196138381958008e-01 -9.547731280326843262e-02 1.001499369740486145e-01
1.641856133937835693e-01 -5.888447165489196777e-02 1.330392360687255859e-01
3.606033921241760254e-01 -1.727295517921447754e-01 -3.948808461427688599e-02
1.852237135171890259e-01 -1.342350617051124573e-02 1.531994491815567017e-01
2.935537695884704590e-01 4.827762395143508911e-02 -2.123531848192214966e-01
4.305799603462219238e-01 -9.220342338085174561e-02 -7.946283370256423950e-02
3.581756949424743652e-01 -1.490903347730636597e-01 -1.209058910608291626e-01
3.401016294956207275e-01 -1.108702495694160461e-01 -1.722870320081710815e-01
3.768495321273803711e-01 1.162199527025222778e-01 -1.841483451426029205e-02
2.082670032978057861e-01 -3.273705765604972839e-02 -1.957788765430450439e-01
3.844357132911682129e-01 -1.553971916437149048e-01 -6.573419272899627686e-02
2.366680204868316650e-01 7.791810482740402222e-02 1.377735584974288940e-01
4.334030747413635254e-01 -8.005566149950027466e-02 -1.474542357027530670e-02
-3.236017003655433655e-02 -1.629901826381683350e-01 -2.194789610803127289e-02
-7.109312713146209717e-02 -6.114198267459869385e-02 -2.609569728374481201e-01
-3.743492439389228821e-02 -6.195590645074844360e-02 1.844064742326736450e-01
1.234208047389984131e-01 -1.058850586414337158e-01 1.963641792535781860e-01
5.228405818343162537e-02 5.413688719272613525e-03 5.409710854291915894e-02
-1.002189218997955322e-01 -1.459126025438308716e-01 -2.788751199841499329e-02
7.185040414333343506e-02 -9.162992238998413086e-03 -2.957933247089385986e-01
4.852094873785972595e-02 -5.784836038947105408e-02 3.259696066379547119e-01
-7.680931687355041504e-02 -6.763051450252532959e-02 4.293565452098846436e-02
1.048794537782669067e-01 -5.885213613510131836e-05 -2.443634569644927979e-01
2.780806273221969604e-02 -4.869796335697174072e-03 7.556402683258056641e-02
2.354340255260467529e-02 -1.332491636276245117e-03 1.144230179488658905e-02
1.171443611383438110e-03 -1.595305204391479492e-01 3.649489581584930420e-02
1.523865163326263428e-01 5.880564451217651367e-03 -1.293090879917144775e-01
7.423944771289825439e-02 -1.344417035579681396e-01 -4.920777678489685059e-02
5.858469754457473755e-02 -1.391741037368774414e-01 -7.714053243398666382e-02
-1.003766432404518127e-02 -1.214110851287841797e-02 -8.240153640508651733e-02
9.141977131366729736e-02 -2.769776061177253723e-02 2.916486561298370361e-01
5.504772067070007324e-02 -1.437122821807861328e-01 1.205346733331680298e-01
1.633538603782653809e-01 -7.573374360799789429e-02 -1.694202423095703125e-02
1.883737742900848389e-03 -7.799603044986724854e-03 -3.832813724875450134e-02
9.226445853710174561e-02 -9.317003190517425537e-02 -2.512031495571136475e-01
-5.171715840697288513e-02 -8.665270358324050903e-02 2.039485871791839600e-01
1.704594939947128296e-01 7.117889821529388428e-03 -1.711678504943847656e-02
2.670919522643089294e-02 2.535849809646606445e-03 -1.198376715183258057e-01
1.010642647743225098e-01 -3.035138919949531555e-02 -3.134182989597320557e-01
1.616576462984085083e-01 -4.178062081336975098e-04 1.589299440383911133e-01
1.224766857922077179e-02 -1.551610231399536133e-01 -6.141331046819686890e-02
5.119823664426803589e-02 -1.464265137910842896e-01 1.377421803772449493e-02
-8.078627288341522217e-04 -1.273361295461654663e-01 2.739960849285125732e-01
3.404563292860984802e-02 -1.505079418420791626e-01 1.083810925483703613e-01
6.110803037881851196e-02 6.777271628379821777e-03 -1.979148834943771362e-01
1.074943244457244873e-01 -8.818948268890380859e-02 -2.269271016120910645e-01
-6.460107862949371338e-03 -1.172692328691482544e-02 -1.663036495447158813e-01
1.312377303838729858e-01 -6.562215834856033325e-02 -2.224843055009841919e-01
8.439607918262481689e-04 -2.902043610811233521e-02 1.587649434804916382e-01
1.235552579164505005e-01 -9.060849249362945557e-02 -1.618612110614776611e-01
-2.695694565773010254e-03 -1.601775735616683960e-01 1.086298376321792603e-03
1.644416339695453644e-02 -1.404099166393280029e-03 -1.355613619089126587e-01
7.447749376296997070e-04 -1.185200959444046021e-01 -3.180410563945770264e-01
1.518437564373016357e-01 -9.042431414127349854e-02 3.499668836593627930e-02
2.957080677151679993e-02 -4.693424701690673828e-02 2.840997874736785889e-01
-2.695428952574729919e-02 -1.445544660091400146e-01 -2.281685024499893188e-01
-5.984719842672348022e-03 -2.219575271010398865e-02 -2.771061658859252930e-01
1.723569929599761963e-01 -6.707924604415893555e-02 1.484780013561248779e-01
7.112906873226165771e-02 -1.391276717185974121e-01 3.452951461076736450e-02
1.188168078660964966e-01 -1.150982826948165894e-01 5.886830389499664307e-02
-6.744970381259918213e-02 -4.819112271070480347e-02 -6.688378006219863892e-02
1.410196125507354736e-01 -7.098172605037689209e-02 -1.730526238679885864e-01
-3.677636757493019104e-02 -1.480891406536102295e-01 1.753337979316711426e-01
-5.512362346053123474e-02 -5.661115795373916626e-02 -3.034405708312988281e-01
1.343607306480407715e-01 1.768713444471359253e-02 1.716860570013523102e-02
1.228527128696441650e-01 -1.047503203153610229e-01 -7.310359179973602295e-02
1.624277830123901367e-01 -5.231869220733642578e-02 -1.379794627428054810e-01
1.109424829483032227e-01 1.632356643676757812e-02 -1.225840896368026733e-01
-4.613536968827247620e-02 -3.431768715381622314e-02 -3.348042070865631104e-02
-6.585877388715744019e-03 -4.659195616841316223e-02 2.153951376676559448e-01
1.039796173572540283e-01 -9.684353321790695190e-02 2.985761165618896484e-01
4.862441867589950562e-02 -1.442979648709297180e-02 -3.123297095298767090e-01
1.138372868299484253e-01 -8.234538137912750244e-03 -2.610720396041870117e-01
3.981337323784828186e-02 -1.473571956157684326e-01 -5.952485650777816772e-02
-5.356521531939506531e-02 -1.573408097028732300e-01 8.989612013101577759e-02
5.201590806245803833e-02 -1.463908255100250244e-01 6.409029662609100342e-02
-2.986368909478187561e-02 -4.016634449362754822e-02 1.151572614908218384e-01
1.303939074277877808e-01 -8.815973997116088867e-04 1.980974525213241577e-01
-7.041624188423156738e-02 -1.493707001209259033e-01 1.051609218120574951e-01
-6.239509955048561096e-02 -9.364622831344604492e-02 1.843164563179016113e-01
1.135590076446533203e-01 6.808042526245117188e-03 1.510753184556961060e-01
1.570744663476943970e-01 7.347263395786285400e-03 1.150410026311874390e-01
7.972697168588638306e-02 -1.231461316347122192e-01 2.373778373003005981e-01
1.185086220502853394e-01 -9.055224806070327759e-02 -1.815209686756134033e-01
4.964794591069221497e-02 -1.111222356557846069e-01 3.157465755939483643e-01
8.518507331609725952e-02 -2.794191241264343262e-03 1.888031512498855591e-01
1.523841768503189087e-01 1.442892849445343018e-02 -3.531923517584800720e-02
5.814573168754577637e-02 -1.208383068442344666e-01 -2.196174114942550659e-01
9.855458140373229980e-02 -1.263665258884429932e-01 4.064366966485977173e-02
9.178300946950912476e-02 -1.260817199945449829e-01 -4.585860669612884521e-02
-1.049769073724746704e-01 -9.728148579597473145e-02 -1.373926736414432526e-02
8.121392130851745605e-02 -1.263556480407714844e-01 2.110408544540405273e-01
-1.071311384439468384e-01 -9.983604401350021362e-02 -1.916637718677520752e-01
1.355843842029571533e-01 -3.035723790526390076e-02 -2.495909780263900757e-01
1.359643191099166870e-01 -9.886391460895538330e-02 1.808602958917617798e-01
-1.746353879570960999e-02 -1.550438702106475830e-01 1.434495300054550171e-01
-5.284737423062324524e-02 -3.649210184812545776e-02 -1.386429518461227417e-01
1.692498289048671722e-02 -1.013886705040931702e-01 -3.498289585113525391e-01
1.249119490385055542e-01 -1.099813878536224365e-01 1.325746923685073853e-01
1.864608377218246460e-01 -2.812903001904487610e-02 1.513691097497940063e-01
8.839617669582366943e-02 1.182740181684494019e-02 -1.754475384950637817e-01
-7.048547267913818359e-04 -1.069620400667190552e-01 -3.495799005031585693e-01
1.007661819458007812e-01 -9.978532791137695312e-02 -2.008677572011947632e-01
-1.091529577970504761e-01 -1.371695548295974731e-01 -6.856875866651535034e-02
5.192933976650238037e-02 -7.727310061454772949e-03 1.650795787572860718e-01
-7.249525189399719238e-02 -5.780437961220741272e-02 -2.323099970817565918e-01
1.023906320333480835e-01 1.801940798759460449e-02 1.218788325786590576e-03
-2.412595972418785095e-02 -4.634610936045646667e-02 1.662659943103790283e-01
9.043216705322265625e-04 -1.044489815831184387e-02 -1.980113089084625244e-01
1.207778900861740112e-01 1.897121965885162354e-02 -1.150309666991233826e-02
1.379186809062957764e-01 -9.458591789007186890e-02 2.041515558958053589e-01
1.662287861108779907e-01 -7.710839807987213135e-02 1.077331304550170898e-01
5.366349965333938599e-02 -1.371230781078338623e-01 -1.213242039084434509e-01
-1.436419039964675903e-02 -5.629481375217437744e-02 2.280835807323455811e-01
-8.930227160453796387e-02 -8.285047858953475952e-02 4.292220622301101685e-02
1.318865269422531128e-01 -1.016285642981529236e-02 -2.356659919023513794e-01
7.135334610939025879e-02 -4.229210317134857178e-02 -3.539988696575164795e-01
-1.001796722412109375e-01 -1.389910578727722168e-01 -1.709618270397186279e-01
2.776475809514522552e-02 -2.091331779956817627e-02 -3.236752748489379883e-01
-3.893109038472175598e-02 -5.580440536141395569e-02 -3.401489555835723877e-01
4.421691596508026123e-02 -1.698203384876251221e-03 1.017926111817359924e-01
5.550229549407958984e-02 -3.248108178377151489e-02 -3.551877737045288086e-01
-1.139861345291137695e-02 -4.985825344920158386e-02 -3.656929433345794678e-01
8.935470134019851685e-02 -6.735838949680328369e-03 -2.806880176067352295e-01
-1.106693446636199951e-01 -1.206983178853988647e-01 -1.735085844993591309e-01
1.305501610040664673e-01 -1.073141545057296753e-01 1.010900810360908508e-01
8.326083421707153320e-03 -9.891230612993240356e-02 3.157723546028137207e-01
1.309439390897750854e-01 -7.205937057733535767e-02 -2.061365097761154175e-01
1.754000224173069000e-02 -1.865469291806221008e-02 -3.038010299205780029e-01
1.772572249174118042e-01 -5.684375762939453125e-03 -7.203365862369537354e-02
-7.660437375307083130e-03 -1.505459994077682495e-01 -1.663849800825119019e-01
1.054341644048690796e-01 -1.297990977764129639e-02 2.499928623437881470e-01
-7.162004709243774414e-02 -7.772769033908843994e-02 -3.121292889118194580e-01
-1.697581261396408081e-02 -1.545211374759674072e-01 -1.444674879312515259e-01
-2.589673176407814026e-02 -3.480828925967216492e-02 9.828757494688034058e-02
6.532619148492813110e-02 -5.604422837495803833e-02 3.342677652835845947e-01
5.786576494574546814e-02 -7.667586207389831543e-02 -3.514728844165802002e-01
5.109067633748054504e-02 -1.319384127855300903e-01 -1.718651354312896729e-01
6.132685765624046326e-02 1.060866564512252808e-02 -1.471826881170272827e-01
-1.804195344448089600e-03 -3.722601011395454407e-02 1.908540874719619751e-01
-7.967460900545120239e-03 -1.578517556190490723e-01 -8.620917052030563354e-02
-1.322272419929504395e-02 -6.194072589278221130e-02 -3.804098367691040039e-01
8.324293792247772217e-02 -1.327692419290542603e-01 -1.944554969668388367e-03
-1.286054030060768127e-02 -1.981863006949424744e-02 3.675827383995056152e-02
-9.391260147094726562e-02 -1.427224278450012207e-01 4.619977623224258423e-02
1.617936491966247559e-01 -6.482030451297760010e-02 -9.830851852893829346e-02
-3.118489310145378113e-02 -3.688039630651473999e-02 -2.894631624221801758e-01
1.661836057901382446e-01 -3.246687725186347961e-02 2.412932962179183960e-01
5.938408523797988892e-02 9.992197155952453613e-03 1.383743621408939362e-02
7.489283382892608643e-02 -1.024098694324493408e-01 -2.603434026241302490e-01
1.483674496412277222e-01 -8.781099319458007812e-02 1.898539215326309204e-01
1.869937032461166382e-01 -4.457902163267135620e-02 1.182346940040588379e-01
-6.851212680339813232e-02 -5.241199582815170288e-02 -2.159712463617324829e-01
1.454567313194274902e-01 -5.289223790168762207e-02 2.924397587776184082e-01
