-4.586323350667953491e-02 -2.265446037054061890e-01 -6.750340014696121216e-02
-1.016371510922908783e-02 -1.922325789928436279e-01 -1.015264913439750671e-01
3.122669830918312073e-02 -2.962721586227416992e-01 -1.060141324996948242e-01
2.537842094898223877e-02 -2.103748172521591187e-01 -1.293979883193969727e-01
3.198436647653579712e-02 -1.862841546535491943e-01 3.663972020149230957e-02
-4.693971574306488037e-02 -2.244049012660980225e-01 -4.316166043281555176e-02
2.436540462076663971e-02 -3.007606863975524902e-01 -1.669605523347854614e-01
-3.829757869243621826e-02 -2.407915145158767700e-01 1.338389664888381958e-01
-4.139802604913711548e-02 -3.073055148124694824e-01 -1.798707693815231323e-01
-5.275203287601470947e-02 -2.462540119886398315e-01 2.830112166702747345e-02
-5.467347055673599243e-02 -2.858255207538604736e-01 -3.365676105022430420e-02
4.135628417134284973e-02 -2.138663679361343384e-01 3.112228401005268097e-02
3.529123961925506592e-02 -2.452812045812606812e-01 -1.430855691432952881e-01
-5.191133171319961548e-02 -2.957981228828430176e-01 -1.096620932221412659e-01
-6.319349631667137146e-03 -2.397380322217941284e-01 -2.173179686069488525e-01
-4.594315215945243835e-02 -2.790331244468688965e-01 7.053412497043609619e-02
-4.559336230158805847e-02 -2.322892248630523682e-01 -9.152717888355255127e-02
4.255900159478187561e-02 -2.559375464916229248e-01 -2.538449317216873169e-02
8.456960320472717285e-03 -3.270085453987121582e-01 -5.874945968389511108e-02
-6.942723412066698074e-03 -1.700517237186431885e-01 4.198013991117477417e-02
1.800949685275554657e-02 -1.759831607341766357e-01 -1.485764142125844955e-02
4.383472725749015808e-02 -2.366157472133636475e-01 -3.418333455920219421e-02
-5.078244581818580627e-02 -2.528107762336730957e-01 5.983603745698928833e-02
-4.602427035570144653e-02 -3.154932856559753418e-01 -5.324400216341018677e-02
-8.575005456805229187e-03 -2.283369004726409912e-01 1.907554417848587036e-01
-5.131054669618606567e-02 -3.027879297733306885e-01 -9.208869934082031250e-02
-4.790461808443069458e-02 -2.224222719669342041e-01 7.183978334069252014e-03
-2.581010572612285614e-02 -2.717221081256866455e-01 1.413389593362808228e-01
-9.806642308831214905e-03 -1.879155337810516357e-01 1.604410260915756226e-01
5.079986993223428726e-03 -1.754965186119079590e-01 -3.630624711513519287e-02
-4.331878945231437683e-02 -2.110581398010253906e-01 3.112906590104103088e-03
2.464825101196765900e-02 -1.802928447723388672e-01 9.026888757944107056e-02
-2.396824769675731659e-02 -2.601501345634460449e-01 1.578927487134933472e-01
-5.360316112637519836e-02 -2.499388754367828369e-01 1.837987639009952545e-02
-1.853052061051130295e-03 -2.156095504760742188e-01 1.917102783918380737e-01
1.901752687990665436e-02 -2.583481967449188232e-01 1.354553997516632080e-01
-5.575067549943923950e-02 -2.726382911205291748e-01 -4.566673934459686279e-02
3.429125994443893433e-02 -2.522902488708496094e-01 8.177325129508972168e-02
-5.357889831066131592e-02 -2.770140767097473145e-01 -1.023319065570831299e-01
-1.850367896258831024e-02 -1.903759092092514038e-01 -7.384903728961944580e-02
3.386176005005836487e-02 -2.124936580657958984e-01 1.081069186329841614e-01
-3.081821836531162262e-02 -2.521970868110656738e-01 1.521110385656356812e-01
-4.403236508369445801e-02 -2.351568937301635742e-01 -1.117229610681533813e-01
2.551254257559776306e-02 -2.487865686416625977e-01 1.278771907091140747e-01
-5.079231038689613342e-02 -2.320863008499145508e-01 6.970819085836410522e-04
3.768002986907958984e-02 -2.752828299999237061e-01 -1.050666347146034241e-01
3.016437590122222900e-02 -1.872625201940536499e-01 8.147848397493362427e-02
3.293555229902267456e-02 -2.867221832275390625e-01 -1.325456947088241577e-01
2.945150062441825867e-02 -2.117144912481307983e-01 -1.178818717598915100e-01
-4.948149621486663818e-02 -2.593312859535217285e-01 6.969395279884338379e-02
-3.678491711616516113e-02 -2.989088594913482666e-01 6.673009693622589111e-02
4.756496753543615341e-03 -2.924351394176483154e-01 1.004762127995491028e-01
3.904663491994142532e-03 -2.048193812370300293e-01 -1.492332518100738525e-01
-4.774238541722297668e-02 -2.246855497360229492e-01 4.541055858135223389e-02
4.280619323253631592e-02 -2.201791405677795410e-01 -1.644746586680412292e-02
3.884460777044296265e-02 -2.458287924528121948e-01 -1.182358413934707642e-01
-3.210261091589927673e-02 -2.277042865753173828e-01 -1.508776247501373291e-01
-2.879784442484378815e-02 -1.890438795089721680e-01 -6.084362044930458069e-03
-5.197278410196304321e-02 -2.678319513797760010e-01 -1.141606569290161133e-01
-5.090713873505592346e-02 -2.770162820816040039e-01 4.087133705615997314e-02
-1.971640996634960175e-02 -3.391122221946716309e-01 -1.024845615029335022e-01
1.361759379506111145e-02 -1.728710979223251343e-01 -4.832960665225982666e-03
-1.394972205162048340e-02 -1.747648268938064575e-01 1.424500159919261932e-02
4.086501896381378174e-02 -2.669908404350280762e-01 -4.921519756317138672e-02
1.165498048067092896e-02 -2.986510694026947021e-01 -2.248306572437286377e-01
3.809117898344993591e-02 -2.196926027536392212e-01 -8.727461844682693481e-02
-4.879952594637870789e-02 -2.696634531021118164e-01 -1.425936222076416016e-01
-2.880206145346164703e-02 -2.735981345176696777e-01 -2.252530306577682495e-01
3.168576955795288086e-02 -2.019829750061035156e-01 1.110785976052284241e-01
1.885532401502132416e-02 -1.954409778118133545e-01 1.546704024076461792e-01
4.216291382908821106e-02 -2.156912386417388916e-01 1.060597039759159088e-02
-2.308339998126029968e-02 -2.346288114786148071e-01 -1.897313892841339111e-01
-4.983938485383987427e-02 -3.061060011386871338e-01 -1.071326360106468201e-01
1.642146706581115723e-02 -1.837755590677261353e-01 -6.511258333921432495e-02
-3.340542688965797424e-02 -2.360614240169525146e-01 -1.646433323621749878e-01
-1.783758401870727539e-02 -3.302564024925231934e-01 -1.969329416751861572e-01
-4.426038637757301331e-02 -2.868208289146423340e-01 -1.777278184890747070e-01
2.769671007990837097e-02 -2.297749519348144531e-01 1.365183591842651367e-01
-3.876096382737159729e-02 -3.266687989234924316e-01 -1.305811703205108643e-01
-2.589384652674198151e-02 -1.832912117242813110e-01 4.256957024335861206e-02
-5.084336735308170319e-03 -3.262302577495574951e-01 -7.892251014709472656e-04
3.005627542734146118e-02 -2.962573766708374023e-01 -1.284704208374023438e-01
2.167898043990135193e-02 -3.144984245300292969e-01 -9.402282536029815674e-02
-3.848363831639289856e-02 -2.014970779418945312e-01 8.086210116744041443e-03
1.249622367322444916e-02 -2.253905832767486572e-01 -1.868236511945724487e-01
-7.395383436232805252e-03 -3.076794743537902832e-01 7.375687360763549805e-02
1.504516787827014923e-02 -1.731388866901397705e-01 9.882143884897232056e-02
-5.499495938420295715e-02 -2.553660571575164795e-01 -2.630705386400222778e-02
-4.620220139622688293e-02 -2.863889634609222412e-01 5.580030381679534912e-02
-2.777228690683841705e-02 -2.555717229843139648e-01 -2.112091481685638428e-01
-1.534347049891948700e-02 -2.379296272993087769e-01 -2.077051550149917603e-01
-2.243322879076004028e-02 -3.374510109424591064e-01 -7.760546356439590454e-02
2.701766416430473328e-02 -2.703242301940917969e-01 8.553115278482437134e-02
-5.024011805653572083e-02 -3.006941676139831543e-01 -1.715546846389770508e-02
-3.557131811976432800e-02 -2.490063905715942383e-01 -1.802723705768585205e-01
1.728663593530654907e-02 -2.749060392379760742e-01 1.114286109805107117e-01
-2.353713382035493851e-03 -3.342736363410949707e-01 -6.579032540321350098e-02
-2.199735864996910095e-02 -2.395118176937103271e-01 -2.002553790807723999e-01
3.504908829927444458e-02 -2.871847450733184814e-01 -5.165184661746025085e-02
1.944325305521488190e-02 -2.850269377231597900e-01 8.105994015932083130e-02
-4.723592847585678101e-02 -3.147516250610351562e-01 -8.628264069557189941e-02
2.981288731098175049e-02 -1.848060190677642822e-01 6.927710771560668945e-02
-4.670730233192443848e-02 -3.131496012210845947e-01 -1.216222345829010010e-01
-4.613975062966346741e-02 -2.989499270915985107e-01 -1.616615206003189087e-01
8.698508143424987793e-03 -2.930774390697479248e-01 9.106846153736114502e-02
-4.357097670435905457e-02 -3.091874420642852783e-01 5.572488531470298767e-03
-7.905025966465473175e-03 -3.371863365173339844e-01 -7.826794683933258057e-02
-4.473992064595222473e-02 -2.978585660457611084e-01 -1.714318245649337769e-01
3.836067020893096924e-02 -2.104218900203704834e-01 -5.776492506265640259e-02
-8.737078867852687836e-03 -1.869049370288848877e-01 -8.240994065999984741e-02
1.671921834349632263e-02 -1.726798117160797119e-01 1.081299595534801483e-02
-1.634373329579830170e-03 -1.698879748582839966e-01 9.313796460628509521e-02
3.356637805700302124e-02 -2.219223082065582275e-01 -1.212468743324279785e-01
-5.387086421251296997e-02 -2.639403045177459717e-01 -8.574274927377700806e-02
1.773815415799617767e-02 -2.065113633871078491e-01 1.668088138103485107e-01
6.208851467818021774e-03 -1.681302189826965332e-01 4.195377230644226074e-02
1.442405208945274353e-02 -1.863575279712677002e-01 1.502792537212371826e-01
-1.655458100140094757e-02 -1.752907782793045044e-01 3.577985614538192749e-02
-2.761368639767169952e-02 -2.488689869642257690e-01 -2.028554379940032959e-01
1.681230030953884125e-02 -3.203877210617065430e-01 -7.903713732957839966e-02
-5.135004222393035889e-02 -3.027550876140594482e-01 -5.151227861642837524e-02
-2.248621173202991486e-02 -3.310140073299407959e-01 -1.880206316709518433e-01
3.146941587328910828e-02 -2.644347846508026123e-01 7.555186003446578979e-02
2.078521810472011566e-02 -2.878062427043914795e-01 -2.066643983125686646e-01
-1.039642747491598129e-02 -2.062667608261108398e-01 -1.463305950164794922e-01
-6.267820484936237335e-03 -2.831679284572601318e-01 1.323288977146148682e-01
2.420746348798274994e-02 -1.861605495214462280e-01 1.178186610341072083e-01
1.979874819517135620e-02 -2.181324064731597900e-01 1.644565314054489136e-01
-3.203697502613067627e-02 -1.962031573057174683e-01 9.998834878206253052e-02
3.911624476313591003e-02 -2.388156652450561523e-01 -1.105730086565017700e-01
4.275850951671600342e-02 -2.191523760557174683e-01 -1.783158630132675171e-03
4.670756403356790543e-03 -1.731270700693130493e-01 1.205743625760078430e-01
1.344576105475425720e-02 -2.321778982877731323e-01 -1.964830756187438965e-01
1.373397000133991241e-02 -1.797791719436645508e-01 1.345883309841156006e-01
2.376283146440982819e-02 -2.674810290336608887e-01 1.048882827162742615e-01
-2.608143910765647888e-02 -1.841316819190979004e-01 2.035863511264324188e-02
3.359903767704963684e-02 -2.632538974285125732e-01 6.513205170631408691e-02
2.987984567880630493e-02 -3.000077307224273682e-01 -7.106537371873855591e-02
-2.649133838713169098e-02 -2.201101630926132202e-01 1.664994806051254272e-01
-9.316553361713886261e-03 -3.041604161262512207e-01 8.502668887376785278e-02
4.192998632788658142e-02 -2.205282598733901978e-01 -4.447805508971214294e-02
9.450536221265792847e-03 -2.094510495662689209e-01 -1.575995981693267822e-01
9.740768000483512878e-03 -3.279503285884857178e-01 -1.272256672382354736e-01
-1.897997967898845673e-02 -2.778106033802032471e-01 -2.435217946767807007e-01
-3.783494234085083008e-02 -3.114973902702331543e-01 -1.905757337808609009e-01
4.107360914349555969e-02 -2.163951098918914795e-01 4.369835555553436279e-02
-2.517402917146682739e-02 -3.349370956420898438e-01 -1.598988771438598633e-01
-1.589979045093059540e-02 -1.760887354612350464e-01 8.919510990381240845e-02
1.631982810795307159e-02 -2.233035713434219360e-01 -1.774597465991973877e-01
-5.572171881794929504e-02 -2.664413452148437500e-01 -3.725583478808403015e-02
3.435619175434112549e-02 -2.697964906692504883e-01 -1.500720977783203125e-01
-2.771139331161975861e-02 -2.891027927398681641e-01 1.093626990914344788e-01
-3.614023700356483459e-02 -2.075303196907043457e-01 1.106852516531944275e-01
-3.221941366791725159e-02 -2.253599315881729126e-01 1.524375081062316895e-01
-1.761181466281414032e-02 -1.792828142642974854e-01 -9.549017995595932007e-03
-4.779737070202827454e-02 -2.946723699569702148e-01 2.623747847974300385e-02
-3.669507429003715515e-02 -2.644794881343841553e-01 -1.961772888898849487e-01
2.186239138245582581e-02 -1.749455183744430542e-01 2.476537041366100311e-02
3.629508242011070251e-02 -2.103009819984436035e-01 8.929067105054855347e-02
2.450596541166305542e-02 -1.903937160968780518e-01 -6.922805309295654297e-02
4.092409834265708923e-02 -2.356351763010025024e-01 4.993989318609237671e-02
2.006803639233112335e-02 -1.977580338716506958e-01 -1.093879416584968567e-01
-3.326611360535025597e-03 -3.368674516677856445e-01 -1.092174425721168518e-01
3.828536346554756165e-02 -2.163789570331573486e-01 -7.720480114221572876e-02
2.282745763659477234e-02 -2.053692638874053955e-01 1.525032371282577515e-01
1.170898973941802979e-02 -3.251028656959533691e-01 -1.413712799549102783e-01
2.086399495601654053e-02 -2.985795140266418457e-01 -1.925302892923355103e-01
4.377382621169090271e-02 -2.302537113428115845e-01 -1.542765367776155472e-02
3.488196060061454773e-02 -1.917797327041625977e-01 1.515336893498897552e-02
2.332842908799648285e-02 -2.284050732851028442e-01 1.521448940038681030e-01
-3.302608802914619446e-02 -1.922597587108612061e-01 2.845398895442485809e-02
-2.350462786853313446e-02 -3.193883597850799561e-01 3.162465989589691162e-02
-3.384375199675559998e-02 -2.389474809169769287e-01 1.494895666837692261e-01
-3.736609220504760742e-02 -2.044201493263244629e-01 8.969936519861221313e-02
-1.459075603634119034e-03 -1.683793514966964722e-01 6.196384131908416748e-02
-1.651151105761528015e-02 -3.395301103591918945e-01 -1.129210293292999268e-01
-1.888429559767246246e-02 -2.802132070064544678e-01 1.359611302614212036e-01
2.317655831575393677e-02 -1.815610527992248535e-01 -2.999287843704223633e-02
4.089482128620147705e-02 -2.113288938999176025e-01 -2.291064895689487457e-02
4.330516606569290161e-02 -2.431990951299667358e-01 -5.678534880280494690e-02
-4.037934541702270508e-02 -2.539917230606079102e-01 1.216808632016181946e-01
-4.888926073908805847e-02 -2.976557910442352295e-01 -1.417317092418670654e-01
-2.258150093257427216e-02 -2.653320431709289551e-01 -2.309273928403854370e-01
-4.593541845679283142e-02 -2.261260151863098145e-01 7.599713653326034546e-02
-2.638105303049087524e-02 -3.216297030448913574e-01 -2.082274407148361206e-01
-4.310646280646324158e-02 -2.390069365501403809e-01 -1.273300647735595703e-01
-1.340997219085693359e-02 -3.209542632102966309e-01 -2.238793075084686279e-01
2.144196256995201111e-02 -2.399963587522506714e-01 1.500257253646850586e-01
-3.719240799546241760e-02 -2.562395930290222168e-01 1.316964775323867798e-01
-4.755855724215507507e-02 -2.901393771171569824e-01 3.946391493082046509e-02
2.160551026463508606e-02 -3.032160699367523193e-01 -1.782289594411849976e-01
1.768580079078674316e-02 -2.150047421455383301e-01 -1.588196009397506714e-01
-1.534116454422473907e-02 -1.744746863842010498e-01 6.891275197267532349e-02
-5.274486914277076721e-02 -2.847613394260406494e-01 -1.125439852476119995e-01
2.605045586824417114e-02 -2.927650511264801025e-01 -1.751152873039245605e-01
5.443351808935403824e-03 -2.099836766719818115e-01 1.867695003747940063e-01
7.997103035449981689e-03 -3.231990337371826172e-01 -1.808781921863555908e-01
1.205037347972393036e-02 -2.769855260848999023e-01 1.205248013138771057e-01
1.963998563587665558e-02 -2.526740729808807373e-01 -2.081239223480224609e-01
-1.643736846745014191e-02 -1.848949790000915527e-01 -5.335298925638198853e-02
-4.421944171190261841e-02 -2.141690105199813843e-01 -1.321933977305889130e-02
3.610155731439590454e-02 -2.206357568502426147e-01 9.632257372140884399e-02
6.131132598966360092e-03 -1.713273823261260986e-01 1.082787588238716125e-01
-2.068536914885044098e-02 -1.792357563972473145e-01 7.902158051729202271e-02
-4.443732276558876038e-02 -2.699878513813018799e-01 9.055126458406448364e-02
-7.503376342356204987e-03 -1.761217117309570312e-01 1.254588961601257324e-01
-3.945699334144592285e-02 -2.965310215950012207e-01 -1.977978944778442383e-01
-5.208382755517959595e-02 -2.969143986701965332e-01 -2.687717601656913757e-02
2.961049973964691162e-02 -2.190220057964324951e-01 -1.335323303937911987e-01
-1.252183225005865097e-02 -1.810290962457656860e-01 -4.425287246704101562e-02
-1.467083208262920380e-02 -1.854511946439743042e-01 1.443852931261062622e-01
1.358628738671541214e-03 -3.033682405948638916e-01 -2.394402474164962769e-01
1.025923062115907669e-03 -3.328284919261932373e-01 -1.542829871177673340e-01
-4.063195735216140747e-02 -2.729367315769195557e-01 1.029237583279609680e-01
3.626819327473640442e-02 -2.789230048656463623e-01 -1.104512624442577362e-02
-5.508236587047576904e-02 -2.582806944847106934e-01 -4.353681951761245728e-02
1.295544579625129700e-02 -3.207357525825500488e-01 -1.648021638393402100e-01
-2.166153863072395325e-02 -3.290898203849792480e-01 -1.017191074788570404e-02
-5.346744880080223083e-02 -2.896499335765838623e-01 -1.937569305300712585e-02
3.314229100942611694e-02 -1.965622305870056152e-01 9.006828814744949341e-02
2.547402400523424149e-03 -3.230280280113220215e-01 -2.010958641767501831e-01
2.896881196647882462e-03 -1.830460429191589355e-01 1.566738784313201904e-01
-4.885996133089065552e-02 -2.498017251491546631e-01 7.609792798757553101e-02
-3.988851606845855713e-02 -2.035547643899917603e-01 3.363695740699768066e-02
-5.546372383832931519e-03 -2.774316668510437012e-01 1.424738764762878418e-01
3.861763328313827515e-02 -2.755041122436523438e-01 -8.106259256601333618e-02
3.564567118883132935e-02 -2.854021787643432617e-01 -8.993776142597198486e-02
1.561623811721801758e-02 -1.707992106676101685e-01 3.467245399951934814e-02
-1.949038170278072357e-02 -3.371129631996154785e-01 -6.664859503507614136e-02
3.838266059756278992e-02 -2.195247560739517212e-01 7.830857485532760620e-02
2.611502259969711304e-02 -2.853127121925354004e-01 -1.858275234699249268e-01
-3.276693075895309448e-02 -3.143813908100128174e-01 -2.047676593065261841e-01
-2.575233019888401031e-02 -2.986307144165039062e-01 -2.349407374858856201e-01
-1.009576208889484406e-02 -2.157259583473205566e-01 -1.705598831176757812e-01
-9.400719776749610901e-03 -1.733628809452056885e-01 3.242695704102516174e-03
-3.920603916049003601e-02 -2.277537882328033447e-01 -1.201245635747909546e-01
-2.801424823701381683e-02 -3.114788234233856201e-01 5.241654813289642334e-02
-4.517370089888572693e-02 -2.604715526103973389e-01 9.585241228342056274e-02
3.240402415394783020e-02 -2.725221812725067139e-01 -1.615572422742843628e-01
-2.306961687281727791e-03 -2.659102380275726318e-01 -2.443448007106781006e-01
-5.458667129278182983e-02 -2.884224951267242432e-01 -5.358948558568954468e-02
-5.041767656803131104e-02 -2.838091850280761719e-01 -1.369906365871429443e-01
-2.995704673230648041e-02 -1.887194514274597168e-01 6.512505561113357544e-02
1.710226386785507202e-02 -3.035525679588317871e-01 3.102018497884273529e-02
-2.716086246073246002e-02 -3.115943968296051025e-01 -2.227969169616699219e-01
3.512664511799812317e-02 -2.343127280473709106e-01 -1.328878104686737061e-01
-7.697671651840209961e-03 -2.320992350578308105e-01 -2.048294395208358765e-01
-2.424502978101372719e-03 -1.737983524799346924e-01 -2.036743424832820892e-02
-2.800408937036991119e-02 -1.958441138267517090e-01 -5.909015983343124390e-02
-5.445213243365287781e-02 -2.676020562648773193e-01 1.167378760874271393e-02
-5.003996565937995911e-02 -3.076930344104766846e-01 -6.951379776000976562e-02
2.899613976478576660e-02 -2.384306192398071289e-01 -1.664375066757202148e-01
-3.755377838388085365e-03 -3.369848728179931641e-01 -1.241777762770652771e-01
2.274334244430065155e-02 -3.120025992393493652e-01 -6.688919663429260254e-02
-5.086297169327735901e-02 -2.340297400951385498e-01 2.498226426541805267e-02
4.325001686811447144e-02 -2.337638586759567261e-01 -5.115090683102607727e-02
3.088831529021263123e-02 -2.094613015651702881e-01 1.228418722748756409e-01
-5.506934225559234619e-02 -2.732286155223846436e-01 -6.761290132999420166e-03
-5.390046536922454834e-02 -2.469940930604934692e-01 -9.748656302690505981e-03
-5.245272815227508545e-02 -2.510517537593841553e-01 -7.716936618089675903e-02
-2.879984304308891296e-02 -2.359183132648468018e-01 1.635488271713256836e-01
5.679871421307325363e-03 -3.097528815269470215e-01 -2.243110984563827515e-01
-3.165687620639801025e-02 -1.911852955818176270e-01 1.034189201891422272e-02
-1.851657871156930923e-03 -2.194480448961257935e-01 -1.834217011928558350e-01
2.188205905258655548e-02 -3.096176981925964355e-01 -1.521133035421371460e-01
-4.938279837369918823e-02 -2.612574696540832520e-01 -1.283871382474899292e-01
4.062645509839057922e-02 -2.549346089363098145e-01 2.125609107315540314e-02
-3.652666509151458740e-02 -1.977652162313461304e-01 1.928570680320262909e-02
2.662597224116325378e-02 -2.265401482582092285e-01 -1.580536067485809326e-01
3.296666592359542847e-02 -2.819736599922180176e-01 1.380078680813312531e-02
3.596813976764678955e-02 -2.386472374200820923e-01 8.894524723291397095e-02
4.636788275092840195e-03 -2.637166976928710938e-01 1.555584073066711426e-01
-4.496606439352035522e-02 -2.399510294198989868e-01 1.006215885281562805e-01
-1.195658743381500244e-02 -3.151339292526245117e-01 5.197160691022872925e-02
5.082412157207727432e-03 -3.262888193130493164e-01 -3.161541372537612915e-02
-4.719264432787895203e-02 -2.249654680490493774e-01 5.650921911001205444e-02
-4.912956804037094116e-02 -2.860094308853149414e-01 -1.473067998886108398e-01
3.844935819506645203e-02 -2.016831040382385254e-01 -9.177174419164657593e-03
-4.757764935493469238e-02 -3.110939860343933105e-01 -4.109553620219230652e-02
3.034752234816551208e-02 -2.038091421127319336e-01 -9.213253855705261230e-02
1.205962523818016052e-02 -2.607170343399047852e-01 1.481921225786209106e-01
2.284833788871765137e-02 -1.803311258554458618e-01 1.026152595877647400e-01
3.676918521523475647e-02 -2.827643752098083496e-01 -7.079470902681350708e-02
-3.047575056552886963e-02 -2.125521004199981689e-01 -1.150635182857513428e-01
-4.139176569879055023e-03 -1.980969607830047607e-01 -1.284254491329193115e-01
-2.008275315165519714e-02 -1.877807378768920898e-01 1.345962733030319214e-01
4.222544282674789429e-02 -2.247193157672882080e-01 3.407035768032073975e-02
-2.928796038031578064e-02 -3.249679505825042725e-01 -1.924008578062057495e-01
3.818108141422271729e-02 -2.044628411531448364e-01 5.834161490201950073e-02
-3.153449669480323792e-02 -1.935434490442276001e-01 -1.766204461455345154e-02
-5.300590395927429199e-02 -2.922451198101043701e-01 -9.904473274946212769e-02
-1.372612453997135162e-02 -2.692638039588928223e-01 -2.438616007566452026e-01
4.719502758234739304e-03 -3.228624463081359863e-01 -8.555689826607704163e-03
2.532877027988433838e-02 -1.804290413856506348e-01 -7.520616054534912109e-03
1.677025109529495239e-02 -3.198515772819519043e-01 -1.329524666070938110e-01
2.848893776535987854e-02 -2.052259445190429688e-01 -1.046608090400695801e-01
4.101598262786865234e-02 -2.609081566333770752e-01 -8.587611466646194458e-02
5.251065362244844437e-03 -3.005682229995727539e-01 7.767882943153381348e-02
1.529890112578868866e-02 -1.854604184627532959e-01 -7.497191429138183594e-02
-3.402997925877571106e-02 -3.263482153415679932e-01 -1.690185219049453735e-01
-2.186523564159870148e-02 -3.035189807415008545e-01 8.370131999254226685e-02
3.846271708607673645e-02 -2.738995850086212158e-01 -2.108664810657501221e-02
6.991138216108083725e-03 -2.862908542156219482e-01 1.110224500298500061e-01
-3.865070641040802002e-02 -3.180471658706665039e-01 -1.730335503816604614e-01
-5.469832196831703186e-02 -2.577776610851287842e-01 5.148692056536674500e-03
3.226358070969581604e-02 -2.030579447746276855e-01 -7.949717342853546143e-02
-4.477342963218688965e-02 -2.559051215648651123e-01 -1.504888087511062622e-01
2.026157267391681671e-02 -2.623462975025177002e-01 1.257240623235702515e-01
-2.203124575316905975e-02 -2.166540622711181641e-01 -1.531252115964889526e-01
1.948302239179611206e-02 -1.817786097526550293e-01 -4.667859524488449097e-02
2.724428474903106689e-02 -2.142871618270874023e-01 1.408424973487854004e-01
-4.244580864906311035e-02 -2.561424076557159424e-01 1.117703095078468323e-01
1.833399944007396698e-02 -2.987974584102630615e-01 4.342866688966751099e-02
-6.060073617845773697e-03 -2.924000322818756104e-01 1.129116192460060120e-01
2.906877547502517700e-02 -2.827315032482147217e-01 -1.723745465278625488e-01
-4.663615301251411438e-02 -2.192532867193222046e-01 -3.385053947567939758e-03
-4.910555854439735413e-02 -2.383433282375335693e-01 -7.834527641534805298e-02
1.373340375721454620e-03 -3.125136792659759521e-01 4.642429947853088379e-02
-4.564022645354270935e-02 -2.318347841501235962e-01 8.903590589761734009e-02
-4.066981747746467590e-02 -3.255991637706756592e-01 -1.079904064536094666e-01
-4.218502901494503021e-03 -3.283848166465759277e-01 -1.435843948274850845e-02
-1.892423629760742188e-02 -2.894316911697387695e-01 1.187442019581794739e-01
-1.931371726095676422e-02 -3.096313476562500000e-01 -2.365758270025253296e-01
-4.036796465516090393e-02 -2.733089327812194824e-01 -1.901272386312484741e-01
2.291482686996459961e-02 -2.883964776992797852e-01 5.720757693052291870e-02
-2.408004738390445709e-02 -3.247452974319458008e-01 8.361240848898887634e-03
2.769265323877334595e-02 -3.015028834342956543e-01 -3.764335066080093384e-02
3.889500722289085388e-02 -2.017378509044647217e-01 1.253819279372692108e-02
-3.539270907640457153e-02 -2.272526323795318604e-01 -1.369908750057220459e-01
-7.742675021290779114e-03 -3.276674747467041016e-01 -2.046665698289871216e-01
-4.080466926097869873e-02 -2.539745569229125977e-01 -1.672850847244262695e-01
-2.542458288371562958e-02 -2.304633408784866333e-01 -1.765241920948028564e-01
3.524276241660118103e-02 -1.977281123399734497e-01 7.306190580129623413e-02
-4.322792217135429382e-02 -2.390021979808807373e-01 1.105780079960823059e-01
-1.563339121639728546e-02 -1.743932962417602539e-01 5.392718315124511719e-02
-3.995434194803237915e-02 -2.052147388458251953e-01 -8.082829415798187256e-03
1.343450322747230530e-02 -2.867173850536346436e-01 -2.290860861539840698e-01
3.611426427960395813e-02 -2.730319797992706299e-01 -1.310044080018997192e-01
-2.443019486963748932e-02 -2.290827333927154541e-01 1.733437627553939819e-01
-3.843116760253906250e-02 -3.011566400527954102e-01 5.538211017847061157e-02
-1.405134797096252441e-03 -1.909987926483154297e-01 -1.063022539019584656e-01
6.570504046976566315e-04 -2.473089098930358887e-01 1.782842129468917847e-01
-1.587641239166259766e-02 -2.581285536289215088e-01 -2.330137491226196289e-01
-3.644477576017379761e-02 -2.969892323017120361e-01 -2.087291777133941650e-01
-5.423737689852714539e-02 -2.569683194160461426e-01 -6.380889564752578735e-02
-1.459574140608310699e-02 -2.000917196273803711e-01 -1.212045624852180481e-01
-2.856751717627048492e-02 -1.880653798580169678e-01 8.018943667411804199e-02
-2.102792821824550629e-02 -1.830883026123046875e-01 1.094055995345115662e-01
-1.156553160399198532e-02 -2.451743781566619873e-01 1.818199008703231812e-01
-2.937668561935424805e-02 -2.973068952560424805e-01 8.873137831687927246e-02
9.511828422546386719e-03 -1.974913030862808228e-01 -1.254951059818267822e-01
4.370229318737983704e-02 -2.433031201362609863e-01 -1.595035567879676819e-02
7.799931336194276810e-03 -1.911166459321975708e-01 1.687226593494415283e-01
-3.492739424109458923e-02 -2.808364927768707275e-01 1.091160252690315247e-01
4.158650338649749756e-02 -2.629156708717346191e-01 -3.826263546943664551e-02
5.042760167270898819e-03 -3.312525451183319092e-01 -8.133713901042938232e-02
1.087321341037750244e-02 -3.002080023288726807e-01 6.515694409608840942e-02
-7.477223873138427734e-03 -1.711641401052474976e-01 2.153138630092144012e-02
2.062710188329219818e-02 -1.745598614215850830e-01 7.560458779335021973e-02
-5.932125728577375412e-03 -1.819556057453155518e-01 1.502575576305389404e-01
-5.135453864932060242e-02 -3.014972805976867676e-01 -4.037576913833618164e-02
-2.804820053279399872e-02 -3.300496637821197510e-01 -1.779907792806625366e-01
1.401329413056373596e-02 -3.227940797805786133e-01 -6.853280216455459595e-02
-4.948249459266662598e-02 -2.977044582366943359e-01 3.112444654107093811e-03
1.399262994527816772e-02 -2.696793675422668457e-01 1.298499852418899536e-01
-4.544965550303459167e-02 -2.730452418327331543e-01 -1.661300659179687500e-01
3.309548646211624146e-02 -2.355046272277832031e-01 -1.451823860406875610e-01
-3.608363494277000427e-02 -2.330049723386764526e-01 1.415422260761260986e-01
3.133307397365570068e-02 -2.872468829154968262e-01 -1.476118713617324829e-01
2.030992694199085236e-02 -3.140816986560821533e-01 -5.136895179748535156e-02
-3.111667372286319733e-02 -3.348199427127838135e-01 -1.034319624304771423e-01
-4.183730855584144592e-02 -2.130789607763290405e-01 -4.308658093214035034e-02
2.897812798619270325e-02 -1.901373863220214844e-01 -4.570154100656509399e-02
1.796434819698333740e-02 5.887658894062042236e-02 -1.835251152515411377e-01
1.997500471770763397e-02 5.658695846796035767e-02 -1.859236061573028564e-01
-1.631685905158519745e-02 4.852800071239471436e-02 -1.735329926013946533e-01
-1.385217066854238510e-02 3.206491470336914062e-02 -1.676634103059768677e-01
-4.059225693345069885e-02 2.560735493898391724e-02 -1.914141774177551270e-01
7.170103490352630615e-04 1.643353700637817383e-02 -2.069949209690093994e-01
-1.731713302433490753e-02 2.749529853463172913e-02 -2.161589711904525757e-01
-1.829656772315502167e-02 5.485343188047409058e-02 -1.980750560760498047e-01
-2.804634347558021545e-02 4.707413911819458008e-02 -1.857261359691619873e-01
1.590475998818874359e-02 2.232193388044834137e-02 -1.937973201274871826e-01
1.083808392286300659e-02 2.829791232943534851e-02 -2.045292705297470093e-01
-2.582255192101001740e-02 4.888647794723510742e-02 -1.845542788505554199e-01
-3.055272158235311508e-03 2.052206546068191528e-02 -2.113648802042007446e-01
-1.684261485934257507e-02 3.560492768883705139e-03 -1.855168193578720093e-01
-2.552553080022335052e-02 4.388045519590377808e-03 -2.062392532825469971e-01
2.387683093547821045e-02 5.159890651702880859e-02 -1.830776035785675049e-01
-1.697160769253969193e-03 1.650481484830379486e-02 -2.086993157863616943e-01
-8.651623502373695374e-04 8.148584514856338501e-03 -1.987877637147903442e-01
-2.926824241876602173e-02 3.715978935360908508e-03 -1.911692023277282715e-01
1.208246871829032898e-02 1.621630601584911346e-02 -1.907315403223037720e-01
-2.434080839157104492e-02 6.947224959731101990e-03 -2.094297111034393311e-01
-3.890245780348777771e-02 1.606017723679542542e-02 -1.891985833644866943e-01
-6.230967119336128235e-04 7.000999525189399719e-03 -1.948030143976211548e-01
-4.094804078340530396e-02 2.912102825939655304e-02 -1.993758976459503174e-01
-3.279619663953781128e-02 2.222597971558570862e-02 -1.798675507307052612e-01
2.583052963018417358e-03 2.477863989770412445e-02 -2.096150666475296021e-01
6.961221806704998016e-03 1.661522127687931061e-02 -1.751241534948348999e-01
-4.522781819105148315e-05 6.106325984001159668e-02 -1.940402388572692871e-01
1.221652701497077942e-02 3.733042627573013306e-02 -1.660064160823822021e-01
-3.883008845150470734e-03 1.399104855954647064e-02 -1.732998192310333252e-01
-3.587811812758445740e-02 3.674658387899398804e-02 -2.043077498674392700e-01
3.804042935371398926e-04 4.819323867559432983e-02 -2.077161520719528198e-01
-3.029994107782840729e-02 3.155235946178436279e-02 -2.129716873168945312e-01
-9.170257486402988434e-03 4.247723519802093506e-02 -2.122404575347900391e-01
-1.015242654830217361e-02 3.403194248676300049e-03 -1.878808587789535522e-01
1.289823465049266815e-02 2.787798829376697540e-02 -2.023857980966567993e-01
2.257652580738067627e-03 6.288529187440872192e-02 -1.859455257654190063e-01
-3.833810240030288696e-02 2.801967971026897430e-02 -2.076786011457443237e-01
1.563234254717826843e-02 2.056962996721267700e-02 -1.912051737308502197e-01
-4.156557843089103699e-02 1.632362604141235352e-02 -2.021307349205017090e-01
1.937357336282730103e-02 4.631038010120391846e-02 -1.695914417505264282e-01
-6.988473236560821533e-03 5.309628322720527649e-02 -1.713659465312957764e-01
-2.987789176404476166e-02 2.149168029427528381e-02 -2.146371752023696899e-01
-2.825561910867691040e-02 2.505401149392127991e-03 -1.939361393451690674e-01
4.490966908633708954e-03 2.708628214895725250e-02 -2.090148180723190308e-01
5.755287595093250275e-03 1.964547857642173767e-02 -1.714575737714767456e-01
-3.918122500181198120e-02 1.016901805996894836e-02 -1.966798901557922363e-01
-9.344492107629776001e-03 2.921436913311481476e-02 -1.666190177202224731e-01
-4.113662987947463989e-02 1.417574845254421234e-02 -1.971345096826553345e-01
-2.935343421995639801e-02 2.811782062053680420e-02 -2.143283039331436157e-01
-3.844879567623138428e-02 1.013855449855327606e-02 -1.940252482891082764e-01
-9.591272100806236267e-03 6.039473414421081543e-02 -1.884370893239974976e-01
1.097119599580764771e-02 1.667662709951400757e-02 -1.794288754463195801e-01
-1.981749758124351501e-02 1.702339574694633484e-02 -1.733707785606384277e-01
2.246473357081413269e-02 5.422402918338775635e-02 -1.830083131790161133e-01
-2.430158201605081558e-03 1.229497417807579041e-02 -1.752926558256149292e-01
-2.831855788826942444e-02 1.839472725987434387e-02 -2.147079855203628540e-01
-2.111640945076942444e-02 2.732259780168533325e-02 -1.711049675941467285e-01
-2.096882835030555725e-02 1.211328245699405670e-02 -2.130647450685501099e-01
-2.143283933401107788e-02 5.253933370113372803e-02 -1.995814293622970581e-01
-1.499819196760654449e-02 4.458634555339813232e-02 -1.704881191253662109e-01
-8.528214879333972931e-03 3.556102141737937927e-02 -2.142325937747955322e-01
1.260420121252536774e-02 6.143671274185180664e-02 -1.807793527841567993e-01
-1.463037170469760895e-02 2.438268251717090607e-02 -2.158254832029342651e-01
-2.660099603235721588e-02 4.964645951986312866e-02 -1.883480846881866455e-01
-6.200771778821945190e-03 5.955578386783599854e-02 -1.788741499185562134e-01
-4.751329310238361359e-03 4.437248036265373230e-02 -2.108009606599807739e-01
-1.591998711228370667e-02 1.477571390569210052e-02 -1.733554005622863770e-01
2.252680435776710510e-02 3.939377516508102417e-02 -1.926669329404830933e-01
-3.516320884227752686e-02 3.210595250129699707e-02 -2.092395126819610596e-01
-3.010087460279464722e-02 2.511187270283699036e-02 -2.144801616668701172e-01
-4.048640839755535126e-03 8.470291271805763245e-03 -2.029951065778732300e-01
7.563369348645210266e-03 4.804114252328872681e-02 -2.049355804920196533e-01
-4.156431928277015686e-02 2.461664006114006042e-02 -1.944035142660140991e-01
1.437936536967754364e-02 3.703957051038742065e-02 -2.027902156114578247e-01
-3.567523509263992310e-02 1.058110967278480530e-02 -1.884030550718307495e-01
1.315305940806865692e-02 3.411167487502098083e-02 -2.036991417407989502e-01
-4.033055156469345093e-03 6.983535364270210266e-03 -1.825003921985626221e-01
1.159491762518882751e-02 6.135888397693634033e-02 -1.878014951944351196e-01
-1.426654867827892303e-02 3.700425103306770325e-02 -1.680697202682495117e-01
-1.292525790631771088e-02 1.476031914353370667e-02 -2.128878235816955566e-01
1.545499637722969055e-02 3.348475322127342224e-02 -2.013732790946960449e-01
1.856835559010505676e-03 5.833381786942481995e-02 -1.986591368913650513e-01
1.307194866240024567e-02 2.178880758583545685e-02 -1.745165139436721802e-01
1.290317438542842865e-02 5.181653797626495361e-02 -1.995660513639450073e-01
-2.969493344426155090e-02 1.469056308269500732e-02 -1.798214316368103027e-01
-2.384794130921363831e-02 3.064444661140441895e-02 -2.153544425964355469e-01
-3.645446151494979858e-02 1.968602463603019714e-02 -1.843165755271911621e-01
-1.526474952697753906e-02 5.774017423391342163e-02 -1.869859397411346436e-01
7.645055651664733887e-03 6.085453927516937256e-02 -1.924572139978408813e-01
-2.949860878288745880e-02 3.155769780278205872e-02 -1.769488900899887085e-01
-1.471848413348197937e-02 8.220452815294265747e-03 -1.784995943307876587e-01
2.010114118456840515e-02 2.765182778239250183e-02 -1.907127499580383301e-01
-4.103900864720344543e-02 2.841461449861526489e-02 -1.954898536205291748e-01
-4.061560332775115967e-02 1.570246741175651550e-02 -2.047897726297378540e-01
-3.300968557596206665e-02 2.637705206871032715e-02 -2.129406332969665527e-01
2.070144377648830414e-02 2.735790237784385681e-02 -1.878399997949600220e-01
-2.361784875392913818e-02 2.765674516558647156e-02 -1.724544763565063477e-01
5.297176539897918701e-03 6.021808087825775146e-02 -1.947683095932006836e-01
-2.931424789130687714e-02 3.531698137521743774e-02 -1.777314394712448120e-01
-2.187846414744853973e-02 1.973193138837814331e-02 -2.157061845064163208e-01
-4.022353887557983398e-02 1.259164884686470032e-02 -2.027466446161270142e-01
-3.803711384534835815e-03 5.378132686018943787e-03 -1.952940821647644043e-01
-8.360603824257850647e-03 4.797697439789772034e-02 -1.688032597303390503e-01
-2.083811163902282715e-02 4.069828614592552185e-02 -1.725910902023315430e-01
-1.497861649841070175e-02 7.396589964628219604e-03 -2.083286494016647339e-01
2.115498483180999756e-02 4.339339211583137512e-02 -1.708334684371948242e-01
-3.836619108915328979e-02 1.328946277499198914e-02 -2.072046101093292236e-01
-2.038295380771160126e-02 3.143024072051048279e-02 -1.705667674541473389e-01
-2.120250463485717773e-02 5.467232316732406616e-03 -1.832038909196853638e-01
1.578051038086414337e-02 2.598064765334129333e-02 -1.977853924036026001e-01
-3.509069979190826416e-02 5.523066967725753784e-03 -1.976621150970458984e-01
-3.174415975809097290e-02 3.779431059956550598e-02 -2.085769176483154297e-01
4.865744151175022125e-03 5.281715095043182373e-02 -2.032693475484848022e-01
-2.174797467887401581e-02 5.289855226874351501e-02 -1.850940734148025513e-01
-1.216277945786714554e-02 3.413135558366775513e-02 -1.670604050159454346e-01
-1.098933909088373184e-02 5.671048164367675781e-02 -1.778626888990402222e-01
2.400977164506912231e-02 4.505391791462898254e-02 -1.891510933637619019e-01
1.980576850473880768e-02 5.287762731313705444e-02 -1.728247106075286865e-01
8.196124807000160217e-03 4.473527148365974426e-02 -1.652633845806121826e-01
-2.752485312521457672e-02 4.945585876703262329e-02 -1.934176832437515259e-01
-8.636457845568656921e-03 4.609171301126480103e-02 -2.104343473911285400e-01
-3.937855362892150879e-04 3.079026937484741211e-02 -1.652807742357254028e-01
9.709024801850318909e-03 5.849803239107131958e-02 -1.729565560817718506e-01
2.119162119925022125e-02 3.856847435235977173e-02 -1.715124249458312988e-01
2.280911058187484741e-02 5.260372161865234375e-02 -1.859752088785171509e-01
7.533023133873939514e-03 3.942814469337463379e-02 -2.076012641191482544e-01
-3.344497829675674438e-02 2.904255501925945282e-02 -1.804990172386169434e-01
-1.584258489310741425e-02 5.249185487627983093e-03 -2.060946226119995117e-01
-1.318370644003152847e-02 2.178416028618812561e-02 -1.693839728832244873e-01
-1.068647671490907669e-02 2.656453102827072144e-02 -2.152646929025650024e-01
5.092482082545757294e-03 4.520365223288536072e-02 -2.073333561420440674e-01
8.359434083104133606e-03 5.043448880314826965e-02 -1.669275164604187012e-01
2.190498821437358856e-02 5.302869901061058044e-02 -1.758319884538650513e-01
-1.610008254647254944e-02 5.308581888675689697e-02 -1.776039898395538330e-01
-3.713615983724594116e-02 7.340095937252044678e-03 -1.999238580465316772e-01
-5.652060732245445251e-03 5.754619836807250977e-02 -2.000988125801086426e-01
3.796276636421680450e-03 6.264410167932510376e-02 -1.884440183639526367e-01
-3.027696907520294189e-02 5.487721413373947144e-03 -2.063206285238265991e-01
2.371086925268173218e-02 4.035213962197303772e-02 -1.902749240398406982e-01
-5.322231911122798920e-03 6.167763099074363708e-02 -1.860521137714385986e-01
-4.577430896461009979e-03 5.790580064058303833e-03 -1.983148753643035889e-01
-1.330355368554592133e-02 2.298161387443542480e-03 -1.901741474866867065e-01
-2.723225019872188568e-02 2.024913020431995392e-02 -1.759375631809234619e-01
-2.368234843015670776e-02 1.314336434006690979e-03 -1.961070895195007324e-01
1.791786216199398041e-02 2.581457793712615967e-02 -1.938690841197967529e-01
-2.032694220542907715e-02 2.578907459974288940e-02 -2.162310630083084106e-01
-2.904161810874938965e-02 3.213025629520416260e-03 -2.024887800216674805e-01
-4.275042563676834106e-03 5.346001684665679932e-02 -2.048525512218475342e-01
1.569592021405696869e-02 2.298547327518463135e-02 -1.763183027505874634e-01
-1.594444736838340759e-03 1.034897379577159882e-02 -2.032539844512939453e-01
-2.885840646922588348e-02 1.040593534708023071e-02 -2.115070670843124390e-01
-2.842695079743862152e-02 4.768988490104675293e-02 -1.990567892789840698e-01
2.685339190065860748e-03 2.185858413577079773e-02 -2.085324376821517944e-01
-3.720716387033462524e-02 1.014108583331108093e-02 -1.912713050842285156e-01
-5.107161123305559158e-03 6.109404936432838440e-02 -1.924353688955307007e-01
-3.113481402397155762e-02 7.735081017017364502e-03 -1.863817274570465088e-01
-2.136160060763359070e-02 5.414391681551933289e-02 -1.940752267837524414e-01
-2.472267486155033112e-02 1.855321414768695831e-02 -2.153245359659194946e-01
1.259378530085086823e-02 1.841231435537338257e-02 -1.948464512825012207e-01
-8.259263820946216583e-03 6.051705777645111084e-02 -1.916951537132263184e-01
-2.353645674884319305e-02 3.942709416151046753e-02 -2.122097313404083252e-01
-3.712649643421173096e-02 3.473399952054023743e-02 -1.888438016176223755e-01
-3.933846205472946167e-02 3.323581814765930176e-02 -1.949143111705780029e-01
-2.449833787977695465e-02 3.138583153486251831e-02 -1.730321645736694336e-01
-1.517674420028924942e-03 2.572562545537948608e-02 -1.666747927665710449e-01
-8.805154822766780853e-03 3.256990760564804077e-02 -2.147223353385925293e-01
-1.705872640013694763e-02 4.586837813258171082e-02 -2.099599093198776245e-01
-1.062893494963645935e-02 7.861306890845298767e-03 -2.068940997123718262e-01
-2.509955130517482758e-02 3.535073250532150269e-03 -1.881178170442581177e-01
-1.566179469227790833e-02 4.398388043045997620e-02 -2.114218175411224365e-01
1.383591443300247192e-04 4.558377340435981750e-02 -2.090592682361602783e-01
1.858290284872055054e-03 1.376267895102500916e-02 -2.038336545228958130e-01
-4.082947969436645508e-02 1.612111926078796387e-02 -1.934372931718826294e-01
1.636650972068309784e-02 2.054281905293464661e-02 -1.871663182973861694e-01
-4.091003164649009705e-02 1.836731098592281342e-02 -2.052218616008758545e-01
-9.865643456578254700e-03 5.736519023776054382e-02 -1.992844045162200928e-01
-9.857315570116043091e-03 8.668819442391395569e-03 -1.779446750879287720e-01
2.488740533590316772e-02 4.799051582813262939e-02 -1.788335144519805908e-01
-2.814705856144428253e-02 4.133340343832969666e-02 -1.795068234205245972e-01
-8.130543865263462067e-04 6.255239248275756836e-02 -1.847741603851318359e-01
5.530717782676219940e-03 1.435517147183418274e-02 -2.004690617322921753e-01
-2.563174068927764893e-02 3.745367377996444702e-02 -2.124889045953750610e-01
2.194942906498908997e-03 5.255831778049468994e-02 -2.043838798999786377e-01
-2.703299373388290405e-02 1.527880132198333740e-02 -1.777379810810089111e-01
1.781553588807582855e-02 3.445629030466079712e-02 -1.988727897405624390e-01
1.993061229586601257e-02 3.595734387636184692e-02 -1.710357964038848877e-01
1.565487124025821686e-02 4.426798969507217407e-02 -2.007782757282257080e-01
-2.106911502778530121e-03 5.960242822766304016e-03 -1.887929141521453857e-01
-2.679270692169666290e-02 4.309725016355514526e-02 -2.079637646675109863e-01
2.034369297325611115e-02 3.197627142071723938e-02 -1.941378861665725708e-01
6.201012060046195984e-03 2.538286708295345306e-02 -2.073653638362884521e-01
2.255769632756710052e-02 4.561651870608329773e-02 -1.919798851013183594e-01
-1.188695058226585388e-02 9.701516479253768921e-03 -2.092718333005905151e-01
-6.082474719732999802e-03 5.348501726984977722e-03 -1.849592626094818115e-01
-6.693137809634208679e-03 5.498137325048446655e-03 -2.002893239259719849e-01
1.052028499543666840e-03 6.188523024320602417e-02 -1.797929704189300537e-01
-3.123383596539497375e-02 3.249740228056907654e-02 -1.788344234228134155e-01
1.001252420246601105e-02 5.621666088700294495e-02 -1.706565618515014648e-01
-1.900252886116504669e-02 1.733260229229927063e-03 -1.997687369585037231e-01
8.421614766120910645e-04 4.201750457286834717e-02 -1.648173630237579346e-01
-2.003004774451255798e-02 3.665827959775924683e-02 -1.709319055080413818e-01
-3.667378425598144531e-02 2.025914937257766724e-02 -2.109370976686477661e-01
-4.662504419684410095e-03 4.764956980943679810e-02 -2.091311514377593994e-01
-6.937559228390455246e-03 9.726831689476966858e-03 -1.770926713943481445e-01
-1.145915128290653229e-02 5.831332504749298096e-02 -1.962583810091018677e-01
-1.422271318733692169e-02 5.689015239477157593e-02 -1.974526345729827881e-01
5.614729598164558411e-03 3.159419074654579163e-02 -2.090116292238235474e-01
-1.364375650882720947e-02 5.418626219034194946e-02 -1.767032146453857422e-01
-4.772609099745750427e-04 1.589222997426986694e-02 -1.723862290382385254e-01
2.115523442625999451e-03 6.218664348125457764e-02 -1.907037496566772461e-01
-2.250908128917217255e-02 4.992754012346267700e-02 -1.808813214302062988e-01
-8.851303718984127045e-03 5.959734320640563965e-02 -1.947233378887176514e-01
-3.046198189258575439e-02 3.072071820497512817e-03 -1.955079287290573120e-01
-3.866492211818695068e-02 1.993532292544841766e-02 -1.873805522918701172e-01
-1.467132195830345154e-02 1.996945217251777649e-02 -2.151259779930114746e-01
-3.914776444435119629e-02 2.961076609790325165e-02 -1.896180957555770874e-01
-1.928131468594074249e-02 3.380681574344635010e-02 -2.152315080165863037e-01
-1.480326335877180099e-02 4.751270264387130737e-02 -2.091984152793884277e-01
1.753784902393817902e-02 5.843649804592132568e-02 -1.778105944395065308e-01
8.687105029821395874e-03 6.256321072578430176e-02 -1.846465170383453369e-01
-3.419605270028114319e-02 3.670267388224601746e-02 -2.069175839424133301e-01
-2.019170299172401428e-02 4.196537286043167114e-02 -2.117546945810317993e-01
6.750687956809997559e-03 5.642795562744140625e-02 -1.706042289733886719e-01
9.734710678458213806e-03 4.177382588386535645e-02 -2.058324217796325684e-01
-2.500475570559501648e-02 5.160903930664062500e-02 -1.930661201477050781e-01
1.568187400698661804e-02 5.973782762885093689e-02 -1.867808699607849121e-01
1.601612754166126251e-02 6.004909425973892212e-02 -1.808739155530929565e-01
-1.153900939971208572e-02 5.194367840886116028e-02 -2.059364467859268188e-01
1.657885685563087463e-02 5.391623079776763916e-02 -1.947921216487884521e-01
1.921909116208553314e-02 2.749726921319961548e-02 -1.762779057025909424e-01
-8.420458994805812836e-03 5.648782104253768921e-02 -1.755514293909072876e-01
-3.554937615990638733e-02 1.615592837333679199e-02 -2.111075073480606079e-01
-3.944912925362586975e-02 2.914370037615299225e-02 -2.050799131393432617e-01
-1.585720479488372803e-02 5.706280469894409180e-02 -1.947180181741714478e-01
-8.916193619370460510e-03 5.726177245378494263e-03 -2.028387635946273804e-01
-2.348758839070796967e-02 9.135877713561058044e-03 -1.800322383642196655e-01
2.345846965909004211e-02 5.235001444816589355e-02 -1.794653534889221191e-01
-2.888875640928745270e-02 3.669314831495285034e-02 -2.113590091466903687e-01
-3.452841565012931824e-02 5.640977993607521057e-03 -2.022198140621185303e-01
-3.400390595197677612e-02 7.302865386009216309e-03 -1.901479810476303101e-01
1.156128570437431335e-02 2.366120927035808563e-02 -1.714905798435211182e-01
-2.469914965331554413e-02 2.433510497212409973e-03 -2.024360150098800659e-01
-2.766602206975221634e-03 1.898490637540817261e-02 -1.697920411825180054e-01
-3.613127768039703369e-02 3.757962957024574280e-02 -1.897608786821365356e-01
2.031130716204643250e-02 5.037610605359077454e-02 -1.717246323823928833e-01
-3.575490415096282959e-02 3.056780248880386353e-02 -1.838000863790512085e-01
1.553638838231563568e-02 3.933136165142059326e-02 -2.016769647598266602e-01
1.060169003903865814e-02 4.509738087654113770e-02 -2.043720036745071411e-01
3.325490280985832214e-03 1.074347458779811859e-02 -1.811870485544204712e-01
