-1.933569014072418213e-01 4.964439570903778076e-01 -4.169762134552001953e-03
-2.051290422677993774e-01 5.221975445747375488e-01 1.225528270006179810e-01
-1.919327825307846069e-01 5.601581335067749023e-01 5.055982470512390137e-01
-2.006451636552810669e-01 4.963774979114532471e-01 2.777240276336669922e-01
-2.092193216085433960e-01 5.611222386360168457e-01 1.138316094875335693e-01
-2.032422870397567749e-01 5.143384933471679688e-01 3.533419966697692871e-02
-1.861049681901931763e-01 4.975720047950744629e-01 4.914062023162841797e-01
-2.014747560024261475e-01 5.044529438018798828e-01 5.306458473205566406e-01
-2.047103196382522583e-01 5.302745699882507324e-01 5.697373151779174805e-01
-1.927905380725860596e-01 4.952917695045471191e-01 9.134634137153625488e-01
-1.886790245771408081e-01 5.311471819877624512e-01 7.472059130668640137e-01
-1.954001039266586304e-01 4.925420880317687988e-01 8.170228600502014160e-01
-1.862667351961135864e-01 4.932977259159088135e-01 7.136234045028686523e-01
-1.960139721632003784e-01 5.734823346138000488e-01 6.772862076759338379e-01
-1.928256750106811523e-01 5.636106729507446289e-01 5.905778408050537109e-01
-1.997322291135787964e-01 5.858922600746154785e-01 2.267244458198547363e-02
-1.962499618530273438e-01 5.690417289733886719e-01 7.590841650962829590e-01
-1.878217458724975586e-01 5.287626385688781738e-01 4.827400445938110352e-01
-2.037220895290374756e-01 5.155699849128723145e-01 6.620666384696960449e-02
-1.961464434862136841e-01 5.770386457443237305e-01 1.634017527103424072e-01
-2.084563672542572021e-01 5.517497658729553223e-01 2.685030698776245117e-01
-1.973937302827835083e-01 4.844760000705718994e-01 4.878183305263519287e-01
-1.891771703958511353e-01 4.998398423194885254e-01 1.409140229225158691e-01
-1.861506402492523193e-01 4.973222017288208008e-01 6.923942565917968750e-01
-1.866165101528167725e-01 5.101994276046752930e-01 4.444891512393951416e-01
-1.863727867603302002e-01 5.059668421745300293e-01 4.645500183105468750e-01
-2.061545103788375854e-01 5.286935567855834961e-01 1.583985388278961182e-01
-1.956573426723480225e-01 5.008869767189025879e-01 -6.090599298477172852e-02
-2.085683196783065796e-01 5.544487833976745605e-01 2.921106219291687012e-01
-1.999166160821914673e-01 5.844779610633850098e-01 6.421074867248535156e-01
-1.915360689163208008e-01 5.485689043998718262e-01 1.722623556852340698e-01
-1.892661154270172119e-01 5.306913256645202637e-01 2.260141670703887939e-01
-2.087551802396774292e-01 5.584406256675720215e-01 3.059546351432800293e-01
-1.872521638870239258e-01 5.199296474456787109e-01 4.263392686843872070e-01
-2.055646181106567383e-01 5.242006778717041016e-01 1.818377077579498291e-01
-2.059390246868133545e-01 5.944070816040039062e-01 4.494600594043731689e-01
-2.055998444557189941e-01 5.525959730148315430e-01 6.380746364593505859e-01
-1.865630596876144409e-01 4.821045994758605957e-01 5.159249901771545410e-01
-1.975349187850952148e-01 5.492225885391235352e-01 9.196425080299377441e-01
-1.951647847890853882e-01 5.091832876205444336e-01 -1.063514053821563721e-01
-2.035539895296096802e-01 6.006392836570739746e-01 2.161997109651565552e-01
-2.071564346551895142e-01 5.492430329322814941e-01 4.756824374198913574e-01
-2.037422060966491699e-01 5.126101374626159668e-01 3.277086615562438965e-01
-1.898130774497985840e-01 5.265782475471496582e-01 1.373867243528366089e-01
-2.083721011877059937e-01 5.726960897445678711e-01 4.292213320732116699e-01
-1.960338801145553589e-01 5.788697004318237305e-01 2.407286465167999268e-01
-1.906497478485107422e-01 5.444890260696411133e-01 7.619607448577880859e-01
-1.968906074762344360e-01 5.804740190505981445e-01 5.787106156349182129e-01
-2.090782523155212402e-01 5.857819318771362305e-01 2.878684401512145996e-01
-2.053787112236022949e-01 5.271783471107482910e-01 4.334206879138946533e-01
-1.998289376497268677e-01 5.119135379791259766e-01 7.783943414688110352e-01
-1.965573877096176147e-01 5.819334983825683594e-01 4.724861085414886475e-01
-1.883113682270050049e-01 5.327900648117065430e-01 4.383308887481689453e-01
-2.044808864593505859e-01 5.411723852157592773e-01 -1.917252540588378906e-01
-1.976059824228286743e-01 4.945855438709259033e-01 7.227813005447387695e-01
-2.068884372711181641e-01 5.651841759681701660e-01 -1.805114746093750000e-01
-2.093260139226913452e-01 5.629495382308959961e-01 1.724293380975723267e-01
-1.869318783283233643e-01 5.002415180206298828e-01 3.400666415691375732e-01
-1.917839199304580688e-01 5.559934377670288086e-01 2.774546444416046143e-01
-1.862085461616516113e-01 5.070437192916870117e-01 5.846329331398010254e-01
-1.969403028488159180e-01 4.891727268695831299e-01 6.806036233901977539e-01
-1.891469061374664307e-01 5.377523303031921387e-01 6.930121183395385742e-01
-2.079989612102508545e-01 5.851582884788513184e-01 -8.653995394706726074e-02
-1.995215117931365967e-01 4.960556626319885254e-01 1.030482351779937744e-01
-1.940228641033172607e-01 4.746670424938201904e-01 4.480439424514770508e-01
-1.965760439634323120e-01 5.571393370628356934e-01 -1.156573891639709473e-01
-1.970027238130569458e-01 5.843413472175598145e-01 3.810664713382720947e-01
-1.915378570556640625e-01 5.571796894073486328e-01 5.638431906700134277e-01
-2.053536772727966309e-01 5.511068701744079590e-01 -2.056527137756347656e-01
-2.051627784967422485e-01 5.248365402221679688e-01 4.201165139675140381e-01
-1.963611543178558350e-01 5.485261678695678711e-01 -1.497297286987304688e-01
-1.910917162895202637e-01 5.528876781463623047e-01 3.295705020427703857e-01
-1.917015165090560913e-01 5.381473302841186523e-01 8.946587443351745605e-01
-1.943718492984771729e-01 5.426879525184631348e-01 -8.584496378898620605e-02
-1.916454583406448364e-01 5.555984973907470703e-01 2.930659055709838867e-01
-1.983446627855300903e-01 5.230587720870971680e-01 9.072920680046081543e-01
-1.908221393823623657e-01 5.382803678512573242e-01 1.308146268129348755e-01
-1.976255774497985840e-01 5.057502985000610352e-01 8.421414494514465332e-01
-1.867695748805999756e-01 5.136256814002990723e-01 6.897025108337402344e-01
-1.952300667762756348e-01 5.414557456970214844e-01 -1.293540298938751221e-01
-1.945620179176330566e-01 5.740976929664611816e-01 4.271104633808135986e-01
-1.964954137802124023e-01 5.653896927833557129e-01 -4.633915424346923828e-02
-1.923822015523910522e-01 4.735770225524902344e-01 6.098831892013549805e-01
-2.022704482078552246e-01 5.970920324325561523e-01 4.154442846775054932e-01
-1.897791773080825806e-01 5.302962064743041992e-01 8.570624589920043945e-01
-2.062605470418930054e-01 5.393356680870056152e-01 4.913805425167083740e-01
-1.965150833129882812e-01 4.824034869670867920e-01 5.387361049652099609e-01
-1.946276426315307617e-01 4.768479764461517334e-01 3.291005790233612061e-01
-1.882418096065521240e-01 5.102680325508117676e-01 2.125153541564941406e-01
-1.921924948692321777e-01 5.569816231727600098e-01 6.902326345443725586e-01
-1.914827227592468262e-01 5.308387279510498047e-01 2.985009551048278809e-02
-1.946414411067962646e-01 5.701244473457336426e-01 1.858135908842086792e-01
-1.974854618310928345e-01 5.859172940254211426e-01 4.097521603107452393e-01
-1.879881471395492554e-01 5.230050683021545410e-01 3.214862346649169922e-01
-1.915883123874664307e-01 5.365646481513977051e-01 5.294671654701232910e-02
-1.932256221771240234e-01 5.551198124885559082e-01 8.018774986267089844e-01
-1.938643753528594971e-01 5.706541538238525391e-01 4.625069499015808105e-01
-1.980162113904953003e-01 5.529177188873291016e-01 9.030774235725402832e-01
-1.924678087234497070e-01 5.379648804664611816e-01 -2.839267253875732422e-04
-1.946788132190704346e-01 5.191481113433837891e-01 9.756671786308288574e-01
-2.014736980199813843e-01 5.309523940086364746e-01 8.083833456039428711e-01
-1.900168359279632568e-01 5.411613583564758301e-01 2.601726651191711426e-01
-2.002550959587097168e-01 4.970714747905731201e-01 1.495143473148345947e-01
-1.978093087673187256e-01 4.856353700160980225e-01 4.644399285316467285e-01
-1.871945559978485107e-01 5.150887370109558105e-01 7.515994310379028320e-01
-1.872210651636123657e-01 5.132741928100585938e-01 3.513332009315490723e-01
-2.076198309659957886e-01 5.496672391891479492e-01 -5.226179957389831543e-02
-1.902906596660614014e-01 5.119179487228393555e-01 6.099718809127807617e-02
-1.965466290712356567e-01 4.874463975429534912e-01 1.175303310155868530e-01
-1.895522326231002808e-01 5.440229773521423340e-01 5.729932785034179688e-01
-1.890401244163513184e-01 5.218178033828735352e-01 1.824021190404891968e-01
-2.039443403482437134e-01 5.911183357238769531e-01 5.534292459487915039e-01
-1.977018415927886963e-01 5.137339830398559570e-01 -1.492505073547363281e-01
-2.068186253309249878e-01 5.562638640403747559e-01 5.514391660690307617e-01
-2.087613642215728760e-01 5.921713113784790039e-01 5.917915701866149902e-02
-2.059620320796966553e-01 5.978896021842956543e-01 3.814339041709899902e-01
-1.966114640235900879e-01 5.772845149040222168e-01 1.155413538217544556e-01
-2.023289650678634644e-01 5.054858326911926270e-01 1.731803417205810547e-01
-1.882199645042419434e-01 4.944216012954711914e-01 2.228806316852569580e-01
-1.970010846853256226e-01 4.901347756385803223e-01 8.344122767448425293e-02
-1.919513195753097534e-01 5.104399323463439941e-01 -2.073451876640319824e-02
-1.860267966985702515e-01 4.975776076316833496e-01 6.537423729896545410e-01
-1.859700530767440796e-01 4.985703825950622559e-01 6.103776693344116211e-01
-2.049568742513656616e-01 5.373432040214538574e-01 6.113184094429016113e-01
-1.996893435716629028e-01 5.065254569053649902e-01 7.339735627174377441e-01
-2.017810493707656860e-01 5.832120180130004883e-01 -1.108565628528594971e-01
-1.861834526062011719e-01 4.930632412433624268e-01 4.739215373992919922e-01
-1.890387684106826782e-01 5.403650403022766113e-01 5.149760246276855469e-01
-2.089079916477203369e-01 5.573241710662841797e-01 2.396743595600128174e-01
-2.053047716617584229e-01 5.224817991256713867e-01 2.843703925609588623e-01
-2.081576436758041382e-01 5.536788105964660645e-01 -2.861416339874267578e-02
-2.076767832040786743e-01 5.414775013923645020e-01 1.930859535932540894e-01
-1.984762847423553467e-01 5.869343280792236328e-01 5.195913314819335938e-01
-2.067081332206726074e-01 5.744870305061340332e-01 5.660459399223327637e-01
-1.993725150823593140e-01 4.955368340015411377e-01 5.845783948898315430e-01
-1.983356028795242310e-01 5.890152454376220703e-01 3.348423838615417480e-01
-2.092574536800384521e-01 5.615713000297546387e-01 1.289948076009750366e-01
-1.898542642593383789e-01 5.305681824684143066e-01 1.604887396097183228e-01
-1.965267062187194824e-01 4.846497476100921631e-01 1.826469898223876953e-01
-1.952556222677230835e-01 5.713690519332885742e-01 1.375851482152938843e-01
-2.090798914432525635e-01 5.682340264320373535e-01 3.212528824806213379e-01
-1.882454603910446167e-01 4.785872399806976318e-01 3.525068759918212891e-01
-2.034952193498611450e-01 5.120710730552673340e-01 1.441517472267150879e-01
-1.889688819646835327e-01 5.378487110137939453e-01 3.965046107769012451e-01
-1.999016255140304565e-01 5.509183406829833984e-01 8.831105232238769531e-01
-2.013450115919113159e-01 5.788136124610900879e-01 7.195483446121215820e-01
-1.951339691877365112e-01 5.634168386459350586e-01 2.475440502166748047e-02
-1.995878070592880249e-01 4.995341897010803223e-01 6.439996957778930664e-01
-1.888730674982070923e-01 5.372607707977294922e-01 6.468703746795654297e-01
-2.034133821725845337e-01 5.294673442840576172e-01 6.789902448654174805e-01
-2.040930390357971191e-01 5.627925992012023926e-01 7.295876741409301758e-01
-1.932350695133209229e-01 5.627722740173339844e-01 2.084238678216934204e-01
-2.087417244911193848e-01 5.739012360572814941e-01 3.845863044261932373e-01
-1.965364068746566772e-01 4.863867163658142090e-01 1.397599130868911743e-01
-1.870310008525848389e-01 5.107048153877258301e-01 7.681900262832641602e-01
-2.047027945518493652e-01 5.576550960540771484e-01 7.026230096817016602e-01
-1.916787028312683105e-01 4.753441810607910156e-01 6.965232491493225098e-01
-1.865893453359603882e-01 4.887305796146392822e-01 7.387530803680419922e-01
-1.881665736436843872e-01 5.324023962020874023e-01 5.906772613525390625e-01
-1.923415660858154297e-01 5.318993926048278809e-01 -1.958715915679931641e-02
-2.038436383008956909e-01 5.311418771743774414e-01 -1.485483646392822266e-01
-1.868878602981567383e-01 4.804739058017730713e-01 6.725164055824279785e-01
-2.084068357944488525e-01 5.555179119110107422e-01 -1.283636689186096191e-02
-1.990191489458084106e-01 4.898675680160522461e-01 4.264247119426727295e-01
-1.875972598791122437e-01 5.228690505027770996e-01 3.937384784221649170e-01
-2.080657035112380981e-01 5.629262924194335938e-01 4.475440084934234619e-01
-1.913209557533264160e-01 5.562582015991210938e-01 5.371288061141967773e-01
-2.091385871171951294e-01 5.611734986305236816e-01 6.910064816474914551e-02
-1.874684393405914307e-01 5.081169605255126953e-01 2.889402508735656738e-01
-2.063690871000289917e-01 5.593075752258300781e-01 5.969459414482116699e-01
-1.859881728887557983e-01 4.966271817684173584e-01 6.392823457717895508e-01
-1.923075169324874878e-01 4.739910066127777100e-01 6.303770542144775391e-01
-2.022326886653900146e-01 5.174507498741149902e-01 -8.745697140693664551e-02
-1.871225684881210327e-01 5.215902924537658691e-01 5.590243339538574219e-01
-1.932947933673858643e-01 5.653899312019348145e-01 6.093314290046691895e-01
-1.907549947500228882e-01 5.529430508613586426e-01 4.887194037437438965e-01
-2.072527408599853516e-01 5.984894633293151855e-01 7.672026753425598145e-02
-2.088386565446853638e-01 5.552608370780944824e-01 2.050923705101013184e-01
-2.028036713600158691e-01 5.883610248565673828e-01 6.044803261756896973e-01
-1.898289769887924194e-01 5.350764393806457520e-01 2.044074684381484985e-01
-1.874513626098632812e-01 4.924711585044860840e-01 2.958179414272308350e-01
-2.081055194139480591e-01 5.582314133644104004e-01 4.186104536056518555e-01
-2.074938267469406128e-01 5.453281402587890625e-01 3.813027143478393555e-01
-2.073908746242523193e-01 5.609979629516601562e-01 5.133618712425231934e-01
-2.014427185058593750e-01 5.014227628707885742e-01 4.394485652446746826e-01
-2.042436152696609497e-01 5.502049922943115234e-01 7.196781635284423828e-01
-1.859605610370635986e-01 4.946733415126800537e-01 6.237699985504150391e-01
-1.998504996299743652e-01 4.991725385189056396e-01 5.790638923645019531e-02
-1.970958858728408813e-01 5.733042359352111816e-01 6.306022405624389648e-03
-2.057181596755981445e-01 5.253645181655883789e-01 2.708058357238769531e-01
-1.876128464937210083e-01 4.977082312107086182e-01 2.656969130039215088e-01
-1.868174821138381958e-01 5.025234818458557129e-01 7.837903499603271484e-01
-1.862729787826538086e-01 5.068824887275695801e-01 5.131074190139770508e-01
-2.008374631404876709e-01 5.616013407707214355e-01 8.338223695755004883e-01
-1.866172701120376587e-01 5.126706957817077637e-01 6.626325845718383789e-01
-2.006984204053878784e-01 5.097036957740783691e-01 6.969695091247558594e-01
-2.088306397199630737e-01 5.762058496475219727e-01 3.709000647068023682e-01
-2.082741558551788330e-01 5.488007664680480957e-01 2.501564621925354004e-01
-1.910592019557952881e-01 5.376291275024414062e-01 1.035361588001251221e-01
-1.902871727943420410e-01 5.409587621688842773e-01 7.801522016525268555e-01
-2.090653479099273682e-01 5.693041086196899414e-01 -2.631330490112304688e-02
-2.028257250785827637e-01 5.997576713562011719e-01 2.395395934581756592e-01
-1.864889115095138550e-01 5.045639872550964355e-01 7.291363477706909180e-01
-2.019858509302139282e-01 5.026377439498901367e-01 3.104359507560729980e-01
-1.917212009429931641e-01 5.533074736595153809e-01 7.153159379959106445e-01
-1.948180645704269409e-01 4.921441674232482910e-01 8.359459638595581055e-01
-1.892623007297515869e-01 5.137459039688110352e-01 1.329004168510437012e-01
-2.070309966802597046e-01 5.372027754783630371e-01 3.116531372070312500e-01
-1.867144703865051270e-01 5.013651847839355469e-01 3.725907802581787109e-01
-1.913159936666488647e-01 5.481151342391967773e-01 1.920444220304489136e-01
-2.059390395879745483e-01 5.559537410736083984e-01 6.221295595169067383e-01
-2.025105655193328857e-01 5.114519596099853516e-01 2.197501063346862793e-02
-2.030174583196640015e-01 5.997997522354125977e-01 2.000305056571960449e-01
-2.096550762653350830e-01 5.792711973190307617e-01 8.539119362831115723e-02
-2.095362693071365356e-01 5.839316844940185547e-01 1.944839060306549072e-01
-1.886712461709976196e-01 5.181359052658081055e-01 1.995925605297088623e-01
-2.070664465427398682e-01 5.420465469360351562e-01 4.079632461071014404e-01
-2.065614759922027588e-01 5.597447752952575684e-01 5.828464627265930176e-01
-2.063178569078445435e-01 5.310089588165283203e-01 9.890419244766235352e-02
-2.072466015815734863e-01 5.379806160926818848e-01 1.248532235622406006e-01
-2.021309286355972290e-01 5.210737586021423340e-01 7.060604095458984375e-01
-1.934190392494201660e-01 5.098209381103515625e-01 -7.037442922592163086e-02
-2.012394219636917114e-01 5.423915386199951172e-01 8.481043577194213867e-01
-1.886130720376968384e-01 5.360592007637023926e-01 4.548041224479675293e-01
-1.877207607030868530e-01 5.260790586471557617e-01 6.714310050010681152e-01
-1.921235918998718262e-01 5.577999353408813477e-01 2.638339400291442871e-01
-2.027279138565063477e-01 5.929816365242004395e-01 5.320114493370056152e-01
-2.062613070011138916e-01 5.334212183952331543e-01 1.925948262214660645e-02
-2.061975300312042236e-01 5.999380350112915039e-01 3.084393143653869629e-01
-2.020807266235351562e-01 5.035679340362548828e-01 3.682023882865905762e-01
-2.069468200206756592e-01 5.998735427856445312e-01 1.174972653388977051e-01
-2.092647105455398560e-01 5.713260173797607422e-01 -3.072082996368408203e-03
-2.085734456777572632e-01 5.670304894447326660e-01 3.972136080265045166e-01
-1.913128793239593506e-01 4.764591753482818604e-01 7.308033704757690430e-01
-2.003406584262847900e-01 5.634700059890747070e-01 -2.110066413879394531e-01
-1.887482702732086182e-01 5.283899307250976562e-01 2.688923478126525879e-01
-2.074199467897415161e-01 5.418897271156311035e-01 4.206630587577819824e-02
-1.948505789041519165e-01 5.751502513885498047e-01 3.487167060375213623e-01
-2.018023431301116943e-01 5.221034288406372070e-01 7.376241087913513184e-01
-1.887742578983306885e-01 5.380877256393432617e-01 5.544077157974243164e-01
-1.864605844020843506e-01 5.042937397956848145e-01 4.296865761280059814e-01
-2.088849991559982300e-01 5.563308596611022949e-01 9.369617700576782227e-02
-2.039654105901718140e-01 5.506742596626281738e-01 7.359231710433959961e-01
-1.959053575992584229e-01 5.778309106826782227e-01 5.552303791046142578e-01
-1.989937126636505127e-01 4.947873651981353760e-01 6.093958020210266113e-01
-1.958053410053253174e-01 5.628301501274108887e-01 -2.865082025527954102e-02
-1.893071085214614868e-01 5.328853130340576172e-01 2.447829842567443848e-01
-1.868053376674652100e-01 5.170385837554931641e-01 6.116815805435180664e-01
-1.993380337953567505e-01 5.897578597068786621e-01 1.522590517997741699e-01
-1.880788505077362061e-01 4.961657524108886719e-01 8.716261982917785645e-01
-1.897811442613601685e-01 5.097576379776000977e-01 9.204235672950744629e-02
-2.030882239341735840e-01 5.387217402458190918e-01 7.527505159378051758e-01
-1.919292658567428589e-01 5.590139627456665039e-01 3.473461270332336426e-01
-1.900167763233184814e-01 4.818157851696014404e-01 8.222024440765380859e-01
-1.938706040382385254e-01 5.323645472526550293e-01 -9.557279944419860840e-02
-1.948043406009674072e-01 5.747275352478027344e-01 4.892855882644653320e-01
-2.076862305402755737e-01 5.516715049743652344e-01 -6.571757793426513672e-02
-1.885337382555007935e-01 4.875273406505584717e-01 8.498370647430419922e-01
-1.876724064350128174e-01 4.787172675132751465e-01 4.019883871078491211e-01
-1.864372789859771729e-01 5.113622546195983887e-01 5.441018342971801758e-01
-2.086204141378402710e-01 5.526382923126220703e-01 2.258050590753555298e-01
-1.872472763061523438e-01 4.912738204002380371e-01 3.214774131774902344e-01
-1.964200139045715332e-01 5.315379500389099121e-01 9.621242284774780273e-01
-1.946073770523071289e-01 5.742949843406677246e-01 3.954702317714691162e-01
-2.086507827043533325e-01 5.558157563209533691e-01 2.977389097213745117e-02
-1.894917637109756470e-01 5.046380758285522461e-01 1.128084659576416016e-01
-1.930771172046661377e-01 5.665970444679260254e-01 4.071820378303527832e-01
-2.071960717439651489e-01 5.422254204750061035e-01 -5.157470703125000000e-03
-1.878724098205566406e-01 4.775515794754028320e-01 7.119793295860290527e-01
-2.071813642978668213e-01 5.374007821083068848e-01 2.594960033893585205e-01
-2.068661004304885864e-01 5.436281561851501465e-01 4.593233168125152588e-01
-2.074110358953475952e-01 5.390946269035339355e-01 2.238020151853561401e-01
-2.046595215797424316e-01 5.243697762489318848e-01 -1.098850369453430176e-02
-1.912915408611297607e-01 4.735697209835052490e-01 6.609709858894348145e-01
-2.030242085456848145e-01 5.186082720756530762e-01 6.020780205726623535e-01
-2.027617543935775757e-01 5.066843032836914062e-01 2.669371366500854492e-01
-1.976505815982818604e-01 5.292612910270690918e-01 9.397417306900024414e-01
-2.038934528827667236e-01 5.220497250556945801e-01 5.553278326988220215e-01
-2.050226479768753052e-01 5.235186815261840820e-01 5.521717667579650879e-02
-1.968802809715270996e-01 4.878753125667572021e-01 6.594523191452026367e-01
-1.999201476573944092e-01 5.102687478065490723e-01 7.577656507492065430e-01
-2.017351239919662476e-01 5.307261943817138672e-01 -2.073075175285339355e-01
-2.090759724378585815e-01 5.774408578872680664e-01 3.336635529994964600e-01
-2.083682119846343994e-01 5.825543403625488281e-01 4.021184444427490234e-01
-1.930790543556213379e-01 5.657307505607604980e-01 3.356874883174896240e-01
-1.896572113037109375e-01 5.420711636543273926e-01 3.427028656005859375e-01
-1.937573254108428955e-01 5.559204816818237305e-01 8.185930848121643066e-01
-1.889054626226425171e-01 4.747758805751800537e-01 3.807149231433868408e-01
-2.030643373727798462e-01 5.110974907875061035e-01 9.638434648513793945e-02
-1.947754174470901489e-01 5.723367929458618164e-01 2.275654077529907227e-01
-1.942707002162933350e-01 4.848785400390625000e-01 7.686035037040710449e-01
-2.012241333723068237e-01 5.008351206779479980e-01 4.629036188125610352e-01
-1.988486796617507935e-01 5.112282037734985352e-01 8.260655999183654785e-01
-1.933107078075408936e-01 5.535616278648376465e-01 5.928686261177062988e-02
-2.028817832469940186e-01 5.635524392127990723e-01 7.744224667549133301e-01
-2.078820466995239258e-01 5.793376564979553223e-01 -1.216447055339813232e-01
-1.889771223068237305e-01 4.798132777214050293e-01 2.868130207061767578e-01
-2.015017271041870117e-01 5.945621728897094727e-01 9.706521034240722656e-02
-2.021199166774749756e-01 5.034564733505249023e-01 2.485590130090713501e-01
-2.028833627700805664e-01 5.794898867607116699e-01 -1.705518960952758789e-01
-1.889093071222305298e-01 5.277631878852844238e-01 8.146002888679504395e-01
-2.004733979701995850e-01 5.946994423866271973e-01 2.274013608694076538e-01
-2.077714949846267700e-01 5.823383927345275879e-01 4.577550292015075684e-01
-2.053717970848083496e-01 5.231762528419494629e-01 3.008180260658264160e-01
-1.862855404615402222e-01 5.086234807968139648e-01 5.987870097160339355e-01
-1.920626014471054077e-01 5.201396942138671875e-01 -3.000235557556152344e-02
-1.995013952255249023e-01 5.582381486892700195e-01 8.680576086044311523e-01
-1.999608725309371948e-01 5.476596355438232422e-01 -2.429368495941162109e-01
-1.889664083719253540e-01 5.145756602287292480e-01 9.006041288375854492e-01
-2.095634043216705322e-01 5.737099647521972656e-01 5.441796779632568359e-02
-1.914656013250350952e-01 4.993387460708618164e-01 3.093191981315612793e-02
-2.078625261783599854e-01 5.449235439300537109e-01 7.425540685653686523e-02
-2.036916762590408325e-01 5.177868604660034180e-01 5.094135999679565430e-01
-1.876411885023117065e-01 5.144600272178649902e-01 8.103185892105102539e-01
-1.992103606462478638e-01 4.916278123855590820e-01 2.123812288045883179e-01
-1.959113180637359619e-01 5.691556930541992188e-01 3.812730312347412109e-02
-2.031580656766891479e-01 5.185858607292175293e-01 -4.775664210319519043e-02
-1.868056952953338623e-01 4.966781139373779297e-01 3.577562868595123291e-01
-1.911834627389907837e-01 4.710263907909393311e-01 4.668647646903991699e-01
-2.057278156280517578e-01 5.395525693893432617e-01 5.549778938293457031e-01
-1.948776394128799438e-01 5.753971934318542480e-01 3.627543747425079346e-01
-1.940914839506149292e-01 5.496821403503417969e-01 -3.077554702758789062e-02
-1.941578090190887451e-01 4.854919016361236572e-01 7.823228836059570312e-01
-2.084892243146896362e-01 5.727587938308715820e-01 4.158892631530761719e-01
-2.059497982263565063e-01 5.299203991889953613e-01 3.844303488731384277e-01
-1.913377493619918823e-01 5.558418035507202148e-01 3.818312585353851318e-01
-1.871600449085235596e-01 5.212141275405883789e-01 6.298730373382568359e-01
-2.030122280120849609e-01 5.430699586868286133e-01 7.707800269126892090e-01
-2.042387425899505615e-01 5.233008265495300293e-01 5.323464870452880859e-01
-1.865642368793487549e-01 5.037475824356079102e-01 4.057270288467407227e-01
-2.089095562696456909e-01 5.594236850738525391e-01 2.798593640327453613e-01
-1.967705786228179932e-01 5.821942687034606934e-01 5.005025863647460938e-01
-2.032399773597717285e-01 5.105450153350830078e-01 3.889485299587249756e-01
-2.001360505819320679e-01 5.174632668495178223e-01 8.039087057113647461e-01
-1.898527592420578003e-01 5.341174602508544922e-01 8.268157243728637695e-01
-2.072968631982803345e-01 5.404765009880065918e-01 3.295600414276123047e-01
-2.028977721929550171e-01 5.753173828125000000e-01 -1.980857849121093750e-01
-1.937874853610992432e-01 5.506151318550109863e-01 -3.928214311599731445e-03
-1.997393816709518433e-01 5.830085873603820801e-01 6.613787412643432617e-01
-2.009209245443344116e-01 5.001916885375976562e-01 4.965521693229675293e-01
-1.975596845149993896e-01 4.878699779510498047e-01 1.636115610599517822e-01
-2.069371491670608521e-01 5.493937730789184570e-01 5.028432607650756836e-01
-2.000212222337722778e-01 4.938526153564453125e-01 3.992022871971130371e-01
-2.006624490022659302e-01 5.829594731330871582e-01 -7.163503766059875488e-02
-1.892737299203872681e-01 5.399786233901977539e-01 3.775016367435455322e-01
-1.873684078454971313e-01 4.765785932540893555e-01 5.020896196365356445e-01
-2.049778699874877930e-01 5.247575044631958008e-01 4.517821669578552246e-01
-1.869426518678665161e-01 4.972681105136871338e-01 8.016825914382934570e-01
-2.036781311035156250e-01 5.263679027557373047e-01 6.296012401580810547e-01
-2.034195065498352051e-01 5.103763341903686523e-01 2.897752523422241211e-01
-2.084171324968338013e-01 5.697222948074340820e-01 -9.708136320114135742e-02
-1.987798810005187988e-01 5.027143955230712891e-01 -4.433861374855041504e-02
-2.021382302045822144e-01 5.361956357955932617e-01 -2.254833579063415527e-01
-2.052201777696609497e-01 5.240089297294616699e-01 7.720342278480529785e-02
-2.062584608793258667e-01 6.006474494934082031e-01 2.703914940357208252e-01
-2.088125348091125488e-01 5.642405152320861816e-01 3.478544652462005615e-01
-1.915254592895507812e-01 5.473927855491638184e-01 1.576311588287353516e-01
-1.913604289293289185e-01 5.568013787269592285e-01 4.586886465549468994e-01
-1.906032860279083252e-01 5.192878246307373047e-01 5.016177892684936523e-02
-2.055897563695907593e-01 5.709546208381652832e-01 6.410509943962097168e-01
-2.016343176364898682e-01 5.019462108612060547e-01 1.870548129081726074e-01
-1.949654221534729004e-01 5.532777905464172363e-01 -5.780455470085144043e-02
-1.883779019117355347e-01 4.732413887977600098e-01 4.811778068542480469e-01
-1.872288584709167480e-01 5.150119066238403320e-01 3.652946650981903076e-01
-1.900394558906555176e-01 4.979602992534637451e-01 9.296593666076660156e-01
-2.064178287982940674e-01 5.609750151634216309e-01 -1.934329867362976074e-01
-1.881689280271530151e-01 4.961891770362854004e-01 2.680619955062866211e-01
-1.773364096879959106e-01 2.934487164020538330e-01 3.117434382438659668e-01
-1.645599007606506348e-01 2.719545364379882812e-01 3.298359364271163940e-02
-1.996345371007919312e-01 4.787064790725708008e-01 -2.510858774185180664e-01
-1.945502310991287231e-01 4.295373857021331787e-01 -3.979988396167755127e-01
-1.739790737628936768e-01 3.625762164592742920e-01 -4.557536840438842773e-01
-1.723955124616622925e-01 3.673985302448272705e-01 -2.823764681816101074e-01
-1.673503965139389038e-01 3.135944306850433350e-01 1.780786514282226562e-01
-1.899771392345428467e-01 5.188501477241516113e-01 -3.616112470626831055e-01
-2.030992805957794189e-01 5.715401172637939453e-01 -1.005539000034332275e-01
-1.924424320459365845e-01 5.223173499107360840e-01 -4.980418682098388672e-01
-1.772413402795791626e-01 2.968755066394805908e-01 -4.085301756858825684e-01
-1.926178187131881714e-01 5.203626751899719238e-01 -5.204516649246215820e-01
-1.694081723690032959e-01 2.368645220994949341e-01 4.701501131057739258e-02
-1.649064272642135620e-01 2.418489754199981689e-01 -1.038639917969703674e-01
-1.925359219312667847e-01 4.271110296249389648e-01 3.009080886840820312e-01
-1.996253132820129395e-01 5.125389099121093750e-01 1.854092180728912354e-01
-1.954785883426666260e-01 4.299460649490356445e-01 -2.052693367004394531e-01
-1.811457574367523193e-01 4.386455416679382324e-01 -4.705160260200500488e-01
-1.683973968029022217e-01 3.318433463573455811e-01 7.802989333868026733e-02
-1.809635758399963379e-01 4.567218422889709473e-01 -2.011427879333496094e-01
-1.916429102420806885e-01 3.949241340160369873e-01 6.033579260110855103e-02
-2.012970000505447388e-01 5.182233452796936035e-01 7.026592642068862915e-02
-1.855294108390808105e-01 3.580405712127685547e-01 3.190199434757232666e-01
-1.970308274030685425e-01 4.601904749870300293e-01 -4.388476014137268066e-01
-1.964799463748931885e-01 4.678361415863037109e-01 2.392966449260711670e-01
-2.014844268560409546e-01 5.034373402595520020e-01 -1.313093602657318115e-01
-1.731720566749572754e-01 3.758110702037811279e-01 2.606147229671478271e-01
-1.734866201877593994e-01 3.859682977199554443e-01 -1.873967200517654419e-01
-1.724824011325836182e-01 2.770252823829650879e-01 -3.988069891929626465e-01
-1.980070620775222778e-01 4.736554324626922607e-01 1.405341625213623047e-01
-1.791884452104568481e-01 2.934303879737854004e-01 -2.050384879112243652e-01
-1.883337497711181641e-01 3.820360302925109863e-01 -4.949060678482055664e-01
-2.008233219385147095e-01 5.414869785308837891e-01 -4.907985031604766846e-01
-1.962423920631408691e-01 4.392361342906951904e-01 -3.595060855150222778e-02
-1.918774545192718506e-01 5.368654131889343262e-01 -2.233587950468063354e-02
-1.838832199573516846e-01 3.436429202556610107e-01 -4.582593441009521484e-01
-1.949178576469421387e-01 4.508492946624755859e-01 -5.413139462471008301e-01
-1.689574867486953735e-01 3.225508034229278564e-01 -2.776020765304565430e-01
-1.956421732902526855e-01 5.534393787384033203e-01 -3.468532860279083252e-01
-1.645338833332061768e-01 2.438575476408004761e-01 1.638376712799072266e-01
-1.915211677551269531e-01 4.812074899673461914e-01 -6.551946997642517090e-01
-1.706891059875488281e-01 3.420323729515075684e-01 3.211822211742401123e-01
-1.720314472913742065e-01 3.528190851211547852e-01 3.549538850784301758e-01
-1.851183921098709106e-01 4.826744794845581055e-01 -3.674865067005157471e-01
-1.937639117240905762e-01 4.155341684818267822e-01 4.174099117517471313e-02
-1.987989544868469238e-01 4.673129320144653320e-01 -2.083856463432312012e-01
-1.987023353576660156e-01 4.876967668533325195e-01 -4.856413900852203369e-01
-1.772270947694778442e-01 3.181661963462829590e-01 -5.323725342750549316e-01
-1.954580098390579224e-01 4.649595618247985840e-01 2.936083674430847168e-01
-1.986563652753829956e-01 4.653964340686798096e-01 -1.242991834878921509e-01
-1.903472095727920532e-01 3.887012600898742676e-01 -3.856660723686218262e-01
-1.667810678482055664e-01 3.068821132183074951e-01 1.559160947799682617e-01
-1.742516010999679565e-01 3.806135058403015137e-01 -3.624804019927978516e-01
-1.953330934047698975e-01 5.535919070243835449e-01 -3.150301277637481689e-01
-1.731152087450027466e-01 3.242036104202270508e-01 4.893604218959808350e-01
-1.933827549219131470e-01 4.084806144237518311e-01 -5.854452401399612427e-02
-1.900639235973358154e-01 4.196100234985351562e-01 -6.219826340675354004e-01
-1.895365417003631592e-01 4.031134545803070068e-01 -5.683507323265075684e-01
-1.658741980791091919e-01 2.948077917098999023e-01 1.201388314366340637e-01
-1.666958481073379517e-01 2.918782830238342285e-01 2.765985429286956787e-01
-1.758709698915481567e-01 4.050573408603668213e-01 2.235116660594940186e-01
-1.949257403612136841e-01 5.024815201759338379e-01 -6.292139291763305664e-01
-2.025412470102310181e-01 5.578495264053344727e-01 -3.915427327156066895e-01
-1.983225792646408081e-01 4.623115062713623047e-01 -7.409765571355819702e-02
-1.937771886587142944e-01 4.342317283153533936e-01 -5.132789015769958496e-01
-1.811817735433578491e-01 3.241995275020599365e-01 -4.470759928226470947e-01
-1.695816218852996826e-01 3.464020788669586182e-01 -5.706392973661422729e-02
-1.773929446935653687e-01 3.826850354671478271e-01 4.787410795688629150e-01
-1.999491602182388306e-01 4.959714710712432861e-01 -4.252628386020660400e-01
-1.998782008886337280e-01 5.704969763755798340e-01 -1.316919177770614624e-02
-1.793506890535354614e-01 2.914996147155761719e-01 -8.371107280254364014e-03
-1.755217909812927246e-01 3.855848014354705811e-01 -4.341247081756591797e-01
-1.750856935977935791e-01 2.670181989669799805e-01 1.312257051467895508e-01
-1.787923127412796021e-01 4.355624914169311523e-01 -2.471838593482971191e-01
-1.802249252796173096e-01 3.447001874446868896e-01 4.884532988071441650e-01
-1.764317601919174194e-01 4.151743948459625244e-01 -2.044844031333923340e-01
-1.969798356294631958e-01 4.651698768138885498e-01 1.826055049896240234e-01
-1.772970706224441528e-01 4.266221523284912109e-01 -6.096288561820983887e-03
-1.760434508323669434e-01 2.797727584838867188e-01 2.521919608116149902e-01
-1.750770509243011475e-01 2.668946087360382080e-01 -1.618945300579071045e-01
-1.888754665851593018e-01 3.742726147174835205e-01 1.636705696582794189e-01
-1.896091252565383911e-01 4.975110888481140137e-01 -5.452876091003417969e-01
-2.026469707489013672e-01 5.242845416069030762e-01 -2.657976150512695312e-01
-1.739135682582855225e-01 3.925994336605072021e-01 -1.313345730304718018e-01
-1.711082756519317627e-01 3.559706807136535645e-01 2.334818542003631592e-01
-1.692409217357635498e-01 3.145116269588470459e-01 3.681941032409667969e-01
-1.984101384878158569e-01 4.801726639270782471e-01 -4.635003805160522461e-01
-2.014324516057968140e-01 5.053635239601135254e-01 -2.927726209163665771e-01
-1.832046508789062500e-01 3.746167719364166260e-01 4.993186295032501221e-01
-1.808580309152603149e-01 3.305140137672424316e-01 -5.075934529304504395e-01
-2.003165930509567261e-01 4.967691600322723389e-01 4.676257073879241943e-02
-1.874418258666992188e-01 3.534869849681854248e-01 -7.719484716653823853e-02
-1.728903353214263916e-01 3.692495524883270264e-01 2.986536026000976562e-01
-1.768181920051574707e-01 2.748212516307830811e-01 -5.153900384902954102e-02
-1.714835762977600098e-01 3.354430496692657471e-01 -4.148597121238708496e-01
-1.940722912549972534e-01 4.498412311077117920e-01 -5.819230079650878906e-01
-2.000895440578460693e-01 5.017037987709045410e-01 1.089712902903556824e-01
-1.717839688062667847e-01 3.171977698802947998e-01 4.665480554103851318e-01
-1.929747611284255981e-01 4.245424568653106689e-01 2.503141164779663086e-01
-1.995797157287597656e-01 4.877039790153503418e-01 6.755054742097854614e-02
-1.795929968357086182e-01 3.651913404464721680e-01 -6.282520890235900879e-01
-1.893018335103988647e-01 3.898315429687500000e-01 2.864429652690887451e-01
-1.824689954519271851e-01 4.596742987632751465e-01 -3.814607858657836914e-01
-1.728630959987640381e-01 3.399374485015869141e-01 -4.760064780712127686e-01
-1.990857720375061035e-01 5.257012844085693359e-01 -5.527754426002502441e-01
-1.891588568687438965e-01 5.150851607322692871e-01 -3.304535150527954102e-01
-1.910551488399505615e-01 5.275872945785522461e-01 8.935797959566116333e-02
-1.812855601310729980e-01 4.431777596473693848e-01 3.172424733638763428e-01
-1.660580635070800781e-01 2.998445034027099609e-01 2.203090488910675049e-02
-2.031279504299163818e-01 5.743818283081054688e-01 -1.542721241712570190e-01
-2.031873166561126709e-01 5.344376564025878906e-01 -2.463916540145874023e-01
-1.804682463407516479e-01 4.463067352771759033e-01 2.066625058650970459e-01
-1.915027052164077759e-01 4.082925319671630859e-01 -4.830296337604522705e-01
-1.719877272844314575e-01 3.733023405075073242e-01 7.289547473192214966e-02
-1.804269403219223022e-01 2.994058430194854736e-01 -1.165826991200447083e-01
-1.761774271726608276e-01 4.039970338344573975e-01 2.731251120567321777e-01
-1.996084898710250854e-01 4.806197881698608398e-01 -2.726244926452636719e-02
-1.749485731124877930e-01 3.907563388347625732e-01 -3.402901589870452881e-01
-1.766181737184524536e-01 2.812323570251464844e-01 2.217121124267578125e-01
-2.004500478506088257e-01 4.885984361171722412e-01 -2.186832129955291748e-01
-1.795622557401657104e-01 4.462244212627410889e-01 2.668817341327667236e-02
-1.978943943977355957e-01 4.561554789543151855e-01 -1.454236209392547607e-01
-1.792056262493133545e-01 4.144372642040252686e-01 -5.052573084831237793e-01
-1.643582880496978760e-01 2.578600645065307617e-01 -6.192710250616073608e-02
-1.984848380088806152e-01 4.652881026268005371e-01 -2.726078927516937256e-01
-1.807519495487213135e-01 4.420654177665710449e-01 2.872619628906250000e-01
-1.825828403234481812e-01 3.170960247516632080e-01 -2.092100977897644043e-01
-1.895299255847930908e-01 3.723126351833343506e-01 -1.776372194290161133e-01
-1.929682195186614990e-01 5.135886073112487793e-01 3.085060119628906250e-01
-1.818783730268478394e-01 3.844271302223205566e-01 -6.538396477699279785e-01
-1.690668910741806030e-01 2.380747497081756592e-01 1.404852569103240967e-01
-2.013463824987411499e-01 5.423316955566406250e-01 1.104368343949317932e-01
-1.777537465095520020e-01 3.633780777454376221e-01 5.253462195396423340e-01
-1.913762241601943970e-01 5.351456403732299805e-01 -1.342417895793914795e-01
-1.927702128887176514e-01 4.186709523200988770e-01 2.213635146617889404e-01
-1.881131082773208618e-01 4.662679731845855713e-01 4.351833164691925049e-01
-1.687650531530380249e-01 3.197103440761566162e-01 3.048258125782012939e-01
-1.774487942457199097e-01 3.096396028995513916e-01 -4.885451197624206543e-01
-1.992278695106506348e-01 5.708836913108825684e-01 -2.965733110904693604e-01
-1.781371831893920898e-01 4.152300655841827393e-01 -4.231402873992919922e-01
-1.857958137989044189e-01 4.959233403205871582e-01 9.261429309844970703e-03
-1.818611323833465576e-01 4.627799987792968750e-01 1.089630797505378723e-01
-1.983660310506820679e-01 5.691313743591308594e-01 -6.376496702432632446e-02
-1.772281527519226074e-01 2.773395776748657227e-01 -2.417004853487014771e-02
-1.885893493890762329e-01 3.651481866836547852e-01 2.744629234075546265e-02
-1.987439244985580444e-01 4.792519807815551758e-01 1.010683402419090271e-01
-1.723932027816772461e-01 3.784621357917785645e-01 1.229940354824066162e-02
-1.910155862569808960e-01 3.880890905857086182e-01 -2.664009630680084229e-01
-1.818863749504089355e-01 4.525134265422821045e-01 -4.052365422248840332e-01
-1.825583428144454956e-01 3.181709945201873779e-01 -2.420222163200378418e-01
-1.937169134616851807e-01 4.188118577003479004e-01 -3.659647405147552490e-01
-1.658131480216979980e-01 2.865054607391357422e-01 -1.415213942527770996e-01
-2.025921940803527832e-01 5.277190208435058594e-01 -4.934737831354141235e-02
-1.971133500337600708e-01 4.930154085159301758e-01 -5.885664224624633789e-01
-1.854320317506790161e-01 4.888023734092712402e-01 -3.082852959632873535e-01
-1.856416314840316772e-01 3.602643609046936035e-01 -4.902534484863281250e-01
-1.836256831884384155e-01 4.753702282905578613e-01 -2.896817624568939209e-01
-1.649501472711563110e-01 2.693128287792205811e-01 1.926797330379486084e-01
-1.913211792707443237e-01 3.881576955318450928e-01 -1.444439291954040527e-01
-1.968830823898315430e-01 4.773042798042297363e-01 -5.539391636848449707e-01
-1.781704872846603394e-01 4.088405370712280273e-01 3.855662047863006592e-01
-1.945865452289581299e-01 5.534340739250183105e-01 -1.841185837984085083e-01
-1.890078783035278320e-01 4.186549484729766846e-01 -6.483010053634643555e-01
-1.987522393465042114e-01 5.387389659881591797e-01 2.055856883525848389e-01
-1.901663690805435181e-01 5.273972153663635254e-01 -9.030433744192123413e-02
-1.865442246198654175e-01 5.017925500869750977e-01 -1.357247680425643921e-02
-1.807606071233749390e-01 3.339717984199523926e-01 4.266264140605926514e-01
-1.909824311733245850e-01 3.874901831150054932e-01 3.472476452589035034e-02
-1.939123570919036865e-01 4.224960207939147949e-01 1.293914020061492920e-01
-1.676163226366043091e-01 3.211527168750762939e-01 9.884888678789138794e-02
-2.000941336154937744e-01 5.070798397064208984e-01 -4.753000438213348389e-01
-1.870976090431213379e-01 3.909842669963836670e-01 -6.062721610069274902e-01
-1.690852046012878418e-01 3.341218531131744385e-01 2.090858817100524902e-01
-1.745606958866119385e-01 2.618616223335266113e-01 -8.315631747245788574e-02
-1.723787337541580200e-01 3.559550642967224121e-01 -3.763932883739471436e-01
-1.858949512243270874e-01 3.730913102626800537e-01 3.969995081424713135e-01
-1.680268347263336182e-01 2.512592673301696777e-01 3.094099462032318115e-01
-1.642704308032989502e-01 2.606486678123474121e-01 1.116447672247886658e-01
-1.779514700174331665e-01 4.307774603366851807e-01 8.397956937551498413e-02
-1.935301870107650757e-01 4.737053215503692627e-01 3.887778818607330322e-01
-1.986398547887802124e-01 4.672465622425079346e-01 -4.372248798608779907e-02
-1.723089367151260376e-01 2.662898898124694824e-01 3.272632956504821777e-01
-1.935650110244750977e-01 4.119429290294647217e-01 3.850892186164855957e-03
-1.874744594097137451e-01 4.517046809196472168e-01 4.684453308582305908e-01
-1.952542960643768311e-01 4.349248111248016357e-01 9.618680924177169800e-02
-1.919046342372894287e-01 3.946376144886016846e-01 -2.306412160396575928e-02
-1.849721521139144897e-01 3.350806534290313721e-01 5.645792931318283081e-02
-1.658060848712921143e-01 2.424091100692749023e-01 2.313575148582458496e-01
-1.910203695297241211e-01 3.992597162723541260e-01 -4.393077790737152100e-01
-1.980161368846893311e-01 4.942834079265594482e-01 2.381925582885742188e-01
-1.802287399768829346e-01 2.983698248863220215e-01 4.214953631162643433e-02
-1.735851913690567017e-01 2.559017241001129150e-01 -2.842389419674873352e-02
-1.704936176538467407e-01 3.575329184532165527e-01 -2.998689189553260803e-02
-1.765135675668716431e-01 4.192937016487121582e-01 -7.618055492639541626e-02
-1.939567625522613525e-01 5.499790906906127930e-01 -9.375889599323272705e-02
-1.708759665489196777e-01 3.568781912326812744e-01 1.824616491794586182e-01
-1.845795512199401855e-01 3.423973023891448975e-01 2.465681135654449463e-01
-1.892947554588317871e-01 3.994995355606079102e-01 3.525493443012237549e-01
-1.753621250391006470e-01 3.764484226703643799e-01 -4.750453233718872070e-01
-1.754133701324462891e-01 4.025704562664031982e-01 1.955790817737579346e-01
-1.835716217756271362e-01 3.270494639873504639e-01 1.399038136005401611e-01
-2.010884881019592285e-01 5.649489760398864746e-01 4.280906915664672852e-02
-1.861256659030914307e-01 4.918965399265289307e-01 1.610566973686218262e-01
-1.891471743583679199e-01 4.978613257408142090e-01 -5.207821726799011230e-01
-1.722651422023773193e-01 3.505050837993621826e-01 -3.993713259696960449e-01
-1.667831987142562866e-01 3.018023967742919922e-01 2.176384329795837402e-01
-1.857737749814987183e-01 3.399946093559265137e-01 -2.000240609049797058e-02
-1.681177765130996704e-01 2.408337295055389404e-01 -1.786663234233856201e-01
-1.779866218566894531e-01 3.798983693122863770e-01 -5.836416482925415039e-01
-1.917084753513336182e-01 4.802207350730895996e-01 4.127966463565826416e-01
-1.755838841199874878e-01 4.093891382217407227e-01 7.219686359167098999e-02
-1.686202734708786011e-01 2.638010680675506592e-01 3.666709661483764648e-01
-1.802924275398254395e-01 4.515659809112548828e-01 -1.796125769615173340e-01
-1.658596545457839966e-01 2.386357188224792480e-01 2.067762911319732666e-01
-1.974778622388839722e-01 5.215559601783752441e-01 -5.848147869110107422e-01
-1.771116107702255249e-01 3.958618640899658203e-01 4.079100489616394043e-01
-1.926769763231277466e-01 5.428982973098754883e-01 -1.605945825576782227e-01
-1.813720166683197021e-01 3.057146072387695312e-01 -2.927245572209358215e-02
-1.832910329103469849e-01 4.684455096721649170e-01 2.061355412006378174e-01
-1.651784777641296387e-01 2.453398406505584717e-01 -1.402444094419479370e-01
-1.805061101913452148e-01 4.263838827610015869e-01 3.972382247447967529e-01
-1.659607738256454468e-01 2.301499098539352417e-01 7.590334862470626831e-02
-1.935714185237884521e-01 5.265132784843444824e-01 2.423907816410064697e-01
-1.853189170360565186e-01 4.845287203788757324e-01 1.872743070125579834e-01
-1.749296039342880249e-01 4.024388194084167480e-01 9.664384275674819946e-02
-1.848810911178588867e-01 4.896018207073211670e-01 -1.596827208995819092e-01
-1.763842850923538208e-01 3.634843528270721436e-01 -5.642431378364562988e-01
-1.864791363477706909e-01 3.563559055328369141e-01 2.163829505443572998e-01
-1.749048084020614624e-01 2.700830698013305664e-01 -2.443877458572387695e-01
-1.819568872451782227e-01 3.311335444450378418e-01 3.463071286678314209e-01
-1.808907538652420044e-01 4.410793185234069824e-01 -4.297115206718444824e-01
-1.864423602819442749e-01 3.489513993263244629e-01 -2.675356566905975342e-01
-1.811019480228424072e-01 4.352877140045166016e-01 -4.922111928462982178e-01
-1.735835522413253784e-01 3.840576112270355225e-01 2.063070833683013916e-01
-1.686406731605529785e-01 3.240437805652618408e-01 2.576402723789215088e-01
-1.757217049598693848e-01 4.119828343391418457e-01 -2.109437808394432068e-02
-2.012829780578613281e-01 5.721935033798217773e-01 -3.362770974636077881e-01
-1.720196604728698730e-01 3.690719902515411377e-01 -2.014876604080200195e-01
-1.991538703441619873e-01 5.133839845657348633e-01 2.135194540023803711e-01
-1.753447353839874268e-01 4.047992825508117676e-01 1.399057209491729736e-01
-1.982898414134979248e-01 5.679942369461059570e-01 -4.028199613094329834e-02
-1.862872391939163208e-01 3.578799068927764893e-01 -4.221151173114776611e-01
-1.745833456516265869e-01 3.780563175678253174e-01 3.675814867019653320e-01
-1.663048565387725830e-01 2.995338439941406250e-01 -9.935790300369262695e-02
-1.824679523706436157e-01 3.151523172855377197e-01 -1.721189022064208984e-01
-1.783625334501266479e-01 4.351271092891693115e-01 -1.514069586992263794e-01
-1.776751726865768433e-01 3.375512361526489258e-01 5.138977766036987305e-01
-1.946770548820495605e-01 4.211011826992034912e-01 -1.037925034761428833e-01
-1.667135059833526611e-01 2.518418729305267334e-01 -2.378092408180236816e-01
-1.765053123235702515e-01 4.009065628051757812e-01 -4.011521041393280029e-01
-1.693236529827117920e-01 2.364433109760284424e-01 4.363670945167541504e-03
-1.876800358295440674e-01 4.441989064216613770e-01 -6.770319342613220215e-01
-2.013557851314544678e-01 5.243428349494934082e-01 -4.454541802406311035e-01
-1.912001669406890869e-01 5.296802520751953125e-01 -3.121607601642608643e-01
-1.868155747652053833e-01 4.897853136062622070e-01 -4.411959350109100342e-01
-1.967856138944625854e-01 4.883440136909484863e-01 2.892484068870544434e-01
-1.819178611040115356e-01 4.573107659816741943e-01 -3.502503335475921631e-01
-1.676690429449081421e-01 3.229321539402008057e-01 -6.733983755111694336e-03
-1.817918866872787476e-01 4.589034020900726318e-01 -3.095915615558624268e-01
-1.965415626764297485e-01 4.530663490295410156e-01 1.299549341201782227e-01
-1.977204084396362305e-01 5.145614743232727051e-01 2.719392180442810059e-01
-1.744434833526611328e-01 3.942171633243560791e-01 -2.233200371265411377e-01
