-9.627732634544372559e-02 -4.403740540146827698e-02 1.267446726560592651e-01
-1.218799352645874023e-01 -4.374055564403533936e-02 3.001348972320556641e-01
-8.518837392330169678e-02 -7.016964256763458252e-02 2.635742723941802979e-01
-1.572007089853286743e-01 -6.610929220914840698e-02 3.735603094100952148e-01
-1.899157166481018066e-01 -5.399404093623161316e-02 3.872478008270263672e-01
-1.484706848859786987e-01 -6.236330047249794006e-02 5.597515106201171875e-01
2.010233700275421143e-03 -4.989494010806083679e-02 2.244226932525634766e-01
-7.588247209787368774e-02 -4.690010473132133484e-02 -7.491041719913482666e-02
-5.371718108654022217e-02 -6.937546283006668091e-02 2.424510866403579712e-01
-6.968908011913299561e-02 -5.083636939525604248e-02 5.979176163673400879e-01
-7.846753299236297607e-02 -4.299034550786018372e-02 2.605569362640380859e-01
-1.609503030776977539e-01 -6.650358438491821289e-02 1.770467162132263184e-01
-1.376328021287918091e-01 -4.755491018295288086e-02 8.754458278417587280e-02
-1.332586109638214111e-01 -4.499151185154914856e-02 2.226617932319641113e-01
-1.350496262311935425e-01 -4.785384610295295715e-02 6.141741275787353516e-01
-1.239284574985504150e-01 -6.995003670454025269e-02 4.884066432714462280e-02
-1.606936156749725342e-01 -4.682080447673797607e-02 3.551488518714904785e-01
-1.756090819835662842e-01 -4.923282936215400696e-02 4.337570369243621826e-01
-8.255584537982940674e-02 -7.048281282186508179e-02 -1.247590482234954834e-01
-1.020466238260269165e-01 -7.075618952512741089e-02 -2.901083230972290039e-02
-4.465973004698753357e-02 -6.944665312767028809e-02 2.020565569400787354e-01
-3.942120075225830078e-02 -4.435598105192184448e-02 1.984188407659530640e-01
-2.185424417257308960e-02 -4.595748335123062134e-02 6.522808223962783813e-02
-9.870796650648117065e-02 -6.889037787914276123e-02 3.527864813804626465e-01
-1.071834266185760498e-01 -4.735736921429634094e-02 6.089479923248291016e-01
-6.311410665512084961e-02 -4.339526966214179993e-02 1.891246438026428223e-01
-1.246029958128929138e-01 -5.926584824919700623e-02 6.393091678619384766e-01
-9.690651297569274902e-02 -4.398405924439430237e-02 4.670504927635192871e-01
-5.962816625833511353e-02 -7.063528150320053101e-02 1.704367548227310181e-01
-5.611868947744369507e-02 -4.466515406966209412e-02 4.428528994321823120e-02
-1.048344969749450684e-01 -4.330853372812271118e-02 2.450491786003112793e-01
-1.344626694917678833e-01 -6.882693618535995483e-02 3.527534008026123047e-02
-7.300011813640594482e-03 -6.550692021846771240e-02 1.938116848468780518e-01
-3.297595679759979248e-02 -4.613372310996055603e-02 -1.732653379440307617e-02
-9.386826306581497192e-02 -4.419390112161636353e-02 1.075731068849563599e-01
-1.727759689092636108e-01 -6.461817026138305664e-02 2.930623888969421387e-01
2.011898159980773926e-02 -5.333559215068817139e-02 1.023160517215728760e-01
-1.197303533554077148e-01 -4.369811341166496277e-02 4.040418565273284912e-01
-1.570154130458831787e-01 -4.742581769824028015e-02 5.314805507659912109e-01
-9.480400383472442627e-02 -4.353006184101104736e-02 4.268595874309539795e-01
-3.453072533011436462e-02 -6.312550604343414307e-02 4.040052294731140137e-01
-5.303645133972167969e-02 -6.547337770462036133e-02 4.050698280334472656e-01
-1.421583890914916992e-01 -6.068603321909904480e-02 6.067450642585754395e-01
-1.433642208576202393e-01 -6.870640814304351807e-02 1.647474914789199829e-01
-5.658861622214317322e-02 -7.137220352888107300e-02 -5.176523327827453613e-02
-6.054801866412162781e-02 -4.907219111919403076e-02 -1.688296496868133545e-01
-2.660208567976951599e-02 -4.553065448999404907e-02 2.399156987667083740e-01
-6.884409487247467041e-02 -4.398591071367263794e-02 4.027206599712371826e-01
-1.442570686340332031e-01 -6.843630969524383545e-02 1.171065866947174072e-01
-1.654040664434432983e-01 -4.894034937024116516e-02 2.205302715301513672e-01
-2.240712195634841919e-02 -6.832137703895568848e-02 -2.242803871631622314e-01
-1.677651703357696533e-02 -6.590184569358825684e-02 2.383723556995391846e-01
-2.800136804580688477e-03 -6.699954718351364136e-02 7.391603291034698486e-02
-9.709182381629943848e-02 -4.580990970134735107e-02 1.447112858295440674e-02
-1.230261772871017456e-01 -4.467795044183731079e-02 5.008220672607421875e-01
-1.206078678369522095e-01 -4.361873120069503784e-02 3.674741983413696289e-01
-6.708578765392303467e-02 -6.921800225973129272e-02 2.911195158958435059e-01
-7.739697396755218506e-02 -6.476095318794250488e-02 4.845188558101654053e-01
-1.166898459196090698e-01 -6.992542743682861328e-02 -1.622989773750305176e-02
3.627315163612365723e-03 -6.660660356283187866e-02 -1.589078903198242188e-01
-1.303308308124542236e-01 -6.211418285965919495e-02 5.871112346649169922e-01
-5.936267226934432983e-02 -4.406386986374855042e-02 3.658437430858612061e-01
-1.228723227977752686e-01 -6.741079688072204590e-02 4.182645976543426514e-01
-1.671131551265716553e-01 -5.644243955612182617e-02 3.809171915054321289e-02
-1.050230786204338074e-01 -4.414476081728935242e-02 1.453731656074523926e-01
-8.133746683597564697e-02 -4.521533474326133728e-02 5.078544616699218750e-01
-1.223571598529815674e-01 -7.026444375514984131e-02 1.717448383569717407e-01
-1.274655163288116455e-01 -6.347097456455230713e-02 -1.647284328937530518e-01
-4.446677863597869873e-02 -7.095328718423843384e-02 4.531612992286682129e-02
-1.944300532341003418e-02 -4.740952327847480774e-02 3.147377967834472656e-01
-3.614209592342376709e-03 -6.307796388864517212e-02 2.507777214050292969e-01
-8.690214157104492188e-02 -6.466274708509445190e-02 5.029071569442749023e-01
-8.878128230571746826e-02 -4.520816355943679810e-02 5.220060944557189941e-01
-1.657456755638122559e-01 -6.577780097723007202e-02 1.946153193712234497e-01
-8.960115909576416016e-02 -4.294338822364807129e-02 3.111393153667449951e-01
-2.960346639156341553e-02 -6.513611972332000732e-02 3.295950293540954590e-01
-1.695095300674438477e-01 -4.885241016745567322e-02 2.753306627273559570e-01
-1.270004212856292725e-01 -4.539912939071655273e-02 5.368883609771728516e-01
-5.149856954813003540e-02 -4.426627978682518005e-02 3.375724554061889648e-01
-1.735413819551467896e-02 -4.611719027161598206e-02 1.276920437812805176e-01
-2.098670601844787598e-02 -5.410254374146461487e-02 -2.857146561145782471e-01
-4.663418978452682495e-02 -6.802538037300109863e-02 2.882223129272460938e-01
-4.695862531661987305e-03 -4.851633682847023010e-02 -4.165208339691162109e-02
-1.231828704476356506e-01 -4.560992121696472168e-02 1.167731359601020813e-01
-1.395162642002105713e-01 -6.385395675897598267e-02 5.330066680908203125e-01
-1.866144239902496338e-01 -5.911993235349655151e-02 4.473342895507812500e-01
-6.707787513732910156e-02 -6.116292625665664673e-02 5.416938066482543945e-01
-5.299756303429603577e-02 -7.105647027492523193e-02 -9.784686565399169922e-02
1.036642491817474365e-02 -5.687789991497993469e-02 -2.516925930976867676e-01
1.990454643964767456e-02 -6.297684460878372192e-02 1.693437993526458740e-02
-5.941803008317947388e-02 -5.598646029829978943e-02 -3.126545548439025879e-01
-1.552879214286804199e-01 -4.610886424779891968e-02 3.864457607269287109e-01
-9.468305855989456177e-02 -4.878406971693038940e-02 6.226908564567565918e-01
-9.698680788278579712e-02 -4.954794421792030334e-02 -1.272296905517578125e-01
-4.379416629672050476e-02 -7.081285864114761353e-02 6.613846123218536377e-02
-3.382216021418571472e-02 -6.904733180999755859e-02 1.745289564132690430e-01
-9.603759646415710449e-02 -6.738810241222381592e-02 -2.104563117027282715e-01
-4.319110885262489319e-02 -4.556168243288993835e-02 3.813819289207458496e-01
-1.708798408508300781e-01 -5.664091184735298157e-02 5.978791713714599609e-01
-1.006637662649154663e-01 -6.183372437953948975e-02 -2.650349438190460205e-01
-1.067741960287094116e-01 -4.594777151942253113e-02 5.690923333168029785e-01
1.402385532855987549e-03 -6.734876334667205811e-02 -4.911296069622039795e-02
-2.457799389958381653e-02 -6.991974264383316040e-02 3.904655575752258301e-03
-3.045000508427619934e-02 -5.008984357118606567e-02 -1.964701712131500244e-01
-1.605171859264373779e-01 -6.624867022037506104e-02 1.368294805288314819e-01
-1.645919233560562134e-01 -6.575220078229904175e-02 3.257256448268890381e-01
4.202350974082946777e-04 -6.295484304428100586e-02 -2.938362658023834229e-01
-8.903296291828155518e-02 -7.041569799184799194e-02 2.474507689476013184e-01
3.960832953453063965e-03 -6.690192222595214844e-02 -3.032825887203216553e-02
-8.175757527351379395e-02 -7.156160473823547363e-02 9.759501367807388306e-02
-1.907841563224792480e-01 -5.647720023989677429e-02 4.243807792663574219e-01
-8.409959077835083008e-02 -6.682269275188446045e-02 -2.528674304485321045e-01
-3.406269103288650513e-02 -7.060616463422775269e-02 -4.598958790302276611e-02
-3.105501085519790649e-02 -6.117157638072967529e-02 4.296527802944183350e-01
-1.670338362455368042e-01 -4.811820760369300842e-02 4.867900013923645020e-01
-5.998472869396209717e-02 -4.825295507907867432e-02 5.367502570152282715e-01
-1.457664072513580322e-01 -6.846104562282562256e-02 2.095355242490768433e-01
-2.495914697647094727e-03 -4.921143129467964172e-02 2.433541268110275269e-01
-6.041976809501647949e-02 -4.472321271896362305e-02 4.190325736999511719e-01
-8.156723529100418091e-02 -4.311133921146392822e-02 2.120333164930343628e-01
-1.133766025304794312e-02 -5.489929020404815674e-02 3.943121433258056641e-01
-8.605250716209411621e-02 -4.325228184461593628e-02 1.906414180994033813e-01
-1.048526838421821594e-01 -5.081453174352645874e-02 -1.406210958957672119e-01
-3.677129372954368591e-02 -6.800025701522827148e-02 2.490099817514419556e-01
-1.326795071363449097e-01 -4.474409297108650208e-02 4.739951491355895996e-01
-1.248771697282791138e-02 -6.897680461406707764e-02 -3.365072607994079590e-02
-3.187455236911773682e-03 -5.128242075443267822e-02 3.124569356441497803e-01
-1.085864976048469543e-01 -4.411407932639122009e-02 4.786548316478729248e-01
-5.474442616105079651e-02 -4.406388476490974426e-02 1.069421768188476562e-01
-3.673229739069938660e-02 -4.506912082433700562e-02 3.006111681461334229e-01
-1.577175557613372803e-01 -5.243128910660743713e-02 6.415538787841796875e-01
-1.348196715116500854e-01 -4.559604451060295105e-02 1.825916320085525513e-01
-4.392982646822929382e-02 -4.668689519166946411e-02 4.347093403339385986e-01
-1.705474853515625000e-01 -5.068037286400794983e-02 1.889841854572296143e-01
-6.453634053468704224e-02 -7.125259190797805786e-02 1.177586615085601807e-01
-1.772445142269134521e-01 -6.284344196319580078e-02 3.979677557945251465e-01
1.246517151594161987e-02 -5.402605608105659485e-02 -1.844430565834045410e-01
-1.451093554496765137e-01 -6.799723953008651733e-02 3.033603429794311523e-01
-1.151139512658119202e-01 -6.064086779952049255e-02 6.164287328720092773e-01
-1.442743241786956787e-01 -6.785659492015838623e-02 5.615662038326263428e-02
-5.383433401584625244e-02 -6.635930389165878296e-02 3.786830604076385498e-01
-1.642335653305053711e-01 -6.612952798604965210e-02 2.652670741081237793e-01
-7.916811853647232056e-02 -5.854925885796546936e-02 -3.077235817909240723e-01
-6.792151182889938354e-02 -6.276293098926544189e-02 5.132210254669189453e-01
-5.822480842471122742e-02 -4.594207182526588440e-02 -4.085597395896911621e-02
-2.684220671653747559e-04 -6.633298844099044800e-02 9.293887764215469360e-02
-1.685673445463180542e-01 -6.540437042713165283e-02 2.277348935604095459e-01
-5.225418880581855774e-02 -7.102720439434051514e-02 9.221204370260238647e-02
2.638358622789382935e-02 -5.893241241574287415e-02 4.128797352313995361e-02
-9.436870366334915161e-02 -6.265819817781448364e-02 5.614653825759887695e-01
-1.356201171875000000e-01 -6.648635864257812500e-02 4.411263763904571533e-01
-1.216085702180862427e-01 -6.700806319713592529e-02 -1.269361972808837891e-01
-1.797286421060562134e-02 -6.828238070011138916e-02 1.222256347537040710e-01
-9.065540879964828491e-02 -4.364401102066040039e-02 1.500505208969116211e-01
-1.418218314647674561e-01 -4.602188616991043091e-02 5.297927856445312500e-01
-7.828513532876968384e-02 -5.015106499195098877e-02 6.111621856689453125e-01
7.136680185794830322e-03 -4.973423480987548828e-02 -7.869228720664978027e-03
-9.808165580034255981e-02 -7.133109122514724731e-02 1.105358675122261047e-01
-1.834391653537750244e-01 -6.035409122705459595e-02 1.998953968286514282e-01
-2.850048243999481201e-03 -5.293530598282814026e-02 -2.238078117370605469e-01
-1.514176726341247559e-01 -6.087316572666168213e-02 5.888836383819580078e-01
-1.234032511711120605e-01 -4.598262906074523926e-02 9.603907167911529541e-02
-1.252410113811492920e-01 -6.530885398387908936e-02 5.013532638549804688e-01
-9.398265182971954346e-02 -5.158684775233268738e-02 6.496863365173339844e-01
-1.367554515600204468e-01 -4.797926917672157288e-02 6.474059075117111206e-02
-1.623815894126892090e-01 -6.459708511829376221e-02 6.802622973918914795e-02
-1.229867041110992432e-01 -4.796991497278213501e-02 3.961041569709777832e-03
-1.563525497913360596e-01 -5.293191596865653992e-02 2.233131229877471924e-02
-9.553243219852447510e-02 -6.679255515336990356e-02 4.450162351131439209e-01
-5.714834481477737427e-02 -4.351852089166641235e-02 2.032097727060317993e-01
-4.128089174628257751e-02 -6.810182332992553711e-02 2.635916769504547119e-01
-3.987679257988929749e-02 -5.596648156642913818e-02 -3.227550685405731201e-01
-8.375949412584304810e-02 -4.597567766904830933e-02 -2.145747840404510498e-02
-1.886149942874908447e-01 -5.968771129846572876e-02 3.693704009056091309e-01
-1.426713019609451294e-01 -4.668043181300163269e-02 1.626441627740859985e-01
-6.037158519029617310e-02 -4.714867472648620605e-02 -9.825652837753295898e-02
2.712743729352951050e-02 -5.971725657582283020e-02 1.263216137886047363e-03
-1.182793974876403809e-01 -4.796931147575378418e-02 -1.366150379180908203e-02
1.877948641777038574e-02 -5.997479707002639771e-02 -2.217846810817718506e-01
-9.399149566888809204e-02 -4.354781657457351685e-02 1.688348501920700073e-01
-6.006393581628799438e-02 -7.043155282735824585e-02 -1.594854891300201416e-01
-1.032828837633132935e-01 -7.101003825664520264e-02 1.647969633340835571e-01
-1.086089313030242920e-01 -4.335300624370574951e-02 3.928010165691375732e-01
-8.028268814086914062e-02 -4.784482717514038086e-02 -1.055754721164703369e-01
-6.791058182716369629e-02 -7.022105157375335693e-02 2.293218970298767090e-01
-1.214645728468894958e-01 -6.833194196224212646e-02 3.711476922035217285e-01
-4.807339608669281006e-02 -7.122941315174102783e-02 -1.064524054527282715e-02
-1.299115717411041260e-01 -6.975194066762924194e-02 1.948233544826507568e-01
-1.578911393880844116e-01 -5.175814405083656311e-02 5.876299738883972168e-02
-1.095639616250991821e-01 -7.028919458389282227e-02 2.438631355762481689e-01
-3.444559127092361450e-02 -6.625325977802276611e-02 3.126718103885650635e-01
-1.035083532333374023e-01 -7.113970816135406494e-02 1.312501728534698486e-01
-4.470024630427360535e-02 -4.422678798437118530e-02 1.337773948907852173e-01
-7.721368968486785889e-02 -7.167808711528778076e-02 3.799663484096527100e-02
-1.584590077400207520e-01 -4.725560918450355530e-02 5.106648206710815430e-01
1.639690250158309937e-02 -5.206596478819847107e-02 -6.185281276702880859e-02
-8.862119168043136597e-02 -4.435578733682632446e-02 8.362080901861190796e-02
-8.581859618425369263e-02 -4.293864965438842773e-02 2.780073285102844238e-01
-8.942475169897079468e-02 -6.906687468290328979e-02 -1.773009002208709717e-01
-6.370448321104049683e-02 -5.475005879998207092e-02 -2.922271788120269775e-01
-8.011310547590255737e-02 -7.084345817565917969e-02 2.010097801685333252e-01
-6.474245339632034302e-02 -4.358100891113281250e-02 1.471563428640365601e-01
-1.699590235948562622e-01 -4.828867316246032715e-02 3.418239355087280273e-01
-1.136374622583389282e-01 -6.661957502365112305e-02 4.583842754364013672e-01
-5.826216936111450195e-02 -7.139573246240615845e-02 6.028366088867187500e-02
-1.533432006835937500e-01 -6.279519200325012207e-02 -4.039284586906433105e-02
-1.087520197033882141e-01 -7.062127441167831421e-02 -1.302346587181091309e-03
-1.267300397157669067e-01 -5.518534779548645020e-02 -1.507674455642700195e-01
-1.545739918947219849e-02 -4.631905257701873779e-02 1.483029574155807495e-01
-3.305866196751594543e-02 -4.796021804213523865e-02 -1.194208860397338867e-01
-1.296825706958770752e-01 -6.883239001035690308e-02 -4.860088229179382324e-03
-1.168165579438209534e-01 -6.893628835678100586e-02 -7.873617112636566162e-02
-1.308468431234359741e-01 -5.003780126571655273e-02 6.567382812500000000e-01
-1.377213746309280396e-01 -6.918723881244659424e-02 1.354526579380035400e-01
-6.201175972819328308e-02 -6.973824650049209595e-02 -1.975740790367126465e-01
-1.667311787605285645e-01 -4.787636920809745789e-02 4.675635397434234619e-01
-1.678518801927566528e-01 -5.534087494015693665e-02 6.165617108345031738e-01
1.212278008460998535e-02 -5.477049201726913452e-02 -2.055835127830505371e-01
-2.445430681109428406e-02 -6.796874105930328369e-02 1.865176111459732056e-01
-7.812159508466720581e-02 -6.666079908609390259e-02 -2.680660486221313477e-01
-2.937600016593933105e-03 -4.786947369575500488e-02 6.711488962173461914e-02
-7.424601912498474121e-02 -5.187441781163215637e-02 -2.277246415615081787e-01
-3.801158070564270020e-02 -4.659587144851684570e-02 4.013640284538269043e-01
-1.174130439758300781e-01 -5.027209222316741943e-02 -8.892416954040527344e-02
-1.027417629957199097e-01 -6.814318895339965820e-02 3.922154605388641357e-01
-4.843234643340110779e-02 -4.668650776147842407e-02 4.548871815204620361e-01
-1.509747654199600220e-01 -6.417157500982284546e-02 4.981158077716827393e-01
-2.155826985836029053e-02 -6.974241882562637329e-02 -1.405641436576843262e-02
-9.773812443017959595e-02 -6.122925877571105957e-02 5.932457447052001953e-01
-4.499521106481552124e-02 -5.457416921854019165e-02 -3.025427460670471191e-01
-1.449166834354400635e-01 -6.822834908962249756e-02 9.898599982261657715e-02
-1.059374511241912842e-01 -6.764888763427734375e-02 4.156337976455688477e-01
-5.897529050707817078e-02 -6.812117993831634521e-02 3.242963552474975586e-01
-1.448070406913757324e-01 -6.598300486803054810e-02 -2.823096513748168945e-02
-9.484022855758666992e-02 -4.670011252164840698e-02 -3.254082798957824707e-02
-8.423140645027160645e-02 -7.010175287723541260e-02 -1.434944272041320801e-01
-1.841351389884948730e-01 -6.079160422086715698e-02 2.253394722938537598e-01
-2.997236326336860657e-02 -6.991763412952423096e-02 7.208099961280822754e-02
-1.319522559642791748e-01 -5.188089981675148010e-02 -7.423840463161468506e-02
-1.471806466579437256e-01 -6.753753125667572021e-02 3.321712613105773926e-01
2.633102238178253174e-02 -6.095255166292190552e-02 -3.996641933917999268e-02
-1.099568381905555725e-01 -7.073158025741577148e-02 1.831710338592529297e-01
-1.725987046957015991e-01 -6.430815905332565308e-02 3.489907383918762207e-01
-1.764705777168273926e-02 -4.842369630932807922e-02 -1.046625375747680664e-01
-1.777277886867523193e-01 -5.570973455905914307e-02 1.304711997509002686e-01
-1.088047325611114502e-01 -6.952650845050811768e-02 3.103905320167541504e-01
-1.008132100105285645e-01 -4.313199594616889954e-02 2.617192268371582031e-01
-8.618286252021789551e-02 -4.512316733598709106e-02 2.850100398063659668e-02
1.014824211597442627e-02 -5.043597519397735596e-02 -2.921977639198303223e-02
-8.306626975536346436e-02 -5.418438836932182312e-02 6.373224854469299316e-01
-1.594402641057968140e-02 -5.321624875068664551e-02 -2.609938383102416992e-01
-2.004958316683769226e-02 -6.599775701761245728e-02 2.530488073825836182e-01
-1.432740390300750732e-01 -4.498591274023056030e-02 3.567516207695007324e-01
6.702862679958343506e-03 -6.380639970302581787e-02 1.490636020898818970e-01
-1.385005861520767212e-01 -5.201401934027671814e-02 -4.931823909282684326e-02
-1.490937769412994385e-01 -4.821388423442840576e-02 1.251752078533172607e-01
-1.684497296810150146e-02 -4.628815501928329468e-02 8.129619061946868896e-02
-1.490592956542968750e-01 -6.531972438097000122e-02 4.578248858451843262e-01
-4.409179091453552246e-04 -4.820232093334197998e-02 1.070095449686050415e-01
-1.913882791996002197e-03 -4.802234098315238953e-02 1.256310641765594482e-01
-3.378726541996002197e-03 -6.774830073118209839e-02 -1.385101377964019775e-01
-1.776793450117111206e-01 -6.156124919652938843e-02 4.592141807079315186e-01
1.530495658516883850e-02 -7.923538982868194580e-02 -6.170436739921569824e-03
4.592292383313179016e-02 -5.357461422681808472e-02 -3.355596959590911865e-01
9.424602985382080078e-02 -6.518930196762084961e-02 -2.953336238861083984e-01
-8.185580372810363770e-03 -5.639965087175369263e-02 1.419537514448165894e-01
9.456560015678405762e-02 -4.474776983261108398e-02 5.539957061409950256e-02
1.470245271921157837e-01 -6.529528647661209106e-02 1.419515907764434814e-01
1.043791472911834717e-01 -6.933937966823577881e-02 1.976050734519958496e-01
1.741957664489746094e-01 -5.796479806303977966e-02 -1.716840416193008423e-01
1.727432012557983398e-01 -5.101444944739341736e-02 1.488156616687774658e-01
1.018538475036621094e-01 -7.294759154319763184e-02 7.349163293838500977e-02
1.504160463809967041e-01 -4.867132008075714111e-02 1.606116294860839844e-01
7.664561271667480469e-02 -4.536853730678558350e-02 4.480559006333351135e-02
1.102264299988746643e-01 -6.585899740457534790e-02 -2.550243139266967773e-01
9.987964481115341187e-02 -4.324863478541374207e-02 -1.264924108982086182e-01
1.533695161342620850e-01 -6.207793951034545898e-02 1.769986003637313843e-01
1.343892514705657959e-01 -4.347582906484603882e-02 -1.695245951414108276e-01
2.651848830282688141e-02 -7.756547629833221436e-02 -1.211651712656021118e-01
1.780779659748077393e-02 -7.847274094820022583e-02 -8.938287198543548584e-02
1.417749002575874329e-02 -5.022538825869560242e-02 -2.072786390781402588e-01
1.843571066856384277e-01 -5.950594320893287659e-02 -5.227351933717727661e-02
1.173667758703231812e-01 -4.271290451288223267e-02 -4.467874020338058472e-02
6.995675712823867798e-02 -6.187427043914794922e-02 2.838446199893951416e-01
1.881805807352066040e-02 -6.906421482563018799e-02 -3.154637813568115234e-01
9.850563108921051025e-02 -7.248936593532562256e-02 1.235465407371520996e-01
-4.033226519823074341e-02 -5.625384673476219177e-02 -6.564721465110778809e-02
-6.537499278783798218e-02 -7.738466560840606689e-02 1.338755711913108826e-02
1.249110251665115356e-01 -6.973070651292800903e-02 1.058655232191085815e-01
1.389694511890411377e-01 -4.856521263718605042e-02 1.690648198127746582e-01
5.413858592510223389e-02 -7.730612158775329590e-02 1.316880062222480774e-02
1.389184147119522095e-01 -6.636088341474533081e-02 -1.490123271942138672e-01
1.947129368782043457e-01 -5.516636371612548828e-02 4.452328011393547058e-02
2.400134876370429993e-02 -7.887579500675201416e-02 2.702319994568824768e-02
1.602128446102142334e-01 -5.843713507056236267e-02 1.891135126352310181e-01
1.255008578300476074e-01 -4.549414664506912231e-02 1.075808256864547729e-01
-1.416136324405670166e-02 -5.534370988607406616e-02 9.624055027961730957e-02
-2.447602152824401855e-02 -7.953859865665435791e-02 4.140127077698707581e-02
4.757093638181686401e-02 -7.753733545541763306e-02 5.561631545424461365e-02
4.672075062990188599e-02 -4.999653249979019165e-02 1.352970302104949951e-01
1.768553704023361206e-01 -6.181245669722557068e-02 1.503050327301025391e-03
2.187594771385192871e-02 -7.391391694545745850e-02 2.184936106204986572e-01
8.406992256641387939e-02 -7.438503205776214600e-02 9.606409072875976562e-02
1.653686761856079102e-01 -4.455275833606719971e-02 4.075921699404716492e-02
1.414481103420257568e-01 -5.349187552928924561e-02 2.190914154052734375e-01
1.572116613388061523e-01 -4.304949939250946045e-02 -3.494390845298767090e-02
-4.868160188198089600e-02 -6.361893564462661743e-02 1.276936233043670654e-01
5.589559674263000488e-02 -5.397900938987731934e-02 2.231293320655822754e-01
-5.736762285232543945e-02 -7.625880837440490723e-02 -1.491825282573699951e-01
1.828922927379608154e-01 -6.026890501379966736e-02 -1.446705125272274017e-02
1.071602106094360352e-01 -7.269810140132904053e-02 2.548294141888618469e-02
8.843912184238433838e-02 -4.473925381898880005e-02 -2.003906667232513428e-01
2.496347576379776001e-02 -5.921822041273117065e-02 2.452527880668640137e-01
1.208496987819671631e-01 -7.107932120561599731e-02 -1.370360329747200012e-02
-2.363345772027969360e-02 -5.678939074277877808e-02 -2.486532181501388550e-01
-6.563484668731689453e-03 -5.243887379765510559e-02 2.794960513710975647e-02
1.294631063938140869e-01 -4.459119588136672974e-02 -2.131875902414321899e-01
5.107037723064422607e-03 -5.001332238316535950e-02 -1.216851621866226196e-01
6.432295590639114380e-02 -4.708937555551528931e-02 -2.441986948251724243e-01
9.835745394229888916e-02 -7.333143055438995361e-02 -5.143474787473678589e-02
3.672593832015991211e-02 -5.310770124197006226e-02 -3.218558728694915771e-01
7.540372014045715332e-02 -4.606511816382408142e-02 7.262393832206726074e-02
-7.787891477346420288e-02 -6.691165268421173096e-02 1.224220544099807739e-02
-3.890633583068847656e-02 -6.019070371985435486e-02 -2.515466213226318359e-01
-5.068599432706832886e-02 -7.867093384265899658e-02 2.632639184594154358e-02
1.251705437898635864e-01 -4.451204463839530945e-02 7.580228149890899658e-02
4.017298668622970581e-02 -7.269426435232162476e-02 2.302289903163909912e-01
4.654126986861228943e-02 -6.731401383876800537e-02 -3.231306076049804688e-01
6.536155939102172852e-02 -5.208776518702507019e-02 2.053939551115036011e-01
1.362420320510864258e-01 -6.830408424139022827e-02 -8.448925614356994629e-02
1.649625003337860107e-01 -6.425999104976654053e-02 3.145945444703102112e-02
4.422723501920700073e-02 -7.785117626190185547e-02 3.630921617150306702e-02
7.149930298328399658e-02 -5.531821399927139282e-02 2.503039538860321045e-01
-5.966596305370330811e-03 -5.651424080133438110e-02 -2.943764030933380127e-01
-1.841187477111816406e-02 -5.472826957702636719e-02 5.702434107661247253e-02
-3.943048417568206787e-02 -5.910696834325790405e-02 8.371320366859436035e-02
1.126263141632080078e-01 -4.360675066709518433e-02 2.600869908928871155e-02
1.653968095779418945e-01 -6.316811591386795044e-02 -9.421512484550476074e-02
6.263690441846847534e-02 -7.374900579452514648e-02 1.864677816629409790e-01
4.325626045465469360e-02 -7.112812995910644531e-02 2.485122084617614746e-01
1.730806529521942139e-01 -6.010770052671432495e-02 -1.366520673036575317e-01
9.711138904094696045e-02 -7.214242964982986450e-02 1.437863707542419434e-01
7.957226783037185669e-02 -4.396275058388710022e-02 -1.046549975872039795e-01
-1.717928797006607056e-03 -7.738464325666427612e-02 -1.648180186748504639e-01
5.071286484599113464e-02 -4.576192051172256470e-02 -6.428523361682891846e-02
-1.317317038774490356e-02 -5.884077399969100952e-02 1.708659529685974121e-01
7.317624986171722412e-02 -4.683553427457809448e-02 9.623964130878448486e-02
9.645086526870727539e-02 -4.565747827291488647e-02 9.362189471721649170e-02
5.107574164867401123e-02 -4.820044338703155518e-02 -2.516497671604156494e-01
1.053138077259063721e-01 -4.582865536212921143e-02 -2.492085099220275879e-01
8.485993742942810059e-02 -4.938445240259170532e-02 -3.083991408348083496e-01
-5.377560853958129883e-02 -7.200597971677780151e-02 1.495307981967926025e-01
1.868454813957214355e-01 -5.892566218972206116e-02 2.838369086384773254e-02
1.234419941902160645e-01 -4.256811738014221191e-02 -5.863920971751213074e-02
-3.618113696575164795e-03 -6.193406879901885986e-02 2.257652282714843750e-01
3.749912604689598083e-02 -5.100657418370246887e-02 -2.913295924663543701e-01
8.413766324520111084e-02 -7.485157251358032227e-02 -3.193390369415283203e-02
-4.645871371030807495e-02 -7.439054548740386963e-02 -2.112043499946594238e-01
8.440785109996795654e-03 -7.313555479049682617e-02 2.273473143577575684e-01
9.645369648933410645e-02 -4.702272266149520874e-02 1.338305622339248657e-01
5.362290516495704651e-02 -4.573502391576766968e-02 -1.397401690483093262e-01
1.907504498958587646e-01 -5.167596787214279175e-02 8.844268321990966797e-02
3.959527239203453064e-02 -4.667326807975769043e-02 -5.442293360829353333e-02
1.052025854587554932e-01 -6.815478205680847168e-02 2.168519496917724609e-01
1.863943934440612793e-01 -5.801153555512428284e-02 7.074114680290222168e-02
6.061447039246559143e-02 -4.512480646371841431e-02 -5.171906203031539917e-02
7.409594953060150146e-03 -5.611300468444824219e-02 -3.153944611549377441e-01
6.144664064049720764e-02 -4.967612028121948242e-02 -2.987067401409149170e-01
1.612499803304672241e-01 -4.655584320425987244e-02 1.079827696084976196e-01
1.155878901481628418e-01 -6.792467087507247925e-02 -1.986166983842849731e-01
1.397485733032226562e-01 -4.406181722879409790e-02 -1.881577670574188232e-01
1.487553417682647705e-01 -4.653123766183853149e-02 1.234874427318572998e-01
8.246330171823501587e-02 -7.336700707674026489e-02 -1.400560885667800903e-01
-2.161031961441040039e-02 -7.969409227371215820e-02 2.641917392611503601e-02
1.998726725578308105e-01 -5.027635022997856140e-02 -1.071828790009021759e-02
2.648182585835456848e-02 -7.042889297008514404e-02 -2.971046864986419678e-01
1.741571128368377686e-01 -6.220138445496559143e-02 -4.209870845079421997e-02
-6.721514463424682617e-02 -7.701802253723144531e-02 -7.730428129434585571e-02
4.403830319643020630e-02 -7.621715962886810303e-02 -1.413590162992477417e-01
5.967641621828079224e-02 -7.519136369228363037e-02 1.493238061666488647e-01
1.205300092697143555e-01 -7.097935676574707031e-02 5.602819845080375671e-02
-2.557428926229476929e-02 -6.510704755783081055e-02 2.056672424077987671e-01
1.093362122774124146e-01 -7.159738987684249878e-02 1.090808808803558350e-01
-2.166061103343963623e-02 -5.331260710954666138e-02 -9.820005297660827637e-02
1.065954715013504028e-01 -4.287564381957054138e-02 -8.997163176536560059e-02
-3.333973884582519531e-02 -5.748500674962997437e-02 6.991204619407653809e-02
1.714538782835006714e-02 -4.866175726056098938e-02 -7.122389972209930420e-02
1.058094352483749390e-01 -6.495919823646545410e-02 2.521708011627197266e-01
-4.186419397592544556e-02 -6.057900562882423401e-02 1.054630726575851440e-01
1.565738022327423096e-02 -4.941543191671371460e-02 -1.734256595373153687e-01
1.992475688457489014e-01 -4.948344454169273376e-02 -4.246266558766365051e-02
1.703550964593887329e-01 -4.621260985732078552e-02 8.148922026157379150e-02
-1.321715861558914185e-02 -7.518425583839416504e-02 -2.249748855829238892e-01
7.185941934585571289e-02 -4.533514380455017090e-02 -1.927613466978073120e-01
1.269206404685974121e-01 -6.662327051162719727e-02 1.889509111642837524e-01
1.909359171986579895e-02 -5.503813922405242920e-02 1.841107755899429321e-01
-4.203624278306961060e-02 -7.926566153764724731e-02 1.361355930566787720e-02
1.056520640850067139e-01 -7.230653613805770874e-02 9.154856204986572266e-02
2.141680568456649780e-03 -5.367376282811164856e-02 -2.668964266777038574e-01
6.083630397915840149e-02 -7.539071887731552124e-02 -1.287733912467956543e-01
1.560394167900085449e-01 -4.499905928969383240e-02 7.495866715908050537e-02
1.302697211503982544e-01 -4.687160998582839966e-02 -2.612729072570800781e-01
6.498064100742340088e-02 -7.604442536830902100e-02 -7.192519307136535645e-02
1.238002926111221313e-01 -7.073167711496353149e-02 2.797022834420204163e-02
7.568176835775375366e-02 -4.420350492000579834e-02 -5.415092408657073975e-02
-3.441460430622100830e-03 -6.018666923046112061e-02 -3.300605714321136475e-01
2.440597862005233765e-02 -4.823787510395050049e-02 -1.494628489017486572e-01
1.753070652484893799e-01 -6.158051639795303345e-02 -6.678979098796844482e-02
2.513714134693145752e-03 -7.914025336503982544e-02 7.151232659816741943e-02
-1.972528547048568726e-02 -7.937973737716674805e-02 6.011467054486274719e-02
1.942021548748016357e-01 -5.399949103593826294e-02 -1.027146130800247192e-01
4.009775072336196899e-02 -7.637295126914978027e-02 1.476911604404449463e-01
1.091109961271286011e-02 -4.939721897244453430e-02 -5.117978900671005249e-02
8.897253870964050293e-02 -4.868242144584655762e-02 1.657898277044296265e-01
1.294718533754348755e-01 -4.321782290935516357e-02 1.667517051100730896e-02
3.990624099969863892e-03 -5.261090025305747986e-02 8.634829521179199219e-02
7.290494441986083984e-02 -7.590574771165847778e-02 -1.186477765440940857e-02
1.152922809123992920e-01 -4.285955801606178284e-02 -1.241704672574996948e-01
4.547493904829025269e-02 -4.674517363309860229e-02 -1.744772791862487793e-01
-1.593429595232009888e-02 -5.961772054433822632e-02 -3.060106337070465088e-01
1.653020381927490234e-01 -4.433330893516540527e-02 -1.453013569116592407e-01
1.670212671160697937e-02 -6.245779618620872498e-02 -3.518872261047363281e-01
6.069618836045265198e-02 -7.664337009191513062e-02 -4.413966462016105652e-02
-2.088428288698196411e-02 -6.195881590247154236e-02 1.910774111747741699e-01
1.054602488875389099e-02 -7.922456413507461548e-02 -4.346523433923721313e-02
1.074874550104141235e-01 -4.689189419150352478e-02 -2.717637717723846436e-01
9.107317030429840088e-02 -4.370927810668945312e-02 -1.429741978645324707e-01
3.335975483059883118e-02 -5.416613072156906128e-02 1.957877874374389648e-01
1.217552796006202698e-01 -4.553996771574020386e-02 -2.411867976188659668e-01
6.965979933738708496e-02 -7.411538809537887573e-02 -1.539704352617263794e-01
8.314114063978195190e-03 -5.740029364824295044e-02 1.989342421293258667e-01
7.569873332977294922e-02 -7.014286518096923828e-02 -2.480043619871139526e-01
-6.076284497976303101e-02 -7.812485843896865845e-02 -3.178776428103446960e-02
9.420085698366165161e-02 -4.331817105412483215e-02 -1.045081615447998047e-01
1.023490428924560547e-01 -7.311393320560455322e-02 -2.709261327981948853e-02
-4.455662518739700317e-02 -7.849273830652236938e-02 -9.801484644412994385e-02
3.966992348432540894e-02 -7.815513014793395996e-02 -7.409512996673583984e-03
1.829555928707122803e-01 -4.651596397161483765e-02 4.707103595137596130e-02
9.361745417118072510e-02 -4.374605789780616760e-02 -6.229937076568603516e-03
3.581645339727401733e-02 -7.801788300275802612e-02 7.204960286617279053e-02
1.130855381488800049e-01 -7.117122411727905273e-02 -9.251334518194198608e-02
-3.512712568044662476e-02 -5.551414191722869873e-02 -4.351317137479782104e-02
-5.230706185102462769e-02 -6.830568611621856689e-02 -2.545067369937896729e-01
1.588976085186004639e-01 -4.303313419222831726e-02 -6.115475669503211975e-02
3.416035324335098267e-02 -5.138412117958068848e-02 1.423231363296508789e-01
7.888814061880111694e-02 -7.407934218645095825e-02 -1.225291043519973755e-01
-2.165816724300384521e-03 -5.075959861278533936e-02 -8.551424741744995117e-02
2.976438961923122406e-02 -4.961824044585227966e-02 7.807227969169616699e-02
-1.882830262184143066e-02 -5.303118005394935608e-02 -1.235765218734741211e-01
1.204563751816749573e-01 -6.531095504760742188e-02 -2.391538172960281372e-01
-2.425962686538696289e-02 -5.396170914173126221e-02 -3.026090934872627258e-02
1.374599188566207886e-01 -6.582149863243103027e-02 -1.714326590299606323e-01
-7.480875402688980103e-02 -7.608149200677871704e-02 -1.416745036840438843e-02
1.881953179836273193e-01 -5.789911746978759766e-02 -7.310870289802551270e-02
6.467904895544052124e-02 -7.214888185262680054e-02 -2.245621979236602783e-01
6.144575774669647217e-03 -7.677613943815231323e-02 -1.796849966049194336e-01
1.225045844912528992e-01 -6.648169457912445068e-02 2.035832703113555908e-01
1.008196473121643066e-01 -6.952421367168426514e-02 -2.037329077720642090e-01
5.191031843423843384e-02 -5.184667930006980896e-02 1.846364587545394897e-01
-7.785049825906753540e-02 -6.664706766605377197e-02 -1.324265301227569580e-01
1.643504798412322998e-01 -5.995112657546997070e-02 1.638179570436477661e-01
5.796334892511367798e-02 -6.513011455535888672e-02 -3.360136449337005615e-01
1.943094655871391296e-02 -4.929430782794952393e-02 -1.889732778072357178e-01
-7.249770313501358032e-02 -6.843210756778717041e-02 -1.845231801271438599e-01
-6.526682525873184204e-02 -6.138227880001068115e-02 -7.163003087043762207e-02
-3.568636626005172729e-02 -7.955819368362426758e-02 -2.712618559598922729e-03
1.701366305351257324e-01 -4.374817013740539551e-02 -7.948268949985504150e-02
1.117379665374755859e-01 -5.133382976055145264e-02 2.167700231075286865e-01
9.668664634227752686e-02 -5.306231230497360229e-02 2.359567880630493164e-01
-2.268680930137634277e-02 -5.424337089061737061e-02 6.902735680341720581e-03
1.502037346363067627e-01 -6.167916208505630493e-02 -2.105447202920913696e-01
9.714666008949279785e-02 -7.172453403472900391e-02 1.579896956682205200e-01
1.059374287724494934e-01 -6.724099814891815186e-02 -2.405358850955963135e-01
1.294767856597900391e-01 -6.901885569095611572e-02 -9.724282473325729370e-02
1.340482011437416077e-02 -5.317787081003189087e-02 -2.851763665676116943e-01
1.139706671237945557e-01 -4.329841583967208862e-02 -1.593112945556640625e-01
1.625899598002433777e-02 -7.512079179286956787e-02 -2.177349328994750977e-01
1.332983747124671936e-02 -5.022959411144256592e-02 3.364532813429832458e-02
1.460876464843750000e-01 -4.377026483416557312e-02 4.010630026459693909e-02
6.413449347019195557e-02 -4.593373090028762817e-02 3.546624258160591125e-02
9.175777435302734375e-03 -7.805941998958587646e-02 -1.282033771276473999e-01
1.521663963794708252e-01 -4.311476647853851318e-02 -8.629918098449707031e-03
-1.628472656011581421e-02 -7.978450506925582886e-02 -2.252566069364547729e-02
9.364353120326995850e-02 -4.769264906644821167e-02 -2.846786975860595703e-01
1.271704435348510742e-01 -4.266088828444480896e-02 -1.138097792863845825e-01
-1.317157596349716187e-02 -7.817674428224563599e-02 1.217131465673446655e-01
3.818281739950180054e-02 -7.373352348804473877e-02 2.149092257022857666e-01
9.452969580888748169e-02 -7.399225980043411255e-02 -8.606802672147750854e-03
-2.859231084585189819e-02 -5.503642559051513672e-02 -1.675267368555068970e-01
8.652758598327636719e-02 -7.090944051742553711e-02 2.055031359195709229e-01
4.273872822523117065e-02 -4.642261937260627747e-02 -1.215722709894180298e-01
-5.162087827920913696e-02 -7.537398487329483032e-02 -1.835881620645523071e-01
9.573259949684143066e-02 -4.337298125028610229e-02 -3.697798773646354675e-02
1.130627840757369995e-01 -4.402180016040802002e-02 4.814641550183296204e-02
-6.865225732326507568e-03 -7.956301420927047729e-02 4.353071376681327820e-02
-3.842912614345550537e-03 -5.119193717837333679e-02 -1.387355327606201172e-01
1.696560382843017578e-01 -6.207894906401634216e-02 9.708245098590850830e-02
7.086404412984848022e-02 -4.794926568865776062e-02 1.261116117238998413e-01
-5.075522512197494507e-02 -7.889671623706817627e-02 -6.803587079048156738e-03
1.026010513305664062e-01 -4.883866012096405029e-02 1.774378865957260132e-01
1.363651156425476074e-01 -6.420920789241790771e-02 2.003530263900756836e-01
9.645722806453704834e-03 -6.451746821403503418e-02 2.578887045383453369e-01
4.573238641023635864e-02 -7.557208836078643799e-02 -1.627455055713653564e-01
-2.580651640892028809e-02 -7.460289448499679565e-02 1.839150786399841309e-01
-2.179729938507080078e-02 -7.702545076608657837e-02 -1.776503473520278931e-01
4.592718929052352905e-02 -7.339198887348175049e-02 -2.261778712272644043e-01
-5.102320760488510132e-02 -5.878369137644767761e-02 -9.671179577708244324e-03
1.706015169620513916e-01 -6.312937289476394653e-02 -2.438976615667343140e-02
1.501242965459823608e-01 -4.768414050340652466e-02 1.448745280504226685e-01
1.862789392471313477e-01 -5.313789844512939453e-02 1.139551252126693726e-01
6.574006378650665283e-02 -7.577201724052429199e-02 -8.767563849687576294e-02
2.315922826528549194e-02 -4.812549427151679993e-02 -1.196243464946746826e-01
1.623093485832214355e-01 -4.377724975347518921e-02 1.070531457662582397e-02
4.614878445863723755e-02 -7.644947618246078491e-02 -1.250763088464736938e-01
4.553271830081939697e-02 -4.653476923704147339e-02 -1.593648046255111694e-01
1.157082617282867432e-03 -6.933620572090148926e-02 -3.115099072456359863e-01
-4.628669470548629761e-02 -5.753219872713088989e-02 -3.484154492616653442e-02
9.137196093797683716e-02 -7.182897627353668213e-02 -1.657578498125076294e-01
7.968744635581970215e-02 -5.102923512458801270e-02 2.014194726943969727e-01
5.235504359006881714e-03 -5.391325056552886963e-02 1.271059662103652954e-01
1.532170176506042480e-01 -4.284377396106719971e-02 -8.095223456621170044e-02
5.713919922709465027e-02 -4.571495950222015381e-02 -9.949371218681335449e-03
7.960386574268341064e-02 -4.415693134069442749e-02 -2.947580441832542419e-02
3.668989986181259155e-03 -5.279910564422607422e-02 -2.513191699981689453e-01
7.444857805967330933e-02 -6.793920695781707764e-02 -2.878363132476806641e-01
5.616069212555885315e-02 -5.162571370601654053e-02 -3.223186135292053223e-01
4.146257042884826660e-02 -7.085675746202468872e-02 -2.809199094772338867e-01
1.843845844268798828e-01 -4.620792344212532043e-02 -1.207365542650222778e-01
3.106420300900936127e-02 -4.949586838483810425e-02 -2.416534721851348877e-01
-2.156696468591690063e-02 -5.540069192647933960e-02 -2.240306735038757324e-01
-4.688252508640289307e-02 -7.801808416843414307e-02 -1.156000047922134399e-01
8.176990598440170288e-02 -7.413322478532791138e-02 1.217163801193237305e-01
9.903024137020111084e-02 -7.344926148653030396e-02 4.958108440041542053e-02
4.781425371766090393e-02 -7.666213065385818481e-02 -1.087671518325805664e-01
1.019023954868316650e-01 -4.409187287092208862e-02 -1.898159384727478027e-01
-1.098858565092086792e-02 -5.248595774173736572e-02 -1.688424944877624512e-01
1.053419262170791626e-01 -4.318623244762420654e-02 -1.997616142034530640e-02
4.704460501670837402e-02 -4.736597090959548950e-02 -2.128918915987014771e-01
1.094243824481964111e-01 -4.280360788106918335e-02 -6.658728420734405518e-02
8.328399062156677246e-02 -5.783176422119140625e-02 2.716419100761413574e-01
1.143183410167694092e-01 -7.131350785493850708e-02 -7.413070648908615112e-02
-2.877542376518249512e-02 -6.125885993242263794e-02 1.622439026832580566e-01
9.528578817844390869e-02 -4.509740322828292847e-02 7.143284380435943604e-02
3.769769519567489624e-02 -7.794243842363357544e-02 -5.908942222595214844e-02
-2.920479327440261841e-02 -6.143428757786750793e-02 -2.913826406002044678e-01
1.327254772186279297e-01 -6.502726674079895020e-02 -2.079864740371704102e-01
-5.254141241312026978e-02 -5.940843746066093445e-02 -1.612609922885894775e-01
4.170916974544525146e-02 -6.269940733909606934e-02 -3.563323020935058594e-01
1.836563646793365479e-01 -5.888048186898231506e-02 -8.935044705867767334e-02
-5.737312138080596924e-02 -5.963785201311111450e-02 -1.078600287437438965e-01
2.861664257943630219e-02 -7.593279331922531128e-02 -1.815904378890991211e-01
7.749040424823760986e-02 -7.461809366941452026e-02 -1.005519032478332520e-01
-3.189316391944885254e-02 -5.633684620261192322e-02 -1.991245895624160767e-01
1.542916521430015564e-02 -5.331116914749145508e-02 1.417081654071807861e-01
3.735662251710891724e-02 -4.853729158639907837e-02 -2.282452136278152466e-01
-2.077935636043548584e-02 -5.328375846147537231e-02 -5.178896710276603699e-02
-6.557467579841613770e-02 -6.225702166557312012e-02 -2.260964363813400269e-03
1.891114413738250732e-01 -5.140249058604240417e-02 -1.525621265172958374e-01
5.874951556324958801e-02 -7.296358793973922729e-02 2.095833271741867065e-01
5.512256175279617310e-02 -7.463403046131134033e-02 -1.742929965257644653e-01
4.153126478195190430e-02 -4.643008857965469360e-02 -9.267164021730422974e-02
1.562749594449996948e-02 -5.095817521214485168e-02 7.501590251922607422e-02
1.345514655113220215e-01 -4.757400229573249817e-02 1.543088555335998535e-01
6.583136320114135742e-02 -6.762915104627609253e-02 -3.029232919216156006e-01
9.426318109035491943e-02 -5.030696094036102295e-02 -3.197226524353027344e-01
1.538695394992828369e-01 -5.945495143532752991e-02 -2.301168888807296753e-01
1.451440304517745972e-01 -6.742709875106811523e-02 6.593094766139984131e-02
9.134019911289215088e-02 -4.338873177766799927e-02 -8.256752789020538330e-02
1.608486324548721313e-01 -6.513696163892745972e-02 2.318911254405975342e-03
1.446334719657897949e-01 -4.950917139649391174e-02 -2.735209763050079346e-01
1.666930317878723145e-01 -6.252073496580123901e-02 -1.090969741344451904e-01
1.295851767063140869e-01 -6.859419494867324829e-02 -1.168259382247924805e-01
-3.709550946950912476e-03 -5.144536495208740234e-02 -1.088546961545944214e-02
1.623121500015258789e-01 -4.489912092685699463e-02 6.083633378148078918e-02
-6.930818408727645874e-02 -6.783907860517501831e-02 8.484029769897460938e-02
1.879124343395233154e-02 -7.160087674856185913e-02 -2.837133705615997314e-01
3.877865523099899292e-02 -7.765428721904754639e-02 -7.884916663169860840e-02
1.743328571319580078e-01 -4.440840333700180054e-02 -1.596186310052871704e-03
5.418358370661735535e-02 -4.990714788436889648e-02 1.476192325353622437e-01
-3.915187716484069824e-02 -5.681103467941284180e-02 4.066865891218185425e-03
7.532481849193572998e-02 -4.467476904392242432e-02 -2.042036503553390503e-03
-6.041005253791809082e-03 -5.556558072566986084e-02 -2.801896929740905762e-01
-1.721945405006408691e-02 -5.424000322818756104e-02 -2.087983638048171997e-01
2.095595747232437134e-02 -5.092798173427581787e-02 -2.543505430221557617e-01
1.394111216068267822e-01 -6.759653240442276001e-02 1.078817993402481079e-01
1.562207639217376709e-01 -6.348473578691482544e-02 -1.455392241477966309e-01
-6.360076367855072021e-03 -7.902008295059204102e-02 -9.442695230245590210e-02
9.996226429939270020e-02 -4.472615942358970642e-02 -2.140162140130996704e-01
1.585699319839477539e-01 -4.390443488955497742e-02 2.758784219622612000e-02
-1.874081790447235107e-04 -5.072094872593879700e-02 -3.973513096570968628e-02
-5.226709693670272827e-02 -6.259566545486450195e-02 -2.321080863475799561e-01
3.714732825756072998e-02 -5.292507633566856384e-02 1.807556003332138062e-01
1.207282692193984985e-01 -4.409610852599143982e-02 -1.997342705726623535e-01
3.061956726014614105e-02 -7.683311402797698975e-02 -1.457173377275466919e-01
8.077773451805114746e-02 -7.477848231792449951e-02 -7.060122489929199219e-02
-2.091097086668014526e-02 -7.751552015542984009e-02 -1.629038453102111816e-01
-1.147635281085968018e-02 -7.472395896911621094e-02 1.970281004905700684e-01
3.266417980194091797e-02 -7.330662012100219727e-02 -2.442321032285690308e-01
-3.864994645118713379e-02 -5.728904157876968384e-02 3.070906177163124084e-02
4.947353154420852661e-02 -4.966452717781066895e-02 -2.839485704898834229e-01
-3.596930205821990967e-02 -7.744215428829193115e-02 1.188113838434219360e-01
-6.122119724750518799e-02 -7.692512869834899902e-02 -1.151896566152572632e-01
1.479094922542572021e-01 -5.271486192941665649e-02 2.062676697969436646e-01
8.594866096973419189e-02 -4.970855638384819031e-02 1.834872364997863770e-01
1.513733714818954468e-02 -5.932500585913658142e-02 2.329629063606262207e-01
5.359957367181777954e-02 -7.190312445163726807e-02 -2.481557577848434448e-01
-8.209379762411117554e-02 -6.733440607786178589e-02 -5.133022367954254150e-02
7.455302774906158447e-02 -7.546212524175643921e-02 7.553131878376007080e-02
1.171940863132476807e-01 -6.860949844121932983e-02 1.775287240743637085e-01
1.200366541743278503e-01 -4.259463399648666382e-02 -8.572244644165039062e-02
1.897825300693511963e-01 -5.817262083292007446e-02 5.821969360113143921e-03
1.105840355157852173e-01 -7.232465595006942749e-02 -1.190666109323501587e-03
-6.860067695379257202e-02 -6.244067102670669556e-02 -4.074227809906005859e-02
-6.738906353712081909e-02 -6.233730167150497437e-02 -2.351673319935798645e-02
1.829200387001037598e-01 -4.643714800477027893e-02 -1.355979740619659424e-01
1.714312136173248291e-01 -4.879954457283020020e-02 1.278399527072906494e-01
7.864287495613098145e-02 -7.246707379817962646e-02 1.871717274188995361e-01
7.435250282287597656e-02 -5.995327979326248169e-02 -3.546808362007141113e-01
1.110042557120323181e-01 -4.581206664443016052e-02 1.117201447486877441e-01
4.623071849346160889e-02 -5.127066001296043396e-02 -3.079055547714233398e-01
6.559087336063385010e-02 -7.323119044303894043e-02 -1.941072940826416016e-01
1.349065303802490234e-01 -4.480687528848648071e-02 8.594663441181182861e-02
-9.428009390830993652e-03 -7.977546751499176025e-02 -9.132485836744308472e-03
